ply
format ascii 1.0
comment Seamless Cloth Simulation with High Geometric Fidelity 
comment Tue May  7 09:18:58 2019
element vertex 994
property float x
property float y
property float z
property float quality
property uchar red
property uchar green
property uchar blue
end_header
0.600331 -0.465171 5.83439 0.997101 255 0 255 
0.618869 -0.558849 5.84668 0.996726 255 0 255 
0.595807 -0.58673 5.84359 0.996789 255 0 255 
0.605792 -0.529164 5.84163 0.997893 255 0 255 
0.582378 -0.55839 5.83909 0.997895 255 0 255 
0.569311 -0.528559 5.83224 0.998165 255 0 255 
0.559854 -0.584541 5.83692 0.998144 255 0 255 
0.592373 -0.498317 5.83581 0.998093 255 0 255 
0.612432 -0.497274 5.84148 0.997813 255 0 255 
0.632598 -0.496593 5.84691 0.997383 255 0 255 
0.625558 -0.528213 5.8466 0.997607 255 0 255 
0.545621 -0.557703 5.83119 0.998385 255 0 255 
0.524692 -0.581709 5.82973 0.998589 255 0 255 
0.530806 -0.529239 5.82377 0.998695 255 0 255 
0.51081 -0.555591 5.82242 0.998558 255 0 255 
0.496689 -0.528115 5.81352 0.99877 255 0 255 
0.490027 -0.57859 5.82073 0.998686 255 0 255 
0.517136 -0.500143 5.81421 0.99871 255 0 255 
0.53565 -0.499616 5.81994 0.998677 255 0 255 
0.555043 -0.499229 5.82434 0.998233 255 0 255 
0.549912 -0.529046 5.82784 0.998582 255 0 255 
0.501169 -0.604282 5.83325 0.997261 255 0 255 
0.512208 -0.629032 5.84389 0.995867 255 0 255 
0.536238 -0.607581 5.84095 0.998014 255 0 255 
0.54759 -0.632848 5.85074 0.997184 255 0 255 
0.523212 -0.653743 5.85215 0.996267 255 0 255 
0.534287 -0.678594 5.858 0.997759 255 0 255 
0.501291 -0.673966 5.84955 0.997465 255 0 255 
0.49014 -0.649698 5.84259 0.996469 255 0 255 
0.479041 -0.625224 5.83413 0.996189 255 0 255 
0.469127 -0.669939 5.83899 0.997203 255 0 255 
0.57078 -0.611717 5.84727 0.998361 255 0 255 
0.581474 -0.638413 5.85637 0.99821 255 0 255 
0.606169 -0.614834 5.85282 0.997952 255 0 255 
0.575334 -0.662261 5.85999 0.997975 255 0 255 
0.568187 -0.68538 5.86216 0.998058 255 0 255 
0.538007 -0.747975 5.88505 0.994857 255 0 255 
0.547952 -0.727068 5.87801 0.995909 255 0 255 
0.51626 -0.718504 5.87325 0.995986 255 0 255 
0.506952 -0.739559 5.88039 0.99511 255 0 255 
0.541705 -0.702327 5.86841 0.997189 255 0 255 
0.575099 -0.710236 5.87172 0.997134 255 0 255 
0.476836 -0.734104 5.87433 0.995399 255 0 255 
0.48432 -0.712871 5.86672 0.995341 255 0 255 
0.454215 -0.708655 5.85689 0.996568 255 0 255 
0.446819 -0.729282 5.86668 0.996336 255 0 255 
0.476939 -0.691425 5.85322 0.996789 255 0 255 
0.509111 -0.695748 5.86272 0.996509 255 0 255 
0.623845 -1.01546 6.68223 0.998907 255 0 255 
0.637192 -1.0097 6.69362 0.998219 255 0 255 
0.633671 -1.02305 6.6642 0.999204 255 0 255 
0.646697 -1.01721 6.67559 0.998746 255 0 255 
0.656455 -1.02458 6.65763 0.999227 255 0 255 
0.643113 -1.03033 6.64595 0.999384 255 0 255 
0.659952 -1.01287 6.68726 0.998789 255 0 255 
0.669534 -1.02015 6.66936 0.999011 255 0 255 
0.683101 -1.01713 6.68144 0.998388 255 0 255 
0.668094 -1.00641 6.70757 0.998246 255 0 255 
0.644933 -1.00182 6.7134 0.998141 255 0 255 
0.663201 -1.0447 6.61222 0.998604 255 0 255 
0.673176 -1.03576 6.63517 0.999092 255 0 255 
0.67539 -1.05323 6.58977 0.996511 255 0 255 
0.685027 -1.04443 6.61285 0.997979 255 0 255 
0.697378 -1.05271 6.59033 0.995708 255 0 255 
0.687639 -1.06127 6.56721 0.993644 255 0 255 
0.695377 -1.03714 6.63601 0.997777 255 0 255 
0.707494 -1.04551 6.61356 0.996173 255 0 255 
0.717609 -1.03975 6.63656 0.993996 255 0 255 
0.700482 -1.02866 6.65932 0.996503 255 0 255 
0.77181 -0.995282 6.70017 0.999633 255 0 255 
0.746886 -1.00007 6.69422 0.999497 255 0 255 
0.757367 -0.98798 6.71346 0.999636 255 0 255 
0.724708 -1.00484 6.68944 0.998744 255 0 255 
0.733176 -0.992476 6.70754 0.999048 255 0 255 
0.711091 -0.997207 6.70269 0.997875 255 0 255 
0.743036 -0.9804 6.72637 0.999227 255 0 255 
0.70371 -1.01048 6.68532 0.998034 255 0 255 
0.721411 -1.02182 6.66318 0.997705 255 0 255 
0.742334 -1.01586 6.66692 0.999051 255 0 255 
0.718585 -0.983583 6.72714 0.998536 255 0 255 
0.731962 -0.973802 6.74193 0.998874 255 0 255 
0.695843 -0.986761 6.72858 0.997568 255 0 255 
0.707782 -0.976668 6.74256 0.998118 255 0 255 
0.681706 -0.996052 6.71782 0.997679 255 0 255 
0.788651 -0.978357 6.71104 0.999502 255 0 255 
0.768123 -0.968255 6.72794 0.998501 255 0 255 
0.751602 -0.958578 6.74698 0.997232 255 0 255 
0.768215 -1.00939 6.67531 0.999548 255 0 255 
0.765938 -1.02355 6.65121 0.99894 255 0 255 
0.740965 -1.03114 6.64357 0.997442 255 0 255 
0.739634 -1.04691 6.62018 0.993255 255 0 255 
0.764204 -1.03818 6.62753 0.997175 255 0 255 
0.762494 -1.05325 6.60378 0.992825 255 0 255 
0.783218 -1.02834 6.6398 0.998563 255 0 255 
0.786289 -1.01436 6.66445 0.99935 255 0 255 
0.790564 -1.00057 6.68996 0.999464 255 0 255 
0.808827 -1.00568 6.6791 0.999272 255 0 255 
0.725476 -1.04903 6.60492 0.995271 255 0 255 
0.715595 -1.05542 6.58189 0.994447 255 0 255 
0.734019 -1.058 6.57338 0.994598 255 0 255 
0.705586 -1.06308 6.55871 0.992981 255 0 255 
0.723862 -1.06489 6.55023 0.993102 255 0 255 
0.713298 -1.07353 6.52714 0.988056 255 0 255 
0.695293 -1.07238 6.53558 0.986894 255 0 255 
0.742038 -1.06666 6.5416 0.993889 255 0 255 
0.731315 -1.07462 6.51856 0.98884 255 0 255 
0.749195 -1.07583 6.50988 0.98984 255 0 255 
0.756287 -1.0629 6.55679 0.994947 255 0 255 
0.747853 -1.05499 6.58844 0.995114 255 0 255 
0.802852 -1.07725 6.4882 0.989915 255 0 255 
0.804973 -1.07105 6.5112 0.993383 255 0 255 
0.795418 -1.06517 6.5401 0.994978 255 0 255 
0.796858 -1.06081 6.56348 0.995866 255 0 255 
0.786377 -1.05609 6.59289 0.993825 255 0 255 
0.809812 -1.05857 6.58119 0.993379 255 0 255 
0.773271 -1.05895 6.57472 0.995116 255 0 255 
0.766368 -1.06926 6.52786 0.993966 255 0 255 
0.775955 -1.07634 6.49917 0.990573 255 0 255 
0.817805 -1.0465 6.60042 0.997042 255 0 255 
0.817626 -1.03343 6.62491 0.998296 255 0 255 
0.827119 -1.02218 6.6454 0.998922 255 0 255 
0.807939 -1.01911 6.65387 0.999093 255 0 255 
0.78454 -1.04216 6.61614 0.996944 255 0 255 
0.896072 -1.05641 6.55874 0.99829 255 0 255 
0.885157 -1.05885 6.53747 0.998018 255 0 255 
0.893721 -1.06 6.51445 0.998324 255 0 255 
0.892208 -1.06293 6.49213 0.997194 255 0 255 
0.900094 -1.06545 6.4697 0.995716 255 0 255 
0.881893 -1.06848 6.47146 0.994229 255 0 255 
0.912045 -1.06025 6.49088 0.99798 255 0 255 
0.919777 -1.06237 6.46833 0.996999 255 0 255 
0.913011 -1.05796 6.51194 0.998493 255 0 255 
0.913918 -1.05647 6.53335 0.998435 255 0 255 
0.930512 -1.05867 6.48862 0.998144 255 0 255 
0.938725 -1.06019 6.46771 0.997693 255 0 255 
0.93004 -1.01247 6.2982 0.997026 255 0 255 
0.913281 -1.02695 6.32323 0.996752 255 0 255 
0.90504 -1.03852 6.3481 0.996131 255 0 255 
0.887527 -1.05238 6.37361 0.993991 255 0 255 
0.905843 -1.04831 6.37263 0.995644 255 0 255 
0.88646 -1.04334 6.34869 0.994961 255 0 255 
0.868621 -1.05677 6.37395 0.992718 255 0 255 
0.894056 -1.03169 6.32257 0.995618 255 0 255 
0.901123 -1.01999 6.29668 0.996134 255 0 255 
0.900563 -1.05191 6.3973 0.996811 255 0 255 
0.886133 -1.05792 6.42362 0.997102 255 0 255 
0.879471 -1.06322 6.44826 0.996781 255 0 255 
0.863557 -1.07103 6.47426 0.99281 255 0 255 
0.861699 -1.0663 6.451 0.995656 255 0 255 
0.845573 -1.07404 6.47687 0.990048 255 0 255 
0.867885 -1.06118 6.42545 0.996821 255 0 255 
0.873046 -1.0573 6.39958 0.996155 255 0 255 
0.809013 -1.07146 6.46116 0.995809 255 0 255 
0.826124 -1.06592 6.43283 0.997289 255 0 255 
0.830614 -1.06284 6.40552 0.997472 255 0 255 
0.846211 -1.05967 6.37677 0.994773 255 0 255 
0.823821 -1.06319 6.37942 0.99338 255 0 255 
0.852949 -1.06022 6.4026 0.996723 255 0 255 
0.848144 -1.06383 6.42878 0.996472 255 0 255 
0.841967 -1.06855 6.45444 0.995375 255 0 255 
0.824254 -1.07546 6.4828 0.990012 255 0 255 
0.831826 -1.05257 6.35148 0.994017 255 0 255 
0.850702 -1.04024 6.32407 0.994466 255 0 255 
0.857792 -1.02935 6.29658 0.993953 255 0 255 
0.880157 -1.02481 6.2971 0.995398 255 0 255 
0.873218 -1.03598 6.32321 0.995481 255 0 255 
0.865712 -1.0471 6.34925 0.995405 255 0 255 
0.874221 -1.06519 6.49522 0.996615 255 0 255 
0.875082 -1.06186 6.51706 0.997703 255 0 255 
0.867368 -1.05979 6.54154 0.997467 255 0 255 
0.868116 -1.05774 6.56419 0.997507 255 0 255 
0.85008 -1.0588 6.56816 0.995459 255 0 255 
0.848477 -1.0614 6.54454 0.996588 255 0 255 
0.85675 -1.06354 6.52042 0.996864 255 0 255 
0.85521 -1.06758 6.4977 0.995264 255 0 255 
0.885584 -1.04658 6.58215 0.998739 255 0 255 
0.864942 -1.03708 6.60799 0.998511 255 0 255 
0.866446 -1.04758 6.58603 0.998402 255 0 255 
0.847926 -1.0241 6.63819 0.998951 255 0 255 
0.837624 -1.03513 6.61741 0.998066 255 0 255 
0.838534 -1.04693 6.59417 0.996988 255 0 255 
0.829637 -1.05866 6.5747 0.99473 255 0 255 
0.819411 -1.06149 6.55473 0.995613 255 0 255 
0.817314 -1.06535 6.53127 0.996022 255 0 255 
0.826644 -1.06961 6.50559 0.994983 255 0 255 
0.837437 -1.06482 6.52483 0.995974 255 0 255 
0.769848 -1.04767 6.30639 0.991882 255 0 255 
0.76784 -1.05112 6.33544 0.995477 255 0 255 
0.788343 -1.04235 6.3048 0.992776 255 0 255 
0.7895 -1.04855 6.33385 0.995835 255 0 255 
0.768276 -1.05685 6.36472 0.997085 255 0 255 
0.770409 -1.06598 6.39363 0.995124 255 0 255 
0.757042 -1.06518 6.39586 0.997084 255 0 255 
0.755911 -1.05758 6.3668 0.997417 255 0 255 
0.744539 -1.0653 6.39814 0.997433 255 0 255 
0.744576 -1.05936 6.36905 0.997982 255 0 255 
0.757497 -1.05364 6.33774 0.995953 255 0 255 
0.732659 -1.06651 6.40072 0.997683 255 0 255 
0.811327 -1.03818 6.30048 0.993561 255 0 255 
0.815268 -1.04496 6.32675 0.994396 255 0 255 
0.834785 -1.03378 6.29754 0.992827 255 0 255 
0.80661 -1.05438 6.35668 0.995013 255 0 255 
0.796989 -1.06405 6.38661 0.995445 255 0 255 
0.782353 -1.07117 6.47044 0.996659 255 0 255 
0.788023 -1.06764 6.44161 0.997687 255 0 255 
0.761249 -1.06774 6.45189 0.997697 255 0 255 
0.755624 -1.07106 6.48092 0.996566 255 0 255 
0.779325 -1.06571 6.41775 0.997751 255 0 255 
0.805966 -1.06464 6.41039 0.997583 255 0 255 
0.742139 -1.06891 6.48343 0.996696 255 0 255 
0.724137 -1.06823 6.49188 0.996439 255 0 255 
0.734638 -1.06464 6.4567 0.99785 255 0 255 
0.706362 -1.06784 6.50049 0.996388 255 0 255 
0.717209 -1.06457 6.46538 0.998192 255 0 255 
0.727057 -1.06412 6.42997 0.998722 255 0 255 
0.739388 -1.06389 6.42737 0.998596 255 0 255 
0.75239 -1.0646 6.42498 0.997989 255 0 255 
0.747915 -1.06598 6.45434 0.998218 255 0 255 
0.963446 -1.0507 6.44341 0.998898 255 0 255 
0.968461 -1.04418 6.42036 0.999047 255 0 255 
0.982871 -1.03809 6.39745 0.999006 255 0 255 
0.997713 -1.03161 6.37498 0.998869 255 0 255 
0.978456 -1.0333 6.3746 0.998454 255 0 255 
0.986963 -1.02061 6.3513 0.998812 255 0 255 
1.00539 -1.00814 6.32884 0.998763 255 0 255 
1.01365 -0.995874 6.306 0.998793 255 0 255 
1.03416 -0.994729 6.30714 0.998911 255 0 255 
1.00634 -1.01963 6.35176 0.998911 255 0 255 
0.897369 -1.06033 6.44675 0.997652 255 0 255 
0.903399 -1.0546 6.42212 0.997613 255 0 255 
0.917429 -1.04799 6.39708 0.998025 255 0 255 
0.922628 -1.04378 6.37245 0.996009 255 0 255 
0.940955 -1.0396 6.37283 0.997121 255 0 255 
0.935589 -1.04427 6.39624 0.998479 255 0 255 
0.920951 -1.05125 6.42079 0.998342 255 0 255 
0.915297 -1.05717 6.4447 0.998196 255 0 255 
0.922671 -1.03435 6.34849 0.997241 255 0 255 
0.931003 -1.02222 6.32381 0.996942 255 0 255 
0.947514 -1.00788 6.30033 0.997763 255 0 255 
0.96634 -1.0033 6.30182 0.998209 255 0 255 
0.948109 -1.01759 6.32478 0.998182 255 0 255 
0.940101 -1.0295 6.34869 0.997347 255 0 255 
0.994403 -0.99869 6.30511 0.998065 255 0 255 
0.986089 -1.01033 6.32798 0.998563 255 0 255 
0.968185 -1.02422 6.35061 0.998239 255 0 255 
0.959266 -1.03635 6.3737 0.998018 255 0 255 
0.967005 -1.01372 6.32629 0.99822 255 0 255 
0.963918 -1.04008 6.39777 0.998706 255 0 255 
0.94951 -1.04716 6.42114 0.998483 255 0 255 
0.944318 -1.05326 6.44428 0.99856 255 0 255 
-0.463931 -0.590172 5.18391 0.99953 255 0 255 
-0.448578 -0.585954 5.19222 0.998583 255 0 255 
-0.429059 -0.588651 5.19505 0.998514 255 0 255 
-0.414242 -0.583952 5.2037 0.998083 255 0 255 
-0.395608 -0.58637 5.20647 0.997159 255 0 255 
-0.404482 -0.571534 5.21737 0.998462 255 0 255 
-0.404649 -0.597854 5.19157 0.998037 255 0 255 
-0.385613 -0.599662 5.19337 0.998055 255 0 255 
-0.41248 -0.608379 5.1758 0.998711 255 0 255 
-0.432498 -0.606528 5.1736 0.998957 255 0 255 
-0.452328 -0.603906 5.17094 0.99951 255 0 255 
-0.44032 -0.616184 5.15768 0.999628 255 0 255 
-0.388956 -0.570511 5.22667 0.995834 255 0 255 
-0.371013 -0.575566 5.2308 0.991621 255 0 255 
-0.355802 -0.574005 5.2401 0.992667 255 0 255 
-0.337858 -0.578312 5.24256 0.99172 255 0 255 
-0.34523 -0.593709 5.22206 0.993269 255 0 255 
-0.376875 -0.591457 5.20969 0.995354 255 0 255 
-0.315048 -0.613413 5.21014 0.99345 255 0 255 
-0.332321 -0.610747 5.2069 0.993442 255 0 255 
-0.338698 -0.61844 5.19068 0.993828 255 0 255 
-0.356239 -0.615136 5.18646 0.996835 255 0 255 
-0.36266 -0.621636 5.16985 0.99839 255 0 255 
-0.354302 -0.602078 5.20814 0.991331 255 0 255 
-0.327752 -0.597206 5.22628 0.992177 255 0 255 
-0.381461 -0.621372 5.16759 0.998245 255 0 255 
-0.386802 -0.630269 5.15108 0.998816 255 0 255 
-0.406511 -0.629303 5.14873 0.999329 255 0 255 
-0.426769 -0.627699 5.14606 0.999655 255 0 255 
-0.412683 -0.638314 5.1336 0.999135 255 0 255 
-0.420579 -0.618174 5.1613 0.999365 255 0 255 
-0.0703428 -0.666655 5.40813 0.990802 255 0 255 
-0.0561548 -0.685646 5.41962 0.978285 255 0 255 
-0.0450707 -0.708293 5.43005 0.968352 255 0 255 
-0.0345374 -0.732155 5.44451 0.958992 255 0 255 
-0.02899 -0.760414 5.45678 0.958218 255 0 255 
-0.0629063 -0.694603 5.40924 0.96562 255 0 255 
-0.0767972 -0.677448 5.39758 0.982383 255 0 255 
-0.0281952 -0.785992 5.47768 0.97506 255 0 255 
-0.0341788 -0.81433 5.48717 0.967678 255 0 255 
-0.0407082 -0.843762 5.49917 0.964579 255 0 255 
-0.0491178 -0.872688 5.50472 0.980462 255 0 255 
-0.0352186 -0.788365 5.46431 0.956141 255 0 255 
-0.0553315 -0.867737 5.48492 0.968058 255 0 255 
-0.0483286 -0.841175 5.47664 0.938407 255 0 255 
-0.0416413 -0.81473 5.46837 0.965156 255 0 255 
-0.0346698 -0.764211 5.44324 0.939671 255 0 255 
-0.0429006 -0.74104 5.42591 0.948921 255 0 255 
-0.0526481 -0.718161 5.41476 0.952783 255 0 255 
-0.0381095 -0.790357 5.44689 0.956455 255 0 255 
-0.0500987 -0.863787 5.4692 0.964104 255 0 255 
-0.0394335 -0.814829 5.4509 0.957427 255 0 255 
-0.0424022 -0.838817 5.4584 0.959194 255 0 255 
-0.0323613 -0.767543 5.42239 0.957899 255 0 255 
-0.0819639 -0.697478 5.36923 0.961822 255 0 255 
-0.0676159 -0.710568 5.38369 0.952545 255 0 255 
-0.0544868 -0.726313 5.39887 0.970999 255 0 255 
-0.0421719 -0.745335 5.41009 0.95901 255 0 255 
-0.0816842 -0.689204 5.38383 0.968844 255 0 255 
-0.0620144 -0.901373 5.51952 0.986802 255 0 255 
-0.0792839 -0.925336 5.5193 0.979418 255 0 255 
-0.0956325 -0.950101 5.52545 0.981837 255 0 255 
-0.112486 -0.972214 5.52522 0.992847 255 0 255 
-0.0686829 -0.895109 5.50277 0.97467 255 0 255 
-0.132855 -0.995184 5.53973 0.996945 255 0 255 
-0.154163 -1.00735 5.53543 0.997046 255 0 255 
-0.175081 -1.02318 5.53845 0.99696 255 0 255 
-0.195694 -1.03379 5.53424 0.996423 255 0 255 
-0.176141 -1.01294 5.51762 0.996716 255 0 255 
-0.155961 -0.998055 5.51666 0.995799 255 0 255 
-0.134382 -0.985252 5.52092 0.994918 255 0 255 
-0.19287 -1.01746 5.49958 0.993164 255 0 255 
-0.174547 -1.00261 5.49931 0.995671 255 0 255 
-0.154894 -0.988029 5.4987 0.989776 255 0 255 
-0.135007 -0.975144 5.50307 0.986665 255 0 255 
-0.115104 -0.960821 5.5065 0.983775 255 0 255 
-0.10054 -0.934598 5.49569 0.955933 255 0 255 
-0.0847436 -0.914625 5.49591 0.961738 255 0 255 
-0.178678 -0.998285 5.46649 0.989934 255 0 255 
-0.161725 -0.983375 5.46822 0.985258 255 0 255 
-0.144626 -0.972062 5.47322 0.980079 255 0 255 
-0.126311 -0.957533 5.47478 0.972641 255 0 255 
-0.108349 -0.945324 5.48 0.972221 255 0 255 
-0.169847 -0.992934 5.48258 0.99191 255 0 255 
-0.187864 -1.00693 5.48226 0.992503 255 0 255 
-0.0908558 -0.922507 5.4724 0.945252 255 0 255 
-0.0773468 -0.90427 5.47274 0.955355 255 0 255 
-0.0635527 -0.883491 5.46997 0.961495 255 0 255 
-0.0691982 -0.889212 5.48585 0.958555 255 0 255 
-0.321927 -1.05497 5.40846 0.998662 255 0 255 
-0.30535 -1.04818 5.41721 0.99674 255 0 255 
-0.291674 -1.04364 5.43013 0.996354 255 0 255 
-0.274029 -1.03922 5.43872 0.997912 255 0 255 
-0.259247 -1.03711 5.45181 0.998129 255 0 255 
-0.285112 -1.0452 5.45448 0.997107 255 0 255 
-0.304439 -1.04952 5.44649 0.996478 255 0 255 
-0.318538 -1.05334 5.43325 0.997806 255 0 255 
-0.337036 -1.06019 5.42574 0.999124 255 0 255 
-0.235843 -1.02324 5.4476 0.994806 255 0 255 
-0.219868 -1.01734 5.45809 0.990623 255 0 255 
-0.201477 -1.00784 5.46415 0.983862 255 0 255 
-0.247165 -1.03246 5.46687 0.997084 255 0 255 
-0.214526 -1.02517 5.49587 0.994186 255 0 255 
-0.233481 -1.03031 5.48681 0.995725 255 0 255 
-0.270124 -1.0463 5.47321 0.997377 255 0 255 
-0.255556 -1.04068 5.48794 0.997905 255 0 255 
-0.295784 -1.0535 5.47712 0.996192 255 0 255 
-0.313089 -1.05576 5.46406 0.997288 255 0 255 
-0.333986 -1.06013 5.45714 0.998456 255 0 255 
-0.350336 -1.06444 5.44382 0.998996 255 0 255 
-0.238433 -1.03792 5.50377 0.997291 255 0 255 
-0.217735 -1.03518 5.51678 0.996659 255 0 255 
-0.260267 -1.04765 5.50559 0.997654 255 0 255 
-0.281095 -1.05799 5.50713 0.997055 255 0 255 
-0.276589 -1.0516 5.48981 0.998062 255 0 255 
-0.241413 -1.04901 5.53112 0.996905 255 0 255 
-0.218178 -1.04574 5.5401 0.996023 255 0 255 
-0.2637 -1.05964 5.5367 0.994462 255 0 255 
-0.286256 -1.06891 5.5422 0.991362 255 0 255 
-0.283811 -1.06383 5.52476 0.995596 255 0 255 
-0.3812 -1.07189 5.52192 0.995772 255 0 255 
-0.355888 -1.06953 5.5183 0.99546 255 0 255 
-0.375915 -1.07138 5.50302 0.99382 255 0 255 
-0.330589 -1.06689 5.5147 0.995846 255 0 255 
-0.35032 -1.06789 5.49902 0.994455 255 0 255 
-0.325371 -1.06379 5.49524 0.995483 255 0 255 
-0.369922 -1.07019 5.48328 0.9956 255 0 255 
-0.305483 -1.06296 5.51096 0.99596 255 0 255 
-0.3087 -1.06708 5.5284 0.995538 255 0 255 
-0.333899 -1.06966 5.53184 0.996435 255 0 255 
-0.34289 -1.06421 5.47674 0.997271 255 0 255 
-0.361115 -1.06779 5.46307 0.99768 255 0 255 
-0.343587 -1.02519 5.16665 0.99545 255 0 255 
-0.342672 -1.03523 5.19157 0.996327 255 0 255 
-0.342373 -1.04588 5.2164 0.994725 255 0 255 
-0.322473 -1.04054 5.19654 0.996451 255 0 255 
-0.363414 -1.04043 5.21202 0.996618 255 0 255 
-0.387367 -1.0335 5.20574 0.997778 255 0 255 
-0.364682 -1.02909 5.18582 0.99734 255 0 255 
-0.388603 -1.02204 5.17978 0.99722 255 0 255 
-0.307196 -1.04803 5.21639 0.996025 255 0 255 
-0.323178 -1.05162 5.23835 0.996029 255 0 255 
-0.302913 -1.0532 5.24258 0.996104 255 0 255 
-0.282833 -1.05453 5.24729 0.994397 255 0 255 
-0.319191 -1.05702 5.26474 0.995483 255 0 255 
-0.34117 -1.05535 5.25962 0.995433 255 0 255 
-0.360452 -1.04935 5.2378 0.995602 255 0 255 
-0.369896 -1.06337 5.29261 0.994548 255 0 255 
-0.381322 -1.05578 5.26477 0.99616 255 0 255 
-0.393161 -1.04725 5.23711 0.995975 255 0 255 
-0.404216 -1.05265 5.25825 0.997913 255 0 255 
-0.359868 -1.05789 5.27053 0.995156 255 0 255 
-0.425567 -1.04118 5.23528 0.998003 255 0 255 
-0.41006 -1.03416 5.21558 0.997854 255 0 255 
-0.432437 -1.02667 5.20829 0.998388 255 0 255 
-0.455109 -1.01938 5.20038 0.998167 255 0 255 
-0.417149 -1.02037 5.18842 0.997432 255 0 255 
-0.222689 -0.592338 5.31671 0.991239 255 0 255 
-0.238007 -0.594381 5.30573 0.980044 255 0 255 
-0.251771 -0.595629 5.29354 0.979557 255 0 255 
-0.223118 -0.608338 5.30315 0.981715 255 0 255 
-0.237347 -0.60982 5.29095 0.96513 255 0 255 
-0.26499 -0.595269 5.28029 0.975383 255 0 255 
-0.27789 -0.594208 5.26627 0.974761 255 0 255 
-0.2814 -0.575695 5.2816 0.976961 255 0 255 
-0.268144 -0.576625 5.29574 0.977324 255 0 255 
-0.245903 -0.615194 5.27247 0.974193 255 0 255 
-0.219566 -0.624621 5.28439 0.976877 255 0 255 
-0.230765 -0.625231 5.27054 0.968871 255 0 255 
-0.256991 -0.614809 5.25918 0.974282 255 0 255 
-0.267275 -0.613463 5.24473 0.980538 255 0 255 
-0.310362 -0.604743 5.23053 0.989338 255 0 255 
-0.304966 -0.594259 5.25006 0.987109 255 0 255 
-0.28514 -0.605503 5.24813 0.987219 255 0 255 
-0.290943 -0.614008 5.22744 0.99286 255 0 255 
-0.3232 -0.580649 5.25227 0.987856 255 0 255 
-0.310484 -0.575068 5.26621 0.981355 255 0 255 
-0.297539 -0.568828 5.27916 0.97314 255 0 255 
-0.0926737 -0.653332 5.39513 0.990843 255 0 255 
-0.114643 -0.641625 5.38432 0.990889 255 0 255 
-0.134623 -0.629598 5.37364 0.986863 255 0 255 
-0.153368 -0.617109 5.36343 0.989437 255 0 255 
-0.147331 -0.601801 5.37358 0.997346 255 0 255 
-0.128717 -0.614247 5.38391 0.996759 255 0 255 
-0.0990747 -0.665691 5.38465 0.977547 255 0 255 
-0.120615 -0.656065 5.37298 0.975787 255 0 255 
-0.141115 -0.645767 5.36248 0.971489 255 0 255 
-0.15808 -0.635311 5.34973 0.973735 255 0 255 
-0.207628 -0.600377 5.33 0.986682 255 0 255 
-0.190953 -0.606642 5.34165 0.980877 255 0 255 
-0.218557 -0.571059 5.33065 0.995542 255 0 255 
-0.203332 -0.579247 5.34314 0.9928 255 0 255 
-0.172672 -0.612304 5.35267 0.986367 255 0 255 
-0.212545 -0.54756 5.34364 0.997313 255 0 255 
-0.18457 -0.581895 5.35803 0.99184 255 0 255 
-0.197179 -0.558023 5.356 0.996386 255 0 255 
-0.16569 -0.589424 5.36792 0.995474 255 0 255 
-0.252499 -0.574554 5.30863 0.987723 255 0 255 
-0.280593 -0.552349 5.297 0.988189 255 0 255 
-0.264861 -0.551236 5.31033 0.990136 255 0 255 
-0.247874 -0.551043 5.32223 0.993106 255 0 255 
-0.234403 -0.565366 5.32457 0.990171 255 0 255 
-0.313905 -0.550923 5.28288 0.985227 255 0 255 
-0.328664 -0.558318 5.26841 0.986431 255 0 255 
-0.344317 -0.547853 5.26429 0.992906 255 0 255 
-0.329524 -0.540641 5.27886 0.990439 255 0 255 
-0.34502 -0.529403 5.27412 0.996364 255 0 255 
-0.295987 -0.543722 5.29458 0.986587 255 0 255 
-0.339597 -0.491324 5.29155 0.998979 255 0 255 
-0.321775 -0.494231 5.3001 0.998894 255 0 255 
-0.306123 -0.504922 5.30402 0.998017 255 0 255 
-0.28822 -0.506235 5.31081 0.99664 255 0 255 
-0.27293 -0.516271 5.31303 0.996796 255 0 255 
-0.310021 -0.523884 5.29615 0.99331 255 0 255 
-0.325546 -0.512643 5.29258 0.996249 255 0 255 
-0.342603 -0.510914 5.2838 0.997694 255 0 255 
-0.253317 -0.50735 5.33005 0.997612 255 0 255 
-0.240962 -0.524615 5.33487 0.997767 255 0 255 
-0.225934 -0.532871 5.34245 0.996062 255 0 255 
-0.103332 -0.677326 5.37223 0.960149 255 0 255 
-0.124897 -0.668208 5.36002 0.96191 255 0 255 
-0.144299 -0.659436 5.34744 0.954788 255 0 255 
-0.160701 -0.648852 5.33696 0.960807 255 0 255 
-0.124381 -0.677808 5.34513 0.961413 255 0 255 
-0.103622 -0.686426 5.3568 0.964199 255 0 255 
-0.206145 -0.635842 5.29512 0.975957 255 0 255 
-0.192782 -0.642661 5.31005 0.960606 255 0 255 
-0.177421 -0.645776 5.32383 0.973979 255 0 255 
-0.209198 -0.62107 5.3127 0.976104 255 0 255 
-0.1939 -0.627078 5.32635 0.967558 255 0 255 
-0.176766 -0.631488 5.33871 0.973209 255 0 255 
-0.193108 -0.64849 5.24026 0.976208 255 0 255 
-0.202008 -0.648149 5.20995 0.983115 255 0 255 
-0.186694 -0.651665 5.21583 0.987404 255 0 255 
-0.170413 -0.653639 5.2211 0.984044 255 0 255 
-0.210557 -0.646608 5.17955 0.988759 255 0 255 
-0.218427 -0.64381 5.20555 0.984672 255 0 255 
-0.234075 -0.637728 5.20073 0.990832 255 0 255 
-0.158863 -0.651718 5.19863 0.992966 255 0 255 
-0.145792 -0.647306 5.1755 0.992163 255 0 255 
-0.136732 -0.650201 5.204 0.992505 255 0 255 
-0.167291 -0.648266 5.17092 0.989533 255 0 255 
-0.189063 -0.64714 5.16685 0.988695 255 0 255 
-0.206861 -0.659229 5.11892 0.981864 255 0 255 
-0.218269 -0.654569 5.13966 0.992309 255 0 255 
-0.230102 -0.650445 5.16161 0.990864 255 0 255 
-0.238562 -0.654032 5.13626 0.989676 255 0 255 
-0.197668 -0.652655 5.14232 0.986628 255 0 255 
-0.176779 -0.650283 5.14553 0.985667 255 0 255 
-0.255413 -0.649838 5.14808 0.991137 255 0 255 
-0.25745 -0.644213 5.16792 0.991635 255 0 255 
-0.273598 -0.642202 5.16481 0.995533 255 0 255 
-0.231797 -0.643946 5.18016 0.991435 255 0 255 
-0.101927 -0.642819 5.19182 0.992917 255 0 255 
-0.0798994 -0.638555 5.18575 0.989197 255 0 255 
-0.102276 -0.640967 5.16135 0.990597 255 0 255 
-0.0812178 -0.639121 5.15652 0.990476 255 0 255 
-0.0606835 -0.63883 5.15232 0.989561 255 0 255 
-0.0590164 -0.637868 5.18095 0.98739 255 0 255 
-0.0370008 -0.636432 5.1771 0.983446 255 0 255 
-0.0829241 -0.640439 5.12778 0.986092 255 0 255 
-0.103771 -0.640409 5.13208 0.984016 255 0 255 
-0.124252 -0.640991 5.13805 0.983225 255 0 255 
-0.1241 -0.643467 5.16747 0.990273 255 0 255 
-0.145724 -0.64411 5.14579 0.987163 255 0 255 
-0.011657 -0.636131 5.17141 0.978735 255 0 255 
0.002655 -0.637219 5.1539 0.983731 255 0 255 
0.0268557 -0.638013 5.14937 0.982276 255 0 255 
0.00464116 -0.640758 5.12506 0.981116 255 0 255 
-0.0203831 -0.639634 5.12929 0.979076 255 0 255 
-0.0463468 -0.639707 5.13444 0.983037 255 0 255 
-0.0498287 -0.661993 5.07502 0.969547 255 0 255 
-0.0639746 -0.656216 5.08849 0.98444 255 0 255 
-0.0896093 -0.655322 5.09351 0.982849 255 0 255 
-0.104675 -0.650464 5.10827 0.986383 255 0 255 
-0.125216 -0.658654 5.09022 0.97992 255 0 255 
-0.0676403 -0.645263 5.11249 0.9859 255 0 255 
-0.0424856 -0.646015 5.10734 0.976029 255 0 255 
-0.0179093 -0.647465 5.10284 0.973636 255 0 255 
-0.145571 -0.657275 5.09575 0.981059 255 0 255 
-0.16674 -0.657531 5.1029 0.974972 255 0 255 
-0.144643 -0.649491 5.11973 0.983099 255 0 255 
-0.187176 -0.658244 5.11066 0.97625 255 0 255 
-0.124338 -0.64911 5.1133 0.985529 255 0 255 
-0.273856 -0.63655 5.18536 0.993137 255 0 255 
-0.274464 -0.630135 5.20592 0.993855 255 0 255 
-0.289672 -0.633052 5.18127 0.995395 255 0 255 
-0.258036 -0.632309 5.20853 0.987445 255 0 255 
-0.293492 -0.622671 5.20761 0.993138 255 0 255 
-0.270972 -0.622286 5.22553 0.991775 255 0 255 
-0.236063 -0.629512 5.25172 0.97507 255 0 255 
-0.210824 -0.637317 5.26455 0.976442 255 0 255 
-0.241823 -0.631741 5.23219 0.978674 255 0 255 
-0.215187 -0.641108 5.24577 0.972777 255 0 255 
-0.280801 -0.654775 5.13483 0.995113 255 0 255 
-0.278782 -0.66439 5.11598 0.993865 255 0 255 
-0.294555 -0.6648 5.11116 0.996642 255 0 255 
-0.297183 -0.655326 5.13082 0.997341 255 0 255 
-0.313778 -0.655315 5.12663 0.997694 255 0 255 
-0.247025 -0.664892 5.11359 0.988989 255 0 255 
-0.227085 -0.662537 5.11636 0.990837 255 0 255 
-0.236311 -0.674847 5.09588 0.99216 255 0 255 
-0.256632 -0.676732 5.09235 0.986046 255 0 255 
-0.282618 -0.706689 5.06614 0.990567 255 0 255 
-0.294971 -0.693223 5.07862 0.994441 255 0 255 
-0.307869 -0.680009 5.09273 0.994478 255 0 255 
-0.316495 -0.695667 5.07586 0.992371 255 0 255 
-0.286529 -0.67725 5.09494 0.994545 255 0 255 
-0.274503 -0.689982 5.08038 0.992172 255 0 255 
-0.335415 -0.688383 5.08348 0.991117 255 0 255 
-0.338952 -0.675302 5.09841 0.994659 255 0 255 
-0.35737 -0.676127 5.09425 0.994102 255 0 255 
-0.310606 -0.667027 5.10837 0.996064 255 0 255 
-0.362133 -0.635276 5.14886 0.99794 255 0 255 
-0.344516 -0.636028 5.15327 0.997319 255 0 255 
-0.367708 -0.644289 5.13436 0.998064 255 0 255 
-0.38659 -0.644074 5.13124 0.998738 255 0 255 
-0.392143 -0.653408 5.11765 0.998408 255 0 255 
-0.316718 -0.624755 5.18914 0.995707 255 0 255 
-0.316761 -0.635449 5.16752 0.996275 255 0 255 
-0.289241 -0.642323 5.16037 0.996951 255 0 255 
-0.315893 -0.645538 5.14696 0.997467 255 0 255 
-0.330756 -0.656177 5.12278 0.995712 255 0 255 
-0.348448 -0.657505 5.1189 0.996812 255 0 255 
-0.366441 -0.657592 5.11522 0.996109 255 0 255 
0.12398 -0.703903 5.28237 0.993676 255 0 255 
0.132757 -0.724945 5.29709 0.995951 255 0 255 
0.112016 -0.721215 5.3039 0.995265 255 0 255 
0.103473 -0.701799 5.2891 0.994567 255 0 255 
0.120737 -0.742797 5.31819 0.995868 255 0 255 
0.0903371 -0.717817 5.30897 0.996188 255 0 255 
0.09988 -0.738595 5.32342 0.996105 255 0 255 
0.0796917 -0.736252 5.32987 0.996169 255 0 255 
0.0804703 -0.698964 5.29413 0.995415 255 0 255 
0.0690929 -0.716222 5.31462 0.99653 255 0 255 
0.0583301 -0.697984 5.29933 0.996108 255 0 255 
0.108882 -0.760585 5.33773 0.994565 255 0 255 
0.0890808 -0.757722 5.34455 0.993242 255 0 255 
0.0973898 -0.780204 5.3585 0.989289 255 0 255 
0.115205 -0.782542 5.35174 0.991331 255 0 255 
0.126737 -0.763905 5.33167 0.995505 255 0 255 
0.132018 -0.785828 5.34479 0.994075 255 0 255 
0.144149 -0.76678 5.32431 0.996946 255 0 255 
0.138671 -0.745733 5.31085 0.996946 255 0 255 
0.149188 -0.788138 5.33742 0.992978 255 0 255 
0.0380894 -0.71608 5.32518 0.994751 255 0 255 
0.0249678 -0.698741 5.30985 0.994719 255 0 255 
0.0507232 -0.735076 5.34017 0.994674 255 0 255 
0.0184219 -0.734186 5.35078 0.991458 255 0 255 
0.00507607 -0.716146 5.33579 0.989502 255 0 255 
-0.00944653 -0.699922 5.32102 0.988872 255 0 255 
0.0462258 -0.755151 5.35977 0.992202 255 0 255 
0.0397465 -0.77551 5.37895 0.991748 255 0 255 
0.0685723 -0.77751 5.3687 0.992943 255 0 255 
0.044199 -0.868095 5.41728 0.98575 255 0 255 
0.0593408 -0.84684 5.40329 0.992447 255 0 255 
0.0717326 -0.87197 5.40751 0.98376 255 0 255 
0.0729827 -0.824591 5.38894 0.993521 255 0 255 
0.0868901 -0.849932 5.39366 0.991401 255 0 255 
0.100916 -0.827674 5.37902 0.990714 255 0 255 
0.0997315 -0.875008 5.39744 0.982284 255 0 255 
0.0860099 -0.802735 5.37414 0.992881 255 0 255 
0.0568844 -0.79935 5.38405 0.993023 255 0 255 
0.0439129 -0.8211 5.39877 0.993048 255 0 255 
0.119156 -0.853945 5.38062 0.985462 255 0 255 
0.134633 -0.877826 5.37963 0.967693 255 0 255 
0.135668 -0.832272 5.36301 0.984432 255 0 255 
0.134249 -0.809199 5.35432 0.991051 255 0 255 
0.117535 -0.806178 5.362 0.987826 255 0 255 
0.119007 -0.830078 5.3714 0.992605 255 0 255 
-0.123861 -0.655098 5.21797 0.994806 255 0 255 
-0.123231 -0.662755 5.23758 0.993455 255 0 255 
-0.148129 -0.659159 5.22941 0.98614 255 0 255 
-0.147336 -0.665969 5.24868 0.978802 255 0 255 
-0.121586 -0.668315 5.25715 0.984441 255 0 255 
-0.118356 -0.672403 5.27587 0.985232 255 0 255 
-0.094684 -0.666945 5.26601 0.994741 255 0 255 
-0.0974923 -0.661666 5.24738 0.995627 255 0 255 
-0.0989304 -0.655273 5.22766 0.998119 255 0 255 
-0.0721674 -0.662932 5.25727 0.997644 255 0 255 
-0.170465 -0.659718 5.24421 0.987226 255 0 255 
-0.168837 -0.663461 5.26615 0.970725 255 0 255 
-0.149163 -0.670154 5.27446 0.964071 255 0 255 
-0.13929 -0.672256 5.29101 0.968961 255 0 255 
-0.0634877 -0.703451 5.34572 0.971813 255 0 255 
-0.0785766 -0.694782 5.32871 0.972823 255 0 255 
-0.0931703 -0.686688 5.31132 0.982146 255 0 255 
-0.0456796 -0.702062 5.33555 0.980937 255 0 255 
-0.10655 -0.679744 5.29383 0.983325 255 0 255 
-0.0534632 -0.692145 5.3168 0.986442 255 0 255 
-0.0608367 -0.682212 5.29712 0.993989 255 0 255 
-0.0261694 -0.689013 5.30474 0.9933 255 0 255 
-0.0670498 -0.672556 5.27716 0.995335 255 0 255 
0.0501321 -0.641993 5.1774 0.987571 255 0 255 
0.0252649 -0.64077 5.1816 0.987266 255 0 255 
0.0375186 -0.645461 5.19731 0.9924 255 0 255 
0.000147098 -0.640319 5.18665 0.987774 255 0 255 
0.0121182 -0.644704 5.20192 0.993763 255 0 255 
-0.0145372 -0.645315 5.20742 0.992239 255 0 255 
-0.0259273 -0.641047 5.1926 0.987159 255 0 255 
0.0244986 -0.649766 5.21728 0.995521 255 0 255 
-0.00259101 -0.64973 5.22236 0.994486 255 0 255 
0.010057 -0.654443 5.23725 0.993991 255 0 255 
0.0607162 -0.654395 5.22636 0.99074 255 0 255 
0.0729024 -0.650538 5.20661 0.992323 255 0 255 
-0.068965 -0.645067 5.20183 0.993821 255 0 255 
-0.0559445 -0.649312 5.21668 0.99392 255 0 255 
-0.0900152 -0.647086 5.2067 0.996539 255 0 255 
-0.0776674 -0.65212 5.22227 0.997827 255 0 255 
-0.0643066 -0.656349 5.2375 0.997497 255 0 255 
-0.0313829 -0.657534 5.246 0.993668 255 0 255 
0.011053 -0.687409 5.29437 0.995667 255 0 255 
-0.00346617 -0.678172 5.27897 0.997312 255 0 255 
0.033396 -0.674586 5.26798 0.99651 255 0 255 
0.0458163 -0.686028 5.28365 0.996675 255 0 255 
0.002407 -0.666348 5.2578 0.997251 255 0 255 
-0.0374615 -0.668549 5.26807 0.995917 255 0 255 
0.069857 -0.688016 5.27928 0.996808 255 0 255 
0.093317 -0.689498 5.27425 0.994519 255 0 255 
0.0830785 -0.678444 5.25909 0.996267 255 0 255 
0.114256 -0.690947 5.26809 0.991913 255 0 255 
0.104256 -0.679399 5.25266 0.993032 255 0 255 
0.0950667 -0.668206 5.23758 0.994283 255 0 255 
0.0717072 -0.665969 5.24276 0.996072 255 0 255 
0.0470705 -0.664494 5.24752 0.995702 255 0 255 
0.0587624 -0.676123 5.26399 0.996959 255 0 255 
-0.184554 -0.655584 5.25807 0.977131 255 0 255 
-0.183218 -0.656908 5.28412 0.95682 255 0 255 
-0.164704 -0.665005 5.29142 0.968721 255 0 255 
-0.152796 -0.667618 5.30794 0.948809 255 0 255 
-0.198163 -0.647435 5.27657 0.969967 255 0 255 
-0.173891 -0.657327 5.30819 0.963307 255 0 255 
-0.138073 -0.675021 5.32349 0.953065 255 0 255 
-0.110463 -0.686071 5.32482 0.965198 255 0 255 
-0.12607 -0.679962 5.30817 0.97185 255 0 255 
-0.021169 -0.716677 5.34611 0.980699 255 0 255 
-0.00653544 -0.733688 5.36104 0.989876 255 0 255 
0.0059529 -0.753263 5.37537 0.986262 255 0 255 
0.00751764 -0.773116 5.39258 0.986422 255 0 255 
-0.0245496 -0.733904 5.36899 0.980227 255 0 255 
-0.0432179 -0.716878 5.35708 0.965655 255 0 255 
-0.0160537 -0.752494 5.38598 0.974565 255 0 255 
-0.010022 -0.773145 5.40241 0.974898 255 0 255 
-0.014748 -0.866027 5.44181 0.977807 255 0 255 
-0.00581689 -0.841923 5.43049 0.986524 255 0 255 
0.000347006 -0.81838 5.41817 0.978107 255 0 255 
0.00954078 -0.865661 5.43159 0.988343 255 0 255 
0.0046659 -0.795107 5.40568 0.976581 255 0 255 
0.0189123 -0.842461 5.41873 0.990754 255 0 255 
0.0341159 -0.797032 5.39254 0.989252 255 0 255 
0.0189155 -0.819162 5.40942 0.989737 255 0 255 
-0.0427337 -0.73179 5.38134 0.968733 255 0 255 
-0.0253649 -0.815787 5.435 0.972685 255 0 255 
-0.0342246 -0.863916 5.45356 0.957161 255 0 255 
-0.0263462 -0.792272 5.42628 0.952101 255 0 255 
-0.0252972 -0.840399 5.44169 0.970586 255 0 255 
0.0972253 -0.992377 5.36163 0.977345 255 0 255 
0.0870988 -0.979505 5.37494 0.970994 255 0 255 
0.116596 -0.96567 5.3712 0.973632 255 0 255 
0.107018 -0.952513 5.38426 0.958879 255 0 255 
0.0762252 -0.966392 5.38837 0.973521 255 0 255 
0.0661111 -0.952093 5.4018 0.969742 255 0 255 
0.0396761 -0.980266 5.39218 0.977258 255 0 255 
0.0507247 -0.994141 5.37928 0.975071 255 0 255 
0.0623876 -1.00714 5.36603 0.967341 255 0 255 
0.0128192 -1.00687 5.38135 0.972691 255 0 255 
0.133705 -0.933649 5.37431 0.978791 255 0 255 
0.122806 -0.91511 5.38167 0.973496 255 0 255 
0.145684 -0.897718 5.37242 0.981946 255 0 255 
0.111153 -0.896136 5.38996 0.982991 255 0 255 
0.0920608 -0.895139 5.39943 0.982113 255 0 255 
0.103126 -0.915119 5.39132 0.981423 255 0 255 
0.0834026 -0.914237 5.40046 0.97961 255 0 255 
0.0341356 -0.888665 5.42055 0.991402 255 0 255 
0.039488 -0.910089 5.41744 0.991749 255 0 255 
0.0284463 -0.929589 5.41897 0.990622 255 0 255 
0.0333645 -0.949723 5.41465 0.975442 255 0 255 
-0.000787577 -0.947246 5.42647 0.985701 255 0 255 
0.0602424 -0.932082 5.40675 0.983711 255 0 255 
0.0638788 -0.891381 5.40963 0.982065 255 0 255 
-0.019004 -0.960627 5.42165 0.991924 255 0 255 
-0.0371739 -0.972727 5.41671 0.991533 255 0 255 
0.00461746 -0.977125 5.40392 0.982412 255 0 255 
-0.0125314 -0.989837 5.39872 0.987106 255 0 255 
-0.0298889 -1.00179 5.3933 0.98271 255 0 255 
-0.0565033 -0.983235 5.41181 0.993316 255 0 255 
-0.0757394 -0.993373 5.40716 0.99264 255 0 255 
-0.0614078 -0.968004 5.4243 0.993396 255 0 255 
-0.0418253 -0.957265 5.42892 0.992554 255 0 255 
-0.0228389 -0.94503 5.43361 0.99091 255 0 255 
-0.0463615 -0.941459 5.44065 0.986444 255 0 255 
-0.0667393 -0.953013 5.43643 0.985826 255 0 255 
-0.0867841 -0.964029 5.43242 0.985507 255 0 255 
-0.0821736 -0.978242 5.41975 0.994327 255 0 255 
-0.101119 -0.989113 5.41528 0.993601 255 0 255 
-0.105454 -0.975705 5.42804 0.989477 255 0 255 
-0.122804 -0.987184 5.42349 0.990329 255 0 255 
0.0147249 -0.908308 5.42633 0.992057 255 0 255 
-0.00253295 -0.886527 5.43527 0.989271 255 0 255 
-0.0171108 -0.905883 5.43812 0.990097 255 0 255 
-0.00852212 -0.927069 5.43242 0.990264 255 0 255 
-0.0321214 -0.9242 5.43983 0.985015 255 0 255 
-0.0304013 -0.885711 5.44577 0.977745 255 0 255 
-0.0456854 -0.904008 5.44783 0.982532 255 0 255 
-0.0593283 -0.922157 5.44971 0.967839 255 0 255 
-0.0733896 -0.939226 5.45065 0.975047 255 0 255 
-0.0932288 -0.951481 5.44711 0.973363 255 0 255 
-0.112347 -0.963068 5.44303 0.976545 255 0 255 
-0.1301 -0.975164 5.43973 0.982799 255 0 255 
-0.147086 -0.987455 5.43616 0.987192 255 0 255 
-0.0956147 -0.939911 5.46475 0.962339 255 0 255 
-0.064673 -0.902005 5.45887 0.970575 255 0 255 
-0.050001 -0.883233 5.45633 0.976142 255 0 255 
-0.165223 -0.991368 5.4508 0.989136 255 0 255 
-0.148499 -0.977749 5.45329 0.982375 255 0 255 
-0.13315 -0.96552 5.45939 0.973723 255 0 255 
-0.111662 -0.952219 5.45911 0.969468 255 0 255 
-0.272027 -1.04258 5.36999 0.998264 255 0 255 
-0.288823 -1.04946 5.34623 0.999032 255 0 255 
-0.305428 -1.05691 5.32294 0.997605 255 0 255 
-0.30926 -1.05525 5.34215 0.998765 255 0 255 
-0.285091 -1.05098 5.32666 0.998197 255 0 255 
-0.266497 -1.04582 5.33278 0.998434 255 0 255 
-0.269451 -1.04389 5.35131 0.999005 255 0 255 
-0.250642 -1.03885 5.35715 0.998173 255 0 255 
-0.333188 -1.06105 5.32282 0.99814 255 0 255 
-0.326694 -1.05929 5.30207 0.997109 255 0 255 
-0.347873 -1.06141 5.29722 0.995156 255 0 255 
-0.310177 -1.05649 5.2919 0.997168 255 0 255 
-0.274501 -1.05374 5.27453 0.995756 255 0 255 
-0.266428 -1.05264 5.30155 0.996517 255 0 255 
-0.253256 -1.05258 5.28 0.99703 255 0 255 
-0.287727 -1.05439 5.29647 0.997103 255 0 255 
-0.296165 -1.05547 5.26938 0.996321 255 0 255 
-0.232696 -1.0479 5.30147 0.996937 255 0 255 
-0.243743 -1.04422 5.3216 0.997715 255 0 255 
-0.222017 -1.04016 5.32779 0.997154 255 0 255 
-0.199814 -1.03676 5.33377 0.996862 255 0 255 
-0.232587 -1.03748 5.34779 0.997971 255 0 255 
-0.244357 -1.02876 5.43282 0.997291 255 0 255 
-0.222584 -1.0178 5.43453 0.992262 255 0 255 
-0.205061 -1.01026 5.44096 0.985902 255 0 255 
-0.187859 -1.00076 5.44793 0.984287 255 0 255 
-0.277186 -1.03752 5.41516 0.996871 255 0 255 
-0.28793 -1.04349 5.40209 0.996998 255 0 255 
-0.304313 -1.05035 5.39317 0.998129 255 0 255 
-0.256598 -1.0316 5.41935 0.996799 255 0 255 
-0.258347 -1.0357 5.37921 0.996932 255 0 255 
-0.243949 -1.0298 5.3885 0.996607 255 0 255 
-0.240655 -1.02614 5.40639 0.99635 255 0 255 
-0.225199 -1.02167 5.4156 0.996088 255 0 255 
-0.261419 -1.03325 5.40121 0.996504 255 0 255 
-0.198868 -1.01084 5.41459 0.989499 255 0 255 
-0.182132 -1.00322 5.42154 0.985481 255 0 255 
-0.165176 -0.995038 5.42903 0.985973 255 0 255 
-0.383036 -1.06891 5.45622 0.998323 255 0 255 
-0.40773 -1.07057 5.45566 0.99781 255 0 255 
-0.391895 -1.07037 5.47622 0.997299 255 0 255 
-0.432591 -1.07208 5.45506 0.998248 255 0 255 
-0.457967 -1.07322 5.45496 0.997323 255 0 255 
-0.44447 -1.07508 5.43319 0.997163 255 0 255 
-0.419064 -1.07291 5.43351 0.998295 255 0 255 
-0.399523 -1.06989 5.49608 0.99771 255 0 255 
-0.423249 -1.06894 5.48926 0.997815 255 0 255 
-0.429591 -1.06768 5.50827 0.998314 255 0 255 
-0.405578 -1.06894 5.51498 0.996704 255 0 255 
-0.450238 -1.06775 5.49201 0.998361 255 0 255 
-0.477447 -1.06641 5.49457 0.998477 255 0 255 
-0.468073 -1.07001 5.47512 0.997519 255 0 255 
-0.440628 -1.07082 5.47203 0.997548 255 0 255 
-0.565904 -1.05698 5.46158 0.996976 255 0 255 
-0.539422 -1.0604 5.45936 0.998732 255 0 255 
-0.552726 -1.06204 5.44142 0.996614 255 0 255 
-0.51253 -1.06482 5.45748 0.998994 255 0 255 
-0.525875 -1.06595 5.43932 0.99804 255 0 255 
-0.498532 -1.06995 5.43721 0.997891 255 0 255 
-0.538853 -1.06728 5.42051 0.996416 255 0 255 
-0.485409 -1.06915 5.45614 0.998328 255 0 255 
-0.495099 -1.06554 5.47611 0.998662 255 0 255 
-0.522437 -1.06072 5.47769 0.999157 255 0 255 
-0.514085 -1.06958 5.42149 0.998033 255 0 255 
-0.526561 -1.06982 5.405 0.99723 255 0 255 
-0.502061 -1.0721 5.40612 0.998176 255 0 255 
-0.483125 -1.07298 5.41493 0.998006 255 0 255 
-0.51437 -1.07199 5.38931 0.996478 255 0 255 
-0.464482 -1.07371 5.424 0.997617 255 0 255 
-0.00715595 -1.04964 5.29592 0.991657 255 0 255 
-0.0188554 -1.04587 5.31299 0.989696 255 0 255 
0.0195325 -1.04193 5.31604 0.988247 255 0 255 
0.00753494 -1.03837 5.33305 0.982939 255 0 255 
-0.0324256 -1.04128 5.33011 0.986922 255 0 255 
-0.0461323 -1.03527 5.34699 0.984252 255 0 255 
-0.0782421 -1.04067 5.32687 0.993112 255 0 255 
-0.062342 -1.04758 5.30978 0.992791 255 0 255 
-0.0488746 -1.05258 5.29274 0.992281 255 0 255 
-0.109654 -1.04664 5.30761 0.995034 255 0 255 
0.0483525 -1.03065 5.33388 0.984599 255 0 255 
0.0368675 -1.02327 5.35009 0.975772 255 0 255 
0.0730483 -1.01439 5.34958 0.977471 255 0 255 
0.0248119 -1.0157 5.36576 0.976933 255 0 255 
-0.0175405 -1.02141 5.36395 0.983772 255 0 255 
-0.00468409 -1.03052 5.34863 0.984089 255 0 255 
-0.0891887 -1.0081 5.38333 0.996691 255 0 255 
-0.112594 -1.00437 5.3899 0.995063 255 0 255 
-0.0617873 -1.01424 5.37637 0.99245 255 0 255 
-0.0991763 -1.02474 5.3603 0.995969 255 0 255 
-0.123484 -1.02027 5.36746 0.996305 255 0 255 
-0.145627 -1.01726 5.37401 0.995202 255 0 255 
-0.0721328 -1.03049 5.3532 0.992928 255 0 255 
-0.153781 -1.02811 5.34732 0.99676 255 0 255 
-0.174328 -1.02576 5.35375 0.995566 255 0 255 
-0.130454 -1.03125 5.34071 0.997421 255 0 255 
-0.160403 -1.03989 5.32119 0.996063 255 0 255 
-0.180757 -1.0383 5.32746 0.99677 255 0 255 
-0.136419 -1.04291 5.31473 0.995963 255 0 255 
-0.104896 -1.0358 5.33385 0.996424 255 0 255 
-0.195586 -1.02486 5.36298 0.995596 255 0 255 
-0.168417 -1.01624 5.38326 0.995851 255 0 255 
-0.189188 -1.016 5.39272 0.993873 255 0 255 
-0.203827 -1.02056 5.38293 0.99677 255 0 255 
-0.217501 -1.02596 5.37281 0.996144 255 0 255 
-0.208925 -1.03071 5.35302 0.997668 255 0 255 
-0.135701 -1.00097 5.39886 0.992661 255 0 255 
-0.140794 -0.993984 5.41599 0.990155 255 0 255 
-0.157792 -1.00111 5.40796 0.988494 255 0 255 
-0.152672 -1.00797 5.39091 0.99498 255 0 255 
-0.174082 -1.00832 5.40016 0.992519 255 0 255 
-0.222683 -1.02277 5.39423 0.995007 255 0 255 
-0.236944 -1.03231 5.36685 0.997286 255 0 255 
-0.109645 -1.05494 5.20894 0.997891 255 0 255 
-0.1275 -1.05572 5.22797 0.997414 255 0 255 
-0.0854304 -1.05653 5.23071 0.997253 255 0 255 
-0.102628 -1.05706 5.24909 0.995456 255 0 255 
-0.147077 -1.05503 5.24679 0.99635 255 0 255 
-0.165467 -1.05371 5.26542 0.995404 255 0 255 
-0.18765 -1.05396 5.24387 0.995907 255 0 255 
-0.171795 -1.05441 5.22559 0.997159 255 0 255 
-0.153543 -1.05465 5.20667 0.997089 255 0 255 
-0.208953 -1.05437 5.22245 0.995857 255 0 255 
-0.0603514 -1.05625 5.25258 0.996657 255 0 255 
-0.0741569 -1.05492 5.27067 0.995585 255 0 255 
-0.0343982 -1.05432 5.27454 0.994779 255 0 255 
-0.0909949 -1.05191 5.28932 0.994538 255 0 255 
-0.138724 -1.04966 5.28663 0.995712 255 0 255 
-0.119704 -1.05417 5.26793 0.995635 255 0 255 
-0.203241 -1.04461 5.30603 0.996065 255 0 255 
-0.183811 -1.04558 5.29976 0.997101 255 0 255 
-0.207087 -1.05205 5.27865 0.995927 255 0 255 
-0.225519 -1.05158 5.28474 0.995143 255 0 255 
-0.175095 -1.04988 5.28276 0.997399 255 0 255 
-0.244903 -1.05334 5.26264 0.995014 255 0 255 
-0.22686 -1.0532 5.25685 0.996052 255 0 255 
-0.246466 -1.05468 5.23471 0.994986 255 0 255 
-0.264659 -1.0545 5.24083 0.993234 255 0 255 
-0.218115 -1.05396 5.23969 0.996629 255 0 255 
-0.197727 -1.05342 5.26139 0.996355 255 0 255 
-0.337677 -1.05892 5.40062 0.99934 255 0 255 
-0.353628 -1.06329 5.39271 0.999025 255 0 255 
-0.3382 -1.06022 5.38138 0.998576 255 0 255 
-0.353874 -1.06451 5.37348 0.99811 255 0 255 
-0.370395 -1.06886 5.36562 0.996916 255 0 255 
-0.369752 -1.06695 5.38479 0.99889 255 0 255 
-0.386175 -1.07155 5.37672 0.997835 255 0 255 
-0.354159 -1.06601 5.35428 0.997671 255 0 255 
-0.406167 -1.07166 5.35184 0.996849 255 0 255 
-0.42729 -1.07105 5.32758 0.997126 255 0 255 
-0.430252 -1.07288 5.34851 0.996784 255 0 255 
-0.403088 -1.06984 5.33057 0.99743 255 0 255 
-0.381112 -1.06811 5.33472 0.9974 255 0 255 
-0.353703 -1.06364 5.31802 0.996623 255 0 255 
-0.337914 -1.06294 5.34376 0.997154 255 0 255 
-0.375766 -1.06587 5.31378 0.995122 255 0 255 
-0.399102 -1.06778 5.30997 0.995859 255 0 255 
-0.310136 -1.05398 5.36048 0.998736 255 0 255 
-0.29107 -1.04839 5.36507 0.999033 255 0 255 
-0.430225 -1.07428 5.36958 0.997596 255 0 255 
-0.408016 -1.07297 5.37314 0.998523 255 0 255 
-0.407961 -1.07417 5.39432 0.998546 255 0 255 
-0.431478 -1.07509 5.39088 0.997834 255 0 255 
-0.448031 -1.07509 5.38156 0.997784 255 0 255 
-0.447082 -1.07408 5.3603 0.997727 255 0 255 
-0.463503 -1.07365 5.35103 0.996281 255 0 255 
-0.464907 -1.07484 5.37236 0.996994 255 0 255 
-0.481578 -1.0743 5.36293 0.995969 255 0 255 
-0.353192 -1.06346 5.41753 0.999288 255 0 255 
-0.371626 -1.06672 5.40994 0.998843 255 0 255 
-0.389558 -1.07046 5.40203 0.998563 255 0 255 
-0.39296 -1.07002 5.43465 0.998448 255 0 255 
-0.427382 -1.07565 5.41316 0.997223 255 0 255 
-0.368592 -1.06666 5.43601 0.999086 255 0 255 
-0.450433 -1.07531 5.41024 0.99725 255 0 255 
-0.468908 -1.07462 5.4008 0.997234 255 0 255 
-0.487484 -1.07388 5.39167 0.996994 255 0 255 
-0.498059 -1.0735 5.37611 0.996743 255 0 255 
-0.551014 -1.05531 5.48424 0.998889 255 0 255 
-0.535599 -1.05402 5.50681 0.999557 255 0 255 
-0.506881 -1.05977 5.50072 0.99946 255 0 255 
-0.490978 -1.05942 5.52385 0.99948 255 0 255 
-0.520025 -1.0532 5.52933 0.99978 255 0 255 
-0.503845 -1.05344 5.55214 0.999747 255 0 255 
-0.551978 -1.04563 5.53357 0.999579 255 0 255 
-0.567095 -1.04704 5.51156 0.999437 255 0 255 
-0.58229 -1.04852 5.48942 0.99827 255 0 255 
-0.598156 -1.04174 5.51619 0.998549 255 0 255 
-0.458347 -1.06494 5.51584 0.99887 255 0 255 
-0.43941 -1.06426 5.53729 0.998322 255 0 255 
-0.415141 -1.06661 5.54404 0.99826 255 0 255 
-0.390821 -1.07037 5.551 0.99734 255 0 255 
-0.400638 -1.06707 5.57995 0.998151 255 0 255 
-0.426756 -1.06164 5.57289 0.999353 255 0 255 
-0.452443 -1.0579 5.56599 0.999575 255 0 255 
-0.47183 -1.0577 5.54473 0.999473 255 0 255 
-0.445794 -1.05206 5.62982 0.999556 255 0 255 
-0.472251 -1.04838 5.62207 0.999376 255 0 255 
-0.465276 -1.05197 5.60347 0.999729 255 0 255 
-0.498563 -1.04565 5.61422 0.999443 255 0 255 
-0.491342 -1.04844 5.59579 0.999596 255 0 255 
-0.517408 -1.04662 5.58842 0.999722 255 0 255 
-0.524307 -1.0444 5.6069 0.999708 255 0 255 
-0.484339 -1.05206 5.5777 0.999769 255 0 255 
-0.510598 -1.04983 5.57047 0.999833 255 0 255 
-0.458801 -1.05452 5.58489 0.999789 255 0 255 
-0.433096 -1.05812 5.59186 0.999792 255 0 255 
-0.439536 -1.05446 5.6105 0.999828 255 0 255 
-0.413694 -1.05869 5.6178 0.999725 255 0 255 
-0.407147 -1.0629 5.59893 0.999226 255 0 255 
-0.420122 -1.05574 5.63704 0.999635 255 0 255 
-0.548278 -1.04071 5.59687 0.999351 255 0 255 
-0.573454 -1.03701 5.58639 0.999208 255 0 255 
-0.565472 -1.03987 5.56939 0.999216 255 0 255 
-0.597886 -1.0344 5.57605 0.999322 255 0 255 
-0.589904 -1.03688 5.55928 0.999364 255 0 255 
-0.614123 -1.03478 5.54952 0.999107 255 0 255 
-0.621957 -1.03223 5.56607 0.999132 255 0 255 
-0.581864 -1.04045 5.54264 0.999362 255 0 255 
-0.606232 -1.03789 5.53295 0.998944 255 0 255 
-0.558436 -1.04249 5.55165 0.999491 255 0 255 
-0.534634 -1.04552 5.56077 0.999563 255 0 255 
-0.541545 -1.04271 5.5786 0.999404 255 0 255 
-0.0461278 -0.638111 5.43746 0.993755 255 0 255 
-0.0686208 -0.620496 5.42468 0.996855 255 0 255 
-0.0912452 -0.604848 5.41315 0.998615 255 0 255 
-0.0562862 -0.649704 5.42589 0.993232 255 0 255 
-0.0796306 -0.633635 5.41219 0.996295 255 0 255 
