ply
format ascii 1.0
comment Seamless Cloth Simulation with High Geometric Fidelity 
comment Mon Apr 29 15:20:18 2019
element vertex 1020
property float x
property float y
property float z
property float quality
property uchar red
property uchar green
property uchar blue
end_header
0.729149 0.000802832 6.4555 0.937372 255 0 255 
0.739692 -0.00311361 6.43914 0.928796 255 0 255 
0.713746 -0.00139321 6.42449 0.945088 255 0 255 
0.750075 -0.00677346 6.42266 0.922427 255 0 255 
0.724092 -0.00517096 6.40797 0.940028 255 0 255 
0.734578 -0.00874041 6.39142 0.924166 255 0 255 
0.760676 -0.0101145 6.40613 0.902904 255 0 255 
0.698237 -0.00369105 6.39339 0.951645 255 0 255 
0.708573 -0.00723944 6.37679 0.941056 255 0 255 
0.688014 5.89903e-05 6.40985 0.958883 255 0 255 
0.677933 0.00417042 6.42625 0.957071 255 0 255 
0.703405 0.00250128 6.44082 0.945412 255 0 255 
0.476128 0.0274811 6.45059 0.928189 255 0 255 
0.501682 0.0266033 6.46453 0.931724 255 0 255 
0.487185 0.0275583 6.48033 0.925022 255 0 255 
0.46157 0.0285355 6.46646 0.92156 255 0 255 
0.512013 0.0266768 6.49394 0.927429 255 0 255 
0.472679 0.0284239 6.49625 0.917906 255 0 255 
0.497566 0.0274326 6.50978 0.924479 255 0 255 
0.483195 0.0280601 6.52568 0.910864 255 0 255 
0.446929 0.0295643 6.48232 0.913642 255 0 255 
0.458116 0.0292776 6.51209 0.906781 255 0 255 
0.432318 0.0305628 6.49822 0.897961 255 0 255 
0.522137 0.0265021 6.52326 0.92061 255 0 255 
0.507817 0.0270662 6.53914 0.912376 255 0 255 
0.53198 0.0262579 6.55243 0.907916 255 0 255 
0.54734 0.0252719 6.53727 0.913203 255 0 255 
0.537239 0.0254727 6.50795 0.923147 255 0 255 
0.562444 0.0243814 6.52195 0.918484 255 0 255 
0.552394 0.0243955 6.49267 0.928431 255 0 255 
0.527176 0.025428 6.47865 0.935194 255 0 255 
0.577445 0.0234189 6.50665 0.921528 255 0 255 
0.415714 0.0282683 6.51442 0.900568 255 0 255 
0.439716 0.0273504 6.52743 0.906707 255 0 255 
0.422899 0.0249146 6.5435 0.906571 255 0 255 
0.399196 0.0258421 6.53068 0.899386 255 0 255 
0.447072 0.0240868 6.55659 0.915115 255 0 255 
0.406166 0.0223791 6.55956 0.905338 255 0 255 
0.430612 0.0214049 6.57267 0.91437 255 0 255 
0.41383 0.0186721 6.58866 0.914748 255 0 255 
0.382754 0.0233845 6.54689 0.893304 255 0 255 
0.389775 0.0196005 6.57567 0.899915 255 0 255 
0.366414 0.0207409 6.56305 0.886064 255 0 255 
0.453936 0.0206729 6.58541 0.922336 255 0 255 
0.43753 0.0179466 6.60152 0.918796 255 0 255 
0.460418 0.0174083 6.61408 0.921818 255 0 255 
0.478307 0.0196267 6.59869 0.925752 255 0 255 
0.471887 0.0229005 6.57002 0.922236 255 0 255 
0.49622 0.0218593 6.58332 0.925092 255 0 255 
0.489808 0.0250574 6.55458 0.918959 255 0 255 
0.465115 0.0261604 6.54111 0.916526 255 0 255 
0.514146 0.0241056 6.56791 0.920491 255 0 255 
0.547922 0.0131788 6.66485 0.909199 255 0 255 
0.567435 0.0147496 6.65027 0.913909 255 0 255 
0.54399 0.0163724 6.63672 0.91486 255 0 255 
0.563643 0.0179313 6.62223 0.915064 255 0 255 
0.586986 0.0162895 6.63567 0.910353 255 0 255 
0.540132 0.0196265 6.60872 0.914431 255 0 255 
0.58311 0.0195608 6.60753 0.90648 255 0 255 
0.559664 0.0212156 6.5941 0.910132 255 0 255 
0.579215 0.0228518 6.57948 0.899526 255 0 255 
0.606683 0.017949 6.6211 0.904549 255 0 255 
0.602822 0.0212119 6.59302 0.899743 255 0 255 
0.626307 0.0195753 6.60651 0.89543 255 0 255 
0.536126 0.0229353 6.58066 0.913925 255 0 255 
0.555726 0.0244582 6.56603 0.905846 255 0 255 
0.518217 0.0207414 6.59602 0.92166 255 0 255 
0.500294 0.0184561 6.61139 0.923939 255 0 255 
0.522232 0.0173648 6.62403 0.918616 255 0 255 
0.50436 0.0151103 6.63941 0.919856 255 0 255 
0.482475 0.0161923 6.62675 0.924232 255 0 255 
0.526131 0.0141299 6.65208 0.913647 255 0 255 
0.642556 0.0181413 6.59195 0.902858 255 0 255 
0.618067 0.0204393 6.5778 0.905655 255 0 255 
0.634242 0.0190183 6.56321 0.908433 255 0 255 
0.658962 0.0167422 6.57747 0.913676 255 0 255 
0.609701 0.0212524 6.54905 0.910979 255 0 255 
0.650764 0.017646 6.5488 0.914367 255 0 255 
0.625925 0.019806 6.53444 0.913344 255 0 255 
0.675489 0.0154309 6.56305 0.911565 255 0 255 
0.601287 0.021904 6.52027 0.917014 255 0 255 
0.586094 0.0227621 6.53552 0.916725 255 0 255 
0.570797 0.02366 6.55072 0.912068 255 0 255 
0.594558 0.0220336 6.56433 0.906579 255 0 255 
0.696731 0.0121922 6.57648 0.917756 255 0 255 
0.680317 0.0134053 6.59096 0.913143 255 0 255 
0.701722 0.010012 6.60451 0.914282 255 0 255 
0.66395 0.0147969 6.60551 0.911494 255 0 255 
0.685262 0.0113569 6.61897 0.911125 255 0 255 
0.6689 0.0128047 6.63349 0.911939 255 0 255 
0.647655 0.0161766 6.62004 0.906993 255 0 255 
0.690198 0.00932672 6.64701 0.911261 255 0 255 
0.625801 0.0159048 6.63369 0.909337 255 0 255 
0.606195 0.0142999 6.64828 0.9122 255 0 255 
0.625348 0.0122762 6.66086 0.913954 255 0 255 
0.586506 0.0126955 6.66277 0.915083 255 0 255 
0.605511 0.0107588 6.67535 0.912773 255 0 255 
0.585809 0.00935923 6.68986 0.905967 255 0 255 
0.566968 0.0113147 6.67742 0.913424 255 0 255 
0.624529 0.00891462 6.68794 0.917121 255 0 255 
0.604642 0.00742559 6.70232 0.908766 255 0 255 
0.623663 0.00580739 6.7151 0.90397 255 0 255 
0.645615 0.00562965 6.70142 0.910351 255 0 255 
0.646461 0.0089356 6.67431 0.913861 255 0 255 
0.667519 0.0055646 6.68771 0.91494 255 0 255 
0.668352 0.00904895 6.66063 0.915284 255 0 255 
0.647081 0.0125164 6.64716 0.910971 255 0 255 
0.661651 0.00280266 6.71366 0.907378 255 0 255 
0.639758 0.00308652 6.72742 0.90096 255 0 255 
0.451942 -0.932344 6.84491 0.669281 255 0 255 
0.434801 -0.920625 6.83323 0.758586 255 0 255 
0.447738 -0.92941 6.81384 0.805498 255 0 255 
0.430465 -0.917552 6.80191 0.862644 255 0 255 
0.417533 -0.908702 6.82133 0.821998 255 0 255 
0.443496 -0.926322 6.7826 0.894092 255 0 255 
0.413064 -0.905558 6.78987 0.905193 255 0 255 
0.426151 -0.914408 6.77048 0.932069 255 0 255 
0.408518 -0.902487 6.75821 0.952911 255 0 255 
0.400057 -0.896644 6.80924 0.87123 255 0 255 
0.395538 -0.893543 6.77753 0.931719 255 0 255 
0.382414 -0.884555 6.79694 0.901475 255 0 255 
0.438963 -0.923138 6.75111 0.945379 255 0 255 
0.42138 -0.911296 6.73884 0.932586 255 0 255 
0.434198 -0.919981 6.71946 0.939861 255 0 255 
0.451994 -0.930571 6.73175 0.925884 255 0 255 
0.456605 -0.933761 6.76321 0.918928 255 0 255 
0.469612 -0.941105 6.74391 0.935223 255 0 255 
0.474035 -0.944267 6.77513 0.883861 255 0 255 
0.461017 -0.93692 6.79453 0.851392 255 0 255 
0.478416 -0.947305 6.80619 0.794596 255 0 255 
0.487134 -0.951527 6.75589 0.903289 255 0 255 
0.49148 -0.954542 6.78684 0.832891 255 0 255 
0.504459 -0.961729 6.76754 0.858678 255 0 255 
0.46515 -0.939864 6.82552 0.738091 255 0 255 
0.365386 -0.872654 6.78537 0.921562 255 0 255 
0.378444 -0.88305 6.76587 0.939839 255 0 255 
0.36107 -0.8713 6.75406 0.945552 255 0 255 
0.348064 -0.86079 6.77353 0.92914 255 0 255 
0.37389 -0.881684 6.73457 0.957689 255 0 255 
0.343288 -0.85959 6.7422 0.940868 255 0 255 
0.356218 -0.870047 6.72269 0.919002 255 0 255 
0.338307 -0.858398 6.71065 0.912645 255 0 255 
0.330303 -0.849106 6.76162 0.929299 255 0 255 
0.32535 -0.848008 6.73011 0.934869 255 0 255 
0.312332 -0.837412 6.74957 0.927212 255 0 255 
0.369149 -0.880283 6.70316 0.931141 255 0 255 
0.351236 -0.868651 6.69112 0.923838 255 0 255 
0.364131 -0.878788 6.67153 0.933595 255 0 255 
0.382054 -0.889129 6.68375 0.939261 255 0 255 
0.386858 -0.89057 6.71522 0.93619 255 0 255 
0.399722 -0.8994 6.69589 0.94479 255 0 255 
0.404305 -0.900945 6.72712 0.937658 255 0 255 
0.391366 -0.89206 6.74647 0.958632 255 0 255 
0.417139 -0.90972 6.70776 0.945487 255 0 255 
0.411693 -0.90769 6.58902 0.945736 255 0 255 
0.428999 -0.917279 6.6018 0.953553 255 0 255 
0.417648 -0.911241 6.62206 0.952588 255 0 255 
0.434864 -0.920422 6.63461 0.957114 255 0 255 
0.44616 -0.926535 6.61438 0.957703 255 0 255 
0.423452 -0.914267 6.65472 0.954362 255 0 255 
0.451819 -0.929443 6.64694 0.959198 255 0 255 
0.440422 -0.92331 6.66715 0.956081 255 0 255 
0.457155 -0.932299 6.67931 0.954109 255 0 255 
0.463162 -0.935585 6.6268 0.959754 255 0 255 
0.46854 -0.938408 6.65916 0.957521 255 0 255 
0.479845 -0.944517 6.63903 0.958323 255 0 255 
0.429017 -0.917109 6.68727 0.951677 255 0 255 
0.445686 -0.926153 6.69941 0.948721 255 0 255 
0.411666 -0.906894 6.67533 0.950505 255 0 255 
0.394032 -0.896576 6.66318 0.94457 255 0 255 
0.405879 -0.903921 6.64264 0.949636 255 0 255 
0.388019 -0.893439 6.63033 0.941576 255 0 255 
0.376096 -0.886146 6.65093 0.938211 255 0 255 
0.399872 -0.900602 6.60969 0.944379 255 0 255 
0.497412 -0.953701 6.65175 0.951866 255 0 255 
0.486359 -0.948809 6.67161 0.947877 255 0 255 
0.503741 -0.957995 6.68406 0.935264 255 0 255 
0.514753 -0.962778 6.66421 0.940085 255 0 255 
0.492668 -0.953161 6.70385 0.92401 255 0 255 
0.520918 -0.967049 6.69635 0.951103 255 0 255 
0.50983 -0.962286 6.71611 0.940259 255 0 255 
0.52687 -0.971222 6.72819 0.909906 255 0 255 
0.531999 -0.971778 6.67653 0.95771 255 0 255 
0.537953 -0.975908 6.7084 0.926594 255 0 255 
0.549063 -0.980616 6.68867 0.935646 255 0 255 
0.498654 -0.957535 6.73584 0.9196 255 0 255 
0.515652 -0.966498 6.74784 0.889436 255 0 255 
0.48119 -0.947163 6.72389 0.94868 255 0 255 
0.463566 -0.936687 6.71173 0.936966 255 0 255 
0.47499 -0.942773 6.6917 0.94314 255 0 255 
0.294558 -0.830452 6.73889 0.919062 255 0 255 
0.307137 -0.8419 6.71901 0.928961 255 0 255 
0.289474 -0.834644 6.70808 0.92249 255 0 255 
0.276904 -0.823324 6.72799 0.909712 255 0 255 
0.302006 -0.845799 6.68822 0.936656 255 0 255 
0.271822 -0.827301 6.69732 0.914768 255 0 255 
0.284405 -0.838374 6.6773 0.931233 255 0 255 
0.266783 -0.830879 6.66646 0.924171 255 0 255 
0.25929 -0.816073 6.71706 0.902918 255 0 255 
0.254265 -0.819846 6.68639 0.911983 255 0 255 
0.241694 -0.808625 6.70617 0.898258 255 0 255 
0.296959 -0.849214 6.65736 0.944352 255 0 255 
0.279434 -0.841434 6.6464 0.93753 255 0 255 
0.291906 -0.852098 6.62635 0.919605 255 0 255 
0.309937 -0.858993 6.6377 0.923946 255 0 255 
0.315007 -0.855926 6.66861 0.916817 255 0 255 
0.327956 -0.865861 6.64897 0.928343 255 0 255 
0.333128 -0.862368 6.67987 0.919948 255 0 255 
0.320133 -0.852209 6.69947 0.941368 255 0 255 
0.34601 -0.872446 6.66032 0.93061 255 0 255 
0.224874 -0.804676 6.69677 0.883845 255 0 255 
0.236912 -0.816388 6.67636 0.900133 255 0 255 
0.220302 -0.812253 6.66682 0.89046 255 0 255 
0.20832 -0.800522 6.68722 0.874367 255 0 255 
0.232477 -0.823418 6.64625 0.905585 255 0 255 
0.203774 -0.807931 6.65727 0.886906 255 0 255 
0.215825 -0.819129 6.63668 0.902091 255 0 255 
0.199284 -0.814694 6.62709 0.893086 255 0 255 
0.191749 -0.796334 6.6777 0.868828 255 0 255 
0.187289 -0.803537 6.64782 0.878124 255 0 255 
0.175125 -0.79219 6.66826 0.867185 255 0 255 
0.227852 -0.830036 6.61612 0.914513 255 0 255 
0.211507 -0.825205 6.60644 0.908432 255 0 255 
0.223468 -0.835591 6.58569 0.922577 255 0 255 
0.240374 -0.839924 6.59593 0.925325 255 0 255 
0.244962 -0.833962 6.62622 0.921224 255 0 255 
0.257506 -0.844058 6.6061 0.934457 255 0 255 
0.262154 -0.837732 6.63628 0.930564 255 0 255 
0.249565 -0.8272 6.65642 0.915029 255 0 255 
0.274696 -0.848145 6.61623 0.941892 255 0 255 
0.271918 -0.8635 6.49825 0.938011 255 0 255 
0.288803 -0.86852 6.5091 0.949875 255 0 255 
0.276774 -0.861574 6.5304 0.946661 255 0 255 
0.293911 -0.865884 6.54117 0.955897 255 0 255 
0.305988 -0.872796 6.51987 0.931943 255 0 255 
0.281796 -0.858933 6.56253 0.952435 255 0 255 
0.311132 -0.869994 6.55189 0.934497 255 0 255 
0.298969 -0.863095 6.57329 0.930984 255 0 255 
0.316284 -0.866841 6.58391 0.934955 255 0 255 
0.323164 -0.877051 6.53057 0.934782 255 0 255 
0.328369 -0.874022 6.56263 0.937883 255 0 255 
0.34036 -0.881386 6.54136 0.939518 255 0 255 
0.286758 -0.855954 6.59462 0.951924 255 0 255 
0.304157 -0.859485 6.60511 0.928204 255 0 255 
0.269707 -0.851448 6.58428 0.945274 255 0 255 
0.252588 -0.84714 6.57408 0.93836 255 0 255 
0.264661 -0.854445 6.55228 0.94448 255 0 255 
0.24791 -0.84942 6.54184 0.935863 255 0 255 
0.235635 -0.842644 6.56384 0.931829 255 0 255 
0.259992 -0.856312 6.52 0.937186 255 0 255 
0.3582 -0.888305 6.55336 0.944419 255 0 255 
0.346236 -0.88162 6.57411 0.944226 255 0 255 
0.364125 -0.888067 6.5859 0.945442 255 0 255 
0.376006 -0.894895 6.56522 0.946337 255 0 255 
0.352122 -0.881327 6.60668 0.941831 255 0 255 
0.38202 -0.894558 6.59783 0.945474 255 0 255 
0.370074 -0.887592 6.61853 0.94319 255 0 255 
0.393872 -0.90153 6.57714 0.946814 255 0 255 
0.358064 -0.8804 6.63919 0.938026 255 0 255 
0.340102 -0.873662 6.62785 0.936944 255 0 255 
0.322092 -0.866669 6.61651 0.932489 255 0 255 
0.334156 -0.874293 6.59536 0.939854 255 0 255 
0.32706 -0.767259 6.9757 0.70007 255 0 255 
0.31257 -0.757397 6.96362 0.746443 255 0 255 
0.326136 -0.780781 6.94877 0.780331 255 0 255 
0.31174 -0.770884 6.93667 0.813269 255 0 255 
0.298068 -0.747414 6.95152 0.784035 255 0 255 
0.32543 -0.794106 6.92186 0.832358 255 0 255 
0.297078 -0.76084 6.92446 0.842252 255 0 255 
0.310923 -0.784106 6.90973 0.85359 255 0 255 
0.296043 -0.774192 6.89742 0.872491 255 0 255 
0.283197 -0.737373 6.93911 0.816193 255 0 255 
0.282061 -0.750877 6.91206 0.857561 255 0 255 
0.268185 -0.727321 6.92664 0.829965 255 0 255 
0.324743 -0.807255 6.89492 0.852694 255 0 255 
0.310044 -0.797432 6.88265 0.871957 255 0 255 
0.324092 -0.820591 6.8676 0.859476 255 0 255 
0.340394 -0.832349 6.88011 0.827933 255 0 255 
0.340959 -0.819175 6.90715 0.811834 255 0 255 
0.356538 -0.844074 6.89237 0.78277 255 0 255 
0.356949 -0.830957 6.91927 0.763494 255 0 255 
0.341597 -0.805978 6.93413 0.790917 255 0 255 
0.357534 -0.817634 6.94617 0.735479 255 0 255 
0.372577 -0.855771 6.90434 0.723415 255 0 255 
0.372985 -0.842545 6.93124 0.698717 255 0 255 
0.388501 -0.867237 6.91619 0.645399 255 0 255 
0.342323 -0.792651 6.96097 0.728003 255 0 255 
0.252844 -0.716781 6.91519 0.83557 255 0 255 
0.2655 -0.738674 6.90038 0.871479 255 0 255 
0.249993 -0.728278 6.88883 0.873475 255 0 255 
0.237426 -0.706225 6.90374 0.838434 255 0 255 
0.262746 -0.750215 6.8739 0.888808 255 0 255 
0.234415 -0.717839 6.87736 0.865987 255 0 255 
0.247077 -0.739764 6.86243 0.882782 255 0 255 
0.231457 -0.729556 6.85081 0.882531 255 0 255 
0.221818 -0.695744 6.89214 0.848132 255 0 255 
0.218771 -0.707438 6.8657 0.87024 255 0 255 
0.206254 -0.685239 6.88048 0.847671 255 0 255 
0.259867 -0.761757 6.84734 0.889374 255 0 255 
0.244144 -0.751619 6.83574 0.888437 255 0 255 
0.257051 -0.773506 6.8206 0.888142 255 0 255 
0.274094 -0.785176 6.83253 0.886594 255 0 255 
0.276834 -0.773616 6.85924 0.889837 255 0 255 
0.291083 -0.796904 6.84429 0.884955 255 0 255 
0.293629 -0.785494 6.87097 0.888869 255 0 255 
0.279522 -0.762231 6.88571 0.882058 255 0 255 
0.307714 -0.808739 6.85605 0.876422 255 0 255 
0.315576 -0.833134 6.77926 0.922551 255 0 255 
0.33335 -0.844942 6.7912 0.923913 255 0 255 
0.318619 -0.828837 6.80884 0.913343 255 0 255 
0.350823 -0.856774 6.80305 0.920903 255 0 255 
0.336185 -0.840829 6.8207 0.908102 255 0 255 
0.353226 -0.852831 6.83244 0.898363 255 0 255 
0.367872 -0.868739 6.81469 0.906246 255 0 255 
0.321477 -0.824662 6.83834 0.894983 255 0 255 
0.338666 -0.836775 6.85006 0.886019 255 0 255 
0.304801 -0.812887 6.82662 0.899325 255 0 255 
0.287941 -0.80128 6.81486 0.899401 255 0 255 
0.301751 -0.817248 6.79709 0.911432 255 0 255 
0.28461 -0.805769 6.78528 0.908279 255 0 255 
0.270824 -0.789681 6.80299 0.8982 255 0 255 
0.298481 -0.821662 6.76751 0.91591 255 0 255 
0.384045 -0.880242 6.82705 0.876126 255 0 255 
0.401508 -0.892382 6.8392 0.830506 255 0 255 
0.38553 -0.875929 6.85702 0.828501 255 0 255 
0.418899 -0.904424 6.85117 0.769636 255 0 255 
0.402867 -0.888047 6.86896 0.782127 255 0 255 
0.420118 -0.900067 6.88063 0.705401 255 0 255 
0.436031 -0.916276 6.86282 0.69943 255 0 255 
0.387044 -0.871583 6.88675 0.760636 255 0 255 
0.404297 -0.883703 6.89848 0.690195 255 0 255 
0.371024 -0.860016 6.87481 0.816409 255 0 255 
0.35491 -0.8484 6.86255 0.857158 255 0 255 
0.369395 -0.864407 6.84479 0.871279 255 0 255 
0.190929 -0.678374 6.87001 0.834125 255 0 255 
0.202222 -0.69991 6.85501 0.855881 255 0 255 
0.186977 -0.692958 6.84468 0.848002 255 0 255 
0.175647 -0.671334 6.85959 0.827592 255 0 255 
0.198198 -0.714639 6.82958 0.861337 255 0 255 
0.171663 -0.686056 6.83428 0.838086 255 0 255 
0.182916 -0.707776 6.81921 0.849122 255 0 255 
0.167714 -0.700747 6.80897 0.850235 255 0 255 
0.160551 -0.664285 6.84925 0.82814 255 0 255 
0.156446 -0.679104 6.82392 0.841363 255 0 255 
0.14544 -0.657219 6.83886 0.827469 255 0 255 
0.19434 -0.729369 6.80413 0.856094 255 0 255 
0.179142 -0.722464 6.79386 0.857604 255 0 255 
0.190542 -0.744015 6.77854 0.856256 255 0 255 
0.207097 -0.75133 6.78914 0.860199 255 0 255 
0.210875 -0.736802 6.81465 0.866255 255 0 255 
0.2237 -0.758828 6.7996 0.867737 255 0 255 
0.227496 -0.744234 6.82515 0.87704 255 0 255 
0.214806 -0.722143 6.84017 0.869662 255 0 255 
0.240369 -0.766157 6.81009 0.879189 255 0 255 
0.130724 -0.652905 6.82972 0.816657 255 0 255 
0.140796 -0.674896 6.81473 0.831248 255 0 255 
0.126117 -0.670578 6.80577 0.822412 255 0 255 
0.11607 -0.648665 6.82072 0.812444 255 0 255 
0.136223 -0.69246 6.79073 0.830353 255 0 255 
0.111471 -0.666292 6.79674 0.81965 255 0 255 
0.121674 -0.688067 6.78182 0.828593 255 0 255 
0.107218 -0.683703 6.773 0.823203 255 0 255 
0.101434 -0.644202 6.81177 0.809276 255 0 255 
0.097047 -0.661754 6.78799 0.813449 255 0 255 
0.0869642 -0.639861 6.80282 0.803943 255 0 255 
0.132001 -0.709816 6.7666 0.832509 255 0 255 
0.117385 -0.705394 6.75773 0.829813 255 0 255 
0.127798 -0.726887 6.74225 0.826372 255 0 255 
0.143408 -0.731223 6.7513 0.82846 255 0 255 
0.147666 -0.714052 6.77567 0.834358 255 0 255 
0.159059 -0.735531 6.76037 0.83495 255 0 255 
0.163267 -0.718262 6.78476 0.843639 255 0 255 
0.151964 -0.696654 6.79984 0.837262 255 0 255 
0.174788 -0.739846 6.76951 0.842906 255 0 255 
0.178901 -0.780827 6.69608 0.860361 255 0 255 
0.195542 -0.784894 6.70541 0.865809 255 0 255 
0.182756 -0.768963 6.72368 0.854186 255 0 255 
0.212081 -0.788951 6.71497 0.875993 255 0 255 
0.199394 -0.772943 6.73311 0.864636 255 0 255 
0.216092 -0.776778 6.74259 0.876314 255 0 255 
0.2289 -0.792875 6.72444 0.886789 255 0 255 
0.186644 -0.756675 6.7512 0.851602 255 0 255 
0.203305 -0.760476 6.76063 0.868341 255 0 255 
0.170859 -0.752352 6.7421 0.847403 255 0 255 
0.155146 -0.748028 6.73302 0.841217 255 0 255 
0.167009 -0.764532 6.71461 0.850213 255 0 255 
0.151394 -0.760014 6.70551 0.849403 255 0 255 
0.139627 -0.743558 6.72395 0.83695 255 0 255 
0.163387 -0.776159 6.68696 0.862463 255 0 255 
0.245457 -0.800313 6.73499 0.892459 255 0 255 
0.263087 -0.807576 6.74586 0.900721 255 0 255 
0.249246 -0.791527 6.7637 0.89081 255 0 255 
0.280783 -0.814702 6.75666 0.909094 255 0 255 
0.266903 -0.798678 6.77449 0.900357 255 0 255 
0.253097 -0.782521 6.79217 0.889202 255 0 255 
0.236468 -0.775298 6.78164 0.879378 255 0 255 
0.219833 -0.767908 6.77118 0.875322 255 0 255 
0.23267 -0.78422 6.75308 0.881574 255 0 255 
0.348728 0.0140865 6.57995 0.909542 255 0 255 
0.368956 0.0135007 6.59188 0.91457 255 0 255 
0.351148 0.00681246 6.6087 0.919454 255 0 255 
0.331071 0.00717101 6.5968 0.9177 255 0 255 
0.371713 0.00635164 6.62078 0.925738 255 0 255 
0.333451 -7.88011e-05 6.6255 0.920457 255 0 255 
0.353754 -0.000374651 6.63752 0.925085 255 0 255 
0.335855 -0.0072749 6.65426 0.920359 255 0 255 
0.313451 0.000107994 6.61363 0.918624 255 0 255 
0.315754 -0.00719565 6.6423 0.920974 255 0 255 
0.295865 -0.00723431 6.63045 0.919728 255 0 255 
0.374725 -0.000642165 6.64985 0.927366 255 0 255 
0.356553 -0.00735672 6.66648 0.921417 255 0 255 
0.377511 -0.00726526 6.6788 0.921429 255 0 255 
0.398356 -0.00102145 6.66271 0.931534 255 0 255 
0.395987 0.00549969 6.63387 0.933161 255 0 255 
0.419008 0.0051367 6.64649 0.936209 255 0 255 
0.416761 0.0117502 6.61769 0.929886 255 0 255 
0.392789 0.0124728 6.60473 0.922631 255 0 255 
0.439769 0.0112965 6.6303 0.93413 255 0 255 
0.278138 -0.0193006 6.64727 0.944146 255 0 255 
0.295132 -0.0190944 6.65867 0.941999 255 0 255 
0.277313 -0.0308439 6.67562 0.951497 255 0 255 
0.2603 -0.0310727 6.66425 0.953661 255 0 255 
0.294336 -0.0305019 6.68695 0.945304 255 0 255 
0.259401 -0.0422362 6.69265 0.947317 255 0 255 
0.276307 -0.0417365 6.7039 0.941816 255 0 255 
0.258282 -0.0527749 6.72106 0.931702 255 0 255 
0.242412 -0.0425634 6.68134 0.950329 255 0 255 
0.241346 -0.0532787 6.70983 0.936114 255 0 255 
0.224427 -0.0537522 6.69854 0.940554 255 0 255 
0.293365 -0.0413242 6.7153 0.937674 255 0 255 
0.275178 -0.0522702 6.73241 0.92448 255 0 255 
0.292417 -0.0516945 6.74376 0.92454 255 0 255 
0.313594 -0.0407475 6.72734 0.935607 255 0 255 
0.314384 -0.0301069 6.69883 0.944053 255 0 255 
0.334895 -0.0296558 6.711 0.941999 255 0 255 
0.335454 -0.0186999 6.68263 0.936876 255 0 255 
0.315035 -0.0189189 6.67052 0.937604 255 0 255 
0.356279 -0.0184551 6.69489 0.936084 255 0 255 
0.35961 -0.0493892 6.7907 0.890601 255 0 255 
0.383681 -0.0389905 6.77488 0.909156 255 0 255 
0.364593 -0.0393771 6.76273 0.917768 255 0 255 
0.388449 -0.0288668 6.74686 0.923456 255 0 255 
0.407391 -0.0284265 6.75911 0.917729 255 0 255 
0.369185 -0.0291309 6.73464 0.931385 255 0 255 
0.412089 -0.0181333 6.73105 0.922944 255 0 255 
0.392946 -0.0183333 6.71886 0.927395 255 0 255 
0.41656 -0.00754616 6.70304 0.918521 255 0 255 
0.431202 -0.018077 6.74318 0.919153 255 0 255 
0.435805 -0.00770922 6.71513 0.913094 255 0 255 
0.454872 -0.00776352 6.72725 0.910991 255 0 255 
0.373469 -0.0183558 6.70671 0.933035 255 0 255 
0.397262 -0.00747839 6.69097 0.921304 255 0 255 
0.352201 -0.0294534 6.72287 0.936051 255 0 255 
0.330715 -0.0404192 6.73915 0.930212 255 0 255 
0.347879 -0.0399399 6.75096 0.922068 255 0 255 
0.326607 -0.050659 6.76721 0.91138 255 0 255 
0.309348 -0.0512429 6.75551 0.917221 255 0 255 
0.343239 -0.0500105 6.77897 0.900002 255 0 255 
0.478129 -0.00260931 6.71157 0.921657 255 0 255 
0.456391 -0.00190627 6.69882 0.923771 255 0 255 
0.479738 0.00338929 6.68331 0.930618 255 0 255 
0.501369 0.00254975 6.69593 0.926171 255 0 255 
0.457952 0.00430459 6.6706 0.933318 255 0 255 
0.502965 0.00870181 6.66769 0.926015 255 0 255 
0.481176 0.00961407 6.65502 0.933535 255 0 255 
0.52458 0.00779719 6.68031 0.915154 255 0 255 
0.45926 0.0106868 6.64236 0.932496 255 0 255 
0.43859 0.00469798 6.65855 0.937244 255 0 255 
0.417895 -0.0013671 6.67477 0.931047 255 0 255 
0.43735 -0.00165731 6.68683 0.930626 255 0 255 
0.207672 -0.0698643 6.71491 0.945353 255 0 255 
0.222745 -0.0698453 6.72591 0.943013 255 0 255 
0.20604 -0.085905 6.74209 0.933148 255 0 255 
0.191021 -0.0860469 6.73103 0.939264 255 0 255 
0.220992 -0.0857644 6.75312 0.922859 255 0 255 
0.189286 -0.101842 6.75822 0.907072 255 0 255 
0.204185 -0.101662 6.7693 0.903789 255 0 255 
0.187469 -0.117474 6.78528 0.859446 255 0 255 
0.174248 -0.101996 6.74722 0.911596 255 0 255 
0.172508 -0.117691 6.7743 0.870589 255 0 255 
0.157474 -0.117873 6.76332 0.877103 255 0 255 
0.219067 -0.101417 6.78038 0.896622 255 0 255 
0.202257 -0.117203 6.79642 0.856577 255 0 255 
0.217157 -0.116869 6.80743 0.854733 255 0 255 
0.235878 -0.100619 6.79164 0.892781 255 0 255 
0.237822 -0.0850269 6.76441 0.922289 255 0 255 
0.254706 -0.0843603 6.77562 0.913128 255 0 255 
0.256573 -0.0687162 6.74836 0.933496 255 0 255 
0.239617 -0.0692189 6.73718 0.935047 255 0 255 
0.273526 -0.0680778 6.75963 0.927737 255 0 255 
0.143295 -0.138375 6.77721 0.849464 255 0 255 
0.157041 -0.139023 6.78806 0.842046 255 0 255 
0.143001 -0.159658 6.80168 0.810148 255 0 255 
0.129182 -0.158959 6.79091 0.808733 255 0 255 
0.128991 -0.18026 6.81514 0.756786 255 0 255 
0.128743 -0.201734 6.83914 0.671962 255 0 255 
0.115039 -0.179528 6.80453 0.758676 255 0 255 
0.101391 -0.200469 6.81759 0.676446 255 0 255 
0.156412 -0.181613 6.83652 0.739993 255 0 255 
0.156034 -0.202854 6.86053 0.640385 255 0 255 
0.171175 -0.181205 6.84757 0.731 255 0 255 
0.171587 -0.160098 6.82341 0.789926 255 0 255 
0.186321 -0.159663 6.83447 0.78353 255 0 255 
0.186935 -0.138587 6.80996 0.826418 255 0 255 
0.172025 -0.138865 6.79903 0.835795 255 0 255 
0.201712 -0.138263 6.82103 0.819865 255 0 255 
0.20907 -0.205962 6.90503 0.602714 255 0 255 
0.225369 -0.183241 6.8923 0.690233 255 0 255 
0.211045 -0.18357 6.88102 0.70192 255 0 255 
0.227545 -0.160915 6.86804 0.760103 255 0 255 
0.241996 -0.160515 6.87931 0.760662 255 0 255 
0.213101 -0.161291 6.85675 0.772598 255 0 255 
0.244184 -0.138419 6.85482 0.803015 255 0 255 
0.229632 -0.138772 6.84353 0.804097 255 0 255 
0.246243 -0.116426 6.83005 0.833698 255 0 255 
0.258728 -0.137876 6.86622 0.79512 255 0 255 
0.260926 -0.116038 6.84146 0.818921 255 0 255 
0.275659 -0.115438 6.85283 0.809694 255 0 255 
0.231662 -0.116643 6.81882 0.838329 255 0 255 
0.18255 -0.204574 6.88276 0.613951 255 0 255 
0.296748 -0.0987863 6.83739 0.850565 255 0 255 
0.280065 -0.0997453 6.82583 0.865712 255 0 255 
0.301072 -0.0831749 6.81019 0.892911 255 0 255 
0.317718 -0.0822802 6.82186 0.884511 255 0 255 
0.284264 -0.0840556 6.7985 0.902994 255 0 255 
0.322284 -0.0666561 6.79452 0.905231 255 0 255 
0.305385 -0.0674178 6.78274 0.913184 255 0 255 
0.338723 -0.0658424 6.80628 0.891268 255 0 255 
0.288327 -0.068022 6.77113 0.918419 255 0 255 
0.269554 -0.0842716 6.78699 0.911378 255 0 255 
0.250549 -0.100391 6.80301 0.886712 255 0 255 
0.265281 -0.100232 6.81432 0.873834 255 0 255 
0.253314 -0.487382 7.03513 0.633949 255 0 255 
0.240787 -0.482654 7.02426 0.63341 255 0 255 
0.245957 -0.516724 7.01948 0.711212 255 0 255 
0.233305 -0.511915 7.00846 0.701679 255 0 255 
0.228189 -0.477897 7.01331 0.615385 255 0 255 
0.238612 -0.546046 7.00343 0.768193 255 0 255 
0.220603 -0.507161 6.99744 0.69471 255 0 255 
0.225823 -0.541196 6.99233 0.747511 255 0 255 
0.212979 -0.536512 6.98124 0.750032 255 0 255 
0.215487 -0.473261 7.00225 0.618517 255 0 255 
0.207768 -0.502475 6.98616 0.685507 255 0 255 
0.202673 -0.468466 6.99097 0.621119 255 0 255 
0.231242 -0.575364 6.98699 0.782678 255 0 255 
0.218353 -0.570628 6.97585 0.78518 255 0 255 
0.223899 -0.604814 6.97027 0.771503 255 0 255 
0.237707 -0.612203 6.98228 0.765403 255 0 255 
0.244874 -0.582843 6.99886 0.782069 255 0 255 
0.251327 -0.619596 6.99409 0.762287 255 0 255 
0.258466 -0.590115 7.01067 0.773728 255 0 255 
0.252099 -0.553311 7.01519 0.769807 255 0 255 
0.265451 -0.560771 7.02686 0.756649 255 0 255 
0.264935 -0.627015 7.00576 0.748428 255 0 255 
0.271813 -0.5976 7.02228 0.767637 255 0 255 
0.27839 -0.634415 7.0173 0.743312 255 0 255 
0.259281 -0.523957 7.03113 0.717593 255 0 255 
0.189668 -0.463153 6.98011 0.605896 255 0 255 
0.193941 -0.494239 6.9747 0.685774 255 0 255 
0.180798 -0.488925 6.96382 0.687503 255 0 255 
0.17672 -0.457651 6.96908 0.608992 255 0 255 
0.185115 -0.520243 6.9583 0.7364 255 0 255 
0.167757 -0.483492 6.95273 0.687729 255 0 255 
0.171865 -0.514925 6.94736 0.727924 255 0 255 
0.158784 -0.5095 6.93621 0.731716 255 0 255 
0.163649 -0.452284 6.95801 0.602058 255 0 255 
0.15468 -0.478165 6.94164 0.68441 255 0 255 
0.150558 -0.44709 6.94679 0.584118 255 0 255 
0.17629 -0.546384 6.9417 0.762309 255 0 255 
0.162966 -0.541027 6.93072 0.76589 255 0 255 
0.16741 -0.572519 6.92501 0.766785 255 0 255 
0.18161 -0.580538 6.93643 0.757883 255 0 255 
0.190339 -0.554416 6.95317 0.761578 255 0 255 
0.195696 -0.588665 6.94785 0.7567 255 0 255 
0.204373 -0.562597 6.96462 0.772339 255 0 255 
0.199041 -0.528386 6.96975 0.734594 255 0 255 
0.20982 -0.596753 6.95909 0.780591 255 0 255 
0.210675 -0.665018 6.90301 0.851281 255 0 255 
0.226192 -0.67554 6.91473 0.855872 255 0 255 
0.215117 -0.644845 6.92554 0.848381 255 0 255 
0.241624 -0.686021 6.92629 0.847349 255 0 255 
0.230534 -0.655376 6.9372 0.843144 255 0 255 
0.245863 -0.665966 6.94879 0.842623 255 0 255 
0.257026 -0.696686 6.93775 0.846684 255 0 255 
0.219549 -0.624778 6.94796 0.822268 255 0 255 
0.234857 -0.635237 6.95971 0.815871 255 0 255 
0.205404 -0.616708 6.93679 0.815354 255 0 255 
0.191147 -0.6087 6.92554 0.805605 255 0 255 
0.200915 -0.636812 6.91435 0.829049 255 0 255 
0.186586 -0.628827 6.90313 0.825384 255 0 255 
0.177002 -0.600598 6.91421 0.816853 255 0 255 
0.196377 -0.657071 6.89184 0.846578 255 0 255 
0.270879 -0.704102 6.94947 0.844813 255 0 255 
0.285775 -0.714167 6.96191 0.829192 255 0 255 
0.273476 -0.680749 6.97232 0.835595 255 0 255 
0.300459 -0.724223 6.97423 0.796696 255 0 255 
0.288221 -0.690862 6.98471 0.817717 255 0 255 
0.302808 -0.70092 6.99694 0.789622 255 0 255 
0.314874 -0.734233 6.98629 0.767408 255 0 255 
0.27589 -0.657496 6.99495 0.799249 255 0 255 
0.290634 -0.667615 7.00726 0.783828 255 0 255 
0.262327 -0.649992 6.9833 0.805343 255 0 255 
0.248672 -0.6427 6.97156 0.812144 255 0 255 
0.259652 -0.673222 6.9606 0.839115 255 0 255 
0.472592 -0.0472688 6.88476 0.685041 255 0 255 
0.498952 -0.0381693 6.86954 0.765044 255 0 255 
0.485357 -0.0379752 6.85759 0.78166 255 0 255 
0.511667 -0.0290621 6.84216 0.816514 255 0 255 
0.525605 -0.0297233 6.8539 0.800812 255 0 255 
0.49781 -0.0285483 6.83043 0.833573 255 0 255 
0.538238 -0.0206741 6.8265 0.839081 255 0 255 
0.524345 -0.019938 6.81486 0.855646 255 0 255 
0.550637 -0.0114156 6.7992 0.860384 255 0 255 
0.552205 -0.0212674 6.83828 0.822719 255 0 255 
0.564798 -0.0123328 6.8109 0.850638 255 0 255 
0.578578 -0.0125662 6.82283 0.832403 255 0 255 
0.510368 -0.0194349 6.80308 0.862271 255 0 255 
0.536489 -0.0106171 6.78749 0.875842 255 0 255 
0.522456 -0.00997252 6.77575 0.881019 255 0 255 
0.471538 -0.0287252 6.80728 0.869946 255 0 255 
0.459187 -0.0380835 6.83464 0.828105 255 0 255 
0.446717 -0.0476253 6.86166 0.765812 255 0 255 
0.420219 -0.0477719 6.83875 0.816067 255 0 255 
0.60594 -0.0106094 6.80831 0.856537 255 0 255 
0.590245 -0.00855993 6.79577 0.870333 255 0 255 
0.617236 -0.00652188 6.78109 0.884732 255 0 255 
0.633097 -0.00886561 6.79354 0.875247 255 0 255 
0.601475 -0.00417245 6.76872 0.89046 255 0 255 
0.644356 -0.00455118 6.76644 0.893257 255 0 255 
0.628548 -0.00199132 6.75416 0.894479 255 0 255 
0.612902 0.000530794 6.74194 0.903732 255 0 255 
0.59844 0.00142891 6.73014 0.908079 255 0 255 
0.587418 -0.00360767 6.75692 0.894995 255 0 255 
0.573122 -0.0024801 6.74532 0.906303 255 0 255 
0.561957 -0.00716578 6.77214 0.888496 255 0 255 
0.576158 -0.00812677 6.78377 0.885609 255 0 255 
0.547843 -0.00620501 6.76058 0.900059 255 0 255 
0.541689 0.00683242 6.69238 0.91724 255 0 255 
0.5184 0.00161607 6.70794 0.917616 255 0 255 
0.535519 0.000863278 6.72011 0.911153 255 0 255 
0.4952 -0.00339994 6.72364 0.918231 255 0 255 
0.512219 -0.00425534 6.73567 0.907854 255 0 255 
0.488896 -0.00904219 6.75142 0.899406 255 0 255 
0.471864 -0.00842598 6.73935 0.905512 255 0 255 
0.529186 -0.00478541 6.74789 0.903539 255 0 255 
0.505778 -0.00967849 6.76353 0.895419 255 0 255 
0.554342 -0.000707816 6.73276 0.912408 255 0 255 
0.579543 0.00322465 6.71755 0.911243 255 0 255 
0.560637 0.00509543 6.70501 0.914146 255 0 255 
0.446567 -0.0182222 6.75501 0.908298 255 0 255 
0.42281 -0.0282523 6.77101 0.905597 255 0 255 
0.43802 -0.0281613 6.78287 0.897893 255 0 255 
0.398832 -0.0385994 6.78679 0.8979 255 0 255 
0.414269 -0.0383933 6.7988 0.883478 255 0 255 
0.390129 -0.0486998 6.8146 0.860412 255 0 255 
0.375104 -0.0491176 6.80262 0.879456 255 0 255 
0.429295 -0.0381459 6.81076 0.868025 255 0 255 
0.40531 -0.0482201 6.82667 0.840829 255 0 255 
0.454811 -0.028441 6.7951 0.887688 255 0 255 
0.480262 -0.0189016 6.77934 0.892334 255 0 255 
0.463529 -0.0185618 6.76724 0.902866 255 0 255 
0.352857 -0.0659207 6.81799 0.887088 255 0 255 
0.33166 -0.0821755 6.83352 0.870081 255 0 255 
0.34569 -0.0823323 6.84508 0.85626 255 0 255 
0.310721 -0.0986835 6.849 0.841885 255 0 255 
0.324396 -0.0985052 6.86059 0.822899 255 0 255 
0.30356 -0.114999 6.87595 0.777083 255 0 255 
0.289698 -0.115172 6.86447 0.789911 255 0 255 
0.338378 -0.0985832 6.87219 0.818947 255 0 255 
0.317372 -0.114955 6.88757 0.748626 255 0 255 
0.330954 -0.114918 6.89908 0.746394 255 0 255 
0.353089 -0.098087 6.88407 0.79338 255 0 255 
0.360542 -0.0817773 6.85697 0.842445 255 0 255 
0.375554 -0.0813515 6.86891 0.820452 255 0 255 
0.383031 -0.0650463 6.84186 0.855838 255 0 255 
0.367977 -0.0655578 6.8298 0.870768 255 0 255 
0.397923 -0.0645538 6.85389 0.828201 255 0 255 
0.268279 -0.16219 6.90186 0.736261 255 0 255 
0.251742 -0.184997 6.91454 0.690481 255 0 255 
0.235029 -0.208074 6.92733 0.597819 255 0 255 
0.260821 -0.210014 6.94949 0.575324 255 0 255 
0.27804 -0.185862 6.9372 0.65808 255 0 255 
0.282011 -0.162075 6.9132 0.733444 255 0 255 
0.295618 -0.161949 6.92473 0.712082 255 0 255 
0.299397 -0.1384 6.90051 0.749998 255 0 255 
0.285886 -0.138477 6.889 0.77381 255 0 255 
0.313274 -0.138378 6.91197 0.743405 255 0 255 
0.308982 -0.214845 6.99327 0.561316 255 0 255 
0.326434 -0.189718 6.98135 0.604187 255 0 255 
0.331958 -0.164432 6.95811 0.657907 255 0 255 
0.349974 -0.139774 6.94558 0.678474 255 0 255 
0.355576 -0.115176 6.92171 0.6749 255 0 255 
0.38026 -0.115479 6.94415 0.607329 255 0 255 
0.30228 -0.188158 6.95936 0.644637 255 0 255 
0.285131 -0.212346 6.97143 0.581341 255 0 255 
0.403145 -0.0982839 6.92942 0.668774 255 0 255 
0.413388 -0.0812564 6.90325 0.735774 255 0 255 
0.436397 -0.0642019 6.88829 0.734206 255 0 255 
0.377935 -0.0982093 6.90679 0.739518 255 0 255 
0.166691 -0.418266 6.95618 0.58404 255 0 255 
0.179721 -0.423519 6.96732 0.600513 255 0 255 
0.182966 -0.38938 6.96526 0.555985 255 0 255 
0.192703 -0.428786 6.97826 0.626082 255 0 255 
0.195926 -0.394672 6.97624 0.584594 255 0 255 
0.208906 -0.399932 6.98716 0.625911 255 0 255 
0.205572 -0.43418 6.98924 0.642076 255 0 255 
0.199401 -0.360753 6.97393 0.536145 255 0 255 
0.212256 -0.36605 6.985 0.554677 255 0 255 
0.216029 -0.332233 6.9824 0.474137 255 0 255 
0.190893 -0.326406 6.96067 0.448269 255 0 255 
0.17425 -0.354798 6.95205 0.526292 255 0 255 
0.157607 -0.383514 6.94317 0.54522 255 0 255 
0.165534 -0.320451 6.93863 0.434714 255 0 255 
0.230503 -0.441625 7.01119 0.641362 255 0 255 
0.233312 -0.405372 7.00878 0.626121 255 0 255 
0.243216 -0.44628 7.02213 0.652959 255 0 255 
0.245969 -0.409966 7.01971 0.653606 255 0 255 
0.258558 -0.414547 7.03044 0.666355 255 0 255 
0.255786 -0.450884 7.03287 0.671134 255 0 255 
0.249022 -0.373849 7.01703 0.614568 255 0 255 
0.261688 -0.378306 7.02775 0.648246 255 0 255 
0.264972 -0.342586 7.02505 0.557775 255 0 255 
0.240521 -0.337297 7.00387 0.51129 255 0 255 
0.285709 -0.24374 6.99051 0.610267 255 0 255 
0.262694 -0.272772 6.98769 0.595556 255 0 255 
0.261773 -0.241146 6.96869 0.592595 255 0 255 
0.238014 -0.270713 6.96629 0.566579 255 0 255 
0.239127 -0.302365 6.98512 0.544163 255 0 255 
0.263614 -0.30749 7.00655 0.588519 255 0 255 
0.286586 -0.278263 7.00947 0.616756 255 0 255 
0.236663 -0.237534 6.94704 0.577617 255 0 255 
0.21267 -0.265154 6.94456 0.543865 255 0 255 
0.210799 -0.235458 6.92497 0.580906 255 0 255 
0.186784 -0.262789 6.92245 0.545272 255 0 255 
0.188865 -0.292772 6.94186 0.507362 255 0 255 
0.214154 -0.298559 6.96367 0.527029 255 0 255 
0.568693 -0.444807 7.26481 0.387961 255 0 255 
0.578958 -0.471942 7.27286 0.371727 255 0 255 
0.545486 -0.329122 7.23534 0.190652 255 0 255 
0.549013 -0.357883 7.24765 0.218658 255 0 255 
0.527579 -0.35868 7.23451 0.246744 255 0 255 
0.526413 -0.389717 7.23599 0.338261 255 0 255 
0.536644 -0.418613 7.24404 0.388784 255 0 255 
0.535866 -0.449425 7.24585 0.46474 255 0 255 
0.546231 -0.478181 7.25381 0.445716 255 0 255 
0.523702 -0.482404 7.24099 0.471866 255 0 255 
0.55847 -0.416093 7.25687 0.371281 255 0 255 
0.559171 -0.386783 7.25561 0.304988 255 0 255 
0.550333 -0.047966 6.9667 0.413101 255 0 255 
0.568158 -0.0394235 6.94191 0.533822 255 0 255 
0.58591 -0.030961 6.91709 0.647408 255 0 255 
0.594587 -0.0230969 6.88163 0.735875 255 0 255 
0.56747 -0.0305803 6.8969 0.691271 255 0 255 
0.549847 -0.0390197 6.92185 0.62578 255 0 255 
0.532522 -0.0476497 6.94678 0.495153 255 0 255 
0.514143 -0.047157 6.92674 0.566243 255 0 255 
0.600195 -0.0140316 6.84467 0.801621 255 0 255 
0.546661 -0.0297467 6.87498 0.75801 255 0 255 
0.519991 -0.0383751 6.89038 0.697299 255 0 255 
0.49333 -0.0472244 6.90577 0.644856 255 0 255 
0.573456 -0.0216667 6.86 0.794696 255 0 255 
0.619688 -0.969312 6.93985 0.393004 255 0 255 
0.596295 -0.966141 6.92747 0.488539 255 0 255 
0.610148 -0.972936 6.90844 0.551195 255 0 255 
0.586831 -0.970748 6.89646 0.58567 255 0 255 
0.57293 -0.964102 6.91565 0.505912 255 0 255 
0.600681 -0.977401 6.87735 0.639385 255 0 255 
0.563538 -0.968918 6.88467 0.588594 255 0 255 
0.577543 -0.975482 6.86557 0.653436 255 0 255 
0.55417 -0.973385 6.85342 0.654451 255 0 255 
0.549528 -0.962205 6.90389 0.507606 255 0 255 
0.540123 -0.966831 6.87271 0.576082 255 0 255 
0.526102 -0.960144 6.89186 0.473702 255 0 255 
0.59152 -0.982007 6.84628 0.691341 255 0 255 
0.568394 -0.980025 6.83426 0.692259 255 0 255 
0.582408 -0.986418 6.81493 0.725612 255 0 255 
0.604588 -0.985904 6.82416 0.749345 255 0 255 
0.613766 -0.981498 6.85539 0.72405 255 0 255 
0.626783 -0.985408 6.8334 0.77277 255 0 255 
0.636042 -0.981245 6.8647 0.711903 255 0 255 
0.623068 -0.977013 6.88645 0.645857 255 0 255 
0.645519 -0.977747 6.89619 0.606606 255 0 255 
0.649058 -0.985416 6.84282 0.763891 255 0 255 
0.658487 -0.981974 6.87441 0.666992 255 0 255 
0.671456 -0.986108 6.85254 0.721426 255 0 255 
0.632633 -0.973547 6.91806 0.526816 255 0 255 
0.507497 -0.953511 6.88044 0.547886 255 0 255 
0.520488 -0.96068 6.86106 0.629741 255 0 255 
0.502155 -0.954046 6.84944 0.672482 255 0 255 
0.48888 -0.946635 6.86871 0.600869 255 0 255 
0.515311 -0.961344 6.8302 0.723907 255 0 255 
0.483594 -0.947023 6.83752 0.708136 255 0 255 
0.49689 -0.954398 6.81825 0.763674 255 0 255 
0.470309 -0.939587 6.85691 0.64373 255 0 255 
0.509899 -0.96156 6.79889 0.805813 255 0 255 
0.524023 -0.968159 6.77961 0.840408 255 0 255 
0.529437 -0.967844 6.81081 0.779562 255 0 255 
0.543535 -0.974355 6.79154 0.814523 255 0 255 
0.548917 -0.973945 6.82258 0.748854 255 0 255 
0.534735 -0.967368 6.8418 0.700716 255 0 255 
0.563114 -0.98049 6.80342 0.779472 255 0 255 
0.568729 -0.986207 6.70111 0.924256 255 0 255 
0.557598 -0.982256 6.72062 0.906756 255 0 255 
0.577208 -0.987708 6.73287 0.887341 255 0 255 
0.588376 -0.991673 6.71339 0.903764 255 0 255 
0.566015 -0.98375 6.75233 0.872087 255 0 255 
0.596803 -0.993042 6.74496 0.862357 255 0 255 
0.585547 -0.989037 6.7643 0.844443 255 0 255 
0.604886 -0.99432 6.77626 0.807986 255 0 255 
0.607941 -0.996925 6.72553 0.884519 255 0 255 
0.616138 -0.998239 6.7569 0.830616 255 0 255 
0.627361 -1.00219 6.7375 0.846721 255 0 255 
0.574256 -0.985112 6.78376 0.812445 255 0 255 
0.593606 -0.990341 6.79555 0.765594 255 0 255 
0.554869 -0.979149 6.77203 0.844517 255 0 255 
0.535241 -0.972895 6.75998 0.872519 255 0 255 
0.54643 -0.977568 6.7403 0.894048 255 0 255 
0.648533 -1.00116 6.74836 0.848191 255 0 255 
0.63826 -0.997743 6.76618 0.833768 255 0 255 
0.659403 -0.99683 6.77702 0.824221 255 0 255 
0.669669 -1.00026 6.75919 0.829788 255 0 255 
0.649138 -0.99338 6.79483 0.813758 255 0 255 
0.680619 -0.996536 6.78807 0.807123 255 0 255 
0.670412 -0.993009 6.80581 0.792786 255 0 255 
0.691806 -0.993333 6.81715 0.753385 255 0 255 
0.690867 -1.00002 6.77029 0.817727 255 0 255 
0.702043 -0.996935 6.79946 0.770881 255 0 255 
0.712254 -1.00051 6.7818 0.787071 255 0 255 
0.660189 -0.989458 6.82357 0.776829 255 0 255 
0.681628 -0.989768 6.83487 0.74893 255 0 255 
0.637954 -0.98935 6.81406 0.790367 255 0 255 
0.615893 -0.98986 6.80486 0.78562 255 0 255 
0.627101 -0.993855 6.78558 0.816331 255 0 255 
0.527633 -0.0649569 6.98185 0.372302 255 0 255 
0.514477 -0.082534 7.00696 0.260303 255 0 255 
0.492189 -0.100372 7.02163 0.220202 255 0 255 
0.478997 -0.118862 7.04599 0.066223 255 0 255 
0.460019 -0.117445 7.02629 0.127951 255 0 255 
0.510755 -0.101524 7.04133 0.111893 255 0 255 
0.498006 -0.120718 7.06521 0 255 0 255 
0.532757 -0.0839512 7.02667 0.211693 255 0 255 
0.554903 -0.0666523 7.01185 0.262953 255 0 255 
0.443275 -0.143167 7.03903 0.193398 255 0 255 
0.436447 -0.169915 7.06119 0.194653 255 0 255 
0.419596 -0.196251 7.0732 0.245796 255 0 255 
0.413266 -0.223643 7.09466 0.178867 255 0 255 
0.393394 -0.221548 7.07581 0.23079 255 0 255 
0.439546 -0.198234 7.09216 0.12334 255 0 255 
0.433309 -0.225704 7.11326 0.0722297 255 0 255 
0.45561 -0.171969 7.08012 0.132874 255 0 255 
0.472024 -0.14572 7.06806 0.069434 255 0 255 
0.473977 -0.230568 7.14869 0.0378386 255 0 255 
0.489497 -0.204237 7.1375 0.00265818 255 0 255 
0.495182 -0.176614 7.11693 0.0311476 255 0 255 
0.510923 -0.150569 7.10527 0 255 0 255 
0.517432 -0.123296 7.08412 0 255 0 255 
0.4918 -0.147752 7.08673 0.0126596 255 0 255 
0.475422 -0.174064 7.09875 0.0367469 255 0 255 
0.459341 -0.200422 7.11056 0.100317 255 0 255 
0.453792 -0.228072 7.13118 0.0728184 255 0 255 
0.529036 -0.103641 7.06045 0.0667828 255 0 255 
0.463991 -0.262729 7.15493 0.134002 255 0 255 
0.465916 -0.294962 7.16936 0.26088 255 0 255 
0.456505 -0.32708 7.17544 0.317705 255 0 255 
0.458686 -0.359248 7.18939 0.331764 255 0 255 
0.435855 -0.358929 7.17374 0.356706 255 0 255 
0.479405 -0.327247 7.19156 0.263395 255 0 255 
0.481546 -0.359519 7.2052 0.289831 255 0 255 
0.487925 -0.296443 7.18548 0.238507 255 0 255 
0.496668 -0.265645 7.17965 0.0939285 255 0 255 
0.494997 -0.233331 7.16537 0.00877636 255 0 255 
0.51605 -0.236248 7.18188 0 255 0 255 
0.43347 -0.393429 7.17579 0.460189 255 0 255 
0.443436 -0.426366 7.18581 0.522005 255 0 255 
0.441542 -0.460663 7.18784 0.537532 255 0 255 
0.451528 -0.493578 7.19745 0.518247 255 0 255 
0.427624 -0.496799 7.18195 0.533811 255 0 255 
0.465259 -0.457608 7.20307 0.518249 255 0 255 
0.475241 -0.490412 7.21264 0.478339 255 0 255 
0.466786 -0.4249 7.20123 0.479101 255 0 255 
0.468366 -0.392115 7.1993 0.427511 255 0 255 
0.513083 -0.451857 7.23215 0.471295 255 0 255 
0.513926 -0.420929 7.23041 0.406145 255 0 255 
0.503471 -0.390167 7.2216 0.412298 255 0 255 
0.504487 -0.35918 7.21974 0.268287 255 0 255 
0.490437 -0.422967 7.21626 0.454896 255 0 255 
0.488885 -0.45563 7.21794 0.477783 255 0 255 
0.499537 -0.486386 7.22683 0.4825 255 0 255 
0.524377 -0.328225 7.22145 0.24096 255 0 255 
0.531928 -0.298774 7.21604 0.0862817 255 0 255 
0.529218 -0.268121 7.20298 0.0454207 255 0 255 
0.510056 -0.297615 7.20114 0.183397 255 0 255 
0.501361 -0.328636 7.20664 0.264103 255 0 255 
0.37232 -0.253244 7.07346 0.411351 255 0 255 
0.372745 -0.219909 7.05587 0.334545 255 0 255 
0.351568 -0.285033 7.07115 0.530655 255 0 255 
0.351715 -0.251601 7.05361 0.501276 255 0 255 
0.330887 -0.28336 7.05152 0.563881 255 0 255 
0.352437 -0.218375 7.03563 0.421684 255 0 255 
0.330893 -0.316959 7.06899 0.548793 255 0 255 
0.310313 -0.34908 7.0668 0.579038 255 0 255 
0.331917 -0.350903 7.08644 0.548609 255 0 255 
0.352286 -0.3189 7.08862 0.521561 255 0 255 
0.372927 -0.286968 7.09103 0.464574 255 0 255 
0.35332 -0.35297 7.10583 0.507647 255 0 255 
0.330322 -0.249153 7.03302 0.539464 255 0 255 
0.330727 -0.216514 7.01458 0.498381 255 0 255 
0.308423 -0.280092 7.0304 0.58425 255 0 255 
0.308636 -0.247269 7.01203 0.589558 255 0 255 
0.286718 -0.311169 7.02771 0.589516 255 0 255 
0.287783 -0.345709 7.0461 0.563744 255 0 255 
0.309197 -0.314469 7.04882 0.599744 255 0 255 
0.278967 -0.454426 7.05384 0.682823 255 0 255 
0.277045 -0.491704 7.05655 0.645238 255 0 255 
0.281271 -0.417166 7.05094 0.680147 255 0 255 
0.304966 -0.422295 7.07217 0.693921 255 0 255 
0.302633 -0.459228 7.07472 0.683007 255 0 255 
0.300401 -0.496439 7.0773 0.642349 255 0 255 
0.295813 -0.382932 7.05884 0.655116 255 0 255 
0.324554 -0.461014 7.09427 0.683378 255 0 255 
0.322688 -0.498024 7.09692 0.650909 255 0 255 
0.326569 -0.424128 7.09141 0.680932 255 0 255 
0.348602 -0.426253 7.11118 0.671662 255 0 255 
0.346673 -0.463017 7.11386 0.686956 255 0 255 
0.344991 -0.499907 7.11633 0.640944 255 0 255 
0.339792 -0.388532 7.09864 0.643599 255 0 255 
0.318337 -0.386472 7.07933 0.660973 255 0 255 
0.392854 -0.255202 7.09256 0.327108 255 0 255 
0.393036 -0.288839 7.10908 0.387286 255 0 255 
0.373191 -0.32079 7.10743 0.502321 255 0 255 
0.373751 -0.354654 7.12348 0.488876 255 0 255 
0.393316 -0.322667 7.12505 0.420636 255 0 255 
0.393913 -0.356602 7.14084 0.422003 255 0 255 
0.413453 -0.290923 7.12748 0.363395 255 0 255 
0.413215 -0.257226 7.11124 0.296454 255 0 255 
0.361039 -0.389734 7.1175 0.590159 255 0 255 
0.369055 -0.426499 7.12884 0.637373 255 0 255 
0.367156 -0.463213 7.1312 0.661694 255 0 255 
0.365326 -0.500134 7.13333 0.621994 255 0 255 
0.385814 -0.500001 7.15074 0.592821 255 0 255 
0.387686 -0.463993 7.14837 0.622916 255 0 255 
0.389511 -0.428132 7.14586 0.591547 255 0 255 
0.381703 -0.391294 7.13511 0.56309 255 0 255 
0.419094 -0.461745 7.1722 0.577385 255 0 255 
0.421004 -0.427262 7.17001 0.547956 255 0 255 
0.412773 -0.392143 7.15999 0.488348 255 0 255 
0.415023 -0.357659 7.15741 0.393464 255 0 255 
0.406679 -0.498355 7.16618 0.556477 255 0 255 
0.434785 -0.325683 7.15904 0.363585 255 0 255 
0.444292 -0.293464 7.15279 0.274254 255 0 255 
0.443858 -0.260117 7.13764 0.200212 255 0 255 
0.41419 -0.324207 7.14265 0.375449 255 0 255 
0.460135 -0.0641105 6.91046 0.663211 255 0 255 
0.437086 -0.0812206 6.9253 0.640008 255 0 255 
0.424325 -0.0982864 6.95073 0.552829 255 0 255 
0.401201 -0.115807 6.96526 0.467934 255 0 255 
0.422162 -0.116111 6.98622 0.368164 255 0 255 
0.445119 -0.0984571 6.97159 0.448709 255 0 255 
0.458034 -0.0813122 6.9463 0.572885 255 0 255 
0.480661 -0.0640412 6.93143 0.580547 255 0 255 
0.372947 -0.140583 6.96766 0.600682 255 0 255 
0.355134 -0.165388 6.97995 0.597573 255 0 255 
0.348173 -0.191238 7.00276 0.536254 255 0 255 
0.369476 -0.192528 7.02353 0.443224 255 0 255 
0.376297 -0.166486 7.00106 0.489994 255 0 255 
0.393939 -0.141086 6.98852 0.4411 255 0 255 
0.39999 -0.194757 7.05407 0.285409 255 0 255 
0.416502 -0.168623 7.04167 0.29793 255 0 255 
0.42395 -0.142257 7.01922 0.329868 255 0 255 
0.44125 -0.116571 7.00643 0.271337 255 0 255 
0.396875 -0.167429 7.0216 0.364869 255 0 255 
0.473386 -0.0992125 7.00194 0.279811 255 0 255 
0.496276 -0.0819031 6.98702 0.352519 255 0 255 
0.509962 -0.0644673 6.96204 0.456441 255 0 255 
0.477445 -0.0813838 6.96701 0.441227 255 0 255 
0.530874 -0.15335 7.1231 0 255 0 255 
0.515203 -0.179422 7.13449 0 255 0 255 
0.510245 -0.207056 7.15426 0 255 0 255 
0.530719 -0.210332 7.17124 0 255 0 255 
0.429131 -0.789061 7.07185 0.484046 255 0 255 
0.41695 -0.788908 7.06066 0.493328 255 0 255 
0.43499 -0.815287 7.04595 0.55903 255 0 255 
0.422863 -0.815114 7.03437 0.567594 255 0 255 
0.404963 -0.788649 7.04923 0.5151 255 0 255 
0.440906 -0.841522 7.01942 0.577317 255 0 255 
0.410695 -0.814825 7.02254 0.575266 255 0 255 
0.428779 -0.841281 7.00771 0.593094 255 0 255 
0.416714 -0.841056 6.99557 0.590499 255 0 255 
0.392806 -0.788251 7.03744 0.523447 255 0 255 
0.398621 -0.814542 7.01051 0.593864 255 0 255 
0.38067 -0.78788 7.0253 0.5505 255 0 255 
0.446888 -0.867437 6.99237 0.560076 255 0 255 
0.434894 -0.867337 6.98054 0.560425 255 0 255 
0.453015 -0.893234 6.96515 0.475755 255 0 255 
0.467159 -0.89399 6.97753 0.478085 255 0 255 
0.461127 -0.868194 7.00466 0.543813 255 0 255 
0.481472 -0.894728 6.98996 0.473217 255 0 255 
0.475344 -0.868719 7.01644 0.55021 255 0 255 
0.455205 -0.842236 7.03141 0.57844 255 0 255 
0.469504 -0.842815 7.043 0.564892 255 0 255 
0.495747 -0.895221 7.00194 0.458197 255 0 255 
0.489753 -0.869377 7.02845 0.535864 255 0 255 
0.510067 -0.895695 7.01388 0.445494 255 0 255 
0.449315 -0.816109 7.05759 0.551431 255 0 255 
0.367341 -0.782818 7.01339 0.595393 255 0 255 
0.382584 -0.807935 6.99852 0.620757 255 0 255 
0.369223 -0.802974 6.98633 0.660843 255 0 255 
0.353929 -0.777758 7.00105 0.626608 255 0 255 
0.384621 -0.827913 6.97141 0.672719 255 0 255 
0.355769 -0.797775 6.97385 0.695338 255 0 255 
0.371162 -0.822843 6.95893 0.706385 255 0 255 
0.340575 -0.772574 6.98856 0.678091 255 0 255 
0.386542 -0.847688 6.94382 0.677184 255 0 255 
0.404622 -0.873957 6.92875 0.619521 255 0 255 
0.402731 -0.854365 6.95638 0.643609 255 0 255 
0.420795 -0.880576 6.94111 0.581324 255 0 255 
0.418765 -0.86093 6.96851 0.617177 255 0 255 
0.400607 -0.834571 6.98357 0.630262 255 0 255 
0.436811 -0.886979 6.95319 0.52909 255 0 255 
0.451995 -0.922716 6.87521 0.668602 255 0 255 
