ply
format ascii 1.0
comment VCGLIB generated
element vertex 1013
property float x
property float y
property float z
property uchar red
property uchar green
property uchar blue
property float quality
end_header
0.268516 -0.062834 5.828740 0 0 146 0.357631
0.248501 -0.065819 5.817520 0 0 151 0.384370
0.237194 -0.059021 5.837740 0 0 242 0.562261
0.246135 -0.052922 5.870670 0 129 255 0.707684
0.225292 -0.055149 5.859310 0 149 255 0.720721
0.234028 -0.051188 5.892760 151 255 96 0.852456
0.254682 -0.049373 5.904440 138 255 109 0.846103
0.213118 -0.052892 5.881070 161 255 87 0.857188
0.318061 -0.071069 5.833560 0 0 133 0.275233
0.326583 -0.086776 5.816480 0 0 133 0.261126
0.307996 -0.089682 5.805590 0 0 133 0.275658
0.334222 -0.105827 5.801410 0 0 137 0.324791
0.315748 -0.108648 5.790600 0 0 137 0.324104
0.297027 -0.111705 5.779980 0 0 142 0.334708
0.277152 -0.114720 5.769230 0 0 142 0.349863
0.288224 -0.092187 5.794640 0 0 137 0.296918
0.268336 -0.095344 5.783620 0 0 137 0.309299
0.278684 -0.076074 5.810930 0 0 133 0.295086
0.298448 -0.073390 5.822170 0 0 133 0.286113
0.258716 -0.079106 5.799830 0 0 137 0.313037
0.223139 -0.124532 5.737420 0 0 155 0.396410
0.213791 -0.104582 5.751360 0 0 142 0.348691
0.232671 -0.101541 5.761790 0 0 142 0.341111
0.203329 -0.087849 5.766830 0 0 142 0.329269
0.222252 -0.084911 5.777580 0 0 137 0.324675
0.211130 -0.070943 5.794850 0 0 151 0.382907
0.192151 -0.073864 5.783850 0 0 155 0.401892
0.240889 -0.082094 5.788420 0 0 137 0.318659
0.229984 -0.068186 5.806010 0 0 151 0.381332
0.250552 -0.098310 5.772600 0 0 137 0.321871
0.259366 -0.117831 5.758310 0 0 146 0.363386
0.241383 -0.121022 5.747720 0 0 146 0.366008
0.180694 -0.066336 5.803430 0 0 251 0.573105
0.168553 -0.060805 5.824390 0 161 255 0.728099
0.187862 -0.058735 5.835520 0 149 255 0.719424
0.155856 -0.057505 5.846150 145 255 103 0.850108
0.175274 -0.055773 5.857430 138 255 109 0.847059
0.194450 -0.054126 5.868760 145 255 103 0.850803
0.206806 -0.056626 5.847140 0 129 255 0.707084
0.218600 -0.061128 5.826200 0 0 237 0.555456
0.199662 -0.063716 5.814940 0 0 246 0.564932
0.051946 -0.211105 5.611870 0 101 255 0.687143
0.059045 -0.237195 5.608220 35 255 213 0.789737
0.040860 -0.239563 5.596890 19 253 229 0.779974
0.066042 -0.262991 5.604620 145 255 103 0.850227
0.047943 -0.265012 5.593780 142 255 106 0.848007
0.055117 -0.289398 5.590080 222 255 25 0.886051
0.073272 -0.288084 5.600850 238 255 9 0.891923
0.029824 -0.266710 5.583330 145 255 103 0.849720
0.037012 -0.290714 5.579910 225 255 22 0.887331
0.018857 -0.291818 5.570590 248 245 0 0.896964
0.010260 -0.268812 5.573120 167 255 80 0.861467
0.021184 -0.242134 5.586250 35 255 213 0.790211
0.001769 -0.244663 5.575730 51 255 196 0.799735
0.012526 -0.217596 5.589080 0 117 255 0.699064
0.032114 -0.214550 5.600380 0 113 255 0.696634
0.022807 -0.189801 5.604050 0 0 255 0.589523
-0.006855 -0.220415 5.578580 0 141 255 0.715045
0.003487 -0.193327 5.592670 0 1 255 0.596091
-0.015448 -0.196754 5.581690 0 21 255 0.619392
0.042476 -0.185531 5.615800 0 0 251 0.570195
0.082474 -0.314521 5.602590 255 145 0 0.930871
0.089466 -0.341266 5.603740 255 71 0 0.953665
0.073184 -0.341471 5.595360 255 64 0 0.956365
0.096053 -0.366399 5.605940 255 38 0 0.964507
0.079825 -0.366913 5.596890 255 30 0 0.966070
0.063616 -0.366789 5.588130 255 27 0 0.967417
0.045079 -0.367148 5.578410 255 19 0 0.969092
0.054852 -0.342220 5.585140 255 60 0 0.957604
0.036319 -0.342466 5.576170 255 45 0 0.962178
0.045934 -0.316493 5.582710 255 123 0 0.938002
0.064329 -0.316041 5.592230 255 134 0 0.934185
0.027735 -0.317167 5.573000 255 101 0 0.944621
-0.015111 -0.369347 5.543380 255 27 0 0.967765
0.001223 -0.368092 5.553430 255 27 0 0.967627
-0.009603 -0.344846 5.550660 255 38 0 0.963977
-0.026123 -0.346639 5.541460 255 38 0 0.964289
0.006892 -0.343482 5.559990 255 45 0 0.962208
-0.020207 -0.321613 5.547730 255 71 0 0.954040
-0.003671 -0.319754 5.556430 255 86 0 0.949218
-0.013585 -0.295854 5.551360 255 219 0 0.905429
-0.036309 -0.323592 5.538210 255 71 0 0.953760
-0.029754 -0.298190 5.542460 255 190 0 0.916007
-0.045859 -0.300761 5.533420 255 160 0 0.925973
0.012966 -0.317999 5.565200 255 97 0 0.946481
0.002482 -0.293895 5.560900 255 223 0 0.904419
0.021546 -0.342932 5.568260 255 38 0 0.963693
0.030318 -0.367323 5.570050 255 23 0 0.968265
0.015747 -0.367646 5.561580 255 23 0 0.968039
-0.059929 -0.278296 5.532560 235 255 13 0.890607
-0.037472 -0.275873 5.544300 209 255 38 0.879841
-0.052017 -0.253084 5.544290 119 255 129 0.836638
-0.073830 -0.255611 5.531540 145 255 103 0.850832
-0.029824 -0.250666 5.556260 77 255 171 0.815490
-0.066206 -0.230302 5.543240 0 217 255 0.760608
-0.044391 -0.227191 5.555920 0 197 255 0.750448
-0.058856 -0.204466 5.555770 0 69 255 0.660869
-0.087431 -0.233224 5.529570 6 237 242 0.771177
-0.080027 -0.207867 5.542070 0 73 255 0.664125
-0.100814 -0.211007 5.527560 0 53 255 0.648792
-0.022338 -0.223957 5.568100 0 157 255 0.726001
-0.037528 -0.200908 5.568500 0 45 255 0.640392
-0.014049 -0.247736 5.565710 61 255 187 0.806258
-0.005865 -0.270992 5.563450 180 255 67 0.866215
-0.021866 -0.273277 5.554250 193 255 55 0.873287
-0.096541 -0.264561 5.513870 158 255 90 0.856722
-0.083540 -0.286909 5.516410 255 193 0 0.914640
-0.069558 -0.308778 5.516830 255 130 0 0.936339
-0.092943 -0.317053 5.498990 255 112 0 0.941605
-0.107011 -0.301942 5.495930 255 171 0 0.923016
-0.108613 -0.275475 5.503200 209 255 38 0.880236
-0.120578 -0.286346 5.491870 255 238 0 0.899347
-0.121660 -0.259956 5.497930 106 255 142 0.830137
-0.110224 -0.249034 5.509590 67 255 180 0.809093
-0.123217 -0.233501 5.504360 0 149 255 0.720110
-0.133764 -0.270768 5.486820 129 255 119 0.842227
-0.134808 -0.244310 5.492510 0 193 255 0.746627
-0.146464 -0.255002 5.480840 9 241 238 0.774517
-0.111874 -0.222355 5.516300 0 109 255 0.693190
-0.047931 -0.351357 5.525940 255 27 0 0.966870
-0.037135 -0.373468 5.527820 255 19 0 0.969696
-0.059738 -0.379486 5.510210 237 4 0 0.973697
-0.071601 -0.358941 5.507370 242 8 0 0.972451
-0.071143 -0.334268 5.513160 255 45 0 0.962074
-0.094084 -0.393359 5.480090 201 0 0 0.982173
-0.097578 -0.370572 5.484860 214 0 0 0.978381
-0.109239 -0.352308 5.479940 251 16 0 0.970158
-0.111320 -0.327859 5.482510 255 90 0 0.948232
-0.129152 -0.338878 5.465390 255 108 0 0.943019
-0.091195 -0.341570 5.496720 255 27 0 0.966998
-0.076844 -0.385319 5.495860 214 0 0 0.978728
-0.143767 -0.325672 5.461580 255 134 0 0.934693
-0.148748 -0.304944 5.466160 255 216 0 0.906650
-0.162903 -0.291489 5.460750 190 255 58 0.871466
-0.166555 -0.270278 5.463270 45 255 203 0.796576
-0.186278 -0.285456 5.443900 42 255 206 0.793876
-0.125430 -0.312659 5.479360 255 149 0 0.929726
0.034898 -0.162643 5.629150 0 0 214 0.523552
0.015297 -0.167332 5.616550 0 0 237 0.554785
0.007323 -0.146077 5.630690 0 0 223 0.540247
-0.003834 -0.171599 5.604590 0 0 246 0.564570
-0.011563 -0.150641 5.617840 0 0 219 0.530545
-0.029942 -0.155088 5.605690 0 0 237 0.557247
-0.022375 -0.175453 5.592500 0 0 251 0.573972
-0.019905 -0.131120 5.632920 0 0 223 0.534706
-0.038185 -0.135637 5.619740 0 0 242 0.558226
-0.046668 -0.117200 5.635290 0 0 228 0.543102
-0.028081 -0.113585 5.647180 0 0 219 0.529053
-0.000730 -0.127005 5.644260 0 0 210 0.516308
-0.009348 -0.109671 5.659100 0 0 210 0.520119
0.018899 -0.122677 5.655870 0 0 192 0.487356
0.027144 -0.141445 5.641540 0 0 196 0.496320
0.009852 -0.105449 5.670990 0 0 201 0.504532
-0.042634 -0.178007 5.585180 0 29 255 0.625074
-0.063848 -0.182183 5.571340 0 53 255 0.649510
-0.069720 -0.160550 5.588840 0 45 255 0.641090
-0.084595 -0.185908 5.557060 0 45 255 0.641158
-0.090204 -0.164647 5.573810 0 57 255 0.651172
-0.110287 -0.167892 5.558670 0 37 255 0.634567
-0.105028 -0.188959 5.542220 0 25 255 0.621723
-0.096551 -0.144046 5.592810 0 65 255 0.659782
-0.116530 -0.147632 5.576710 0 45 255 0.640487
-0.123303 -0.127932 5.596510 0 77 255 0.668696
-0.104699 -0.125921 5.606360 0 61 255 0.653684
-0.077533 -0.141537 5.601780 0 45 255 0.640435
-0.085772 -0.123395 5.616080 0 25 255 0.623224
-0.058144 -0.138666 5.610700 0 1 255 0.596383
-0.050097 -0.157984 5.597040 0 9 255 0.605986
-0.066387 -0.120470 5.625660 0 0 255 0.585715
-0.157721 -0.079339 5.687100 255 190 0 0.915904
-0.139671 -0.078416 5.696600 255 190 0 0.916441
-0.130322 -0.088235 5.674040 155 255 93 0.854046
-0.111917 -0.086518 5.683130 135 255 113 0.844745
-0.121459 -0.076984 5.705730 255 208 0 0.909967
-0.102655 -0.097118 5.660970 9 241 238 0.775042
-0.093247 -0.084541 5.692140 116 255 132 0.835266
-0.083783 -0.094544 5.669660 0 193 255 0.747916
-0.064431 -0.091742 5.678050 0 149 255 0.720210
-0.103115 -0.075522 5.715000 255 223 0 0.904810
-0.074413 -0.082198 5.701000 77 255 171 0.815432
-0.084547 -0.073778 5.724260 255 230 0 0.901554
-0.074580 -0.106472 5.647970 0 81 255 0.671111
-0.055207 -0.103347 5.656110 0 29 255 0.626270
-0.093920 -0.109180 5.637750 0 97 255 0.684808
-0.112878 -0.111647 5.627430 0 141 255 0.714918
-0.121461 -0.099187 5.650170 13 245 235 0.776746
-0.140010 -0.100829 5.639280 25 255 222 0.784398
-0.131501 -0.113585 5.616830 0 161 255 0.728102
-0.148781 -0.089689 5.662880 155 255 93 0.854178
-0.067056 -0.072631 5.734810 248 245 0 0.896175
-0.057067 -0.080448 5.714150 116 255 132 0.835176
-0.038769 -0.078468 5.724370 106 255 142 0.830252
-0.049067 -0.071214 5.745410 251 241 0 0.897575
-0.028617 -0.086653 5.703800 0 177 255 0.739167
-0.019951 -0.076308 5.734850 87 255 161 0.820411
-0.009615 -0.084018 5.713790 0 153 255 0.723477
-0.030532 -0.069544 5.756440 255 234 0 0.900222
0.000270 -0.093390 5.693480 0 37 255 0.632270
-0.018731 -0.096924 5.680920 0 25 255 0.620780
-0.037101 -0.100329 5.668570 0 25 255 0.621074
-0.046801 -0.089379 5.691010 0 153 255 0.722961
-0.167882 -0.072611 5.709300 255 53 0 0.960103
-0.150066 -0.071977 5.718480 255 49 0 0.960944
-0.160316 -0.065285 5.740430 201 0 0 0.981688
-0.178308 -0.065901 5.731320 196 0 0 0.982534
-0.142385 -0.064680 5.749670 201 0 0 0.982188
-0.170618 -0.058284 5.762130 151 0 0 0.993285
-0.152541 -0.057645 5.771490 151 0 0 0.993366
-0.162656 -0.049359 5.793020 133 0 0 0.996823
-0.188586 -0.058552 5.753020 155 0 0 0.992546
-0.180782 -0.050011 5.783570 133 0 0 0.996657
-0.199041 -0.050328 5.774220 137 0 0 0.995905
-0.134416 -0.056709 5.780820 146 0 0 0.993734
-0.144509 -0.048520 5.802370 133 0 0 0.996547
-0.126310 -0.047477 5.811890 137 0 0 0.996172
-0.116180 -0.055838 5.790630 151 0 0 0.992673
-0.124255 -0.063819 5.759130 192 0 0 0.983591
-0.105918 -0.062970 5.768750 205 0 0 0.981076
-0.113710 -0.069996 5.737170 255 56 0 0.958831
-0.131893 -0.071012 5.727830 255 49 0 0.960869
-0.095373 -0.068664 5.746520 255 56 0 0.958769
-0.209855 -0.043517 5.794590 128 0 0 0.997746
-0.191589 -0.042917 5.804420 128 0 0 0.997962
-0.202494 -0.035580 5.825080 128 0 0 0.998268
-0.220868 -0.036223 5.815180 128 0 0 0.998261
-0.184379 -0.034638 5.834860 128 0 0 0.998149
-0.213592 -0.027624 5.845690 128 0 0 0.998456
-0.195239 -0.026631 5.855460 128 0 0 0.998407
-0.232108 -0.028321 5.835810 128 0 0 0.998210
-0.176953 -0.025206 5.865160 128 0 0 0.998172
-0.158420 -0.023865 5.874330 128 0 0 0.997755
-0.166119 -0.033661 5.844250 128 0 0 0.997858
-0.147746 -0.032440 5.853630 128 0 0 0.997551
-0.155301 -0.041463 5.823360 133 0 0 0.997337
-0.173481 -0.042281 5.813860 128 0 0 0.997777
-0.136983 -0.040398 5.832760 133 0 0 0.996951
-0.103511 -0.020901 5.904790 133 0 0 0.996578
-0.093251 -0.030261 5.884510 142 0 0 0.995337
-0.111554 -0.031288 5.873830 137 0 0 0.996181
-0.082917 -0.038880 5.864100 151 0 0 0.992579
-0.101313 -0.039559 5.853450 146 0 0 0.994368
-0.090872 -0.046781 5.832680 146 0 0 0.993806
-0.072431 -0.046078 5.843410 155 0 0 0.992166
-0.119139 -0.040036 5.842880 137 0 0 0.995863
-0.108762 -0.047297 5.822180 142 0 0 0.995259
-0.129855 -0.031938 5.863650 133 0 0 0.996904
-0.140456 -0.023165 5.884360 128 0 0 0.997574
-0.122182 -0.022083 5.894560 133 0 0 0.997104
-0.061964 -0.054102 5.821860 169 0 0 0.988823
-0.051723 -0.060481 5.800730 201 0 0 0.982431
-0.069872 -0.061435 5.789160 201 0 0 0.981663
-0.041339 -0.065362 5.778930 255 49 0 0.961095
-0.059626 -0.066717 5.767650 255 56 0 0.958549
-0.077478 -0.067715 5.756350 255 67 0 0.955571
-0.088060 -0.062336 5.778890 201 0 0 0.982235
-0.098434 -0.055584 5.800860 160 0 0 0.991478
-0.080459 -0.054963 5.811230 164 0 0 0.990000
-0.169008 -0.090131 5.656700 196 255 51 0.873673
-0.160257 -0.101567 5.633160 90 255 158 0.821010
-0.180574 -0.101601 5.626690 109 255 138 0.832161
-0.151756 -0.114241 5.611130 0 221 255 0.764496
-0.172105 -0.114282 5.604570 22 255 225 0.781450
-0.164168 -0.128281 5.583820 0 149 255 0.721735
-0.143682 -0.128390 5.590620 0 133 255 0.709798
-0.193125 -0.113960 5.597180 35 255 213 0.790226
-0.185171 -0.127831 5.576240 0 165 255 0.730644
-0.207115 -0.126969 5.567890 0 193 255 0.746553
-0.213667 -0.114653 5.588600 42 255 206 0.795140
-0.200089 -0.102538 5.618920 135 255 113 0.846068
-0.220603 -0.103150 5.610260 145 255 103 0.849945
-0.207397 -0.092187 5.641620 238 255 9 0.892226
-0.187999 -0.091350 5.649350 229 255 19 0.888104
-0.195385 -0.082009 5.672830 255 149 0 0.929206
-0.227557 -0.092644 5.633070 238 255 9 0.892376
-0.214728 -0.082708 5.665190 255 141 0 0.931997
-0.234753 -0.083062 5.656920 255 145 0 0.931414
-0.176391 -0.080812 5.680100 255 167 0 0.923485
-0.141146 -0.141667 5.572710 0 61 255 0.654827
-0.135048 -0.161423 5.554290 0 61 255 0.654169
-0.160067 -0.154576 5.549220 0 57 255 0.650581
-0.129757 -0.182307 5.537620 0 73 255 0.664604
-0.154380 -0.174865 5.531980 0 57 255 0.651574
-0.149492 -0.195989 5.516290 0 77 255 0.669335
-0.125069 -0.203700 5.522860 0 97 255 0.685432
-0.179696 -0.167234 5.525200 0 33 255 0.629321
-0.174588 -0.187752 5.509230 0 41 255 0.637875
-0.200337 -0.179536 5.501210 0 5 255 0.599254
-0.201556 -0.165791 5.516020 0 33 255 0.631341
-0.181101 -0.153761 5.540880 0 73 255 0.663843
-0.203134 -0.152439 5.532200 0 61 255 0.656668
-0.183098 -0.140475 5.558100 0 125 255 0.704799
-0.161909 -0.141313 5.565700 0 89 255 0.679183
-0.205050 -0.139511 5.549660 0 121 255 0.701648
-0.298215 -0.168275 5.478170 0 0 223 0.535376
-0.298801 -0.156884 5.493400 0 0 255 0.587122
-0.274099 -0.157504 5.500180 0 25 255 0.621122
-0.274904 -0.146637 5.515840 0 85 255 0.674501
-0.299846 -0.146112 5.509080 0 49 255 0.646193
-0.250548 -0.147558 5.522650 0 101 255 0.687342
-0.275628 -0.136101 5.532500 0 137 255 0.711943
-0.251611 -0.136646 5.538880 0 137 255 0.713775
-0.252531 -0.126312 5.556140 0 221 255 0.763971
-0.300773 -0.135785 5.525860 0 109 255 0.694233
-0.276653 -0.125734 5.549860 0 209 255 0.756110
-0.301948 -0.125296 5.543550 0 181 255 0.741601
-0.228323 -0.137347 5.545160 0 137 255 0.712350
-0.229435 -0.126681 5.562170 0 193 255 0.748500
-0.226618 -0.149975 5.527670 0 89 255 0.677874
-0.224737 -0.162994 5.510990 0 37 255 0.633865
-0.249180 -0.160108 5.505800 0 41 255 0.637804
-0.247771 -0.173194 5.489270 0 0 255 0.584970
-0.223531 -0.176191 5.495340 0 5 255 0.602300
-0.272565 -0.170480 5.483800 0 0 237 0.553825
-0.307504 -0.115115 5.563110 45 255 203 0.795793
-0.283943 -0.113562 5.570900 67 255 180 0.809112
-0.289668 -0.103932 5.591170 161 255 87 0.857821
-0.313054 -0.105568 5.583550 132 255 116 0.843747
-0.267010 -0.102483 5.598960 164 255 84 0.859284
-0.295250 -0.094924 5.612160 251 241 0 0.897789
-0.272326 -0.093662 5.620120 251 241 0 0.898043
-0.277422 -0.085387 5.641790 255 138 0 0.933091
-0.318892 -0.096252 5.604300 209 255 38 0.880235
-0.300432 -0.086353 5.633740 255 156 0 0.926829
-0.324326 -0.087418 5.625470 255 212 0 0.907947
-0.250383 -0.092321 5.627770 255 234 0 0.900816
-0.255560 -0.084510 5.649750 255 130 0 0.936268
-0.243193 -0.102864 5.604850 161 255 87 0.858456
-0.236210 -0.114390 5.582860 64 255 184 0.808365
-0.259731 -0.113992 5.576920 71 255 177 0.811515
-0.250112 -0.029696 5.827840 128 0 0 0.997982
-0.238804 -0.037616 5.807080 128 0 0 0.998088
-0.257158 -0.038605 5.798910 128 0 0 0.997600
-0.227742 -0.044902 5.786590 128 0 0 0.997877
-0.245970 -0.045968 5.778580 128 0 0 0.997663
-0.234906 -0.052721 5.758500 137 0 0 0.996117
-0.216841 -0.051703 5.766440 137 0 0 0.996440
-0.264539 -0.046581 5.770420 133 0 0 0.996684
-0.253339 -0.053379 5.750340 142 0 0 0.994936
-0.272606 -0.053800 5.741680 155 0 0 0.992110
-0.283334 -0.047305 5.761180 142 0 0 0.994650
-0.275388 -0.039687 5.789940 133 0 0 0.996771
-0.294056 -0.040439 5.780660 142 0 0 0.995428
-0.286153 -0.032291 5.809850 133 0 0 0.996645
-0.267878 -0.031154 5.818990 128 0 0 0.997528
-0.305019 -0.033111 5.800480 142 0 0 0.995091
-0.207469 -0.059215 5.745880 151 0 0 0.992777
-0.197021 -0.066770 5.724160 196 0 0 0.983227
-0.215893 -0.067413 5.716880 196 0 0 0.982716
-0.186626 -0.073805 5.702200 255 49 0 0.961305
-0.205503 -0.074848 5.694980 255 38 0 0.963697
-0.224809 -0.075202 5.687150 255 38 0 0.963942
-0.243962 -0.076013 5.678260 255 34 0 0.964934
-0.234205 -0.068437 5.708580 196 0 0 0.982659
-0.253353 -0.068925 5.699700 210 0 0 0.980186
-0.243676 -0.061162 5.729610 160 0 0 0.991381
-0.225407 -0.060399 5.737980 155 0 0 0.992459
-0.262831 -0.061629 5.720880 169 0 0 0.988938
-0.332182 -0.080449 5.645460 255 138 0 0.933804
-0.309740 -0.078603 5.654830 255 93 0 0.947866
-0.317657 -0.071895 5.675380 255 38 0 0.964165
-0.340017 -0.073489 5.665850 255 86 0 0.949905
-0.295995 -0.070549 5.684510 237 4 0 0.973252
-0.325809 -0.064981 5.695860 237 4 0 0.973794
-0.304183 -0.063700 5.704990 201 0 0 0.981956
-0.312312 -0.056663 5.725060 183 0 0 0.986384
-0.347865 -0.066445 5.686450 255 49 0 0.961122
-0.333848 -0.057954 5.716260 214 0 0 0.979194
-0.355831 -0.059171 5.706930 255 23 0 0.968096
-0.283588 -0.062312 5.713690 183 0 0 0.986144
-0.291782 -0.055326 5.733820 164 0 0 0.990521
-0.274120 -0.069849 5.692340 214 0 0 0.978458
-0.264850 -0.077226 5.670990 255 41 0 0.963450
-0.286904 -0.077836 5.662920 255 60 0 0.957260
-0.365394 -0.053013 5.726040 237 4 0 0.974033
-0.344389 -0.051292 5.736090 196 0 0 0.982941
-0.353914 -0.044905 5.754990 187 0 0 0.984959
-0.374890 -0.046524 5.745040 219 0 0 0.977327
-0.333617 -0.043177 5.764570 164 0 0 0.989979
-0.363560 -0.038035 5.773780 187 0 0 0.985045
-0.343489 -0.036333 5.783320 164 0 0 0.989983
-0.384188 -0.039735 5.763680 219 0 0 0.978349
-0.324203 -0.034581 5.792600 151 0 0 0.993289
-0.313460 -0.041900 5.772890 151 0 0 0.993436
-0.302657 -0.048786 5.753370 151 0 0 0.992952
-0.323023 -0.050076 5.744930 169 0 0 0.989224
-0.346120 -0.090525 5.618580 255 219 0 0.905776
-0.353601 -0.083931 5.637130 255 156 0 0.927796
-0.375341 -0.087140 5.630710 255 175 0 0.920867
-0.368006 -0.093824 5.611940 255 238 0 0.899455
-0.382809 -0.080341 5.649080 255 141 0 0.932267
-0.397197 -0.090654 5.623640 255 219 0 0.905821
-0.404164 -0.083856 5.642750 255 160 0 0.925662
-0.425677 -0.087523 5.635630 255 219 0 0.905686
-0.389549 -0.097726 5.605660 229 255 19 0.887868
-0.418463 -0.094594 5.617410 232 255 16 0.889439
-0.411178 -0.101737 5.599220 180 255 67 0.867140
-0.411381 -0.076760 5.661240 255 134 0 0.935111
-0.432876 -0.080459 5.654550 255 175 0 0.920857
-0.440062 -0.073232 5.673290 255 149 0 0.930328
-0.418983 -0.069122 5.681430 255 116 0 0.940272
-0.390497 -0.072999 5.669350 255 101 0 0.944716
-0.398047 -0.065496 5.689630 255 78 0 0.952122
-0.369157 -0.069554 5.677760 255 67 0 0.954748
-0.361519 -0.076734 5.657210 255 104 0 0.943955
-0.376641 -0.062182 5.698380 255 49 0 0.960975
-0.431969 -0.107885 5.594320 184 255 64 0.868878
-0.438701 -0.101100 5.611260 225 255 22 0.887565
-0.459340 -0.107484 5.606520 219 255 29 0.884497
-0.452493 -0.114497 5.589790 177 255 71 0.865880
-0.466034 -0.100528 5.623640 251 241 0 0.898586
-0.479761 -0.114291 5.602430 216 255 32 0.882835
-0.486421 -0.107102 5.619120 251 241 0 0.897489
-0.506935 -0.114127 5.615140 248 245 0 0.896727
-0.472726 -0.121438 5.585780 196 255 51 0.873918
-0.499576 -0.121337 5.598810 225 255 22 0.887465
-0.492726 -0.128726 5.582460 200 255 48 0.876146
-0.493599 -0.100008 5.636120 255 223 0 0.904569
-0.513789 -0.106693 5.631910 255 219 0 0.905758
-0.520664 -0.099427 5.648740 255 190 0 0.915825
-0.501029 -0.092299 5.654310 255 193 0 0.915476
-0.473510 -0.093151 5.641730 255 201 0 0.912542
-0.481016 -0.085697 5.660080 255 182 0 0.918691
-0.453400 -0.086656 5.647710 255 193 0 0.915225
-0.445950 -0.093900 5.629370 255 227 0 0.902787
-0.460585 -0.079341 5.666250 255 160 0 0.926231
-0.527100 -0.073538 5.705700 255 116 0 0.940886
-0.507319 -0.066613 5.712890 255 104 0 0.943402
-0.498235 -0.073319 5.694940 255 127 0 0.937454
-0.487110 -0.060211 5.720430 255 101 0 0.945023
-0.478210 -0.066801 5.702640 255 108 0 0.943286
-0.458083 -0.060700 5.710020 255 97 0 0.945770
-0.466566 -0.054161 5.728200 255 82 0 0.950669
-0.469523 -0.073237 5.683980 255 130 0 0.935690
-0.449003 -0.067046 5.691930 255 123 0 0.937931
-0.489658 -0.079471 5.677610 255 145 0 0.931330
-0.509974 -0.086158 5.671600 255 160 0 0.926666
-0.518628 -0.079791 5.688760 255 134 0 0.934399
-0.538266 -0.086666 5.682950 255 141 0 0.932291
-0.529557 -0.092997 5.665970 255 167 0 0.923550
-0.546446 -0.080012 5.699930 255 123 0 0.937823
-0.445626 -0.050279 5.736440 255 56 0 0.958678
-0.424823 -0.046518 5.745390 255 27 0 0.967121
-0.415688 -0.053247 5.726790 255 34 0 0.964763
-0.404471 -0.042923 5.754690 237 4 0 0.973550
-0.395071 -0.049765 5.736000 246 12 0 0.972071
-0.385605 -0.056213 5.717130 255 27 0 0.967429
-0.406758 -0.059436 5.708530 255 56 0 0.958758
-0.427925 -0.063099 5.700120 255 82 0 0.950425
-0.436774 -0.056835 5.718400 255 67 0 0.955449
-0.011106 -0.673800 5.058860 0 0 128 0.000000
0.012888 -0.675767 5.052720 0 0 128 0.000000
0.028251 -0.686283 5.040340 0 0 128 0.000000
0.052090 -0.689119 5.034900 0 0 128 0.000000
0.035322 -0.706286 5.021910 0 0 128 0.000000
0.010556 -0.702872 5.027610 0 0 128 0.000000
-0.004789 -0.692117 5.039610 0 0 128 0.000000
-0.030023 -0.689890 5.044740 0 0 128 0.000000
-0.046005 -0.680667 5.057430 0 0 128 0.000000
-0.064423 -0.695571 5.045090 0 0 128 0.000000
0.084911 -0.684434 5.034510 0 0 128 0.000000
0.108854 -0.688156 5.027120 0 0 128 0.000000
0.092505 -0.705971 5.014000 0 0 128 0.000000
0.068232 -0.701614 5.021050 0 0 128 0.000000
0.079829 -0.760154 4.983600 0 0 128 0.000000
0.062052 -0.745743 4.995150 0 0 128 0.000000
0.037020 -0.741450 5.002420 0 0 128 0.000000
0.019837 -0.726922 5.013660 0 0 128 0.000000
0.004532 -0.746940 5.005210 0 0 128 0.000000
0.052850 -0.720280 5.011040 0 0 128 0.000000
0.077250 -0.724732 5.003360 0 0 128 0.000000
-0.021084 -0.742746 5.012150 0 0 128 0.000000
-0.038096 -0.729574 5.021940 0 0 128 0.000000
-0.063766 -0.726486 5.027490 0 0 128 0.000000
-0.081121 -0.714354 5.037070 0 0 128 0.000000
-0.097861 -0.732881 5.029310 0 0 128 0.052188
-0.046957 -0.707730 5.034850 0 0 128 0.000000
-0.022037 -0.710374 5.029320 0 0 128 0.000000
-0.005031 -0.723324 5.019660 0 0 128 0.000000
0.078251 -0.804973 4.969170 0 0 128 0.000000
0.067543 -0.825377 4.969310 0 0 128 0.000000
0.056837 -0.845343 4.968660 0 0 128 0.000000
0.034778 -0.924972 4.981800 0 0 128 0.000000
0.004796 -0.922756 4.988950 0 0 128 0.000000
-0.021514 -0.910278 4.993990 0 0 128 0.000000
-0.050277 -0.908132 5.000430 0 0 128 0.000000
-0.076111 -0.895235 5.004960 0 0 128 0.043677
-0.081780 -0.916272 5.008380 0 0 128 0.000000
-0.044680 -0.887276 4.996840 0 0 128 0.000000
-0.070538 -0.874299 5.001240 0 0 128 0.007042
-0.016690 -0.890358 4.990000 0 0 128 0.000000
0.011394 -0.893523 4.983190 0 0 128 0.000000
0.038095 -0.906029 4.978090 0 0 128 0.000000
0.041904 -0.886771 4.973340 0 0 128 0.000000
-0.110240 -0.913209 5.013610 0 0 128 0.149388
-0.134952 -0.898753 5.017720 0 0 137 0.322257
-0.163252 -0.895170 5.023130 0 0 164 0.431443
-0.187902 -0.879755 5.027090 0 0 201 0.506508
-0.196444 -0.902032 5.029670 0 0 173 0.448883
-0.155801 -0.872821 5.020360 0 0 178 0.462554
-0.180077 -0.857787 5.024090 0 0 214 0.527678
-0.128318 -0.876964 5.014590 0 0 151 0.375507
-0.101034 -0.880973 5.008970 0 0 128 0.240350
-0.157302 -0.813007 5.021590 0 0 205 0.507355
-0.131062 -0.817538 5.015700 0 0 164 0.429985
-0.109679 -0.832884 5.010780 0 0 146 0.357311
-0.083083 -0.837253 5.004610 0 0 128 0.178749
-0.060937 -0.852319 4.999590 0 0 128 0.021481
-0.051196 -0.829789 4.997300 0 0 128 0.000000
-0.092452 -0.859310 5.006550 0 0 128 0.248361
-0.120001 -0.855107 5.012340 0 0 155 0.402130
-0.147055 -0.850940 5.018160 0 0 192 0.490480
-0.168581 -0.835413 5.023320 0 0 219 0.531606
-0.024194 -0.833814 4.990170 0 0 128 0.000000
-0.001121 -0.848204 4.984370 0 0 128 0.000000
0.025877 -0.852141 4.977250 0 0 128 0.000000
0.049481 -0.866284 4.971150 0 0 128 0.000000
0.018190 -0.872967 4.979850 0 0 128 0.000000
-0.009928 -0.869721 4.986740 0 0 128 0.000000
-0.038005 -0.866564 4.993700 0 0 128 0.000000
-0.123819 -0.729502 5.033800 0 0 128 0.131709
-0.140539 -0.717643 5.041950 0 0 128 0.103502
-0.167512 -0.715010 5.047100 0 0 128 0.098641
-0.185043 -0.703932 5.057080 0 0 128 0.096293
-0.203420 -0.719954 5.050710 0 0 128 0.198991
-0.148586 -0.697698 5.054750 0 0 128 0.008678
-0.166717 -0.687135 5.065180 0 0 128 0.053385
-0.122938 -0.700226 5.049880 0 0 128 0.000000
-0.097577 -0.702374 5.045310 0 0 128 0.000000
-0.224540 -0.716433 5.054880 0 0 128 0.229715
-0.235272 -0.705737 5.063130 0 0 128 0.233682
-0.255716 -0.703493 5.067620 0 0 137 0.319511
-0.236773 -0.689007 5.077760 0 0 128 0.242124
-0.216854 -0.690514 5.071920 0 0 128 0.150024
-0.196759 -0.693223 5.066810 0 0 128 0.079617
-0.187536 -0.670893 5.089580 0 0 128 0.130717
-0.167267 -0.672038 5.083100 0 0 128 0.067144
-0.146741 -0.673451 5.077400 0 0 128 0.002575
-0.218500 -0.676631 5.090320 0 0 133 0.256582
-0.110452 -0.666889 5.078070 0 0 128 0.000000
-0.086098 -0.669117 5.072670 0 0 128 0.000000
-0.070342 -0.678836 5.061790 0 0 128 0.000000
-0.104515 -0.683418 5.059840 0 0 128 0.000000
-0.130368 -0.681585 5.065070 0 0 128 0.000000
-0.183678 -0.808297 5.026350 0 0 192 0.488073
-0.203710 -0.792958 5.032620 0 0 187 0.478906
-0.230507 -0.787411 5.036710 0 0 187 0.477399
-0.249271 -0.773074 5.040900 0 0 169 0.439431
-0.263235 -0.791418 5.038360 0 0 187 0.479957
-0.216275 -0.768316 5.037870 0 0 160 0.406418
-0.235343 -0.754189 5.042200 0 0 142 0.343170
-0.189129 -0.773642 5.032540 0 0 146 0.367347
-0.162728 -0.778264 5.027430 0 0 151 0.382824
-0.143476 -0.792684 5.022440 0 0 173 0.445092
-0.129501 -0.771808 5.022460 0 0 137 0.322955
-0.283891 -0.786411 5.039620 0 0 173 0.448854
-0.297010 -0.772804 5.043100 0 0 160 0.419071
-0.317731 -0.767917 5.044850 0 0 169 0.433192
-0.331766 -0.754211 5.048910 0 0 169 0.443140
-0.346561 -0.771867 5.045010 0 0 173 0.448903
-0.303509 -0.750589 5.048400 0 0 164 0.423794
-0.317502 -0.737274 5.052730 0 0 160 0.407266
-0.283342 -0.754931 5.046410 0 0 155 0.391135
-0.263194 -0.759293 5.044290 0 0 155 0.391623
-0.272522 -0.718089 5.059700 0 0 137 0.316529
-0.252777 -0.721689 5.056110 0 0 137 0.302982
-0.240052 -0.733430 5.050080 0 0 137 0.300871
-0.219312 -0.737464 5.046430 0 0 133 0.278564
-0.268433 -0.737935 5.050490 0 0 146 0.362598
-0.288664 -0.733773 5.053070 0 0 146 0.369032
-0.300993 -0.722173 5.059750 0 0 151 0.373326
-0.184476 -0.732537 5.042440 0 0 128 0.179649
-0.157797 -0.736228 5.037020 0 0 128 0.183422
-0.139612 -0.749189 5.030540 0 0 133 0.254268
-0.113784 -0.752740 5.026170 0 0 128 0.227846
-0.173632 -0.754599 5.033910 0 0 133 0.285054
-0.200860 -0.750303 5.039580 0 0 137 0.299385
-0.079996 -0.746128 5.022520 0 0 128 0.004152
-0.054259 -0.749761 5.016180 0 0 128 0.000000
-0.036155 -0.763672 5.008410 0 0 128 0.000000
-0.010065 -0.766860 5.002100 0 0 128 0.000000
-0.024983 -0.787400 4.998220 0 0 128 0.000000
-0.051588 -0.783833 5.004550 0 0 128 0.000000
-0.069741 -0.769852 5.012430 0 0 128 0.004943
-0.095835 -0.766162 5.018710 0 0 128 0.174320
0.022606 -0.761521 4.996930 0 0 128 0.000000
0.047783 -0.765755 4.989660 0 0 128 0.000000
0.066333 -0.780412 4.980560 0 0 128 0.000000
0.052581 -0.800549 4.976400 0 0 128 0.000000
0.034148 -0.785739 4.985620 0 0 128 0.000000
0.008063 -0.781437 4.993080 0 0 128 0.000000
0.035821 -0.831263 4.976340 0 0 128 0.000000
0.009274 -0.827239 4.983290 0 0 128 0.000000
-0.011441 -0.813042 4.991020 0 0 128 0.000000
-0.038072 -0.808971 4.997860 0 0 128 0.000000
0.021257 -0.806442 4.983870 0 0 128 0.000000
-0.071208 -0.815318 5.004130 0 0 128 0.127753
-0.098153 -0.811481 5.010240 0 0 142 0.331374
-0.117346 -0.796864 5.016400 0 0 151 0.378899
-0.084448 -0.790356 5.010810 0 0 128 0.170501
-0.522986 -0.694925 5.089180 0 0 183 0.473060
-0.544153 -0.701082 5.092080 0 0 192 0.485701
-0.545778 -0.717493 5.085830 0 0 183 0.467958
-0.565333 -0.707146 5.094380 0 0 187 0.477250
-0.567490 -0.723978 5.088430 0 0 169 0.438911
-0.589088 -0.730335 5.090100 0 0 155 0.399675
-0.569253 -0.740784 5.082810 0 0 169 0.439157
-0.587150 -0.712977 5.095840 0 0 173 0.446215
-0.608481 -0.719570 5.097430 0 0 142 0.330171
-0.582725 -0.694779 5.101600 0 0 164 0.431284
-0.560723 -0.689347 5.100270 0 0 196 0.497860
-0.539675 -0.683508 5.097820 0 0 192 0.486768
-0.556096 -0.672110 5.106950 0 0 214 0.521325
-0.588672 -0.750927 5.087980 0 0 164 0.423926
-0.585263 -0.769970 5.085590 0 0 169 0.442418
-0.607823 -0.761321 5.093150 0 0 155 0.397601
-0.604510 -0.780471 5.091020 0 0 155 0.404352
-0.623120 -0.791219 5.096550 0 0 142 0.346143
-0.600655 -0.799797 5.089480 0 0 155 0.400448
-0.626915 -0.771883 5.098300 0 0 137 0.320010
-0.645383 -0.782956 5.103540 0 0 128 0.237662
-0.628098 -0.750667 5.099290 0 0 137 0.302921
-0.608683 -0.740364 5.094970 0 0 151 0.378829
-0.687437 -0.764380 5.120050 0 0 128 0.005222
-0.678205 -0.746900 5.118570 0 0 128 0.077908
-0.658455 -0.735618 5.113240 0 0 128 0.198267
-0.648050 -0.718643 5.112150 0 0 128 0.230039
-0.627042 -0.708110 5.107200 0 0 137 0.316141
-0.645612 -0.696055 5.116210 0 0 128 0.237654
-0.629019 -0.730310 5.102960 0 0 137 0.307471
-0.647602 -0.762153 5.105720 0 0 128 0.249258
-0.666854 -0.773921 5.112020 0 0 128 0.120235
-0.630958 -0.682986 5.119490 0 0 146 0.361946
-0.608819 -0.676878 5.117250 0 0 183 0.469188
-0.594234 -0.664847 5.120530 0 0 192 0.490686
-0.571928 -0.659222 5.118030 0 0 223 0.537126
-0.587452 -0.646110 5.128690 0 0 223 0.535212
-0.578432 -0.677525 5.109600 0 0 192 0.486631
-0.605054 -0.701323 5.104680 0 0 155 0.403927
-0.571428 -0.637364 5.134880 0 41 255 0.637145
-0.549054 -0.635832 5.135300 0 121 255 0.702141
-0.533754 -0.627623 5.141310 0 205 255 0.754432
-0.511545 -0.625749 5.140840 13 245 235 0.775443
-0.525114 -0.612773 5.153110 45 255 203 0.796056
-0.519716 -0.640637 5.128940 0 145 255 0.717206
-0.497924 -0.638589 5.128200 0 153 255 0.724161
-0.526411 -0.654776 5.117440 0 49 255 0.643517
-0.549082 -0.657059 5.117960 0 25 255 0.623486
-0.509169 -0.606980 5.160900 119 255 129 0.837349
-0.487361 -0.608178 5.162180 174 255 74 0.864447
-0.472697 -0.602435 5.169920 219 255 29 0.883859
-0.460716 -0.615442 5.156500 145 255 103 0.849631
-0.468611 -0.627285 5.142770 74 255 174 0.812985
-0.489968 -0.627015 5.142460 58 255 190 0.803067
-0.433843 -0.639122 5.133270 38 255 209 0.793160
-0.439629 -0.650099 5.120590 0 185 255 0.742299
-0.454762 -0.639132 5.132110 25 255 222 0.785144
-0.461047 -0.650527 5.119220 0 149 255 0.721652
-0.482929 -0.650393 5.117850 0 105 255 0.689860
-0.467912 -0.661529 5.107350 0 45 255 0.641998
-0.476371 -0.638947 5.130330 0 225 251 0.765842
-0.447426 -0.627659 5.144710 93 255 155 0.824378
-0.489894 -0.664258 5.108230 0 45 255 0.642225
-0.494973 -0.677623 5.098030 0 0 255 0.576977
-0.511331 -0.666687 5.107850 0 21 255 0.619367
-0.517470 -0.680629 5.098430 0 0 246 0.564362
-0.534084 -0.669305 5.107580 0 0 242 0.560372
-0.504432 -0.652322 5.117710 0 85 255 0.673579
-0.364087 -0.697957 5.078090 0 0 214 0.523241
-0.359600 -0.712573 5.067010 0 0 183 0.473514
-0.378585 -0.715134 5.065650 0 0 178 0.463431
-0.384233 -0.699461 5.076320 0 0 219 0.529967
-0.405412 -0.701463 5.074790 0 0 205 0.513443
-0.323514 -0.714028 5.065370 0 0 164 0.427294
-0.342917 -0.728596 5.057410 0 0 164 0.419884
-0.366419 -0.754303 5.051090 0 0 169 0.438895
-0.387986 -0.736381 5.058230 0 0 178 0.463501
-0.390815 -0.758156 5.050730 0 0 173 0.454247
-0.363729 -0.732760 5.058150 0 0 173 0.447177
-0.417060 -0.748725 5.055460 0 0 183 0.467593
-0.405676 -0.727074 5.063270 0 0 205 0.508847
-0.427563 -0.730980 5.063020 0 0 192 0.483776
-0.450558 -0.734654 5.062670 0 0 178 0.456115
-0.501253 -0.691602 5.089890 0 0 219 0.532549
-0.473582 -0.674809 5.098160 0 1 255 0.595814
-0.445121 -0.677375 5.093870 0 13 255 0.610467
-0.450247 -0.690174 5.085410 0 0 242 0.560083
-0.470990 -0.693485 5.085910 0 0 223 0.534844
-0.475654 -0.706650 5.078220 0 0 223 0.536695
-0.497371 -0.710152 5.078350 0 0 183 0.468753
-0.446781 -0.661188 5.109480 0 77 255 0.667645
-0.419453 -0.649657 5.121950 0 197 255 0.750399
-0.398750 -0.664538 5.107430 0 129 255 0.706238
-0.418583 -0.665482 5.105840 0 125 255 0.705073
-0.424191 -0.676003 5.094970 0 49 255 0.646374
-0.377837 -0.678795 5.094740 0 41 255 0.636543
-0.397180 -0.679739 5.092630 0 29 255 0.625930
-0.425393 -0.704707 5.074960 0 0 214 0.525915
-0.445990 -0.708308 5.074980 0 0 223 0.538345
-0.469218 -0.725055 5.068830 0 0 187 0.479587
-0.492448 -0.522445 5.238350 248 245 0 0.897116
-0.473311 -0.517890 5.245560 238 255 9 0.893104
-0.453884 -0.521789 5.246400 248 245 0 0.897121
-0.435142 -0.516806 5.253010 238 255 9 0.892124
-0.416016 -0.520486 5.253340 225 255 22 0.886866
-0.416823 -0.501005 5.263420 222 255 25 0.885784
-0.433586 -0.534946 5.241680 235 255 13 0.890656
-0.414415 -0.538764 5.241490 216 255 32 0.882395
-0.450301 -0.540345 5.234430 255 227 0 0.903341
-0.467125 -0.545204 5.226620 255 219 0 0.906287
-0.486997 -0.541177 5.225470 255 219 0 0.905857
-0.480719 -0.558748 5.211410 255 186 0 0.917891
-0.397603 -0.498801 5.271180 229 255 19 0.889070
-0.379939 -0.505540 5.273940 222 255 25 0.885085
-0.361152 -0.503557 5.281090 193 255 55 0.872330
-0.363327 -0.522170 5.272060 164 255 84 0.859196
-0.381057 -0.525041 5.264550 180 255 67 0.866421
-0.397943 -0.527412 5.256110 200 255 48 0.876017
-0.378587 -0.551807 5.247910 116 255 132 0.836226
-0.394211 -0.554137 5.239290 158 255 90 0.856152
-0.409707 -0.555622 5.229900 219 255 29 0.884138
-0.362584 -0.540882 5.261450 113 255 135 0.834075
-0.423182 -0.568499 5.215690 255 234 0 0.900481
-0.438071 -0.574156 5.208220 203 255 45 0.877361
-0.457302 -0.570356 5.206620 229 255 19 0.888416
-0.472637 -0.574853 5.198560 238 255 9 0.892813
-0.445026 -0.557606 5.221390 255 212 0 0.909149
-0.428328 -0.553052 5.229160 242 253 6 0.894527
-0.483727 -0.588462 5.184020 238 255 9 0.893021
-0.499489 -0.594133 5.176390 216 255 32 0.882801
-0.521058 -0.592103 5.175720 158 255 90 0.855779
-0.537242 -0.598161 5.167950 32 255 216 0.788231
-0.548089 -0.582528 5.182130 25 255 222 0.785223
-0.530795 -0.576886 5.189440 90 255 158 0.822448
-0.509738 -0.578853 5.190440 216 255 32 0.882214
-0.493120 -0.572859 5.197690 229 255 19 0.887853
-0.547367 -0.613790 5.154800 22 255 225 0.783157
-0.562749 -0.622236 5.148590 0 177 255 0.738799
-0.585788 -0.623125 5.149450 0 25 255 0.623511
-0.601773 -0.631764 5.143400 0 0 255 0.574253
-0.614934 -0.616933 5.157800 0 0 255 0.581260
-0.597670 -0.608481 5.164260 0 109 255 0.691980
-0.575567 -0.607378 5.163170 0 201 255 0.751951
-0.558939 -0.598928 5.169380 0 217 255 0.761132
-0.643550 -0.585403 5.192500 0 0 255 0.586290
-0.624448 -0.576167 5.197990 0 81 255 0.671663
-0.601199 -0.575679 5.196040 0 201 255 0.751414
-0.582322 -0.567287 5.201740 55 255 193 0.802249
-0.559171 -0.566357 5.198860 113 255 135 0.833806
-0.569540 -0.549103 5.214350 61 255 187 0.805586
-0.571996 -0.583208 5.185340 48 255 200 0.797916
-0.588297 -0.592025 5.179370 3 233 245 0.769274
-0.612276 -0.592803 5.181960 0 125 255 0.703311
-0.629692 -0.601255 5.175010 0 0 255 0.584611
-0.549779 -0.542528 5.220470 125 255 122 0.840983
-0.527944 -0.544891 5.220010 180 255 67 0.867610
-0.508738 -0.538541 5.226180 180 255 67 0.866573
-0.502857 -0.556323 5.212490 213 255 35 0.881386
-0.519709 -0.562433 5.205460 203 255 45 0.877286
-0.542001 -0.559738 5.205720 145 255 103 0.850519
-0.233903 -0.499703 5.345010 213 255 35 0.880769
-0.263641 -0.481210 5.326810 209 255 38 0.880623
-0.245306 -0.482580 5.339270 238 255 9 0.892147
-0.215056 -0.502184 5.355700 213 255 35 0.881586
-0.300436 -0.477183 5.314210 245 249 3 0.895450
-0.315948 -0.466549 5.310110 225 255 22 0.887221
-0.333453 -0.464888 5.302420 200 255 48 0.875576
-0.278621 -0.471816 5.324270 232 255 16 0.889481
-0.318076 -0.422832 5.321990 93 255 155 0.822913
-0.298376 -0.427256 5.329970 148 255 100 0.851390
-0.283242 -0.438246 5.333030 193 255 55 0.873208
-0.263837 -0.441967 5.339640 187 255 61 0.870000
-0.248805 -0.452538 5.341540 177 255 71 0.866143
-0.324472 -0.439110 5.313770 145 255 103 0.849287
-0.225819 -0.450311 5.359640 255 234 0 0.901183
-0.214791 -0.466994 5.364420 255 160 0 0.926294
-0.199044 -0.476923 5.371260 255 145 0 0.931091
-0.181676 -0.306084 5.443420 196 255 51 0.874157
-0.167460 -0.319465 5.449700 255 182 0 0.918649
-0.161563 -0.339176 5.447000 255 104 0 0.943451
-0.146481 -0.351746 5.450780 255 90 0 0.948013
-0.163500 -0.365096 5.435220 255 93 0 0.947371
-0.180139 -0.355531 5.430850 255 93 0 0.946834
-0.186175 -0.335858 5.433260 255 156 0 0.927834
-0.202147 -0.325244 5.427010 255 230 0 0.901491
-0.207634 -0.305114 5.428390 145 255 103 0.849878
-0.228881 -0.324768 5.412220 206 255 42 0.878710
-0.125773 -0.361197 5.465040 255 19 0 0.969787
-0.113872 -0.379488 5.469860 210 0 0 0.979943
-0.108864 -0.400419 5.466690 196 0 0 0.983335
-0.095641 -0.417484 5.469170 192 0 0 0.984087
-0.109753 -0.424329 5.454600 205 0 0 0.981248
-0.124278 -0.410572 5.451920 192 0 0 0.983678
-0.129676 -0.389539 5.455600 210 0 0 0.980061
-0.142715 -0.374191 5.450300 242 8 0 0.972659
-0.150790 -0.429896 5.424270 233 1 0 0.974781
-0.158033 -0.411077 5.426710 242 8 0 0.972971
-0.173062 -0.398024 5.420270 255 38 0 0.963841
-0.179199 -0.378444 5.420360 255 108 0 0.943317
-0.195242 -0.391912 5.404900 255 127 0 0.937126
-0.157650 -0.384796 5.435910 255 19 0 0.969685
-0.144524 -0.400120 5.441300 214 0 0 0.978966
-0.136994 -0.418884 5.438930 210 0 0 0.979900
-0.122279 -0.432708 5.441510 223 0 0 0.976365
-0.213190 -0.385307 5.400460 255 104 0 0.943796
-0.221866 -0.368487 5.402690 255 127 0 0.936400
-0.239973 -0.361319 5.396910 255 141 0 0.932202
-0.248607 -0.344045 5.397730 255 219 0 0.905729
-0.267971 -0.363940 5.382760 255 182 0 0.918451
-0.220673 -0.341987 5.411550 255 201 0 0.912181
-0.204429 -0.352116 5.417540 255 134 0 0.934579
-0.195912 -0.368964 5.415580 255 108 0 0.943240
-0.278179 -0.180249 5.470510 0 0 214 0.527662
-0.253195 -0.182826 5.476900 0 0 233 0.552315
-0.258802 -0.192557 5.464220 0 0 214 0.526225
-0.229113 -0.185821 5.483220 0 0 251 0.569242
-0.234678 -0.195719 5.471090 0 0 242 0.558453
-0.211401 -0.199072 5.477660 0 0 251 0.573047
-0.205835 -0.189226 5.489040 0 0 255 0.581222
-0.240282 -0.205917 5.459020 0 0 219 0.532613
-0.216919 -0.209304 5.466190 0 0 237 0.554036
-0.222642 -0.219626 5.454860 0 0 228 0.545007
-0.268620 -0.213119 5.442460 0 0 205 0.511982
-0.287697 -0.200188 5.447660 0 0 196 0.493593
-0.307519 -0.187830 5.454140 0 0 192 0.486563
-0.317299 -0.208079 5.432690 0 0 173 0.444518
-0.185899 -0.197774 5.494980 0 41 255 0.636227
-0.160507 -0.206392 5.503110 0 81 255 0.671649
-0.172245 -0.216781 5.489610 0 97 255 0.684261
-0.135951 -0.214520 5.509920 0 109 255 0.692755
-0.147615 -0.225374 5.498010 0 157 255 0.726259
-0.159337 -0.235942 5.485670 0 177 255 0.739415
-0.165087 -0.246320 5.475570 0 201 255 0.752808
-0.177806 -0.227041 5.479690 0 117 255 0.699523
-0.183483 -0.237410 5.468970 0 101 255 0.687407
-0.196861 -0.218014 5.472810 0 41 255 0.638080
-0.191383 -0.207829 5.483980 0 45 255 0.640343
-0.202605 -0.228414 5.462130 0 29 255 0.627457
-0.204755 -0.278339 5.438160 9 241 238 0.773091
-0.213862 -0.261727 5.440960 0 169 255 0.733193
-0.232833 -0.254132 5.433400 0 81 255 0.671061
-0.242792 -0.237833 5.436030 0 0 255 0.587547
-0.262587 -0.256118 5.416820 0 1 255 0.597822
-0.185115 -0.261310 5.456820 0 213 255 0.758261
-0.284646 -0.253805 5.411800 0 0 255 0.585119
-0.298146 -0.241546 5.415280 0 0 237 0.557038
-0.321114 -0.239864 5.410730 0 0 219 0.531669
-0.335212 -0.228327 5.415490 0 0 192 0.487284
-0.352994 -0.249246 5.399100 0 0 210 0.515695
-0.302879 -0.219544 5.427460 0 0 187 0.476013
-0.255231 -0.225122 5.438470 0 0 223 0.534398
-0.358277 -0.483651 5.289480 222 255 25 0.885750
-0.377586 -0.486610 5.283040 229 255 19 0.888213
-0.395569 -0.479564 5.280950 232 255 16 0.889416
-0.414798 -0.481647 5.273260 200 255 48 0.875112
-0.412179 -0.462165 5.282560 148 255 100 0.851510
-0.391743 -0.461409 5.289390 200 255 48 0.876288
-0.373780 -0.468707 5.291720 225 255 22 0.886628
-0.351390 -0.458349 5.300880 216 255 32 0.882882
-0.437246 -0.496337 5.264170 238 255 9 0.892500
-0.456087 -0.501994 5.258130 229 255 19 0.888239
-0.477010 -0.496512 5.258300 225 255 22 0.886815
-0.495835 -0.501860 5.251400 180 255 67 0.866196
-0.498271 -0.481246 5.263300 129 255 119 0.841398
-0.476942 -0.476914 5.268880 161 255 87 0.858459
-0.456367 -0.481139 5.268580 180 255 67 0.866627
-0.435102 -0.476721 5.273590 196 255 51 0.873981
-0.495529 -0.438587 5.288070 19 253 229 0.779626
-0.472665 -0.435017 5.291890 48 255 200 0.797588
-0.451898 -0.440165 5.290440 71 255 177 0.811657
-0.428735 -0.436545 5.293940 87 255 161 0.820841
-0.407880 -0.442652 5.292270 116 255 132 0.835940
-0.403229 -0.423258 5.302040 61 255 187 0.805479
-0.433110 -0.455706 5.283660 125 255 122 0.840928
-0.454732 -0.460687 5.279100 135 255 113 0.844694
-0.475551 -0.455090 5.280940 96 255 151 0.825076
-0.497078 -0.460294 5.276270 71 255 177 0.811120
-0.381856 -0.423245 5.307850 106 255 142 0.830422
-0.363692 -0.431304 5.308840 148 255 100 0.851262
-0.342663 -0.431473 5.313780 155 255 93 0.854400
-0.369216 -0.449598 5.299870 187 255 61 0.869946
-0.387337 -0.440986 5.298510 148 255 100 0.851070
-0.341763 -0.261984 5.395590 0 1 255 0.597797
-0.318826 -0.263146 5.398980 0 13 255 0.608223
-0.330844 -0.274999 5.392290 0 57 255 0.653314
-0.296554 -0.265106 5.404250 0 41 255 0.635700
-0.308360 -0.276853 5.397080 0 101 255 0.687505
-0.286433 -0.279082 5.402130 0 129 255 0.707923
-0.274542 -0.267278 5.409290 0 53 255 0.649426
-0.320282 -0.288253 5.389520 0 137 255 0.711640
-0.298109 -0.290614 5.394640 0 177 255 0.738234
-0.309883 -0.301772 5.386560 0 217 255 0.761831
-0.332168 -0.300763 5.382240 0 197 255 0.749234
-0.342951 -0.287601 5.385430 0 125 255 0.704346
-0.355003 -0.300014 5.378370 0 181 255 0.740256
-0.365766 -0.287355 5.382010 0 97 255 0.683509
-0.353728 -0.274551 5.388720 0 45 255 0.641750
-0.376862 -0.274787 5.385890 0 25 255 0.623469
-0.377369 -0.299922 5.375140 0 149 255 0.719939
-0.388427 -0.287414 5.379310 0 65 255 0.658689
-0.399772 -0.300062 5.371860 0 89 255 0.677240
-0.365131 -0.261995 5.392520 0 0 255 0.579104
-0.254517 -0.273450 5.416760 0 145 255 0.719040
-0.234924 -0.280860 5.424130 22 255 225 0.781424
-0.226977 -0.297914 5.423060 116 255 132 0.835317
-0.248613 -0.319276 5.406650 193 255 55 0.872434
-0.257416 -0.302044 5.408230 109 255 138 0.832197
-0.268495 -0.313570 5.400460 164 255 84 0.859145
-0.277679 -0.296306 5.401750 38 255 209 0.792009
-0.266106 -0.284997 5.409440 6 237 242 0.771655
-0.288926 -0.307515 5.393630 84 255 164 0.817942
-0.289254 -0.360191 5.377250 255 227 0 0.903138
-0.299913 -0.344498 5.378690 225 255 22 0.886885
-0.321296 -0.340556 5.371990 151 255 96 0.853320
-0.332169 -0.324940 5.373050 58 255 190 0.802873
-0.353248 -0.348681 5.358280 96 255 151 0.824585
-0.268362 -0.338588 5.391970 238 255 9 0.892192
-0.376066 -0.349046 5.354610 87 255 161 0.820350
-0.364753 -0.335759 5.361110 45 255 203 0.795333
-0.387453 -0.336221 5.357570 13 245 235 0.775316
-0.398361 -0.349181 5.350250 29 255 219 0.787183
-0.376113 -0.323283 5.364260 0 213 255 0.760096
-0.410185 -0.337061 5.353870 0 201 255 0.752262
-0.399173 -0.324037 5.360940 0 173 255 0.736056
-0.421581 -0.325593 5.358060 0 141 255 0.715977
-0.420860 -0.350039 5.347150 0 225 251 0.765685
-0.432608 -0.338264 5.350830 0 169 255 0.733897
-0.443617 -0.350800 5.343430 0 165 255 0.731140
-0.411035 -0.312911 5.365460 0 125 255 0.705874
-0.641080 -0.198766 5.578150 255 56 0 0.959108
-0.630130 -0.182325 5.592090 255 64 0 0.956227
-0.651655 -0.183580 5.601840 255 75 0 0.952642
-0.619063 -0.166041 5.606050 255 75 0 0.952567
-0.640662 -0.167596 5.616230 255 82 0 0.950660
-0.629384 -0.151864 5.630760 255 86 0 0.949787
-0.661915 -0.168812 5.625870 255 101 0 0.945302
-0.607749 -0.150013 5.620240 255 97 0 0.946599
-0.596154 -0.134150 5.634730 255 130 0 0.935805
-0.583834 -0.149372 5.605960 255 130 0 0.935827
-0.595022 -0.165755 5.592330 255 86 0 0.949774
-0.606305 -0.182525 5.578660 255 60 0 0.957768
-0.571055 -0.164969 5.577930 255 123 0 0.937552
-0.653200 -0.153555 5.642750 255 86 0 0.949879
-0.674711 -0.156276 5.651160 255 97 0 0.945844
-0.644638 -0.138748 5.659680 255 71 0 0.954667
-0.665857 -0.141716 5.668510 255 71 0 0.953679
-0.628235 -0.130224 5.662160 255 78 0 0.952125
-0.611384 -0.121321 5.664610 255 97 0 0.945707
-0.557956 -0.095086 5.678710 255 119 0 0.939552
-0.576643 -0.103502 5.674710 255 104 0 0.943400
-0.549181 -0.101515 5.661910 255 156 0 0.927386
-0.568431 -0.110294 5.658090 255 127 0 0.937260
-0.559628 -0.116842 5.641520 255 156 0 0.927083
-0.540712 -0.108228 5.645000 255 171 0 0.922560
-0.586741 -0.118732 5.654540 255 116 0 0.940406
-0.578098 -0.125634 5.638130 255 130 0 0.935462
-0.601766 -0.106403 5.684630 255 82 0 0.950457
-0.527652 -0.122714 5.613390 255 197 0 0.913087
-0.547555 -0.131190 5.611870 255 171 0 0.922243
-0.520433 -0.130233 5.597160 255 227 0 0.902775
-0.540353 -0.139140 5.595840 255 182 0 0.918679
-0.533196 -0.147009 5.580120 255 193 0 0.915142
-0.513004 -0.137821 5.581350 248 245 0 0.896787
-0.559608 -0.147806 5.594570 255 149 0 0.929869
-0.552324 -0.156071 5.579000 255 153 0 0.929098
-0.468119 -0.130603 5.568280 164 255 84 0.859691
-0.447799 -0.123348 5.571820 148 255 100 0.850940
-0.443289 -0.132474 5.554190 109 255 138 0.832595
-0.427642 -0.116565 5.576180 135 255 113 0.845546
-0.422913 -0.125506 5.557980 100 255 148 0.827004
-0.401945 -0.118793 5.562280 80 255 167 0.816589
-0.406633 -0.110222 5.580550 138 255 109 0.847147
-0.418054 -0.134518 5.540330 42 255 206 0.794932
-0.397070 -0.127762 5.544370 29 255 219 0.786927
-0.392490 -0.136897 5.526750 0 185 255 0.743155
-0.413772 -0.142962 5.524730 0 225 251 0.766676
-0.439123 -0.140976 5.538630 77 255 171 0.814667
-0.434929 -0.149521 5.523310 35 255 213 0.790999
-0.460178 -0.147719 5.537400 109 255 138 0.832185
-0.464160 -0.139025 5.552880 138 255 109 0.846941
-0.484272 -0.145844 5.552010 164 255 84 0.860031
-0.455642 -0.156464 5.522530 80 255 167 0.815965
-0.479972 -0.154616 5.536960 148 255 100 0.851086
-0.475417 -0.163611 5.522020 125 255 122 0.840072
-0.488520 -0.137234 5.567200 180 255 67 0.867352
-0.384049 -0.107165 5.584760 177 255 71 0.865967
-0.362109 -0.103154 5.591000 203 255 45 0.876464
-0.356332 -0.112726 5.570360 132 255 116 0.843065
-0.340420 -0.099493 5.597420 209 255 38 0.879627
-0.334941 -0.108967 5.576770 135 255 113 0.844593
-0.329109 -0.118815 5.556520 48 255 200 0.798347
-0.324408 -0.127673 5.539010 0 201 255 0.752513
-0.351730 -0.121399 5.552230 55 255 193 0.802467
-0.346874 -0.130284 5.534530 0 201 255 0.752654
-0.374449 -0.124389 5.548140 45 255 203 0.795828
-0.379265 -0.115584 5.566220 116 255 132 0.835082
-0.369929 -0.133349 5.530500 0 197 255 0.749397
-0.320886 -0.169441 5.475050 0 0 242 0.560651
-0.320866 -0.159218 5.488680 0 9 255 0.605218
-0.344121 -0.160977 5.485970 0 25 255 0.623086
-0.343858 -0.171191 5.472200 0 0 255 0.574971
-0.344341 -0.151237 5.500260 0 77 255 0.667122
-0.367215 -0.163257 5.483670 0 29 255 0.627342
-0.367670 -0.153465 5.498010 0 85 255 0.674858
-0.390837 -0.156338 5.496310 0 89 255 0.677237
-0.366707 -0.173563 5.470010 0 1 255 0.595896
-0.390487 -0.166132 5.482220 0 45 255 0.641581
-0.389761 -0.176292 5.468430 0 9 255 0.605400
-0.368531 -0.144042 5.512850 0 137 255 0.713039
-0.391823 -0.146682 5.511320 0 137 255 0.712023
-0.345459 -0.140811 5.516820 0 133 255 0.709916
-0.323113 -0.138035 5.521200 0 129 255 0.706524
-0.321796 -0.148544 5.504530 0 65 255 0.659332
-0.411437 -0.182148 5.468930 0 65 255 0.657717
