ply
format ascii 1.0
comment VCGLIB generated
element vertex 1023
property float x
property float y
property float z
property uchar red
property uchar green
property uchar blue
property float quality
end_header
0.553159 -0.018455 7.055390 0 0 128 0.000000
0.531665 -0.032075 7.074900 0 0 128 0.000000
0.502447 -0.050327 7.082060 0 0 128 0.000000
0.481198 -0.068286 7.097460 0 0 128 0.000000
0.464036 -0.071832 7.078650 0 0 128 0.000000
0.518320 -0.046796 7.101420 0 0 128 0.000000
0.498008 -0.066072 7.116110 0 0 128 0.000000
0.547892 -0.029086 7.095370 0 0 128 0.000000
0.578061 -0.012945 7.087630 0 0 128 0.000000
0.441386 -0.099597 7.084310 0 0 128 0.000000
0.427119 -0.125955 7.099010 0 0 128 0.000000
0.403301 -0.154049 7.105020 0 0 128 0.000000
0.389762 -0.181737 7.118840 0 0 128 0.000000
0.371430 -0.180705 7.103710 0 0 128 0.044112
0.421637 -0.153860 7.120000 0 0 128 0.000000
0.408466 -0.182360 7.132420 0 0 128 0.000000
0.444440 -0.125544 7.115150 0 0 128 0.000000
0.467469 -0.095913 7.111200 0 0 128 0.000000
0.445989 -0.186375 7.160200 0 0 128 0.000000
0.468390 -0.156575 7.157810 0 0 128 0.000000
0.480767 -0.126123 7.147260 0 0 128 0.000000
0.502478 -0.096505 7.145620 0 0 128 0.000000
0.515596 -0.066531 7.134480 0 0 128 0.000000
0.485225 -0.095053 7.127740 0 0 128 0.000000
0.462573 -0.124893 7.131040 0 0 128 0.000000
0.439870 -0.154056 7.134550 0 0 128 0.000000
0.427082 -0.183772 7.146210 0 0 128 0.000000
0.534350 -0.045742 7.120410 0 0 128 0.000000
0.428275 -0.220213 7.157160 0 0 128 0.148521
0.422161 -0.253994 7.161270 0 0 146 0.353237
0.405063 -0.286124 7.159900 0 0 192 0.491011
0.397013 -0.317726 7.163360 0 0 255 0.581620
0.377073 -0.316561 7.154270 0 0 255 0.586144
0.425256 -0.286703 7.170590 0 0 201 0.501987
0.417348 -0.318614 7.174120 0 0 255 0.580941
0.441480 -0.255478 7.172390 0 0 137 0.322579
0.458276 -0.223167 7.175760 0 0 128 0.128680
0.465027 -0.188670 7.172930 0 0 128 0.000000
0.483630 -0.191082 7.185460 0 0 128 0.000000
0.366806 -0.349639 7.150940 0 117 255 0.699625
0.367943 -0.381794 7.153310 9 241 238 0.773650
0.359066 -0.414814 7.151440 87 255 161 0.819422
0.359377 -0.447266 7.154170 90 255 158 0.821426
0.340431 -0.449693 7.144810 64 255 184 0.807875
0.378207 -0.412773 7.160170 64 255 184 0.807911
0.377678 -0.445026 7.163280 103 255 145 0.827823
0.387754 -0.381383 7.162270 32 255 216 0.787690
0.397129 -0.349740 7.165000 0 141 255 0.715759
0.417077 -0.408669 7.179170 51 255 196 0.800084
0.426648 -0.378736 7.181450 0 217 255 0.762011
0.427333 -0.348758 7.180070 0 101 255 0.687281
0.436770 -0.318595 7.184040 0 0 255 0.581268
0.407633 -0.380135 7.172130 19 253 229 0.780535
0.397499 -0.411710 7.169680 77 255 171 0.813764
0.396542 -0.441692 7.172520 84 255 164 0.817603
0.463574 -0.287917 7.191220 0 0 164 0.423170
0.480381 -0.257670 7.194900 0 0 128 0.234771
0.487458 -0.225527 7.193500 0 0 128 0.055185
0.461164 -0.256498 7.183720 0 0 133 0.255192
0.443555 -0.288269 7.180280 0 0 183 0.472105
0.343883 -0.213417 7.098580 0 0 133 0.264970
0.351816 -0.181892 7.088510 0 0 128 0.118649
0.316696 -0.245030 7.093320 0 0 151 0.385281
0.324054 -0.214301 7.083000 0 0 133 0.285507
0.298085 -0.244936 7.079540 0 0 155 0.403771
0.332868 -0.183439 7.071900 0 0 128 0.171819
0.290387 -0.275170 7.089780 0 0 183 0.469993
0.264119 -0.305093 7.085650 0 0 183 0.466619
0.284083 -0.305983 7.099840 0 0 192 0.487149
0.309615 -0.276381 7.102810 0 0 187 0.474487
0.336921 -0.245778 7.107980 0 0 146 0.369727
0.303086 -0.308050 7.112140 0 0 210 0.517426
0.305179 -0.213580 7.067760 0 0 142 0.348163
0.312662 -0.183808 7.054500 0 0 133 0.251609
0.277433 -0.243542 7.063450 0 0 173 0.451559
0.285214 -0.214636 7.051070 0 0 169 0.440810
0.250285 -0.272794 7.059440 0 0 169 0.434907
0.243528 -0.303287 7.071730 0 0 160 0.412827
0.270644 -0.274076 7.074640 0 0 187 0.475636
0.216203 -0.406639 7.074120 0 0 223 0.536600
0.212000 -0.444516 7.075490 0 0 214 0.525495
0.223513 -0.369771 7.072710 0 0 223 0.536348
0.245388 -0.373992 7.084440 0 45 255 0.641822
0.238042 -0.410551 7.084490 0 65 255 0.659682
0.232054 -0.448361 7.084860 0 41 255 0.636889
0.244302 -0.337052 7.078470 0 0 237 0.556333
0.258440 -0.411976 7.095540 0 181 255 0.741258
0.252003 -0.449280 7.094850 0 157 255 0.725832
0.266140 -0.375726 7.096430 0 117 255 0.699442
0.285929 -0.378015 7.108450 0 157 255 0.725813
0.278573 -0.414097 7.107190 0 229 248 0.768522
0.271934 -0.451036 7.106230 0 213 255 0.759611
0.284996 -0.341422 7.104740 0 37 255 0.633831
0.265077 -0.339579 7.091480 0 13 255 0.606935
0.362797 -0.214459 7.112310 0 0 128 0.227854
0.355112 -0.247420 7.119620 0 0 151 0.375393
0.329028 -0.278008 7.115330 0 0 183 0.470994
0.321825 -0.310004 7.123790 0 0 210 0.520685
0.347453 -0.279976 7.127000 0 0 183 0.464546
0.340051 -0.312841 7.134450 0 0 228 0.543950
0.374066 -0.249225 7.132330 0 0 151 0.383445
0.381884 -0.215616 7.125870 0 0 128 0.190935
0.303691 -0.343119 7.116490 0 57 255 0.652719
0.304104 -0.378649 7.119550 0 181 255 0.740788
0.296491 -0.414755 7.117210 45 255 203 0.795873
0.289582 -0.451634 7.115200 48 255 200 0.797614
0.307231 -0.451669 7.126020 55 255 193 0.801214
0.314019 -0.416220 7.127270 48 255 200 0.797655
0.321753 -0.381116 7.129420 0 213 255 0.759789
0.321688 -0.345327 7.127000 0 85 255 0.673750
0.340742 -0.414975 7.142310 67 255 180 0.809729
0.349233 -0.381680 7.144200 9 241 238 0.774611
0.348898 -0.347802 7.141210 0 121 255 0.700395
0.358869 -0.314623 7.144230 0 0 255 0.581120
0.324345 -0.450577 7.135210 84 255 164 0.818335
0.385417 -0.284027 7.149180 0 0 201 0.502510
0.402215 -0.252137 7.149460 0 0 146 0.365527
0.410149 -0.217891 7.144820 0 0 128 0.208577
0.366746 -0.282237 7.138160 0 0 196 0.492666
0.490785 -0.041274 6.976120 0 0 128 0.217781
0.461761 -0.057588 6.987260 0 0 128 0.198549
0.441399 -0.070394 7.008930 0 0 128 0.099114
0.410619 -0.088551 7.017850 0 0 128 0.107145
0.430395 -0.081495 7.039430 0 0 128 0.000000
0.461123 -0.063864 7.031080 0 0 128 0.000000
0.481645 -0.050838 7.010480 0 0 128 0.000000
0.509342 -0.033694 7.000040 0 0 128 0.034298
0.376320 -0.115183 7.017440 0 0 133 0.279965
0.351300 -0.137762 7.026500 0 0 146 0.355744
0.336742 -0.160343 7.045200 0 0 133 0.291715
0.356666 -0.158101 7.063710 0 0 128 0.179443
0.371474 -0.135057 7.046160 0 0 128 0.182599
0.396363 -0.109814 7.037170 0 0 128 0.082938
0.385053 -0.154464 7.089080 0 0 128 0.000000
0.408560 -0.127610 7.082000 0 0 128 0.000000
0.423667 -0.102906 7.065870 0 0 128 0.000000
0.448143 -0.076154 7.059660 0 0 128 0.000000
0.390838 -0.130709 7.064630 0 0 128 0.045020
0.485333 -0.055168 7.061960 0 0 128 0.000000
0.515661 -0.037578 7.053710 0 0 128 0.000000
0.537336 -0.024434 7.033990 0 0 128 0.000000
0.498468 -0.043665 7.032770 0 0 128 0.000000
0.520923 -0.097670 7.161940 0 0 128 0.000000
0.499254 -0.128010 7.163050 0 0 128 0.000000
0.487315 -0.158981 7.171540 0 0 128 0.000000
0.505477 -0.162462 7.185490 0 0 128 0.000000
0.312887 -0.755417 7.030630 0 77 255 0.668622
0.307172 -0.756221 7.024990 0 65 255 0.659455
0.319888 -0.785262 7.006370 0 113 255 0.694561
0.315249 -0.786213 7.000730 0 93 255 0.681478
0.302196 -0.757122 7.019260 0 53 255 0.649496
0.328472 -0.814883 6.981390 0 109 255 0.694313
0.310880 -0.786830 6.994660 0 101 255 0.688379
0.324331 -0.815313 6.975470 0 117 255 0.697988
0.320708 -0.815687 6.968970 0 141 255 0.715130
0.297607 -0.757904 7.013270 0 57 255 0.651443
0.306957 -0.787483 6.988380 0 125 255 0.703800
0.293279 -0.758621 7.006790 0 73 255 0.666382
0.338536 -0.843111 6.955200 0 109 255 0.692422
0.334806 -0.843380 6.948880 0 125 255 0.704293
0.349417 -0.870285 6.928500 0 69 255 0.663190
0.354202 -0.871043 6.934780 0 65 255 0.657870
0.343893 -0.843599 6.961300 0 113 255 0.695451
0.359344 -0.871709 6.940800 0 61 255 0.656467
0.349879 -0.843541 6.966830 0 133 255 0.708676
0.334340 -0.814816 6.986750 0 137 255 0.713199
0.341003 -0.814951 6.992190 0 157 255 0.725823
0.365303 -0.871867 6.946720 0 73 255 0.664733
0.356229 -0.843922 6.972720 0 141 255 0.714539
0.372060 -0.872642 6.953590 0 81 255 0.670454
0.326589 -0.785371 7.011810 0 137 255 0.713378
0.288378 -0.754395 7.001060 0 125 255 0.703967
0.300946 -0.781549 6.983370 0 177 255 0.736794
0.296539 -0.777389 6.976990 25 255 222 0.784425
0.283626 -0.750360 6.994680 0 193 255 0.747961
0.309220 -0.803235 6.958390 48 255 200 0.797771
0.291086 -0.772876 6.969360 96 255 151 0.825736
0.304221 -0.798491 6.950920 122 255 126 0.838603
0.278045 -0.746050 6.987290 35 255 213 0.790866
0.317850 -0.823376 6.931970 138 255 109 0.846446
0.333057 -0.849269 6.911970 129 255 119 0.841750
0.324107 -0.830191 6.938560 64 255 184 0.807126
0.339055 -0.856699 6.918350 38 255 209 0.791415
0.329633 -0.836837 6.944140 0 205 255 0.755164
0.315087 -0.809533 6.964070 0 213 255 0.759506
0.344350 -0.863594 6.923820 0 173 255 0.735063
0.378355 -0.898258 6.848760 255 212 0 0.907560
0.385843 -0.906937 6.853950 177 255 71 0.865634
0.368942 -0.889586 6.876300 164 255 84 0.859040
0.392645 -0.915612 6.858750 64 255 184 0.808051
0.376082 -0.898200 6.880850 61 255 187 0.805669
0.383001 -0.906017 6.885180 0 189 255 0.745832
0.399494 -0.923675 6.862930 0 177 255 0.738704
0.359358 -0.880485 6.902970 19 253 229 0.779769
0.366477 -0.888394 6.907160 0 157 255 0.725370
0.354293 -0.873200 6.897300 116 255 132 0.835194
0.348497 -0.865708 6.891160 216 255 32 0.882159
0.363511 -0.881971 6.870070 255 230 0 0.901773
0.403534 -0.925119 6.869330 0 149 255 0.720479
0.414856 -0.927968 6.872920 0 185 255 0.743163
0.391771 -0.908167 6.897440 0 157 255 0.726185
0.427151 -0.931841 6.877360 0 209 255 0.756958
0.404329 -0.910856 6.901030 0 213 255 0.759647
0.417546 -0.916171 6.906680 0 213 255 0.758513
0.439391 -0.938869 6.883950 0 153 255 0.722489
0.381617 -0.890466 6.925510 0 137 255 0.713408
0.394983 -0.894327 6.930210 0 193 255 0.746363
0.375810 -0.889974 6.919180 0 137 255 0.711526
0.370486 -0.889353 6.912960 0 145 255 0.717228
0.386989 -0.907391 6.891240 0 161 255 0.728099
0.267505 -0.708912 7.000620 132 255 116 0.842823
0.273660 -0.713096 7.008000 77 255 171 0.813720
0.262572 -0.675113 7.020540 135 255 113 0.844234
0.278927 -0.717171 7.014280 29 255 219 0.785867
0.268562 -0.679363 7.026660 96 255 151 0.824611
0.274589 -0.683900 7.032300 67 255 180 0.808739
0.283948 -0.721272 7.019920 0 209 255 0.756533
0.257467 -0.641492 7.038670 113 255 135 0.833317
0.264241 -0.645979 7.044100 96 255 151 0.824571
0.252963 -0.608708 7.055830 48 255 200 0.797570
0.246222 -0.605794 7.051430 45 255 203 0.795507
0.251335 -0.638609 7.033390 122 255 126 0.838954
0.239096 -0.602771 7.046350 38 255 209 0.792102
0.244320 -0.635590 7.027460 132 255 116 0.842959
0.256398 -0.672400 7.013960 155 255 93 0.854660
0.231500 -0.599603 7.040870 35 255 213 0.789172
0.293937 -0.720047 7.031750 0 209 255 0.756207
0.285089 -0.682589 7.043180 67 255 180 0.808484
0.299294 -0.719342 7.037470 0 205 255 0.755283
0.291070 -0.682216 7.049020 74 255 174 0.812405
0.297667 -0.681864 7.055510 61 255 187 0.805708
0.305215 -0.718790 7.043230 0 217 255 0.761666
0.282295 -0.645130 7.060070 109 255 138 0.832333
0.289313 -0.644946 7.066710 84 255 164 0.818775
0.280749 -0.608469 7.078210 71 255 177 0.811057
0.266456 -0.608688 7.066450 77 255 171 0.814025
0.263903 -0.489399 7.093030 96 255 151 0.824625
0.257389 -0.528606 7.079810 161 255 87 0.858007
0.244549 -0.488092 7.082500 19 253 229 0.780593
0.240449 -0.528078 7.070410 87 255 161 0.819222
0.253993 -0.568622 7.067330 135 255 113 0.845322
0.270099 -0.568903 7.078840 151 255 96 0.853223
0.275774 -0.529491 7.092240 177 255 71 0.864520
0.225599 -0.484645 7.072730 0 145 255 0.717438
0.223590 -0.521366 7.060660 6 237 242 0.771743
0.230803 -0.561884 7.053630 64 255 184 0.806551
0.238735 -0.565189 7.058120 93 255 155 0.823789
0.231859 -0.524821 7.065890 58 255 190 0.802907
0.317547 -0.710896 7.057930 9 241 238 0.774116
0.324848 -0.745954 7.047170 0 113 255 0.695089
0.310046 -0.675996 7.068040 74 255 174 0.812407
0.323206 -0.667072 7.085480 58 255 190 0.802827
0.329787 -0.701807 7.075510 0 225 251 0.764367
0.336166 -0.736816 7.065080 0 105 255 0.688772
0.309062 -0.636738 7.085990 87 255 161 0.819630
0.308951 -0.598433 7.103830 55 255 193 0.800943
0.294809 -0.603280 7.090610 67 255 180 0.809717
0.342822 -0.691568 7.090200 16 249 232 0.778379
0.349007 -0.724458 7.082200 0 137 255 0.713631
0.336749 -0.659147 7.098430 61 255 187 0.804767
0.349616 -0.647194 7.113800 61 255 187 0.804412
0.355273 -0.679243 7.106470 16 249 232 0.777313
0.361111 -0.712326 7.098910 0 153 255 0.723142
0.337028 -0.621212 7.113110 84 255 164 0.818624
0.337778 -0.583801 7.127520 55 255 193 0.801653
0.323285 -0.590912 7.114990 64 255 184 0.807849
0.322862 -0.628689 7.100250 87 255 161 0.820173
0.332064 -0.485731 7.133870 158 255 90 0.856203
0.324517 -0.522627 7.123820 190 255 58 0.871362
0.316146 -0.487148 7.124440 148 255 100 0.851046
0.308536 -0.524719 7.114280 177 255 71 0.864467
0.316377 -0.560291 7.113660 151 255 96 0.852615
0.331326 -0.553487 7.124950 151 255 96 0.852147
0.339337 -0.516539 7.134850 158 255 90 0.856556
0.299518 -0.489856 7.113720 148 255 100 0.851568
0.292131 -0.528703 7.101840 209 255 38 0.879949
0.282068 -0.489958 7.103540 122 255 126 0.838218
0.285562 -0.568420 7.089660 161 255 87 0.857943
0.301363 -0.563670 7.102520 167 255 80 0.860497
0.369583 -0.670271 7.118250 48 255 200 0.798009
0.374933 -0.701730 7.112070 0 209 255 0.756359
0.364454 -0.639625 7.124490 77 255 171 0.814383
0.377881 -0.629386 7.136310 100 255 148 0.825980
0.382823 -0.660172 7.130490 67 255 180 0.809170
0.387396 -0.691648 7.124830 3 233 245 0.769204
0.366501 -0.604101 7.136470 96 255 151 0.825270
0.368984 -0.569836 7.148650 80 255 167 0.816277
0.353834 -0.576664 7.137890 74 255 174 0.812095
0.351620 -0.611516 7.125980 87 255 161 0.819311
0.396309 -0.652422 7.140560 74 255 174 0.812933
0.400744 -0.682851 7.134990 38 255 209 0.791056
0.392652 -0.622778 7.146540 96 255 151 0.824461
0.406481 -0.614150 7.157070 119 255 129 0.836924
0.409912 -0.643952 7.151300 90 255 158 0.820790
0.413290 -0.674289 7.145470 51 255 196 0.799904
0.396308 -0.589292 7.157690 103 255 145 0.828268
0.401195 -0.556680 7.169210 90 255 158 0.821211
0.385536 -0.563121 7.158860 77 255 171 0.815060
0.381513 -0.595869 7.147600 103 255 145 0.828599
0.402177 -0.470740 7.172770 142 255 106 0.848073
0.389931 -0.503490 7.164200 145 255 103 0.849607
0.384050 -0.474287 7.163210 135 255 113 0.844273
0.372699 -0.507208 7.154560 164 255 84 0.858944
0.378988 -0.536634 7.156020 122 255 126 0.839147
0.395872 -0.530001 7.166200 135 255 113 0.844866
0.407661 -0.497007 7.174550 148 255 100 0.851220
0.366058 -0.478998 7.153330 151 255 96 0.853391
0.356019 -0.513496 7.144280 148 255 100 0.852036
0.348868 -0.481451 7.144220 148 255 100 0.850937
0.346984 -0.548467 7.135850 129 255 119 0.841056
0.363171 -0.541749 7.146090 145 255 103 0.849145
0.423469 -0.637300 7.161140 71 255 177 0.811061
0.426780 -0.666870 7.155710 38 255 209 0.791241
0.420953 -0.608374 7.167310 80 255 167 0.816671
0.435812 -0.600653 7.177590 71 255 177 0.811678
0.437453 -0.629532 7.171770 71 255 177 0.810143
0.440375 -0.659311 7.166420 55 255 193 0.800943
0.425834 -0.576104 7.177740 80 255 167 0.816592
0.432119 -0.544580 7.188530 71 255 177 0.811548
0.416022 -0.550691 7.178060 77 255 171 0.813985
0.410730 -0.582058 7.167540 87 255 161 0.819986
0.451871 -0.623191 7.183570 51 255 196 0.800375
0.453463 -0.652255 7.177690 22 255 225 0.782230
0.450239 -0.594750 7.189110 58 255 190 0.802977
0.456170 -0.563211 7.200010 58 255 190 0.803025
0.455190 -0.535648 7.204700 38 255 209 0.792374
0.441374 -0.569221 7.188570 58 255 190 0.802570
0.456006 -0.483037 7.204450 61 255 187 0.805256
0.452928 -0.456781 7.202240 48 255 200 0.796972
0.441172 -0.487056 7.194050 96 255 151 0.824152
0.443383 -0.513612 7.196310 77 255 171 0.815195
0.436442 -0.461794 7.192390 96 255 151 0.824167
0.424105 -0.493089 7.184440 119 255 129 0.837153
0.419791 -0.465806 7.182430 100 255 148 0.826197
0.411978 -0.524865 7.176310 113 255 135 0.832798
0.427881 -0.518751 7.185790 109 255 138 0.832280
0.098461 -0.441696 6.961380 0 1 255 0.596702
0.087447 -0.411407 6.954360 0 0 214 0.524621
0.087965 -0.468620 6.938860 0 141 255 0.716312
0.077706 -0.437765 6.932130 0 81 255 0.673240
0.066668 -0.463677 6.910810 0 149 255 0.721057
0.067774 -0.408090 6.925410 0 37 255 0.633321
0.076107 -0.495516 6.917070 0 197 255 0.749989
0.065150 -0.522653 6.896220 0 165 255 0.731361
0.076541 -0.527789 6.909150 0 193 255 0.747881
0.087555 -0.500028 6.931380 0 173 255 0.735084
0.088523 -0.532701 6.923250 0 205 255 0.753593
0.099488 -0.504473 6.946030 0 137 255 0.711440
0.099167 -0.472298 6.953970 0 97 255 0.685196
0.100531 -0.537718 6.937040 0 189 255 0.745960
0.057033 -0.433835 6.904830 0 125 255 0.703894
0.048384 -0.406497 6.897560 0 101 255 0.686759
0.045261 -0.459834 6.885390 0 133 255 0.710178
0.037609 -0.432064 6.877450 0 121 255 0.701926
0.025385 -0.456873 6.860130 0 85 255 0.674202
0.029540 -0.405177 6.870340 0 105 255 0.691352
0.033359 -0.485503 6.866430 0 85 255 0.675319
0.022264 -0.511721 6.848600 0 49 255 0.644864
0.043265 -0.517092 6.871990 0 113 255 0.694728
0.054511 -0.490065 6.891530 0 137 255 0.713465
0.047613 -0.598738 6.823190 0 49 255 0.644416
0.060031 -0.601462 6.832130 0 85 255 0.673643
0.053094 -0.572206 6.845040 0 85 255 0.675240
0.072480 -0.604291 6.842030 0 125 255 0.703623
0.065303 -0.575442 6.855980 0 133 255 0.710564
0.077163 -0.579199 6.867560 0 209 255 0.755893
0.084862 -0.607489 6.852700 0 209 255 0.756394
0.058574 -0.547092 6.870290 0 149 255 0.721634
0.070658 -0.550769 6.882330 0 217 255 0.761651
0.036997 -0.541204 6.847320 0 53 255 0.648879
0.031290 -0.566898 6.825030 0 5 255 0.601649
0.097143 -0.612886 6.864860 51 255 196 0.799235
0.110613 -0.619708 6.877350 129 255 119 0.842496
0.101005 -0.589983 6.893340 106 255 142 0.829475
0.125248 -0.626540 6.890100 196 255 51 0.873922
0.115340 -0.596363 6.906650 145 255 103 0.849801
0.106917 -0.566183 6.922480 74 255 174 0.812257
0.094178 -0.561307 6.908330 58 255 190 0.802768
0.082128 -0.556242 6.895100 25 255 222 0.784014
0.088866 -0.584448 6.880410 61 255 187 0.804550
0.168202 -0.237174 6.951360 0 0 255 0.574816
0.141108 -0.258592 6.946290 0 0 219 0.530473
0.143304 -0.239103 6.927540 0 0 255 0.590040
0.117521 -0.260403 6.921130 0 0 255 0.577101
0.115462 -0.279570 6.939930 0 0 196 0.497813
0.092466 -0.304021 6.929820 0 0 192 0.489931
0.112352 -0.302952 6.957450 0 0 146 0.362988
0.136650 -0.279756 6.965080 0 0 160 0.418511
0.118140 -0.237574 6.904900 0 0 255 0.576425
0.093340 -0.259052 6.897980 0 5 255 0.599666
0.090774 -0.235743 6.883450 0 0 233 0.547217
0.068396 -0.259656 6.873650 0 29 255 0.625463
0.072293 -0.282636 6.887220 0 41 255 0.635738
0.053917 -0.307845 6.874420 0 105 255 0.690450
0.072819 -0.305965 6.902180 0 5 255 0.599336
0.093631 -0.281420 6.913260 0 0 255 0.582048
0.046875 -0.380282 6.883070 0 121 255 0.702414
0.062071 -0.354229 6.898730 0 97 255 0.682933
0.065160 -0.380743 6.911280 0 97 255 0.684356
0.080599 -0.354763 6.926830 0 25 255 0.621322
0.077069 -0.329210 6.914890 0 9 255 0.603839
0.059033 -0.331711 6.885380 0 117 255 0.698515
0.044654 -0.356998 6.869490 0 117 255 0.698621
0.084348 -0.381031 6.940730 0 0 255 0.592727
0.099135 -0.353595 6.957860 0 0 178 0.462243
0.103295 -0.383482 6.970460 0 0 169 0.433890
0.115706 -0.327010 6.972070 0 0 146 0.366281
0.095583 -0.328091 6.943500 0 0 187 0.480727
0.016633 -0.430012 6.854810 0 89 255 0.678069
0.008881 -0.405487 6.848440 0 89 255 0.679285
0.003730 -0.455137 6.839640 0 41 255 0.638939
-0.004043 -0.430141 6.833880 0 53 255 0.646385
-0.017157 -0.454707 6.820670 0 21 255 0.618347
-0.012126 -0.406043 6.828860 0 73 255 0.665959
-0.008733 -0.480686 6.825680 0 21 255 0.616816
-0.020931 -0.508189 6.814350 0 21 255 0.616039
0.000723 -0.509647 6.829920 0 21 255 0.616405
0.012574 -0.482857 6.844400 0 53 255 0.646728
-0.026193 -0.430453 6.817790 0 53 255 0.646521
-0.035094 -0.407153 6.814160 0 109 255 0.692661
-0.039829 -0.455996 6.808840 0 49 255 0.645463
-0.049232 -0.431457 6.805240 0 93 255 0.681043
-0.063334 -0.457506 6.799090 0 109 255 0.693646
-0.060346 -0.407627 6.802760 0 153 255 0.723263
-0.053082 -0.482517 6.801600 0 89 255 0.677465
-0.066879 -0.511449 6.796550 0 129 255 0.707359
-0.043166 -0.509797 6.804530 0 61 255 0.655473
-0.030341 -0.481171 6.810790 0 21 255 0.618734
-0.059542 -0.635687 6.776260 0 113 255 0.695958
-0.049283 -0.601602 6.784310 0 121 255 0.700833
-0.035331 -0.632542 6.782140 0 101 255 0.686390
-0.038954 -0.568015 6.791720 0 61 255 0.653931
-0.024669 -0.598342 6.789730 0 69 255 0.663321
-0.014513 -0.565151 6.798470 0 9 255 0.604519
-0.010784 -0.629078 6.788120 0 89 255 0.676764
-0.029434 -0.536399 6.801330 0 29 255 0.626918
-0.052590 -0.538902 6.793910 0 93 255 0.680086
-0.062769 -0.570781 6.785470 0 125 255 0.703985
-0.000402 -0.596222 6.797900 0 33 255 0.630943
0.015033 -0.628419 6.796570 0 61 255 0.653671
0.008164 -0.565640 6.810840 0 0 255 0.585564
0.024116 -0.596364 6.808510 0 21 255 0.619289
0.015150 -0.537378 6.827590 0 5 255 0.600993
-0.006647 -0.535834 6.812020 0 5 255 0.599113
-0.812496 -0.784537 6.378580 255 56 0 0.958474
-0.833733 -0.787607 6.360560 242 8 0 0.972074
-0.819675 -0.798864 6.345000 255 30 0 0.966156
-0.841212 -0.803209 6.328280 255 41 0 0.963002
-0.855229 -0.791648 6.343220 242 8 0 0.972355
-0.827034 -0.815582 6.313650 255 119 0 0.938571
-0.863042 -0.807945 6.312250 255 78 0 0.951335
-0.848626 -0.820807 6.298370 255 190 0 0.916439
-0.870780 -0.826454 6.283150 200 255 48 0.874908
-0.877049 -0.795933 6.326640 255 23 0 0.967520
-0.884451 -0.813348 6.296680 255 167 0 0.922983
-0.898834 -0.800849 6.310540 255 97 0 0.945901
-0.834556 -0.833516 6.284590 167 255 80 0.861332
-0.856125 -0.839054 6.269370 67 255 180 0.809263
-0.841545 -0.852467 6.255870 0 133 255 0.710840
-0.820019 -0.848957 6.269950 0 221 255 0.762598
-0.813176 -0.830183 6.299030 219 255 29 0.884288
-0.798788 -0.845141 6.284150 64 255 184 0.808029
-0.791616 -0.826985 6.313630 255 216 0 0.906972
-0.805617 -0.812564 6.328790 255 93 0 0.947308
-0.784115 -0.809900 6.344470 255 86 0 0.949251
-0.777638 -0.841710 6.298560 122 255 126 0.838044
-0.770382 -0.824046 6.328890 255 197 0 0.913278
-0.756458 -0.839023 6.313660 158 255 90 0.855462
-0.798599 -0.796694 6.361040 255 45 0 0.961584
-0.922650 -0.799846 6.294460 255 112 0 0.941372
-0.909145 -0.812594 6.280810 255 186 0 0.916575
-0.933996 -0.812408 6.265440 245 249 3 0.895401
-0.946924 -0.799629 6.278470 255 160 0 0.926001
-0.920332 -0.825557 6.252040 138 255 109 0.846367
-0.958435 -0.812484 6.250070 167 255 80 0.860419
-0.945182 -0.825584 6.237230 55 255 193 0.802338
-0.969454 -0.825066 6.222290 0 209 255 0.756632
-0.971585 -0.799572 6.262690 248 245 0 0.896790
-0.983198 -0.812287 6.235210 77 255 171 0.814304
-0.996399 -0.799754 6.247780 145 255 103 0.849461
-0.930922 -0.838463 6.223680 0 173 255 0.734332
-0.955659 -0.837944 6.208890 0 93 255 0.682274
-0.940494 -0.850866 6.195100 0 9 255 0.602702
-0.915515 -0.852130 6.210200 0 37 255 0.633539
-0.905114 -0.838810 6.238730 6 237 242 0.772257
-0.890065 -0.852343 6.225250 0 89 255 0.679284
-0.880224 -0.838826 6.253910 45 255 203 0.796071
-0.895060 -0.825799 6.267380 180 255 67 0.866978
-0.865471 -0.852360 6.240480 0 125 255 0.703124
-0.862179 -0.881614 6.125940 0 113 255 0.694814
-0.838716 -0.884429 6.140600 0 81 255 0.670842
-0.858872 -0.881409 6.159320 0 0 242 0.561589
-0.835077 -0.883124 6.174040 0 0 233 0.549648
-0.816038 -0.887087 6.155170 0 45 255 0.641319
-0.853841 -0.875746 6.192180 0 0 223 0.536492
-0.812216 -0.884632 6.188270 0 0 223 0.536952
-0.830393 -0.876644 6.206620 0 0 223 0.535891
-0.807205 -0.877041 6.221300 0 0 228 0.542842
-0.793809 -0.888565 6.169430 0 25 255 0.621157
-0.789660 -0.885578 6.202890 0 0 219 0.528554
-0.772099 -0.890584 6.184260 0 0 255 0.586173
-0.847864 -0.865435 6.224350 0 13 255 0.610187
-0.824587 -0.865721 6.238980 0 17 255 0.615349
-0.872251 -0.865060 6.209140 0 0 255 0.592889
-0.897295 -0.864211 6.193920 0 0 251 0.571385
-0.878331 -0.874499 6.176980 0 0 223 0.534570
-0.903015 -0.872304 6.161540 0 0 223 0.539585
-0.922395 -0.862536 6.178530 0 0 237 0.554729
-0.882980 -0.878571 6.143920 0 0 255 0.589331
-0.752384 -0.889467 6.196800 0 17 255 0.613340
-0.769703 -0.882564 6.217290 0 0 255 0.578282
-0.749749 -0.881196 6.230070 0 9 255 0.603674
-0.733411 -0.888861 6.209830 0 17 255 0.614467
-0.766140 -0.870088 6.249990 0 65 255 0.659706
-0.730179 -0.880391 6.243720 0 13 255 0.607512
-0.745937 -0.868618 6.263100 0 89 255 0.676631
-0.726162 -0.868258 6.276960 0 85 255 0.675710
-0.714471 -0.888519 6.224030 0 17 255 0.611429
-0.710588 -0.880537 6.258040 0 5 255 0.598347
-0.695100 -0.888525 6.238070 0 0 255 0.591702
-0.761531 -0.854856 6.281880 3 233 245 0.768576
-0.741252 -0.853758 6.295380 13 245 235 0.776202
-0.782320 -0.858195 6.267070 0 165 255 0.730002
-0.803294 -0.862152 6.252940 0 89 255 0.676823
-0.786437 -0.873225 6.235430 0 13 255 0.610310
-0.588384 -0.879369 6.318720 0 1 255 0.596036
-0.585624 -0.886952 6.285250 0 69 255 0.662490
-0.611653 -0.881514 6.301520 0 5 255 0.599686
-0.582435 -0.890854 6.250590 9 241 238 0.772929
-0.608982 -0.889374 6.267650 0 65 255 0.658026
-0.605234 -0.892488 6.232730 6 237 242 0.771095
-0.634999 -0.884273 6.284120 0 0 255 0.591828
-0.578728 -0.890586 6.214890 216 255 32 0.882901
-0.574550 -0.888806 6.179230 255 186 0 0.917217
-0.554061 -0.890149 6.193550 255 182 0 0.918026
-0.557973 -0.891208 6.229290 193 255 55 0.871902
-0.561441 -0.891171 6.265210 0 205 255 0.754556
-0.533462 -0.890533 6.207730 255 182 0 0.918738
-0.650349 -0.884820 6.272280 0 13 255 0.607127
-0.634471 -0.889989 6.248930 0 89 255 0.678703
-0.649395 -0.890202 6.237490 0 109 255 0.694299
-0.665154 -0.885841 6.260720 0 5 255 0.601763
-0.633123 -0.891176 6.213290 61 255 187 0.805512
-0.663714 -0.890526 6.226010 0 113 255 0.695432
-0.647146 -0.890592 6.202000 96 255 151 0.824902
-0.661860 -0.890489 6.190810 122 255 126 0.838370
-0.680098 -0.887065 6.249220 0 9 255 0.605890
-0.678710 -0.891799 6.214690 0 113 255 0.696916
-0.631089 -0.888056 6.177370 255 212 0 0.908183
-0.645342 -0.887705 6.166280 255 208 0 0.909114
-0.628622 -0.884054 6.141160 177 255 71 0.865756
-0.601735 -0.886393 6.159910 229 255 19 0.887574
-0.603596 -0.889578 6.196270 255 234 0 0.899994
-0.571679 -0.896411 6.039830 0 0 196 0.491701
-0.571230 -0.887008 6.071240 0 0 205 0.508099
-0.544444 -0.896799 6.055090 0 0 210 0.517224
-0.571491 -0.883405 6.105480 0 49 255 0.643889
-0.544280 -0.887812 6.086840 0 0 223 0.539226
-0.544911 -0.885703 6.122460 0 109 255 0.692281
-0.517443 -0.898262 6.070670 0 0 242 0.559361
-0.573036 -0.884954 6.141970 77 255 171 0.814543
-0.599999 -0.882746 6.122990 16 249 232 0.778524
-0.598640 -0.883140 6.087450 0 21 255 0.616043
-0.520187 -0.888981 6.102060 0 0 255 0.578372
-0.496574 -0.898954 6.082750 0 0 251 0.570063
-0.524079 -0.885556 6.136230 0 125 255 0.705338
-0.499727 -0.889580 6.114830 0 1 255 0.597598
-0.503830 -0.886538 6.149230 0 193 255 0.746730
-0.475936 -0.900168 6.095220 0 5 255 0.599325
-0.528347 -0.886653 6.171980 187 255 61 0.869982
-0.549101 -0.886391 6.157820 158 255 90 0.856464
-0.725143 -0.898356 5.957820 0 41 255 0.638948
-0.704245 -0.896610 5.968530 0 0 255 0.577458
-0.716236 -0.883592 5.989420 0 0 192 0.487744
-0.695790 -0.883462 6.000040 0 0 173 0.450080
-0.683777 -0.895313 5.979020 0 0 214 0.523368
-0.709742 -0.876328 6.022000 0 0 192 0.490462
-0.675747 -0.883464 6.010510 0 0 164 0.426447
-0.689516 -0.877301 6.032840 0 0 192 0.483575
-0.669818 -0.878868 6.043850 0 0 196 0.498665
-0.663740 -0.894790 5.989440 0 0 192 0.485529
-0.656185 -0.884554 6.021400 0 0 164 0.426854
-0.643721 -0.895267 6.000430 0 0 183 0.466702
-0.704671 -0.875432 6.056200 0 49 255 0.645047
-0.684945 -0.877786 6.067780 0 73 255 0.663848
-0.700587 -0.879245 6.092990 71 255 177 0.810752
-0.720173 -0.876646 6.079670 35 255 213 0.790099
-0.724398 -0.873737 6.043820 0 29 255 0.626604
-0.740078 -0.874754 6.066850 9 241 238 0.772840
-0.744237 -0.872505 6.031640 0 29 255 0.624944
-0.729569 -0.875998 6.010000 0 0 210 0.516963
-0.750007 -0.876064 5.998010 0 0 233 0.551971
-0.760144 -0.872604 6.054300 0 225 251 0.764438
-0.764714 -0.871461 6.019600 0 45 255 0.639626
-0.780972 -0.871398 6.041910 6 237 242 0.770700
-0.736684 -0.884935 5.977430 0 0 228 0.546296
-0.625971 -0.894795 6.009880 0 0 173 0.449035
-0.638745 -0.883896 6.031730 0 0 160 0.410733
-0.620610 -0.884343 6.041430 0 0 164 0.422800
-0.608010 -0.894562 6.019450 0 0 169 0.440721
-0.634673 -0.879688 6.065800 0 0 219 0.531264
-0.602933 -0.885814 6.052000 0 0 178 0.458416
-0.616855 -0.881108 6.076330 0 0 251 0.570763
-0.589868 -0.894962 6.029490 0 0 173 0.450043
-0.631560 -0.880435 6.102670 0 153 255 0.722579
-0.647107 -0.882594 6.128680 135 255 113 0.844947
-0.649551 -0.878760 6.090550 0 97 255 0.684345
-0.665073 -0.881377 6.116560 106 255 142 0.829969
-0.667132 -0.878209 6.079100 0 73 255 0.664048
-0.652393 -0.878657 6.054410 0 0 196 0.496607
-0.682828 -0.879831 6.104470 80 255 167 0.816489
-0.697619 -0.890615 6.201950 0 153 255 0.721745
-0.716239 -0.889488 6.187970 0 189 255 0.745297
-0.699049 -0.887426 6.165790 184 255 64 0.867409
-0.734839 -0.889275 6.174520 0 205 255 0.755207
-0.717476 -0.886387 6.152140 209 255 38 0.880248
-0.735780 -0.886818 6.139430 200 255 48 0.874823
-0.753742 -0.889521 6.161820 0 213 255 0.759705
-0.700097 -0.882903 6.129030 216 255 32 0.883005
-0.717880 -0.882980 6.116610 209 255 38 0.879722
-0.682051 -0.884101 6.140880 219 255 29 0.883490
-0.663905 -0.885483 6.153420 222 255 25 0.885494
-0.680660 -0.888728 6.178100 151 255 96 0.852871
-0.774951 -0.887796 6.148390 9 241 238 0.774151
-0.796295 -0.885334 6.133830 61 255 187 0.804719
-0.776713 -0.881720 6.112710 255 216 0 0.907264
-0.818242 -0.883384 6.119790 84 255 164 0.818740
-0.797957 -0.879135 6.098520 255 190 0 0.916471
-0.820016 -0.877033 6.083990 255 171 0 0.922486
-0.841190 -0.880663 6.105040 119 255 129 0.836033
-0.778517 -0.875264 6.077010 190 255 58 0.870532
-0.799892 -0.873041 6.062650 193 255 55 0.873205
-0.757926 -0.878143 6.090150 200 255 48 0.875823
-0.737832 -0.880294 6.103080 206 255 42 0.878751
-0.756050 -0.884464 6.125980 238 255 9 0.891714
-0.618907 -0.331377 6.828480 0 0 128 0.000000
-0.620863 -0.337932 6.814730 0 0 128 0.000000
-0.612334 -0.315982 6.799970 0 0 128 0.000000
-0.612884 -0.322325 6.786890 0 0 128 0.000000
-0.620767 -0.344213 6.801000 0 0 128 0.000000
-0.605882 -0.298845 6.772350 0 0 128 0.000000
-0.613621 -0.328236 6.773550 0 0 128 0.000000
-0.606788 -0.304764 6.759890 0 0 128 0.000000
-0.607244 -0.310171 6.746310 0 0 128 0.000000
-0.621508 -0.350256 6.788000 0 0 128 0.000000
-0.614884 -0.333880 6.760780 0 0 128 0.000000
-0.623127 -0.357099 6.775570 0 0 128 0.000000
-0.601849 -0.280536 6.746140 0 0 128 0.000000
-0.602398 -0.284492 6.732320 0 0 128 0.000000
-0.600288 -0.259346 6.720820 0 0 128 0.000000
-0.599320 -0.255966 6.735730 0 0 128 0.000000
-0.601196 -0.276137 6.761230 0 0 128 0.000000
-0.598010 -0.252944 6.751450 0 0 128 0.000000
-0.600744 -0.272830 6.776510 0 0 128 0.000000
-0.606143 -0.295482 6.787730 0 0 128 0.000000
-0.605134 -0.291077 6.802460 0 0 128 0.000000
-0.597423 -0.249790 6.767830 0 0 128 0.000000
-0.600157 -0.268986 6.791810 0 0 128 0.000000
-0.612076 -0.312244 6.815150 0 0 128 0.000000
-0.624239 -0.362019 6.762980 0 0 128 0.000000
-0.615705 -0.337455 6.747150 0 0 128 0.000000
-0.616220 -0.342190 6.735080 0 0 128 0.000000
-0.625505 -0.367794 6.750790 0 0 128 0.000000
-0.605046 -0.316783 6.721840 0 0 128 0.000000
-0.609585 -0.349180 6.726670 0 0 128 0.000000
-0.601318 -0.321163 6.713200 0 0 128 0.000000
-0.600934 -0.325968 6.703910 0 0 128 0.000000
-0.621659 -0.375769 6.740090 0 0 128 0.000000
-0.607766 -0.354233 6.717440 0 0 128 0.000000
-0.617067 -0.382643 6.730460 0 0 128 0.000000
-0.598422 -0.292878 6.699410 0 0 128 0.000000
-0.599148 -0.296498 6.690050 0 0 128 0.000000
-0.601204 -0.268435 6.677340 0 0 128 0.000000
-0.598720 -0.266782 6.688030 0 0 128 0.000000
-0.599070 -0.290790 6.709590 0 0 128 0.000000
-0.598499 -0.265218 6.697960 0 0 128 0.000000
-0.602672 -0.288269 6.720180 0 0 128 0.000000
-0.608662 -0.312447 6.732350 0 0 128 0.000000
-0.599955 -0.262993 6.708550 0 0 128 0.000000
-0.654954 -0.159771 6.653640 0 0 128 0.000000
-0.648828 -0.156119 6.668320 0 0 128 0.000000
-0.637199 -0.183321 6.664520 0 0 128 0.000000
-0.631124 -0.181189 6.678610 0 0 128 0.000000
-0.642262 -0.152670 6.683470 0 0 128 0.000000
-0.619973 -0.209171 6.678680 0 0 128 0.000000
-0.625542 -0.178069 6.693900 0 0 128 0.000000
-0.616773 -0.206578 6.692880 0 0 128 0.000000
-0.611884 -0.203890 6.708920 0 0 128 0.000000
-0.635938 -0.148821 6.698940 0 0 128 0.000000
-0.620310 -0.174988 6.709520 0 0 128 0.000000
-0.630105 -0.145584 6.713370 0 0 128 0.000000
-0.607799 -0.234924 6.697970 0 0 128 0.000000
-0.605350 -0.232485 6.712750 0 0 128 0.000000
-0.607753 -0.236238 6.686020 0 0 128 0.000000
-0.609529 -0.238324 6.675000 0 0 128 0.000000
-0.622070 -0.210769 6.666110 0 0 128 0.000000
-0.625554 -0.213093 6.654120 0 0 128 0.000000
-0.611856 -0.240365 6.664120 0 0 128 0.000000
-0.640650 -0.186989 6.650540 0 0 128 0.000000
-0.626070 -0.142714 6.729280 0 0 128 0.000000
-0.616789 -0.169923 6.725270 0 0 128 0.000000
-0.614021 -0.168457 6.741480 0 0 128 0.000000
-0.622149 -0.140841 6.745400 0 0 128 0.000000
-0.607042 -0.196212 6.741420 0 0 128 0.000000
-0.604629 -0.194012 6.757680 0 0 128 0.000000
-0.600262 -0.220931 6.760410 0 0 128 0.000000
-0.601484 -0.224706 6.744190 0 0 128 0.000000
-0.602851 -0.228541 6.728950 0 0 128 0.000000
-0.609124 -0.199068 6.725170 0 0 128 0.000000
-0.704437 -0.393303 6.895260 0 0 128 0.000000
-0.699724 -0.384942 6.910050 0 0 128 0.000000
-0.706096 -0.376556 6.932570 0 0 128 0.000000
-0.729453 -0.376371 6.945730 0 0 128 0.000000
-0.736178 -0.384895 6.929270 0 0 128 0.000000
-0.730236 -0.393709 6.906650 0 0 128 0.000000
-0.755397 -0.393354 6.919350 0 0 128 0.000000
-0.775565 -0.365914 6.968470 0 0 128 0.000000
-0.784079 -0.374571 6.950630 0 0 128 0.000000
-0.780415 -0.386568 6.928660 0 0 128 0.000000
-0.804824 -0.380059 6.938380 0 0 128 0.000000
-0.760048 -0.381613 6.940630 0 0 128 0.000000
-0.752727 -0.373135 6.957140 0 0 128 0.000000
-0.805949 -0.364803 6.961010 0 0 128 0.000000
-0.796854 -0.355726 6.979010 0 0 128 0.000000
-0.816754 -0.342818 6.988800 0 0 128 0.000000
-0.827314 -0.352656 6.968450 0 0 128 0.000000
-0.826587 -0.367619 6.946560 0 0 128 0.000000
-0.848157 -0.356764 6.952840 0 0 128 0.000000
-0.852180 -0.313317 7.003750 0 0 128 0.000000
-0.864759 -0.324803 6.980360 0 0 128 0.000000
-0.867120 -0.342598 6.956470 0 0 128 0.000000
-0.886129 -0.329458 6.960010 0 0 128 0.000000
-0.846317 -0.339352 6.976030 0 0 128 0.000000
-0.835145 -0.328637 6.997100 0 0 128 0.000000
-0.898857 -0.340394 6.937210 0 0 128 0.000000
-0.900562 -0.356545 6.916670 0 0 128 0.000000
-0.912546 -0.366933 6.895780 0 0 128 0.000000
-0.913647 -0.382868 6.877090 0 0 128 0.056386
-0.935211 -0.372163 6.875390 0 0 128 0.054416
-0.890789 -0.378443 6.897940 0 0 128 0.000000
-0.891735 -0.394625 6.877920 0 0 128 0.028214
-0.879816 -0.368754 6.916240 0 0 128 0.000000
-0.868564 -0.359181 6.935380 0 0 128 0.000000
-0.947275 -0.383778 6.854850 0 0 128 0.186142
-0.947354 -0.400813 6.836060 0 0 137 0.306289
-0.958937 -0.413285 6.813880 0 0 142 0.339363
-0.958296 -0.431624 6.792510 0 0 146 0.361723
-0.982078 -0.425988 6.782700 0 0 137 0.301310
-0.935459 -0.422266 6.819800 0 0 142 0.337287
-0.934756 -0.439968 6.799540 0 0 146 0.372398
-0.924591 -0.410355 6.839570 0 0 137 0.297672
-0.913659 -0.399021 6.859170 0 0 128 0.221808
-0.881631 -0.451622 6.806870 0 0 155 0.395838
-0.871683 -0.441273 6.824310 0 0 137 0.323966
-0.874618 -0.427187 6.841780 0 0 133 0.263833
-0.864549 -0.417232 6.859130 0 0 128 0.190957
-0.867153 -0.403259 6.876670 0 0 128 0.043027
-0.842167 -0.413662 6.874250 0 0 128 0.000000
-0.889793 -0.409093 6.859990 0 0 128 0.161676
-0.900417 -0.419045 6.841710 0 0 137 0.321919
-0.911231 -0.429816 6.823120 0 0 146 0.354470
-0.908443 -0.444639 6.804150 0 0 160 0.412106
-0.832753 -0.404448 6.890850 0 0 128 0.000000
-0.834633 -0.390819 6.909430 0 0 128 0.000000
-0.825275 -0.382460 6.925330 0 0 128 0.000000
-0.847352 -0.371555 6.931910 0 0 128 0.000000
-0.857783 -0.380102 6.914000 0 0 128 0.000000
-0.868487 -0.389294 6.895750 0 0 128 0.000000
-0.626141 -0.336022 6.851560 0 0 128 0.000000
-0.645798 -0.357579 6.871460 0 0 128 0.000000
-0.638764 -0.354783 6.848090 0 0 128 0.000000
-0.658112 -0.375294 6.866500 0 0 128 0.000000
-0.683789 -0.373195 6.916930 0 0 128 0.000000
-0.676833 -0.377091 6.894650 0 0 128 0.000000
-0.681375 -0.385554 6.879400 0 0 128 0.000000
-0.800753 -0.391638 6.918460 0 0 128 0.000000
-0.810281 -0.399540 6.903170 0 0 128 0.000000
-0.806226 -0.411298 6.884050 0 0 128 0.000000
-0.815537 -0.419011 6.869700 0 0 128 0.000000
-0.788048 -0.425790 6.863430 0 0 128 0.000000
-0.779256 -0.418103 6.876270 0 0 128 0.000000
-0.783812 -0.406522 6.895050 0 0 128 0.000000
-0.775832 -0.398762 6.908670 0 0 128 0.000000
-0.847627 -0.433749 6.841700 0 0 128 0.215846
-0.843230 -0.445275 6.824140 0 0 133 0.274766
-0.853281 -0.454254 6.807630 0 0 160 0.409050
-0.823991 -0.458424 6.806810 0 0 137 0.327142
-0.815166 -0.448988 6.823240 0 0 128 0.216700
-0.819929 -0.437898 6.839790 0 0 128 0.144967
-0.810703 -0.430092 6.853090 0 0 128 0.014859
-0.761077 -0.457647 6.794510 0 0 133 0.276247
-0.753247 -0.449682 6.807100 0 0 128 0.163826
-0.745039 -0.442265 6.818510 0 0 128 0.019359
-0.775230 -0.442451 6.827670 0 0 128 0.055603
-0.767442 -0.434362 6.839870 0 0 128 0.000000
-0.759306 -0.426617 6.852170 0 0 128 0.000000
-0.737294 -0.434316 6.830810 0 0 128 0.000000
-0.730046 -0.426227 6.843010 0 0 128 0.000000
-0.784767 -0.450003 6.814360 0 0 128 0.204961
-0.793915 -0.457483 6.801270 0 0 142 0.332232
-0.722792 -0.418264 6.855150 0 0 128 0.000000
-0.729472 -0.410389 6.874010 0 0 128 0.000000
-0.736419 -0.402197 6.893100 0 0 128 0.000000
-0.710259 -0.401910 6.881030 0 0 128 0.000000
-0.757110 -0.410373 6.884750 0 0 128 0.000000
-0.751138 -0.418769 6.865410 0 0 128 0.000000
-0.702832 -0.405815 6.860680 0 0 128 0.000000
-0.694934 -0.409776 6.840400 0 0 128 0.000000
-0.701396 -0.417485 6.828710 0 0 128 0.000000
-0.672734 -0.407480 6.815430 0 0 128 0.000000
-0.669007 -0.399026 6.828370 0 0 128 0.000000
-0.677061 -0.396385 6.847250 0 0 128 0.000000
-0.673121 -0.388780 6.860290 0 0 128 0.000000
-0.711990 -0.433159 6.804500 0 0 128 0.052618
-0.718830 -0.441547 6.792410 0 0 128 0.171835
-0.726354 -0.449833 6.780300 0 0 133 0.278293
-0.689911 -0.440374 6.767260 0 0 128 0.089240
-0.685564 -0.430879 6.779490 0 0 128 0.016412
-0.681336 -0.422684 6.791390 0 0 128 0.000000
-0.691803 -0.420335 6.809790 0 0 128 0.000000
-0.652200 -0.397011 6.771670 0 0 128 0.000000
-0.649986 -0.390695 6.784050 0 0 128 0.000000
-0.648277 -0.384454 6.796590 0 0 128 0.000000
-0.654355 -0.405859 6.759710 0 0 128 0.000000
-0.654877 -0.416216 6.748150 0 0 128 0.000000
-0.642652 -0.368528 6.821230 0 0 128 0.000000
-0.641022 -0.361693 6.834840 0 0 128 0.000000
-0.645231 -0.376301 6.808890 0 0 128 0.000000
-0.671717 -0.137652 6.661350 0 0 128 0.063604
-0.664038 -0.134682 6.675940 0 0 128 0.000000
-0.679956 -0.112488 6.685120 0 0 128 0.000000
-0.688352 -0.116324 6.670330 0 0 128 0.107847
-0.672341 -0.108778 6.700180 0 0 128 0.000000
-0.696457 -0.091848 6.696620 0 0 128 0.000000
-0.688290 -0.087330 6.711690 0 0 128 0.000000
-0.703682 -0.067849 6.722950 0 0 128 0.000000
-0.705107 -0.095666 6.680670 0 0 128 0.028263
-0.712698 -0.072673 6.707610 0 0 128 0.000000
-0.721683 -0.077632 6.691730 0 0 128 0.000000
-0.680316 -0.083973 6.726500 0 0 128 0.000000
-0.695398 -0.063532 6.739380 0 0 128 0.000000
-0.687189 -0.059582 6.755730 0 0 128 0.000000
-0.673540 -0.079399 6.742370 0 0 128 0.000000
-0.665901 -0.105052 6.715160 0 0 128 0.000000
-0.659323 -0.100921 6.730150 0 0 128 0.000000
-0.650976 -0.126643 6.705840 0 0 128 0.000000
-0.657093 -0.130711 6.690940 0 0 128 0.000000
-0.644666 -0.122792 6.720240 0 0 128 0.000000
-0.744357 -0.053732 6.722860 0 0 128 0.000000
-0.754599 -0.059435 6.703020 0 0 128 0.000000
-0.734011 -0.048072 6.740960 0 0 128 0.000000
-0.763742 -0.031542 6.753650 0 0 128 0.000000
-0.774370 -0.037236 6.734400 0 0 128 0.000000
-0.784593 -0.044044 6.713760 0 0 128 0.000000
-0.738867 -0.033750 6.766380 0 0 128 0.000000
-0.742761 -0.019449 6.794540 0 0 128 0.000000
-0.715687 -0.038020 6.775620 0 0 128 0.000000
-0.693907 -0.044152 6.785210 0 0 128 0.000000
-0.720464 -0.022811 6.807360 0 0 128 0.000000
-0.647938 -0.095532 6.763700 0 0 128 0.000000
-0.639235 -0.120132 6.736730 0 0 128 0.000000
-0.653290 -0.097793 6.747100 0 0 128 0.000000
-0.666903 -0.076274 6.759360 0 0 128 0.000000
-0.802008 -0.032724 6.741850 0 0 128 0.000000
-0.813643 -0.039532 6.720500 0 0 128 0.000000
-0.790440 -0.026502 6.763260 0 0 128 0.000000
-0.818289 -0.020900 6.770210 0 0 128 0.000000
-0.830280 -0.028026 6.745920 0 0 128 0.000000
-0.841418 -0.035809 6.723750 0 0 128 0.000000
-0.792617 -0.016779 6.789690 0 0 128 0.000000
-0.793731 -0.006951 6.818380 0 0 128 0.000000
-0.768258 -0.012930 6.807220 0 0 128 0.000000
-0.766355 -0.022213 6.779440 0 0 128 0.000000
-0.854876 -0.033434 6.749960 0 0 128 0.000000
-0.866250 -0.040845 6.725080 0 0 128 0.000000
-0.842529 -0.025381 6.774780 0 0 128 0.000000
-0.866984 -0.029049 6.775710 0 0 128 0.000000
-0.878989 -0.037570 6.750110 0 0 128 0.000000
-0.890622 -0.045527 6.723810 0 0 128 0.000000
-0.841786 -0.019661 6.801560 0 0 128 0.000000
-0.840279 -0.013468 6.830550 0 0 128 0.000000
-0.817471 -0.010660 6.824900 0 0 128 0.000000
-0.818368 -0.015835 6.796410 0 0 128 0.000000
-0.791843 -0.000678 6.851760 0 0 128 0.000000
-0.814627 -0.003108 6.859140 0 0 128 0.000000
-0.744689 -0.009522 6.825850 0 0 128 0.000000
-0.769359 -0.002222 6.840510 0 0 128 0.000000
0.371977 0.033363 6.568960 0 81 255 0.672028
0.389395 0.034868 6.550810 0 113 255 0.696925
0.365417 0.039114 6.540480 0 57 255 0.651716
0.407498 0.035918 6.532110 0 133 255 0.709673
0.383602 0.040137 6.521620 0 97 255 0.683416
0.401933 0.040427 6.502300 0 113 255 0.697108
0.426009 0.036533 6.513170 0 157 255 0.725805
0.359668 0.043462 6.511290 0 65 255 0.659914
0.378080 0.043618 6.491970 0 77 255 0.669366
0.354147 0.045697 6.481030 0 77 255 0.669704
0.337288 0.045293 6.501140 0 61 255 0.653841
0.343253 0.041772 6.530580 0 49 255 0.643670
0.320999 0.043364 6.520030 0 37 255 0.632573
0.327742 0.039291 6.548430 0 25 255 0.620326
0.349769 0.036755 6.559000 0 45 255 0.639961
0.334448 0.033304 6.576020 0 33 255 0.630534
0.305580 0.040805 6.537570 0 13 255 0.610368
0.312689 0.035113 6.565050 0 33 255 0.629242
0.290778 0.035967 6.553770 0 41 255 0.638490
0.356412 0.030363 6.586660 0 65 255 0.658377
0.441410 0.035159 6.494350 0 213 255 0.759392
0.458399 0.033326 6.476310 29 255 219 0.785643
0.432385 0.037014 6.463770 6 237 242 0.771882
0.475531 0.031349 6.458540 38 255 209 0.792902
0.449031 0.035077 6.445300 32 255 216 0.787522
0.465740 0.032414 6.426580 45 255 203 0.796806
0.493043 0.028161 6.440340 74 255 174 0.812839
0.424374 0.037784 6.432560 22 255 225 0.781085
0.440970 0.035573 6.413400 45 255 203 0.795016
0.416264 0.037907 6.400050 48 255 200 0.798324
0.400653 0.039475 6.420310 42 255 206 0.793395
0.408838 0.039415 6.452390 3 233 245 0.770256
0.384812 0.041035 6.440630 16 249 232 0.777170
0.393317 0.041338 6.472250 0 169 255 0.733127
0.416897 0.038566 6.482970 0 189 255 0.745908
0.369328 0.043466 6.461060 0 165 255 0.731282
0.315884 0.042121 6.346400 158 255 90 0.856676
0.301044 0.043484 6.368230 148 255 100 0.851880
0.325817 0.043485 6.381320 103 255 145 0.828875
0.311217 0.045354 6.403080 64 255 184 0.807121
0.286524 0.045337 6.389990 103 255 145 0.829089
0.335561 0.044818 6.415570 29 255 219 0.785727
0.296963 0.047876 6.424810 0 225 251 0.765885
0.321099 0.047269 6.437370 0 181 255 0.739470
0.307122 0.049481 6.458360 0 105 255 0.690249
0.272302 0.047927 6.411570 45 255 203 0.796151
0.282944 0.050208 6.445880 0 137 255 0.713265
0.258337 0.050239 6.432490 0 173 255 0.735376
0.344838 0.045863 6.449170 0 173 255 0.735461
0.330913 0.048006 6.470140 0 81 255 0.671896
0.360527 0.043319 6.428440 16 249 232 0.777696
0.376236 0.041220 6.407940 61 255 187 0.804496
0.351420 0.042758 6.394850 74 255 174 0.813382
0.367450 0.041013 6.374140 84 255 164 0.818102
0.392107 0.039767 6.387390 58 255 190 0.802923
0.341958 0.041854 6.360340 113 255 135 0.833211
0.243849 0.048436 6.452530 0 141 255 0.715445
0.266408 0.048856 6.465420 0 97 255 0.683386
0.252574 0.046188 6.484570 0 81 255 0.671363
0.230224 0.045596 6.471510 0 133 255 0.710347
0.274579 0.046242 6.496690 0 41 255 0.636957
0.239330 0.041509 6.502250 0 109 255 0.693821
0.261042 0.042134 6.514490 0 53 255 0.646562
0.248174 0.035477 6.530950 0 117 255 0.698014
0.217253 0.040203 6.488990 0 181 255 0.741285
0.226635 0.034139 6.518570 0 185 255 0.743436
0.204405 0.032068 6.505470 38 255 209 0.792370
0.282643 0.042183 6.526080 0 21 255 0.616783
0.269593 0.036038 6.542490 0 69 255 0.661969
0.298026 0.045089 6.508740 0 37 255 0.631671
0.314182 0.047270 6.490080 0 53 255 0.648154
0.290397 0.048452 6.478130 0 69 255 0.660881
-0.074463 -0.432490 6.797280 0 173 255 0.735175
-0.086190 -0.407745 6.795070 0 213 255 0.758802
-0.088202 -0.459930 6.793280 0 201 255 0.752059
-0.099896 -0.433569 6.790660 3 233 245 0.769175
-0.113346 -0.461456 6.786500 25 255 222 0.783987
-0.112188 -0.407871 6.788430 16 249 232 0.777195
-0.101797 -0.488172 6.789300 3 233 245 0.769135
-0.115393 -0.519382 6.787520 0 217 255 0.761872
-0.090520 -0.515424 6.792150 0 177 255 0.737996
-0.076906 -0.485041 6.794500 0 169 255 0.731962
-0.125366 -0.435114 6.784770 48 255 200 0.797872
-0.137823 -0.408629 6.782150 9 241 238 0.773379
-0.137893 -0.464259 6.780940 61 255 187 0.804546
-0.149899 -0.436903 6.777450 74 255 174 0.812655
-0.161941 -0.466328 6.773070 93 255 155 0.823848
-0.162528 -0.409478 6.773080 48 255 200 0.798350
-0.150652 -0.494859 6.778860 29 255 219 0.786047
-0.163566 -0.527888 6.777750 0 165 255 0.731286
-0.139497 -0.524090 6.783330 0 209 255 0.756249
-0.126282 -0.491465 6.784430 32 255 216 0.788018
-0.154590 -0.658615 6.761490 0 0 164 0.432100
-0.145207 -0.623116 6.767740 0 37 255 0.632069
-0.130622 -0.653291 6.764830 0 0 246 0.567268
-0.135605 -0.587762 6.774260 0 161 255 0.728049
-0.121011 -0.616733 6.771020 0 129 255 0.707525
-0.111049 -0.580804 6.777160 0 213 255 0.759706
-0.106815 -0.646029 6.767240 0 57 255 0.650384
-0.125454 -0.552669 6.780810 0 225 251 0.764541
-0.149087 -0.557604 6.776480 0 177 255 0.738069
-0.158965 -0.592334 6.769530 0 93 255 0.679918
-0.097500 -0.610704 6.774780 0 169 255 0.733846
-0.083034 -0.640726 6.771420 0 105 255 0.691021
-0.087269 -0.575906 6.781760 0 177 255 0.737379
-0.073269 -0.605752 6.779020 0 157 255 0.725205
-0.077108 -0.542494 6.788620 0 177 255 0.737151
-0.101025 -0.546991 6.784690 0 213 255 0.758807
0.123437 0.041523 6.252000 255 186 0 0.917650
0.111991 0.042906 6.272750 255 201 0 0.911903
0.133215 0.043005 6.283010 255 216 0 0.906389
0.121625 0.044865 6.303330 229 255 19 0.887638
0.100354 0.044770 6.292970 232 255 16 0.890009
0.143254 0.045064 6.314370 213 255 35 0.880517
0.110075 0.047281 6.323730 158 255 90 0.856441
0.131714 0.047165 6.334880 155 255 93 0.853708
0.120643 0.049247 6.355130 74 255 174 0.813477
0.089042 0.047020 6.313120 174 255 74 0.863685
0.098946 0.048961 6.343810 93 255 155 0.823059
0.077720 0.048239 6.332930 122 255 126 0.838835
0.153454 0.047121 6.346340 138 255 109 0.846202
0.142242 0.049292 6.367050 67 255 180 0.809541
0.164176 0.049331 6.379500 48 255 200 0.797744
0.176304 0.047155 6.358910 129 255 119 0.841379
0.165909 0.044989 6.325870 209 255 38 0.879900
0.188960 0.044998 6.338100 200 255 48 0.875878
0.178856 0.043094 6.305060 255 227 0 0.903021
0.155974 0.042931 6.293920 255 223 0 0.904583
0.168962 0.041866 6.273100 255 204 0 0.911112
0.202318 0.042966 6.316470 248 245 0 0.896423
0.192286 0.041822 6.283810 255 216 0 0.907006
0.215846 0.041786 6.294760 242 253 6 0.893654
0.145915 0.041817 6.262460 255 197 0 0.913762
0.065548 0.044099 6.353310 158 255 90 0.855647
0.086026 0.045324 6.363570 122 255 126 0.838308
0.073881 0.039398 6.383780 174 255 74 0.863001
