ply
format ascii 1.0
comment Seamless Cloth Simulation with High Geometric Fidelity 
comment Sat Apr  6 09:55:28 2019
element vertex 1227
property float x
property float y
property float z
property float quality
end_header
-0.374548 -1.03904 5.21213 0.00838868 
-0.397222 -1.03256 5.20546 0.00536916 
-0.375883 -1.02782 5.18686 0.00791225 
-0.398811 -1.02124 5.1803 0.00895464 
-0.319115 -1.04638 5.21731 0.0125993 
-0.334623 -1.05027 5.23839 0.00936974 
-0.314196 -1.05205 5.24281 0.00932417 
-0.293875 -1.05368 5.24751 0.0117559 
-0.329801 -1.05616 5.26389 0.0112679 
-0.351586 -1.05408 5.25861 0.00848394 
-0.371056 -1.04783 5.23718 0.00916594 
-0.37788 -1.06185 5.28989 0.011898 
-0.389837 -1.05386 5.26269 0.00744483 
-0.40179 -1.04574 5.23555 0.00900358 
-0.411535 -1.05069 5.25569 0.0059803 
-0.369405 -1.05634 5.26892 0.00745451 
-0.432092 -1.0399 5.23296 0.00468411 
-0.418104 -1.03329 5.21435 0.00450472 
-0.438881 -1.02637 5.20663 0.00420798 
-0.459726 -1.01959 5.19844 0.00637305 
-0.425198 -1.02015 5.18792 0.00662619 
-0.227271 -0.573542 5.30024 0.0161202 
-0.241591 -0.574619 5.28817 0.0217017 
-0.254961 -0.575338 5.27527 0.0197137 
-0.226956 -0.588581 5.28622 0.0201027 
-0.240679 -0.589208 5.27339 0.0258184 
-0.267844 -0.575064 5.262 0.0138142 
-0.280568 -0.574276 5.24818 0.0147515 
-0.28417 -0.556836 5.26376 0.0112559 
-0.271172 -0.557412 5.27764 0.0156283 
-0.24905 -0.594552 5.2551 0.0224413 
-0.222766 -0.604728 5.26779 0.0224778 
-0.234096 -0.605331 5.25435 0.0225976 
-0.26011 -0.594507 5.24211 0.015837 
-0.270553 -0.593762 5.22838 0.0145404 
-0.3132 -0.587756 5.21589 0.00819961 
-0.307463 -0.576156 5.23367 0.0101689 
-0.287947 -0.586221 5.23129 0.0116643 
-0.294668 -0.596758 5.21354 0.0106319 
-0.324709 -0.564297 5.23621 0.00775425 
-0.312587 -0.557866 5.24922 0.0122679 
-0.30006 -0.551052 5.26163 0.0109566 
-0.108056 -0.649809 5.39155 0.0634536 
-0.127556 -0.635044 5.37863 0.056144 
-0.145519 -0.620735 5.36618 0.0409834 
-0.162469 -0.606159 5.35387 0.0283285 
-0.157162 -0.592002 5.36526 0.0140107 
-0.140404 -0.60666 5.37753 0.0213975 
-0.113683 -0.66153 5.37943 0.0849725 
-0.132624 -0.648648 5.36576 0.0829594 
-0.150606 -0.6357 5.35296 0.0727837 
-0.166155 -0.622681 5.33891 0.0467344 
-0.212776 -0.582804 5.31441 0.0212367 
-0.197322 -0.590975 5.32815 0.0288591 
-0.224279 -0.554518 5.31545 0.0136369 
-0.209667 -0.564118 5.32928 0.013642 
-0.180425 -0.598949 5.34103 0.0267956 
-0.219041 -0.533745 5.32994 0.00898578 
-0.191972 -0.568855 5.34606 0.0192948 
-0.204293 -0.545318 5.34342 0.0122214 
-0.174311 -0.578224 5.35775 0.0141418 
-0.2565 -0.555976 5.29128 0.0209108 
-0.283936 -0.53557 5.2798 0.0112049 
-0.269115 -0.534741 5.29394 0.0121848 
-0.253085 -0.535226 5.30637 0.0153389 
-0.239593 -0.548528 5.3087 0.0150014 
-0.316048 -0.535459 5.26629 0.0134645 
-0.330104 -0.543233 5.2524 0.00826351 
-0.345335 -0.534728 5.24989 0.00515214 
-0.331265 -0.527027 5.26379 0.0081053 
-0.346347 -0.518041 5.2607 0.00469162 
-0.299162 -0.528196 5.27833 0.0114453 
-0.341998 -0.483325 5.28129 0.00417127 
-0.325152 -0.484857 5.28902 0.00365837 
-0.310145 -0.494086 5.29166 0.00598076 
-0.293156 -0.494746 5.29817 0.00800738 
-0.27825 -0.503384 5.2993 0.0102789 
-0.313279 -0.511259 5.28194 0.00830059 
-0.328272 -0.501897 5.27964 0.00600985 
-0.344481 -0.501022 5.27169 0.00390142 
-0.259764 -0.495525 5.3173 0.0068077 
-0.247341 -0.511554 5.32124 0.0107555 
-0.232445 -0.519608 5.32861 0.010298 
-0.117111 -0.67239 5.3658 0.116076 
-0.135909 -0.660436 5.35141 0.106697 
-0.152716 -0.648417 5.33673 0.0841454 
-0.167625 -0.635321 5.32484 0.0504588 
-0.134522 -0.669506 5.33619 0.111255 
-0.116639 -0.681605 5.34959 0.131005 
-0.209561 -0.616759 5.27932 0.0354792 
-0.196867 -0.624468 5.29487 0.0564365 
-0.182732 -0.629957 5.3099 0.0596535 
-0.213161 -0.601951 5.29641 0.030766 
-0.198951 -0.609729 5.31142 0.0506968 
-0.183065 -0.61632 5.32526 0.0411899 
-0.196688 -0.633587 5.22911 0.0226611 
-0.206851 -0.635775 5.20129 0.0280745 
-0.191398 -0.639877 5.20733 0.0352093 
-0.175044 -0.642733 5.21312 0.0289974 
-0.217004 -0.637387 5.1737 0.0246186 
-0.223536 -0.630662 5.19656 0.0235467 
-0.239422 -0.624425 5.19159 0.0202579 
-0.164489 -0.644358 5.19332 0.0227059 
-0.152871 -0.644191 5.17296 0.0202197 
-0.142533 -0.644468 5.19917 0.0156481 
-0.174453 -0.643796 5.16774 0.0228323 
-0.19625 -0.641323 5.16339 0.0311749 
-0.216343 -0.657858 5.12067 0.0227543 
-0.226874 -0.650571 5.13909 0.0231047 
-0.237719 -0.643135 5.15818 0.0170599 
-0.247363 -0.64958 5.13598 0.0191692 
-0.20604 -0.649649 5.14181 0.0213892 
-0.185054 -0.648058 5.14486 0.0302974 
-0.263505 -0.643532 5.14633 0.0101432 
-0.264637 -0.634918 5.16344 0.0124636 
-0.280781 -0.633123 5.1605 0.00696003 
-0.238385 -0.633686 5.17411 0.022195 
-0.109903 -0.642251 5.18932 0.0280847 
-0.089452 -0.641103 5.1846 0.0371275 
-0.111508 -0.643191 5.16143 0.0312972 
-0.0914457 -0.643082 5.15724 0.034554 
-0.0717776 -0.643925 5.15336 0.0353976 
-0.0696667 -0.642055 5.18048 0.0340254 
-0.0490884 -0.642097 5.17754 0.0378083 
-0.0936973 -0.644956 5.13003 0.0518598 
-0.113781 -0.643833 5.1342 0.0567116 
-0.133602 -0.642968 5.13927 0.0553941 
-0.13237 -0.643582 5.16672 0.0298727 
-0.154312 -0.643898 5.14593 0.0425168 
-0.0247809 -0.642734 5.17271 0.0411566 
-0.0111646 -0.644562 5.15629 0.0321014 
0.0124462 -0.64602 5.15228 0.0432478 
-0.00902869 -0.648161 5.12814 0.0471755 
-0.0334768 -0.64639 5.13224 0.0416188 
-0.0584004 -0.645464 5.13664 0.0363362 
-0.0624415 -0.666824 5.07896 0.0444007 
-0.0761391 -0.660794 5.09232 0.0447811 
-0.100978 -0.65896 5.09722 0.0464776 
-0.115331 -0.653924 5.1118 0.042549 
-0.136182 -0.661614 5.09443 0.0539491 
-0.0792481 -0.650196 5.11556 0.0487771 
-0.0550957 -0.651809 5.11075 0.0489349 
-0.0311277 -0.653671 5.1063 0.0454335 
-0.156101 -0.659664 5.09966 0.0554841 
-0.176702 -0.659122 5.10642 0.0431242 
-0.154354 -0.651102 5.12192 0.0476457 
-0.196751 -0.658518 5.11345 0.0365325 
-0.134612 -0.652112 5.11645 0.052217 
-0.280059 -0.624287 5.17782 0.00957151 
-0.27932 -0.614782 5.19507 0.0109274 
-0.295934 -0.621484 5.17461 0.00697623 
-0.263063 -0.6167 5.19749 0.0155278 
-0.29797 -0.607381 5.19641 0.00785502 
-0.275001 -0.604614 5.21187 0.0106172 
-0.23961 -0.61043 5.23675 0.017266 
-0.214052 -0.618813 5.25013 0.0212265 
-0.245956 -0.613983 5.21886 0.0186398 
-0.218796 -0.623469 5.23255 0.0249626 
-0.289634 -0.650101 5.13566 0.00578805 
-0.288481 -0.661908 5.1191 0.00833207 
-0.304456 -0.662571 5.11542 0.00924721 
-0.306094 -0.651033 5.1324 0.00470746 
-0.322478 -0.651347 5.12883 0.00588933 
-0.256822 -0.663143 5.11661 0.0145684 
-0.236753 -0.660919 5.11872 0.0152371 
-0.246685 -0.674751 5.1002 0.0214089 
-0.267294 -0.676448 5.09757 0.0193473 
-0.294463 -0.707319 5.07216 0.0205635 
-0.306389 -0.693304 5.08509 0.0137222 
-0.31858 -0.679152 5.09884 0.0103517 
-0.327986 -0.695651 5.08272 0.0181297 
-0.297227 -0.676481 5.10063 0.0111143 
-0.2857 -0.690147 5.08646 0.014944 
-0.346099 -0.687764 5.09013 0.0108972 
-0.348458 -0.673908 5.10412 0.00642236 
-0.366247 -0.675185 5.10041 0.00659878 
-0.320422 -0.665006 5.11308 0.0083039 
-0.367513 -0.629987 5.14837 0.00194897 
-0.350653 -0.629428 5.15165 0.00283998 
-0.37352 -0.640658 5.13602 0.00236114 
-0.391325 -0.641192 5.13312 0.001874 
-0.39714 -0.651702 5.12085 0.00283967 
-0.321643 -0.612533 5.18091 0.00395351 
-0.322951 -0.626271 5.16313 0.00311499 
-0.296689 -0.634047 5.1573 0.00572774 
-0.323367 -0.639136 5.14616 0.00356178 
-0.339263 -0.653095 5.12597 0.0048591 
-0.356312 -0.654958 5.12281 0.00415358 
-0.373502 -0.655761 5.11939 0.0038457 
0.103263 -0.706953 5.28916 0.022816 
0.11081 -0.726233 5.30534 0.0147778 
0.0900762 -0.723456 5.31031 0.0162455 
0.0826503 -0.705045 5.29444 0.0218449 
0.0973777 -0.743257 5.32602 0.0140083 
0.0686663 -0.721179 5.31408 0.0140405 
0.0766409 -0.740631 5.32937 0.0109184 
0.0563277 -0.739273 5.33346 0.0105059 
0.0603476 -0.703156 5.29836 0.0204776 
0.0476497 -0.720148 5.31794 0.0106941 
0.0387427 -0.7025 5.30215 0.0191902 
0.0840653 -0.761132 5.34439 0.0127519 
0.0641713 -0.759519 5.34837 0.0100809 
0.0711777 -0.780466 5.36269 0.0161805 
0.0889524 -0.78157 5.35863 0.0183298 
0.102288 -0.763168 5.34032 0.0140985 
0.106345 -0.78356 5.35444 0.0220005 
0.120079 -0.765286 5.33467 0.0112212 
0.115678 -0.74555 5.32032 0.0117679 
0.124023 -0.785405 5.34888 0.0208201 
0.0167582 -0.720166 5.32572 0.0103376 
0.0057339 -0.702907 5.31022 0.0151978 
0.0274226 -0.738755 5.34114 0.00961147 
-0.00466384 -0.737975 5.34934 0.045164 
-0.0161531 -0.720035 5.33399 0.042744 
-0.0281321 -0.70334 5.31892 0.047069 
0.0214337 -0.758258 5.35979 0.0152414 
0.0141917 -0.778053 5.37784 0.0372662 
0.0426564 -0.77906 5.36994 0.015857 
0.0193502 -0.867212 5.41613 0.0263168 
0.0333771 -0.846077 5.4033 0.0149001 
0.0460314 -0.869678 5.40824 0.0351761 
0.0466703 -0.824063 5.39 0.015032 
0.0602402 -0.847816 5.39571 0.0207662 
0.0736477 -0.825676 5.38295 0.0148411 
0.0728813 -0.871355 5.4012 0.0549266 
0.0594017 -0.802461 5.37661 0.0125047 
0.030925 -0.800576 5.38404 0.014531 
0.0181893 -0.822097 5.39775 0.0174381 
0.091019 -0.849723 5.38796 0.0288785 
0.105854 -0.87242 5.3905 0.0508643 
0.108339 -0.828171 5.37339 0.0171861 
0.107746 -0.805966 5.36427 0.0154717 
0.090419 -0.804063 5.36894 0.0161161 
0.0912248 -0.826866 5.37862 0.0153871 
-0.129983 -0.649723 5.21298 0.0123396 
-0.129136 -0.655858 5.2316 0.0173178 
-0.152941 -0.649862 5.22202 0.0286422 
-0.152079 -0.655464 5.24039 0.0500874 
-0.127626 -0.660481 5.25008 0.0363935 
-0.125274 -0.664575 5.2681 0.046687 
-0.10294 -0.662663 5.26029 0.0168289 
-0.105253 -0.657755 5.24209 0.0130017 
-0.106662 -0.652492 5.2233 0.0100895 
-0.0817158 -0.661752 5.25305 0.00949806 
-0.174427 -0.646716 5.23423 0.0472074 
-0.172775 -0.649373 5.25499 0.0605858 
-0.153947 -0.658114 5.26458 0.0800112 
-0.14515 -0.661318 5.28112 0.0598027 
-0.080638 -0.703803 5.3409 0.125215 
-0.0924739 -0.692652 5.32272 0.101346 
-0.104164 -0.682388 5.30445 0.095503 
-0.0635697 -0.703999 5.33121 0.091294 
-0.115154 -0.673299 5.2864 0.0661141 
-0.0688492 -0.6929 5.31223 0.0721475 
-0.0737826 -0.682061 5.29245 0.0437528 
-0.0421294 -0.69153 5.30221 0.0294975 
-0.0781415 -0.671739 5.27268 0.0131145 
0.0347702 -0.650041 5.18016 0.0347514 
0.0105859 -0.648275 5.18357 0.0323321 
0.022262 -0.652837 5.19937 0.0265662 
-0.0135077 -0.646962 5.18781 0.0308308 
-0.00226756 -0.651363 5.20299 0.0250379 
-0.0273278 -0.650772 5.20721 0.0228128 
-0.038295 -0.646619 5.19247 0.0218242 
0.00944912 -0.656179 5.21853 0.024044 
-0.0160471 -0.655246 5.22252 0.0200105 
-0.00428377 -0.659834 5.23762 0.0196891 
0.0441341 -0.660866 5.22887 0.0298741 
0.056388 -0.65784 5.2099 0.0268023 
-0.0783356 -0.647009 5.19998 0.0166238 
-0.0660768 -0.651775 5.21502 0.0137237 
-0.0983066 -0.646929 5.20387 0.0157514 
-0.0865069 -0.652097 5.21924 0.00825487 
-0.0739863 -0.656771 5.23439 0.00963091 
-0.0431017 -0.660206 5.2445 0.0147334 
-0.00604533 -0.691381 5.29434 0.0125264 
-0.0184352 -0.681613 5.27833 0.0105673 
0.0171014 -0.679825 5.26969 0.0137545 
0.0280666 -0.690958 5.28602 0.0155216 
-0.0117248 -0.670702 5.25793 0.0124146 
-0.049767 -0.670354 5.26547 0.00955261 
0.0510281 -0.6926 5.28268 0.0152273 
0.0736199 -0.693666 5.27871 0.0145369 
0.0646121 -0.683292 5.26283 0.0152695 
0.0945477 -0.695025 5.27369 0.017047 
0.0856743 -0.684276 5.25763 0.0148267 
0.077092 -0.674064 5.2418 0.0157092 
0.0542839 -0.671852 5.24588 0.0161807 
0.0303927 -0.670352 5.2497 0.0166037 
0.0410048 -0.681276 5.26649 0.0153104 
-0.18822 -0.639955 5.24619 0.0400348 
-0.186951 -0.640341 5.27079 0.0707383 
-0.169204 -0.650494 5.27941 0.0842883 
-0.15855 -0.654528 5.2963 0.0806582 
-0.201507 -0.629577 5.26261 0.0371015 
-0.178554 -0.641537 5.29484 0.0718426 
-0.145675 -0.664321 5.31301 0.110941 
-0.120595 -0.679264 5.31654 0.109714 
-0.133665 -0.670492 5.2989 0.0943528 
-0.0418723 -0.72002 5.34277 0.119245 
-0.0294725 -0.737639 5.35796 0.103828 
-0.0185911 -0.757274 5.37258 0.106485 
-0.0177573 -0.777132 5.38949 0.103778 
-0.0470631 -0.73796 5.36503 0.139177 
-0.0632725 -0.719605 5.3527 0.142492 
-0.0401692 -0.75723 5.38191 0.160022 
-0.0350088 -0.777945 5.39821 0.158369 
-0.0362683 -0.868083 5.43614 0.0901435 
-0.0296022 -0.844554 5.42535 0.0746273 
-0.0245217 -0.821541 5.41403 0.118831 
-0.0141792 -0.866341 5.42759 0.0606773 
-0.0206569 -0.798888 5.40204 0.120854 
-0.00579537 -0.843763 5.41576 0.0679314 
0.00845494 -0.799348 5.39089 0.0393213 
-0.00626082 -0.821345 5.40656 0.0693699 
-0.0646925 -0.735395 5.37704 0.194996 
-0.0483056 -0.820597 5.42845 0.167132 
-0.0531792 -0.867281 5.44592 0.137571 
-0.0502514 -0.797647 5.42055 0.190451 
-0.0468986 -0.844307 5.43489 0.145842 
0.0698947 -0.987523 5.3706 0.0634252 
0.0603545 -0.974323 5.38301 0.0575648 
0.0886937 -0.96022 5.38137 0.0608904 
0.0792662 -0.946732 5.39348 0.0858322 
0.0508343 -0.961159 5.3949 0.0678553 
0.0420479 -0.947679 5.40627 0.062179 
0.0174047 -0.97638 5.39658 0.0617615 
0.0267871 -0.989513 5.38492 0.0599966 
0.036638 -1.00238 5.37276 0.0833552 
-0.0074489 -1.00403 5.38577 0.0788398 
0.105324 -0.927872 5.38561 0.0549766 
0.0944045 -0.909487 5.39176 0.0454201 
0.116841 -0.891918 5.38461 0.0411602 
0.0832555 -0.890912 5.39748 0.0493847 
0.0655457 -0.89124 5.40309 0.0506494 
0.0759505 -0.909901 5.39857 0.0503514 
0.057951 -0.910042 5.40438 0.0487724 
0.0103567 -0.887506 5.41902 0.0276252 
0.0161389 -0.90801 5.41684 0.0310562 
0.00637619 -0.927531 5.41872 0.0294064 
0.0115568 -0.947032 5.41576 0.0601007 
-0.0197579 -0.946321 5.42493 0.041502 
0.0363367 -0.928492 5.40936 0.0435468 
0.0388023 -0.888847 5.41044 0.0311989 
-0.0357442 -0.960877 5.42094 0.032033 
-0.0513214 -0.974624 5.41645 0.0403254 
-0.0141303 -0.975546 5.40592 0.0431196 
-0.029427 -0.989527 5.40118 0.0466765 
-0.0450417 -1.00259 5.39617 0.0574786 
-0.0676896 -0.9873 5.41208 0.0324581 
-0.084149 -0.999408 5.40763 0.0354031 
-0.0722578 -0.972668 5.42296 0.0299732 
-0.0555393 -0.959695 5.42713 0.0319636 
-0.0395831 -0.945661 5.43102 0.0347811 
-0.0600755 -0.944315 5.43733 0.0429805 
-0.0775133 -0.957969 5.43387 0.0356986 
-0.0948185 -0.970932 5.43013 0.0346348 
-0.0900512 -0.984983 5.41892 0.0285166 
-0.106818 -0.997373 5.41477 0.0258163 
-0.111454 -0.983727 5.42616 0.0283025 
-0.127504 -0.996086 5.42208 0.0252091 
-0.00747499 -0.907253 5.42436 0.0275596 
-0.0245254 -0.886785 5.43105 0.0496871 
-0.0361798 -0.906689 5.4337 0.0570759 
-0.0276897 -0.926758 5.42946 0.0357524 
-0.0483185 -0.926004 5.43576 0.0502108 
-0.0485363 -0.888326 5.43962 0.0949868 
-0.0609178 -0.907497 5.44227 0.080354 
-0.0724073 -0.926307 5.44467 0.0576645 
-0.0844379 -0.944156 5.44642 0.0666198 
-0.101828 -0.957957 5.44341 0.0592723 
-0.118902 -0.97082 5.43986 0.0576891 
-0.135249 -0.983742 5.43684 0.0395665 
-0.151198 -0.996332 5.43367 0.0299324 
-0.105213 -0.945363 5.45984 0.0927401 
-0.0778923 -0.907023 5.45241 0.111055 
-0.065756 -0.887456 5.44941 0.13165 
-0.169726 -0.998601 5.44729 0.0303501 
-0.153656 -0.985406 5.44967 0.0535969 
-0.139674 -0.972453 5.45517 0.070026 
-0.119645 -0.958836 5.45461 0.0703932 
-0.277261 -1.0483 5.36671 0.00237928 
-0.295633 -1.05313 5.34343 0.00325975 
-0.31357 -1.05863 5.32046 0.00610178 
-0.316467 -1.05774 5.33907 0.00393936 
-0.292824 -1.05386 5.32478 0.00456194 
-0.273308 -1.04991 5.33091 0.00446114 
-0.275495 -1.04891 5.3488 0.00303239 
-0.255819 -1.04533 5.35487 0.00374096 
-0.341342 -1.06152 5.31982 0.006187 
-0.335722 -1.05916 5.29977 0.00664169 
-0.356623 -1.06054 5.29474 0.00773373 
-0.319831 -1.05662 5.2903 0.00548721 
-0.284482 -1.05401 5.27402 0.00636302 
-0.275143 -1.05449 5.30054 0.00846206 
-0.262715 -1.0532 5.27957 0.00729975 
-0.29691 -1.05542 5.29521 0.00574929 
-0.306715 -1.05509 5.26882 0.0106158 
-0.240675 -1.05023 5.30093 0.00650491 
-0.250631 -1.04826 5.32051 0.00433522 
-0.227942 -1.04548 5.32685 0.00449143 
-0.204817 -1.04316 5.3331 0.00580201 
-0.237811 -1.04397 5.34638 0.00413229 
-0.248224 -1.03454 5.42813 0.00856087 
-0.226172 -1.02426 5.43013 0.0165102 
-0.208801 -1.01666 5.43686 0.018768 
-0.191624 -1.0078 5.44401 0.0260577 
-0.281427 -1.04342 5.41017 0.00556551 
-0.292717 -1.04844 5.3972 0.00303247 
-0.309596 -1.0546 5.38851 0.00178469 
-0.260311 -1.03791 5.41482 0.00819092 
-0.262868 -1.04247 5.37589 0.00458701 
-0.24791 -1.03726 5.3853 0.00748331 
-0.24393 -1.03387 5.40246 0.0085847 
-0.228333 -1.02954 5.41187 0.00944457 
-0.265589 -1.03992 5.39726 0.00673497 
-0.201611 -1.01982 5.41156 0.0139695 
-0.185075 -1.01222 5.4187 0.020977 
-0.168448 -1.00421 5.42617 0.0261017 
-0.386536 -1.06875 5.44752 0.00299787 
-0.410501 -1.07021 5.44684 0.00227222 
-0.395307 -1.07015 5.46694 0.00360034 
-0.434442 -1.0718 5.44613 0.00365557 
-0.458723 -1.07321 5.4457 0.0070806 
-0.445837 -1.07409 5.42458 0.00669577 
-0.421768 -1.072 5.42519 0.00328625 
-0.402681 -1.06986 5.48653 0.00446108 
-0.425237 -1.06945 5.47976 0.00287609 
-0.431385 -1.06905 5.49873 0.00311227 
-0.408677 -1.06954 5.50545 0.00339905 
-0.450973 -1.06921 5.48255 0.00276689 
-0.476656 -1.06905 5.48512 0.00446947 
-0.467789 -1.0713 5.46556 0.00512807 
-0.442052 -1.07115 5.46276 0.00302098 
-0.56067 -1.05951 5.4502 0.0106858 
-0.535432 -1.06249 5.44882 0.00434509 
-0.548272 -1.0631 5.43051 0.0102525 
-0.510019 -1.06607 5.44756 0.00282252 
-0.522821 -1.0664 5.4292 0.00586957 
-0.497239 -1.06967 5.42793 0.00408726 
-0.535485 -1.06671 5.4105 0.0130988 
-0.484481 -1.06967 5.44664 0.00311327 
-0.493307 -1.06761 5.46638 0.00335028 
-0.519021 -1.06365 5.46752 0.00277263 
-0.51205 -1.06858 5.4121 0.00561538 
-0.524124 -1.06818 5.39583 0.0110135 
-0.500652 -1.07007 5.39746 0.00618552 
-0.482735 -1.0712 5.40638 0.00399088 
-0.51261 -1.06941 5.38099 0.0105938 
-0.46492 -1.07231 5.41549 0.00396609 
-0.0307073 -1.04756 5.29994 0.020972 
-0.0409805 -1.04363 5.31697 0.0236823 
-0.00511477 -1.0392 5.32082 0.0316177 
-0.0154617 -1.03548 5.33788 0.0432898 
-0.0521798 -1.03962 5.33378 0.0385089 
-0.0633592 -1.03487 5.35049 0.0434056 
-0.0929385 -1.04156 5.32924 0.0233586 
-0.0805831 -1.04673 5.31251 0.0215166 
-0.0694896 -1.05112 5.29576 0.0214623 
-0.121785 -1.0484 5.30873 0.0165088 
0.0223781 -1.0269 5.34022 0.0468882 
0.0124581 -1.01938 5.35567 0.051495 
0.0463974 -1.01005 5.3571 0.0552095 
0.00231737 -1.01187 5.37087 0.0590483 
-0.036039 -1.01992 5.36803 0.0450115 
-0.0255706 -1.02794 5.35298 0.0432421 
-0.0965532 -1.01519 5.38474 0.0210221 
-0.117621 -1.01318 5.39062 0.0186179 
-0.0736494 -1.01757 5.37898 0.0324727 
-0.10718 -1.03085 5.36223 0.0246191 
-0.128535 -1.02865 5.36831 0.0187468 
-0.148861 -1.02684 5.37405 0.0146912 
-0.0845266 -1.03338 5.35605 0.0322612 
-0.158091 -1.03563 5.34758 0.00791107 
-0.177867 -1.03433 5.35346 0.00685149 
-0.136898 -1.03735 5.34157 0.00938811 
-0.166461 -1.04495 5.32131 0.0099916 
-0.186063 -1.04398 5.3273 0.0070719 
-0.144939 -1.04644 5.31522 0.0107336 
-0.11504 -1.03949 5.33541 0.0122026 
-0.198938 -1.0337 5.36184 0.00640098 
-0.170937 -1.02619 5.38242 0.0118367 
-0.191764 -1.02576 5.39073 0.00995529 
-0.206745 -1.02979 5.38074 0.00810451 
-0.221176 -1.03442 5.37073 0.00791211 
-0.213099 -1.03845 5.35185 0.00497332 
-0.138962 -1.01107 5.39825 0.0171197 
-0.144319 -1.00361 5.41434 0.0230479 
-0.160554 -1.01111 5.40629 0.0185926 
-0.15535 -1.01837 5.39019 0.014107 
-0.176477 -1.01852 5.3985 0.0127506 
-0.225683 -1.03128 5.39104 0.00786854 
-0.241332 -1.03964 5.36437 0.00633895 
-0.128188 -1.05487 5.21185 0.0122922 
-0.143378 -1.05511 5.22951 0.0113316 
-0.105884 -1.05607 5.23355 0.0128136 
-0.120662 -1.05636 5.25104 0.0151403 
-0.159583 -1.0547 5.24748 0.0123187 
-0.175587 -1.05398 5.26547 0.0131004 
-0.197747 -1.05335 5.24409 0.0099116 
-0.183188 -1.05373 5.22628 0.0121311 
-0.167342 -1.0541 5.20826 0.015109 
-0.219342 -1.05315 5.22279 0.0140797 
-0.0818635 -1.0554 5.25568 0.0142027 
-0.0939684 -1.05381 5.27319 0.0124949 
-0.0568834 -1.05281 5.27797 0.0145738 
-0.107547 -1.05142 5.29106 0.0149493 
-0.149464 -1.05069 5.28711 0.00879218 
-0.134207 -1.05399 5.26891 0.0148152 
-0.210276 -1.04794 5.30562 0.00502615 
-0.190966 -1.0485 5.29949 0.00700885 
-0.215554 -1.05319 5.27821 0.01094 
-0.234168 -1.05298 5.28428 0.00980692 
-0.183583 -1.05125 5.28259 0.00853072 
-0.254698 -1.05319 5.26263 0.00812953 
-0.236396 -1.05304 5.25667 0.00848277 
-0.257121 -1.05345 5.23513 0.0143979 
-0.275427 -1.05352 5.24115 0.0132044 
-0.228048 -1.05313 5.23973 0.0100716 
-0.206961 -1.05339 5.26119 0.00821087 
-0.342965 -1.06123 5.39478 0.00188551 
-0.3588 -1.06442 5.38672 0.00238924 
-0.344132 -1.06205 5.37627 0.00240034 
-0.359836 -1.06533 5.36823 0.00340648 
-0.375742 -1.06871 5.36018 0.00752329 
-0.374734 -1.06747 5.37865 0.00317954 
-0.390608 -1.0709 5.3706 0.00774931 
-0.360644 -1.06646 5.34968 0.0075589 
-0.41053 -1.06965 5.34627 0.00739204 
-0.430804 -1.06811 5.32241 0.0089348 
-0.433352 -1.07007 5.34257 0.0062067 
-0.407901 -1.06764 5.32585 0.00837259 
-0.387086 -1.0667 5.33032 0.00651955 
-0.361462 -1.06301 5.3148 0.00563184 
-0.345036 -1.06387 5.33978 0.00770859 
-0.382497 -1.06432 5.31008 0.0075576 
-0.404714 -1.06539 5.30586 0.0100425 
-0.316721 -1.05688 5.35679 0.00230354 
-0.297039 -1.05251 5.36168 0.00218284 
-0.432997 -1.07172 5.363 0.00610769 
-0.411671 -1.07138 5.36675 0.00609818 
-0.41129 -1.07292 5.38731 0.00679946 
-0.433907 -1.07291 5.38358 0.00560576 
-0.449845 -1.07227 5.37439 0.00531985 
-0.449099 -1.07101 5.35382 0.00595187 
-0.464975 -1.07019 5.34466 0.00811284 
-0.465968 -1.07151 5.36519 0.0061129 
-0.481946 -1.07068 5.35592 0.0097664 
-0.357942 -1.06465 5.41078 0.00271444 
-0.375788 -1.06712 5.40298 0.00268718 
-0.393473 -1.07001 5.39519 0.00347179 
-0.396284 -1.06969 5.42649 0.00235736 
-0.42981 -1.07415 5.40527 0.00692605 
-0.372632 -1.06719 5.4283 0.00319329 
-0.451737 -1.07334 5.40218 0.00558604 
-0.469444 -1.07219 5.39289 0.00487887 
-0.487155 -1.07108 5.38378 0.00641553 
-0.497359 -1.07023 5.3685 0.0100859 
-0.546258 -1.05925 5.47359 0.00404015 
-0.531577 -1.0592 5.49699 0.00215714 
-0.50427 -1.06385 5.49104 0.00176042 
-0.489354 -1.06444 5.51459 0.00231402 
-0.516811 -1.05945 5.52032 0.0010435 
-0.501755 -1.06027 5.54377 0.0015015 
-0.547412 -1.05251 5.52462 0.00105306 
-0.562033 -1.05268 5.50155 0.00212738 
-0.576693 -1.05292 5.47835 0.00636211 
-0.592351 -1.04727 5.50599 0.00612988 
-0.458857 -1.06795 5.50659 0.0031916 
-0.440964 -1.06734 5.52809 0.00283474 
-0.418068 -1.06854 5.53494 0.00403494 
-0.395054 -1.07094 5.54185 0.00863407 
-0.404609 -1.06924 5.57131 0.00664062 
-0.429057 -1.06556 5.56441 0.00154892 
-0.453307 -1.06307 5.5575 0.000728593 
-0.471422 -1.06306 5.53594 0.000810894 
-0.447583 -1.05893 5.62261 0.000259563 
-0.472544 -1.05596 5.61506 0.000507747 
-0.465769 -1.05885 5.59601 0.000269779 
-0.497293 -1.05381 5.60744 0.000708929 
-0.490458 -1.05619 5.58855 0.000552585 
-0.515103 -1.05476 5.58129 0.000948384 
-0.521877 -1.05274 5.60022 0.00129531 
-0.483694 -1.05913 5.5698 0.000489005 
-0.508391 -1.05738 5.56258 0.00103732 
-0.45948 -1.06073 5.57687 0.000419633 
-0.435207 -1.06317 5.58378 0.000454221 
-0.441502 -1.06062 5.60302 0.000231866 
-0.417063 -1.06365 5.61022 0.00106628 
-0.410791 -1.06648 5.59079 0.00291797 
-0.42326 -1.06171 5.62981 0.00105607 
-0.544701 -1.049 5.59003 0.000657381 
-0.56891 -1.04477 5.57939 0.00109776 
-0.560836 -1.04765 5.56165 0.000987229 
-0.592841 -1.04137 5.56878 0.00155914 
-0.584725 -1.04399 5.55127 0.00165937 
-0.608514 -1.04089 5.541 0.00359148 
-0.616558 -1.03834 5.55843 0.00341421 
-0.576654 -1.04735 5.53383 0.00156669 
-0.60041 -1.04387 5.52354 0.00404467 
-0.553901 -1.04995 5.54322 0.000946966 
-0.531206 -1.05319 5.55275 0.000618242 
-0.53796 -1.05082 5.57127 0.000735626 
-0.064079 -0.63894 5.4377 0.0131749 
-0.084632 -0.619375 5.42376 0.00878262 
-0.105323 -0.601591 5.41052 0.00743005 
-0.0746032 -0.65 5.42533 0.0140975 
-0.0953375 -0.631351 5.41032 0.0109421 
-0.125208 -0.584747 5.39816 0.00569867 
-0.144033 -0.568401 5.38585 0.00440312 
-0.13222 -0.55369 5.39944 0.00235719 
-0.113903 -0.571163 5.41146 0.00241846 
-0.118624 -0.618887 5.39404 0.0209787 
-0.211633 -0.513668 5.34356 0.00612765 
-0.196144 -0.527069 5.35692 0.00842797 
-0.182399 -0.545568 5.36448 0.0143766 
-0.201628 -0.495653 5.35576 0.00538456 
-0.164086 -0.557166 5.37544 0.00982094 
-0.185898 -0.510497 5.36989 0.00411928 
-0.168152 -0.523636 5.38196 0.00690277 
-0.189034 -0.479118 5.36855 0.00836877 
-0.173021 -0.494032 5.38258 0.0015033 
-0.149048 -0.536343 5.393 0.00409166 
-0.151141 -0.916635 6.24824 0.00521262 
-0.148295 -0.929547 6.21757 0.00287756 
-0.174099 -0.918331 6.23613 0.00600979 
-0.171396 -0.93128 6.20548 0.00312554 
-0.145585 -0.944637 6.18755 0.000962786 
-0.142925 -0.960409 6.15778 0.0039314 
-0.120078 -0.957734 6.17088 0.00414268 
-0.122722 -0.941626 6.20049 0.00110559 
-0.125656 -0.926831 6.23066 0.00281073 
-0.0971501 -0.954886 6.18369 0.00455607 
-0.197037 -0.920309 6.22341 0.00582144 
-0.194389 -0.933747 6.19239 0.00267057 
-0.220222 -0.921792 6.21105 0.00612818 
-0.217629 -0.935462 6.18015 0.00264703 
-0.191833 -0.949046 6.16195 0.000746782 
-0.189437 -0.96561 6.13173 0.00537969 
-0.166107 -0.963301 6.14483 0.00509803 
-0.168747 -0.946502 6.17498 0.000823217 
-0.129075 -1.00745 6.03037 0.0141824 
-0.132543 -0.997004 6.06264 0.00884339 
-0.105498 -1.00488 6.04411 0.0171873 
-0.136012 -0.985507 6.09482 0.00552575 
-0.109121 -0.994244 6.07662 0.00919669 
-0.112713 -0.982231 6.10884 0.00506271 
-0.0819096 -1.00193 6.0579 0.0165244 
-0.139406 -0.973538 6.12654 0.00451195 
-0.162895 -0.975563 6.11339 0.00388145 
-0.159517 -0.987876 6.08172 0.00549212 
-0.0857711 -0.991279 6.09011 0.00919346 
-0.0589023 -0.99894 6.07186 0.0196725 
-0.0895067 -0.980166 6.12188 0.00661952 
-0.0627421 -0.988403 6.10403 0.0115186 
-0.0667663 -0.977117 6.13584 0.00828505 
-0.0359555 -0.995301 6.08549 0.0196905 
-0.093292 -0.968102 6.15305 0.00529985 
-0.116256 -0.970715 6.1401 0.00459693 
-0.243749 -0.923494 6.19816 0.00605706 
-0.241526 -0.937213 6.16653 0.00271444 
-0.267879 -0.924753 6.1853 0.0774432 
-0.265674 -0.93884 6.15382 0.00210306 
-0.239501 -0.953071 6.13558 0.00066676 
-0.237553 -0.968596 6.10442 0.00279175 
-0.2135 -0.966775 6.11802 0.0033842 
-0.215434 -0.950621 6.149 0.000667598 
-0.291382 -0.926554 6.17248 0.00487372 
-0.288606 -0.940895 6.14092 0.00148701 
-0.31461 -0.927847 6.16006 0.00474912 
-0.311911 -0.942058 6.12851 0.00145732 
-0.286118 -0.956347 6.10972 0.000603548 
-0.283796 -0.971915 6.07856 0.00256556 
-0.260651 -0.969927 6.09141 0.00216602 
-0.263115 -0.954494 6.12263 0.000559924 
-0.223535 -1.01686 5.9761 0.0111664 
-0.227082 -1.00654 6.00835 0.00852142 
-0.200458 -1.01429 5.98918 0.0105236 
-0.230664 -0.994337 6.04034 0.00408864 
-0.204211 -1.00373 6.02159 0.00738246 
-0.207811 -0.991706 6.05388 0.0035102 
-0.177469 -1.01242 6.00238 0.0119689 
-0.234123 -0.981213 6.07229 0.00198835 
-0.257344 -0.983277 6.05949 0.00217433 
-0.253947 -0.995966 6.02773 0.00368226 
-0.180576 -1.00188 6.03474 0.00810402 
-0.15332 -1.00982 6.01633 0.0128499 
-0.183611 -0.990242 6.06723 0.00498928 
-0.156459 -0.99913 6.04897 0.00798105 
-0.186477 -0.977919 6.09952 0.00364611 
-0.210684 -0.979398 6.08598 0.00274959 
-0.336317 -0.929275 6.14811 0.00396228 
-0.332074 -0.943404 6.11696 0.00144773 
-0.356665 -0.929804 6.13697 0.00428524 
-0.352597 -0.944165 6.10603 0.00172579 
-0.328114 -0.958571 6.08623 0.0005068 
-0.324272 -0.973866 6.0556 0.00155067 
-0.303991 -0.972995 6.06711 0.00206638 
-0.307939 -0.957177 6.09765 0.000447254 
-0.376113 -0.931162 6.12626 0.00413764 
-0.371065 -0.945145 6.0954 0.00201212 
-0.39473 -0.931885 6.11617 0.00451138 
-0.389708 -0.945629 6.0853 0.00271972 
-0.366063 -0.960393 6.06514 0.000722189 
-0.361194 -0.976372 6.03514 0.00170909 
-0.342686 -0.975056 6.04541 0.00170899 
-0.347549 -0.959047 6.07541 0.000672679 
-0.299939 -1.02268 5.93284 0.00953238 
-0.306102 -1.01234 5.96387 0.00755211 
-0.281642 -1.02147 5.94313 0.0111605 
-0.312137 -0.999847 5.99437 0.00303046 
-0.287945 -1.01083 5.97421 0.00737843 
-0.294151 -0.998452 6.00486 0.00300744 
-0.263411 -1.02017 5.95341 0.0110658 
-0.318211 -0.987189 6.02494 0.00179416 
-0.336701 -0.987857 6.01464 0.00157453 
-0.330749 -1.00124 5.98441 0.00325058 
-0.268726 -1.00963 5.9848 0.0071119 
-0.243511 -1.01826 5.96465 0.00924785 
-0.273746 -0.998032 6.01617 0.00425958 
-0.248741 -1.00784 5.99633 0.00682891 
-0.278839 -0.985064 6.04722 0.00226685 
-0.299127 -0.985664 6.03579 0.00149308 
-0.366013 -1.07085 5.53132 0.00957268 
-0.346396 -1.07006 5.55027 0.00944871 
-0.319917 -1.06834 5.54173 0.0135616 
-0.299373 -1.06979 5.56085 0.0253745 
-0.326148 -1.07098 5.56953 0.0163368 
-0.305624 -1.07244 5.58858 0.0241633 
-0.355459 -1.06949 5.57992 0.00586673 
-0.375232 -1.06977 5.56082 0.00619912 
-0.272546 -1.06251 5.5469 0.0172678 
-0.250315 -1.05553 5.54872 0.012117 
-0.227712 -1.04865 5.5503 0.014481 
-0.205644 -1.04561 5.56369 0.028036 
-0.229447 -1.05597 5.57405 0.0255326 
-0.206796 -1.05321 5.58713 0.0442534 
-0.25394 -1.06153 5.57439 0.0171023 
-0.278221 -1.06663 5.57475 0.0197364 
-0.21869 -1.06186 5.66351 0.040568 
-0.247094 -1.06302 5.66462 0.0210837 
-0.240331 -1.06552 5.64507 0.035644 
-0.2685 -1.0663 5.64587 0.0188483 
-0.27542 -1.06355 5.6653 0.0103529 
-0.262126 -1.06805 5.62638 0.0295116 
-0.296541 -1.06682 5.64645 0.00923029 
-0.290119 -1.06906 5.62697 0.0169405 
-0.317831 -1.06971 5.6274 0.0105851 
-0.303209 -1.0642 5.66576 0.00478398 
-0.324195 -1.06785 5.6468 0.00767417 
-0.330845 -1.06557 5.6662 0.00589524 
-0.283919 -1.07053 5.60741 0.0262893 
-0.311608 -1.07134 5.60802 0.0169501 
-0.259205 -1.06647 5.60734 0.0239826 
-0.234306 -1.06161 5.60696 0.0324201 
-0.237055 -1.06377 5.626 0.0361068 
-0.212014 -1.05923 5.62529 0.0476288 
-0.20908 -1.05675 5.60622 0.0435296 
-0.214994 -1.06126 5.64436 0.0471702 
-0.355657 -1.06335 5.66196 0.00141919 
-0.349258 -1.06651 5.64217 0.00362326 
-0.374158 -1.06392 5.63802 0.000674633 
-0.380539 -1.06121 5.65766 0.000519552 
-0.367933 -1.0668 5.61841 0.00260156 
-0.398826 -1.06228 5.63389 0.000420048 
-0.392562 -1.06514 5.61436 0.000816335 
-0.405091 -1.06023 5.65349 0.000518396 
-0.386214 -1.06815 5.5949 0.00345806 
-0.361486 -1.06861 5.59924 0.00453907 
-0.336601 -1.06983 5.60361 0.00816022 
-0.342832 -1.06825 5.62288 0.00487148 
0.0738346 -0.585313 5.56665 0.00504291 
0.0641713 -0.559008 5.56269 0.00264207 
0.0657062 -0.53285 5.56903 0.00384793 
0.0568617 -0.507039 5.56419 0.0026617 
0.060908 -0.480075 5.56787 0.00270737 
0.0364885 -0.481691 5.54941 0.00211166 
0.0806048 -0.50577 5.58326 0.00294247 
0.0853194 -0.47889 5.58584 0.00293279 
0.0880417 -0.530484 5.58721 0.00362789 
0.0959695 -0.555279 5.59057 0.00387613 
0.0937168 -0.582016 5.58483 0.00479867 
0.113662 -0.578681 5.60274 0.004929 
0.0251094 -0.457497 5.54744 0.00197035 
0.0387875 -0.457047 5.55797 0.00230226 
0.0282366 -0.432196 5.55509 0.00275868 
0.0144452 -0.432743 5.54488 0.00281515 
0.0423538 -0.431617 5.56502 0.00247957 
0.0184435 -0.406757 5.55121 0.00151886 
0.0325507 -0.406132 5.56118 0.0015395 
0.0235318 -0.37996 5.55618 0.0023829 
0.00423174 -0.407496 5.54152 0.0019478 
0.00930428 -0.380858 5.5465 0.00240828 
-0.00512291 -0.381858 5.53737 0.00163289 
0.0468108 -0.405419 5.57086 0.0015583 
0.0379142 -0.379107 5.56582 0.00184221 
0.0521984 -0.378424 5.57552 0.00150114 
0.0680041 -0.429553 5.58188 0.00165032 
0.0638033 -0.455364 5.57565 0.00205821 
0.115909 -0.376218 5.61474 0.0016932 
0.121066 -0.402233 5.61791 0.00126805 
0.112559 -0.428284 5.61194 0.00201468 
0.118908 -0.452811 5.61323 0.00152559 
0.112236 -0.477501 5.60455 0.00317057 
0.138917 -0.475958 5.62307 0.00290897 
0.0915575 -0.454446 5.59516 0.0019132 
0.0832071 -0.429381 5.59275 0.00192247 
0.0753301 -0.40382 5.58964 0.00149974 
0.0911141 -0.403632 5.5996 0.00132008 
0.0840993 -0.37734 5.59521 0.00158822 
0.068186 -0.377928 5.58517 0.00155777 
0.099934 -0.376685 5.6053 0.00132304 
0.143208 -0.500641 5.62761 0.00270689 
0.13583 -0.526241 5.62404 0.00447169 
0.141047 -0.54975 5.6272 0.004167 
0.135342 -0.575288 5.62109 0.00514854 
0.157309 -0.571787 5.63906 0.00504593 
0.118215 -0.553213 5.60998 0.00426049 
0.111749 -0.528339 5.60516 0.00388296 
0.105015 -0.503417 5.60069 0.00290626 
0.00829563 -0.596473 5.50629 0.00618133 
-0.00339116 -0.570247 5.50134 0.00231547 
-0.00727159 -0.543407 5.50473 0.000979681 
-0.0186103 -0.518031 5.50038 0.000661684 
-0.0207682 -0.490592 5.50251 0.00119967 
-0.0375629 -0.494537 5.48835 0.000960948 
-0.00229183 -0.514254 5.51494 0.000914284 
-0.00420744 -0.486888 5.51657 0.00155289 
0.00869121 -0.540029 5.51869 0.00109229 
0.0198401 -0.565849 5.52234 0.002065 
0.0233357 -0.593826 5.51967 0.00705282 
0.037871 -0.591011 5.53356 0.00550109 
-0.0500923 -0.472065 5.48539 0.000670806 
-0.0535395 -0.446398 5.48993 0.0015557 
-0.0645971 -0.423458 5.48511 0.000825192 
-0.0658222 -0.396963 5.48703 0.00268897 
-0.0829469 -0.403242 5.47152 0.00373187 
-0.0475193 -0.41751 5.50125 0.00203454 
-0.0486296 -0.390647 5.50251 0.00199241 
-0.0365952 -0.441451 5.50504 0.00259553 
-0.0249137 -0.46537 5.50781 0.00132135 
-0.00700505 -0.435889 5.53001 0.00484233 
0.00458586 -0.460091 5.53165 0.00160581 
0.0160201 -0.484286 5.53327 0.00173801 
-0.0283128 -0.413171 5.51678 0.00226044 
-0.0270971 -0.386087 5.52034 0.0016845 
0.0354383 -0.509062 5.5471 0.00199502 
0.0451119 -0.534797 5.55101 0.00217995 
0.0459642 -0.561833 5.54667 0.00208186 
0.0563686 -0.588214 5.54995 0.00634277 
0.02597 -0.537335 5.53445 0.00154212 
0.0156041 -0.511462 5.52983 0.00117934 
-0.0937329 -0.588923 5.42412 0.00412089 
-0.118262 -0.539771 5.4135 0.00117648 
-0.0989663 -0.557806 5.42576 0.000860757 
-0.07959 -0.576263 5.43752 0.001411 
-0.0678721 -0.602886 5.44072 0.00433757 
-0.0515527 -0.626816 5.44982 0.00777037 
-0.154368 -0.508399 5.39604 0.00309254 
-0.174627 -0.463626 5.38319 0.0109179 
-0.157276 -0.479259 5.39834 0.00134274 
-0.138852 -0.493607 5.41055 0.0014151 
-0.129142 -0.516941 5.41222 0.00117804 
-0.140259 -0.435758 5.41782 0.0063299 
-0.128115 -0.456049 5.42569 0.00164189 
-0.121068 -0.48048 5.42784 0.00150462 
-0.106723 -0.499547 5.43303 0.000711201 
-0.0965995 -0.522103 5.4327 0.0027927 
-0.14616 -0.469488 5.40894 0.00140948 
-0.152025 -0.444382 5.40543 0.0100618 
-0.072722 -0.537868 5.44974 0.00130683 
-0.0630606 -0.565227 5.45145 0.0021721 
-0.0485513 -0.588953 5.45844 0.00409375 
-0.0379829 -0.61631 5.46217 0.00944694 
-0.0784776 -1.0272 5.75507 0.0397925 
-0.0664885 -1.01618 5.72714 0.0233061 
-0.0953769 -1.03233 5.74406 0.0427558 
-0.0548944 -1.00404 5.69925 0.0200659 
-0.0839867 -1.02135 5.71653 0.0250704 
-0.0721837 -1.00931 5.6888 0.0198045 
-0.112751 -1.03684 5.73299 0.0472834 
-0.0435011 -0.990009 5.67175 0.0298228 
-0.0327816 -0.974056 5.64438 0.0501571 
-0.0184208 -0.968793 5.65261 0.0550388 
-0.0294303 -0.984822 5.68027 0.0283121 
-0.0409473 -0.998786 5.70826 0.0156904 
-0.00454535 -0.963354 5.66122 0.0545496 
-0.0984315 -1.0258 5.7072 0.0266279 
-0.1277 -1.04123 5.7235 0.0490462 
-0.114037 -1.02945 5.69829 0.0227465 
-0.0917644 -1.01519 5.6771 0.0202611 
-0.143416 -1.04417 5.71428 0.04625 
-0.0699573 -0.998899 5.65556 0.0243839 
-0.0570047 -0.982556 5.63071 0.0445594 
0.00355192 -0.860225 5.56961 0.0146285 
-0.00476856 -0.891139 5.58736 0.0109337 
-0.0133303 -0.92064 5.6051 0.0133854 
0.0205805 -0.85263 5.57879 0.0191523 
-0.0226473 -0.948212 5.62433 0.0260091 
-0.041032 -0.954763 5.61453 0.0219676 
0.0155181 -0.88254 5.5979 0.0156443 
0.00981425 -0.910941 5.61797 0.017367 
0.0360644 -0.846472 5.58769 0.0269541 
0.0312578 -0.87586 5.60767 0.0185087 
0.00309985 -0.938131 5.63924 0.0309808 
-0.0979111 -1.02955 5.78286 0.0154238 
-0.126643 -1.03281 5.80485 0.00477616 
-0.145601 -1.03471 5.83204 0.00504233 
-0.173477 -1.03835 5.85306 0.0115278 
-0.154338 -1.03584 5.86471 0.0136385 
-0.164583 -1.03763 5.82043 0.00390854 
-0.192673 -1.04068 5.8414 0.0107592 
-0.144817 -1.03635 5.79344 0.00471976 
-0.124235 -1.0363 5.76587 0.0164104 
-0.172124 -1.03148 5.8932 0.00679618 
-0.199825 -1.02682 5.91574 0.00204855 
-0.21705 -1.02229 5.94329 0.00412544 
-0.237108 -1.02401 5.93195 0.00340256 
-0.219438 -1.02909 5.90416 0.001857 
-0.201432 -1.03419 5.87602 0.00381999 
-0.282409 -1.02838 5.90538 0.00426461 
-0.256009 -1.03206 5.88268 0.00133049 
-0.237383 -1.03727 5.8546 0.00255019 
-0.209958 -1.04245 5.83106 0.00938593 
-0.22727 -1.04411 5.82056 0.0079986 
-0.220185 -1.03563 5.86504 0.00270385 
-0.238179 -1.03049 5.89313 0.00147504 
-0.255637 -1.0259 5.92081 0.0036732 
-0.206691 -1.04351 5.7942 0.00289156 
-0.178067 -1.04239 5.77256 0.00499284 
-0.156589 -1.04302 5.74589 0.0161019 
-0.141293 -1.03993 5.75531 0.0195353 
-0.162019 -1.03942 5.78258 0.00491354 
-0.181803 -1.04028 5.80961 0.00364369 
-0.377318 -1.03573 5.86143 0.0058455 
-0.37735 -1.04103 5.82946 0.00242472 
-0.404093 -1.0367 5.85131 0.00587542 
-0.404299 -1.04177 5.81924 0.00249101 
-0.377422 -1.04553 5.79728 0.00119094 
-0.377132 -1.04996 5.76474 0.000957558 
-0.342655 -1.04882 5.77265 0.00105767 
-0.343064 -1.04363 5.80522 0.000496441 
-0.343417 -1.03857 5.83731 0.00114067 
-0.308198 -1.04859 5.78042 0.00207761 
-0.438337 -1.03841 5.8411 0.00852392 
-0.455397 -1.03822 5.83451 0.0081052 
-0.446236 -1.04318 5.80905 0.00528704 
-0.472536 -1.03837 5.82805 0.0076948 
-0.46341 -1.04315 5.80252 0.00490004 
-0.453972 -1.04699 5.77662 0.00311333 
-0.440458 -1.04924 5.74916 0.000931153 
-0.433017 -1.04607 5.78172 0.00137221 
-0.41947 -1.04887 5.7544 0.000738354 
-0.411926 -1.04563 5.78682 0.00084153 
-0.425222 -1.0422 5.81416 0.00287326 
-0.398439 -1.04914 5.75948 0.00062015 
-0.416369 -1.05693 5.67809 0.000614049 
-0.391972 -1.05728 5.6823 0.000747348 
-0.403363 -1.05458 5.70703 0.000851906 
-0.367262 -1.05847 5.68651 0.000642733 
-0.378839 -1.05481 5.71117 0.00097085 
-0.354141 -1.05585 5.71529 0.00088378 
-0.34246 -1.0604 5.69082 0.00165373 
-0.390373 -1.05209 5.73595 0.000822227 
-0.365816 -1.05237 5.73997 0.000820308 
-0.411483 -1.05145 5.7307 0.00075769 
-0.432406 -1.0513 5.72551 0.000656891 
-0.424422 -1.05383 5.70184 0.000665967 
-0.297334 -1.05975 5.69426 0.00202609 
-0.319229 -1.0569 5.72317 0.00276358 
-0.26947 -1.0586 5.69369 0.0032145 
-0.291707 -1.05497 5.72269 0.00151516 
-0.263773 -1.05346 5.722 0.0022533 
-0.241453 -1.05733 5.69287 0.00983131 
-0.313672 -1.05257 5.7518 0.00200121 
-0.286313 -1.05009 5.75114 0.00153584 
0.00885439 -0.998548 5.81451 0.0276394 
-0.00903247 -1.00413 5.8422 0.0134007 
-0.0390117 -1.0118 5.86248 0.00665192 
-0.0567483 -1.0165 5.88943 0.00640081 
-0.0857106 -1.02329 5.90834 0.0144813 
-0.0619005 -1.01892 5.92331 0.0145416 
-0.0805175 -1.02167 5.87455 0.00608545 
-0.109585 -1.02756 5.89327 0.0136408 
-0.0620745 -1.01795 5.84721 0.00730927 
-0.0437468 -1.01404 5.81937 0.0123249 
-0.0137428 -1.00601 5.79928 0.0309669 
-0.0365677 -1.01323 5.78378 0.030014 
-0.0791513 -1.01652 5.95074 0.00663571 
-0.10825 -1.01518 5.97098 0.00436297 
-0.124992 -1.01201 5.99732 0.00600294 
-0.149188 -1.01472 5.98359 0.00552337 
-0.132282 -1.0185 5.95652 0.00438452 
-0.115114 -1.02216 5.92879 0.00683994 
-0.195696 -1.01986 5.95626 0.00413209 
-0.178467 -1.02422 5.92864 0.00282428 
-0.149631 -1.02713 5.90768 0.00505268 
-0.131879 -1.03164 5.87899 0.0125011 
-0.15566 -1.02148 5.94241 0.00342942 
-0.172524 -1.01765 5.96931 0.0049689 
-0.125377 -1.03089 5.84532 0.00494685 
-0.106696 -1.02813 5.81801 0.00504702 
-0.0771502 -1.02278 5.79764 0.0122279 
-0.0572179 -1.02051 5.7693 0.0370532 
-0.0848008 -1.02327 5.83233 0.00618248 
-0.102915 -1.02672 5.85942 0.00587396 
0.0803556 -0.611816 5.57337 0.00294438 
0.078412 -0.641541 5.57279 0.00195504 
0.0851551 -0.670045 5.57957 0.004857 
0.0829162 -0.701814 5.57921 0.0128837 
0.0986841 -0.69735 5.59456 0.011737 
0.0691342 -0.674293 5.56429 0.00533705 
0.0669533 -0.706051 5.56417 0.0124656 
0.0619865 -0.645054 5.55644 0.00243805 
0.0547413 -0.616795 5.5488 0.00325067 
0.0995727 -0.726377 5.60597 0.00466847 
0.0924883 -0.759702 5.60973 0.00415066 
0.0929686 -0.79083 5.62109 0.0100208 
0.0853577 -0.825383 5.62574 0.0286957 
0.100852 -0.818629 5.63999 0.0252581 
0.077467 -0.797599 5.60682 0.0127737 
0.0690847 -0.831988 5.61226 0.0292977 
0.0770412 -0.765391 5.5948 0.00601424 
0.0765371 -0.734377 5.58305 0.00752135 
0.0425874 -0.810474 5.57824 0.0102982 
0.0495276 -0.775063 5.5704 0.00633289 
0.0490626 -0.742343 5.55799 0.00885228 
0.0540517 -0.709456 5.55197 0.0138698 
0.0411107 -0.71273 5.53997 0.0151504 
0.0619231 -0.738877 5.5697 0.00746327 
0.0626341 -0.770581 5.58169 0.00653877 
0.0629315 -0.802777 5.59399 0.0132233 
0.0553553 -0.838108 5.6012 0.0304332 
0.0339709 -0.681693 5.53055 0.00698258 
0.0332989 -0.650996 5.52837 0.00420974 
0.0247405 -0.62236 5.5203 0.00475682 
0.0391968 -0.619947 5.53419 0.00435297 
0.0468899 -0.648117 5.54169 0.00300189 
0.0539618 -0.677402 5.54945 0.00687815 
-0.0680499 -0.679018 5.42929 0.0520616 
-0.0566717 -0.703465 5.44255 0.0711817 
-0.0468424 -0.73044 5.45707 0.124921 
-0.0368463 -0.75656 5.47497 0.107973 
-0.0578902 -0.669769 5.44137 0.0215666 
-0.0464708 -0.695472 5.45499 0.0390061 
-0.0330224 -0.720334 5.47309 0.0492548 
-0.0215006 -0.746891 5.49173 0.0390896 
-0.0326961 -0.874642 5.54654 0.033979 
-0.0320532 -0.844117 5.52915 0.0747769 
-0.0325582 -0.814224 5.51159 0.0909083 
-0.0454578 -0.876575 5.53087 0.064447 
-0.0445976 -0.846207 5.5134 0.0803897 
-0.0340882 -0.784741 5.49325 0.102351 
-0.0223585 -0.777473 5.50554 0.063566 
-0.056501 -0.875902 5.51458 0.100587 
-0.0472488 -0.818645 5.49308 0.136318 
-0.0202506 -0.806232 5.52295 0.0414266 
-0.00978043 -0.768728 5.51517 0.0152777 
-0.0092225 -0.737853 5.50126 0.0152431 
-0.00749666 -0.800018 5.53266 0.0149541 
-0.0147166 -0.835723 5.54332 0.0208803 
-0.0190255 -0.869759 5.55666 0.0173599 
-0.0360298 -0.684619 5.46634 0.0118221 
-0.0477337 -0.658743 5.45329 0.0117243 
-0.0349558 -0.648101 5.46471 0.00686999 
-0.0237394 -0.675044 5.47703 0.00495937 
-0.0176852 -0.707065 5.4872 0.00793576 
-0.01782 -0.635933 5.47948 0.00679727 
-0.0112541 -0.665848 5.48719 0.00471211 
-0.00153453 -0.695424 5.49938 0.00588992 
0.00266278 -0.729355 5.50966 0.0102168 
0.0106893 -0.756815 5.52909 0.00679076 
0.00517521 -0.792186 5.54042 0.00547053 
0.00275565 -0.827066 5.55395 0.00620407 
-0.0502986 -0.906372 5.5595 0.0190837 
-0.071113 -0.934887 5.5643 0.0193767 
-0.0895783 -0.963625 5.57632 0.0135904 
-0.110582 -0.989446 5.57979 0.0158995 
-0.104017 -0.992687 5.59643 0.0201454 
-0.0957422 -0.960078 5.55984 0.0148917 
-0.117051 -0.985485 5.56309 0.0145989 
-0.08286 -0.933833 5.54472 0.0320545 
-0.0619009 -0.905791 5.54079 0.0464677 
-0.131783 -1.01431 5.6129 0.0126112 
-0.129859 -1.00947 5.59457 0.0189279 
-0.157861 -1.0292 5.61116 0.0109289 
-0.160148 -1.0328 5.6299 0.0149535 
-0.15596 -1.0248 5.59262 0.020613 
-0.185845 -1.0469 5.6277 0.0250359 
-0.183837 -1.04292 5.60905 0.0243662 
-0.18909 -1.04882 5.6469 0.018989 
-0.181424 -1.0393 5.59013 0.0243519 
-0.162381 -1.02175 5.57483 0.0140538 
-0.136697 -1.00605 5.57755 0.0144999 
-0.161287 -1.01295 5.55212 0.00853051 
-0.14069 -0.99713 5.54938 0.0103307 
-0.119716 -0.980044 5.54629 0.0163726 
-0.184107 -1.03379 5.56943 0.0154347 
-0.0856918 -0.92735 5.52866 0.0445804 
-0.102774 -0.954287 5.53766 0.0307596 
0.0473053 -0.868472 5.61868 0.019019 
0.0382925 -0.898408 5.63637 0.0172577 
0.0529052 -0.892132 5.64703 0.0162836 
0.0614639 -0.86232 5.62921 0.0178296 
0.035476 -0.924178 5.66032 0.0284962 
0.0319544 -0.948128 5.68497 0.0495012 
0.0138923 -0.955936 5.67303 0.0527413 
0.0176399 -0.932032 5.64853 0.0294397 
0.0785727 -0.854519 5.64323 0.0149451 
0.0714793 -0.883501 5.66136 0.0140138 
0.0876624 -0.876248 5.67499 0.0120714 
0.0945566 -0.847707 5.65713 0.012982 
0.0716008 -0.908108 5.68699 0.0236546 
0.0709454 -0.931086 5.71328 0.0457352 
0.0516784 -0.939782 5.69888 0.0475487 
0.0527198 -0.916805 5.67253 0.0255487 
0.0151439 -0.987509 5.78173 0.0179173 
0.0212809 -0.975593 5.74916 0.0138769 
-0.00753429 -0.995298 5.76659 0.0181684 
-0.00143422 -0.983957 5.73435 0.0125699 
0.0266559 -0.962627 5.71687 0.025376 
0.0468934 -0.954604 5.73094 0.0249654 
0.0412086 -0.96782 5.76338 0.0151653 
-0.0278358 -1.00256 5.7528 0.0168687 
-0.0195377 -0.991097 5.72192 0.01481 
-0.0489968 -1.01005 5.73868 0.0196853 
-0.0116101 -0.978052 5.69122 0.0270758 
0.00661254 -0.970703 5.70329 0.0235022 
0.373797 -0.154732 5.8073 0.01148 
0.392836 -0.153074 5.81818 0.0113994 
0.39663 -0.17848 5.8058 0.00747454 
0.411798 -0.151679 5.82913 0.0100397 
0.415735 -0.177016 5.81676 0.00630036 
0.434684 -0.175556 5.82787 0.00493891 
0.430769 -0.150178 5.84029 0.00910559 
0.418968 -0.203309 5.80517 0.0073565 
0.438159 -0.201607 5.81618 0.00580855 
0.440705 -0.228453 5.80543 0.00896862 
0.422608 -0.23023 5.79556 0.00941152 
0.400946 -0.205028 5.79521 0.00729648 
0.404366 -0.232104 5.78591 0.00966362 
0.382812 -0.207053 5.7855 0.00784471 
0.378678 -0.180391 5.79586 0.00752794 
0.360683 -0.182561 5.78608 0.0070892 
0.385946 -0.234265 5.77645 0.0087958 
0.364509 -0.209212 5.77603 0.0068687 
0.36744 -0.23656 5.7673 0.00719972 
0.355812 -0.156842 5.79739 0.0110377 
0.449668 -0.148409 5.84998 0.0094639 
0.469787 -0.146831 5.86064 0.00972049 
0.472425 -0.172001 5.84727 0.00611497 
0.489782 -0.145348 5.87133 0.00935822 
0.492357 -0.170635 5.8582 0.00522408 
0.494692 -0.19638 5.84555 0.00520073 
0.497713 -0.223298 5.83465 0.00739696 
0.475913 -0.198071 5.83569 0.00571099 
0.478876 -0.224846 5.82468 0.00947056 
0.457075 -0.199822 5.82583 0.00606738 
0.453595 -0.173716 5.8375 0.00545119 
0.459883 -0.226558 5.81489 0.0100013 
0.493883 -0.33798 5.8065 0.00443345 
0.494019 -0.311418 5.81229 0.002175 
0.476243 -0.312571 5.80372 0.00240038 
0.475784 -0.339444 5.79839 0.00440612 
0.476706 -0.284256 5.80916 0.00252719 
0.458133 -0.313976 5.79544 0.00215479 
0.458638 -0.28587 5.80092 0.00199304 
0.440421 -0.287598 5.79286 0.00143732 
0.457547 -0.341276 5.79037 0.00387002 
0.439875 -0.315834 5.78743 0.00153308 
0.439176 -0.343353 5.78254 0.00275561 
0.45897 -0.256582 5.8068 0.00481101 
0.440793 -0.258484 5.79867 0.00349812 
0.478326 -0.254784 5.8162 0.00514813 
0.497342 -0.253078 5.82589 0.00467645 
0.496174 -0.282147 5.81841 0.00270033 
0.422108 -0.344954 5.77381 0.00359606 
0.421427 -0.317734 5.77798 0.00175093 
0.404188 -0.319784 5.76946 0.001817 
0.404989 -0.346879 5.76518 0.00430125 
0.4036 -0.291353 5.77397 0.00162965 
0.387038 -0.321554 5.76082 0.00196527 
0.386248 -0.29359 5.7656 0.00108203 
0.369046 -0.295547 5.75703 0.000947374 
0.387623 -0.348939 5.75695 0.00425856 
0.36962 -0.323975 5.75273 0.00150311 
0.370484 -0.35091 5.74866 0.00397087 
0.385686 -0.264352 5.77027 0.00332776 
0.368338 -0.266738 5.76198 0.00195757 
0.404238 -0.262229 5.77953 0.00385347 
0.422658 -0.260115 5.78893 0.00409171 
0.422036 -0.289496 5.78331 0.00142267 
0.228487 -0.00649012 6.09386 0.000475154 
0.25097 -0.00615726 6.10581 0.000507328 
0.259548 -0.0134248 6.08973 0.00159817 
0.273364 -0.00610936 6.11772 0.000532248 
0.28189 -0.0132564 6.1017 0.0016126 
0.30422 -0.01344 6.11379 0.00186847 
0.295636 -0.00664243 6.12984 0.000729144 
0.290657 -0.0194517 6.08511 0.00270784 
0.312921 -0.0194801 6.09715 0.00295954 
0.322003 -0.0242716 6.07994 0.00302786 
0.300177 -0.0244683 6.0676 0.00249728 
0.268798 -0.019881 6.07291 0.00243891 
0.278305 -0.024932 6.0554 0.00247232 
0.246797 -0.0206602 6.06071 0.00275925 
0.237522 -0.0141446 6.0776 0.00175723 
0.215243 -0.0149362 6.06548 0.00203473 
0.256291 -0.0258647 6.04318 0.00274667 
0.224497 -0.0216248 6.04862 0.00323723 
0.234063 -0.0269421 6.031 0.00307506 
0.206226 -0.00721013 6.0817 0.000524569 
0.319144 -0.00665822 6.14258 0.000704442 
0.34297 -0.00729152 6.15568 0.000877232 
0.351177 -0.0137437 6.13928 0.00190766 
0.366717 -0.00836039 6.16866 0.00115802 
0.374969 -0.0146103 6.15233 0.0023879 
0.383502 -0.0197756 6.13539 0.00309363 
0.392638 -0.0237994 6.11803 0.00299955 
0.360022 -0.0193323 6.12263 0.00280192 
0.369143 -0.0236397 6.10535 0.00281302 
0.336506 -0.0191597 6.1099 0.00265958 
0.327649 -0.0134628 6.1265 0.00184007 
0.345586 -0.0237603 6.09263 0.00277048 
0.417776 -0.0344834 6.06123 0.000926351 
0.395172 -0.035272 6.04925 0.000852207 
0.385533 -0.0325652 6.06851 0.00230437 
