ply
format ascii 1.0
comment VCGLIB generated
element vertex 1002
property float x
property float y
property float z
property uchar red
property uchar green
property uchar blue
property float quality
end_header
0.424687 -0.843045 7.008430 237 4 0 0.664245
0.412796 -0.843010 6.996580 255 30 0 0.586306
0.388796 -0.789853 7.038810 237 4 0 0.673209
0.394748 -0.816429 7.011870 255 38 0 0.572648
0.376777 -0.789622 7.026900 255 34 0 0.575851
0.442742 -0.869206 6.992710 255 30 0 0.593812
0.430953 -0.869321 6.981170 255 34 0 0.575888
0.449057 -0.895206 6.965390 255 34 0 0.581889
0.463003 -0.895723 6.977470 255 38 0 0.569940
0.456802 -0.869746 7.004640 255 38 0 0.569240
0.477113 -0.896199 6.989530 255 45 0 0.549049
0.470843 -0.869989 7.015980 255 45 0 0.549245
0.450801 -0.843580 7.031450 255 19 0 0.618946
0.464890 -0.843863 7.042490 255 27 0 0.604629
0.491205 -0.896386 7.001090 255 49 0 0.543969
0.485095 -0.870362 7.027580 255 41 0 0.562640
0.505355 -0.896564 7.012630 255 30 0 0.592627
0.444771 -0.817159 7.057470 228 0 0 0.693509
0.363666 -0.784676 7.015330 251 16 0 0.631317
0.378890 -0.809946 7.000180 255 45 0 0.549240
0.365697 -0.805091 6.988210 255 30 0 0.589015
0.350430 -0.779733 7.003220 255 27 0 0.600387
0.381076 -0.830154 6.973000 255 53 0 0.531913
0.352380 -0.799970 6.975910 255 41 0 0.558407
0.367751 -0.825152 6.960670 255 41 0 0.557914
0.337246 -0.774603 6.990940 251 16 0 0.630769
0.383167 -0.850083 6.945280 255 67 0 0.493685
0.401197 -0.876373 6.929820 255 64 0 0.501876
0.399163 -0.856654 6.957590 255 56 0 0.519823
0.417219 -0.882893 6.941960 255 53 0 0.527304
0.414996 -0.863079 6.969430 255 45 0 0.548385
0.396866 -0.836673 6.984880 255 41 0 0.559510
0.433000 -0.889118 6.953730 255 45 0 0.555007
0.448710 -0.925142 6.875490 255 93 0 0.427675
0.467069 -0.932112 6.886960 255 90 0 0.440981
0.448704 -0.915367 6.905540 255 78 0 0.465622
0.485543 -0.939049 6.898520 255 82 0 0.456580
0.467236 -0.922363 6.916920 255 71 0 0.485720
0.485583 -0.929001 6.928280 255 60 0 0.507789
0.503945 -0.945618 6.909670 255 75 0 0.473784
0.448862 -0.905423 6.935660 255 56 0 0.519214
0.467382 -0.912231 6.946870 255 49 0 0.544782
0.433014 -0.899255 6.923800 255 67 0 0.496009
0.417055 -0.892875 6.911720 255 75 0 0.474167
0.432893 -0.909097 6.893520 255 86 0 0.448230
0.517887 -0.945927 6.921850 255 78 0 0.465247
0.541030 -0.947330 6.933040 255 75 0 0.473032
0.513670 -0.929710 6.952480 255 67 0 0.490344
0.564162 -0.948685 6.944010 255 75 0 0.475173
0.536980 -0.931005 6.963390 255 56 0 0.516480
0.560380 -0.932893 6.974590 255 45 0 0.550720
0.587546 -0.951230 6.955910 255 67 0 0.492460
0.509429 -0.913164 6.982660 255 53 0 0.530413
0.532976 -0.914825 6.993580 255 34 0 0.585231
0.495362 -0.912998 6.970900 255 56 0 0.522625
0.481364 -0.912816 6.959070 255 49 0 0.536789
0.499698 -0.929466 6.940460 255 64 0 0.500839
0.323862 -0.739702 7.000920 255 30 0 0.586234
0.337131 -0.744862 7.013390 242 8 0 0.658660
0.323861 -0.709865 7.023240 242 8 0 0.660780
0.350415 -0.749955 7.025550 251 16 0 0.630569
0.337136 -0.715110 7.035430 219 0 0 0.710842
0.350298 -0.720281 7.047200 233 1 0 0.682139
0.363619 -0.754966 7.037370 228 0 0 0.689701
0.323743 -0.680075 7.045120 223 0 0 0.707396
0.337081 -0.685166 7.057100 187 0 0 0.802001
0.323713 -0.650131 7.066620 201 0 0 0.766463
0.311704 -0.646662 7.055640 205 0 0 0.749650
0.311753 -0.676404 7.033880 219 0 0 0.711438
0.299633 -0.643010 7.044330 223 0 0 0.708332
0.299516 -0.672661 7.022330 255 23 0 0.607719
0.311784 -0.706242 7.011740 251 16 0 0.629236
0.287345 -0.639286 7.032750 242 8 0 0.658995
0.386359 -0.755422 7.059240 201 0 0 0.770625
0.372003 -0.720458 7.067920 192 0 0 0.785752
0.398182 -0.755591 7.070330 201 0 0 0.768159
0.383913 -0.720869 7.079020 169 0 0 0.865097
0.395881 -0.721341 7.089820 169 0 0 0.857295
0.410126 -0.755808 7.080950 164 0 0 0.873436
0.369797 -0.686115 7.087690 155 0 0 0.899994
0.381743 -0.686712 7.098530 128 0 0 0.989303
0.367763 -0.651908 7.107150 128 0 0 1.000000
0.345576 -0.651034 7.087220 160 0 0 0.886403
0.335900 -0.536577 7.105750 155 0 0 0.905271
0.331119 -0.573951 7.092770 142 0 0 0.939269
0.313711 -0.534881 7.087050 133 0 0 0.971707
0.309425 -0.572831 7.074500 173 0 0 0.842276
0.327169 -0.612152 7.079970 164 0 0 0.869965
0.349455 -0.613119 7.100400 133 0 0 0.969450
0.353933 -0.575526 7.113430 173 0 0 0.847921
0.290566 -0.530608 7.066600 155 0 0 0.895165
0.285105 -0.565498 7.052180 183 0 0 0.813043
0.292222 -0.604284 7.048480 183 0 0 0.815196
0.304371 -0.607961 7.059760 196 0 0 0.781116
0.297271 -0.569264 7.063550 169 0 0 0.863374
0.430507 -0.749231 7.100740 219 0 0 0.714559
0.445107 -0.781766 7.093470 242 8 0 0.657746
0.416105 -0.716663 7.108130 146 0 0 0.924796
0.436921 -0.709031 7.129960 205 0 0 0.752666
0.451227 -0.741475 7.122650 219 0 0 0.713474
0.465711 -0.773857 7.115540 246 12 0 0.645678
0.412264 -0.680125 7.126090 155 0 0 0.901783
0.408661 -0.643634 7.143920 178 0 0 0.835069
0.388125 -0.647796 7.125470 151 0 0 0.918312
0.471325 -0.732115 7.140830 237 4 0 0.670711
0.485358 -0.762318 7.135190 233 1 0 0.681552
0.457495 -0.701885 7.146770 242 8 0 0.653088
0.477188 -0.690649 7.166030 255 41 0 0.560864
0.491044 -0.720815 7.160460 242 8 0 0.654187
0.504961 -0.751018 7.154970 237 4 0 0.668237
0.453685 -0.665959 7.161990 255 27 0 0.601400
0.450013 -0.630088 7.177210 255 30 0 0.596592
0.429282 -0.636769 7.160310 237 4 0 0.671248
0.433015 -0.672892 7.145220 214 0 0 0.728492
0.419658 -0.532729 7.172980 255 19 0 0.624138
0.415727 -0.569485 7.163100 255 27 0 0.603996
0.398817 -0.534566 7.157890 255 30 0 0.595864
0.394915 -0.571601 7.148240 233 1 0 0.677405
0.412194 -0.606414 7.153710 223 0 0 0.704839
0.432858 -0.599866 7.170180 255 19 0 0.624106
0.436493 -0.563203 7.180010 255 19 0 0.619377
0.378004 -0.537237 7.141090 255 19 0 0.625247
0.374347 -0.575187 7.129790 219 0 0 0.713423
0.357558 -0.537437 7.124510 210 0 0 0.746597
0.370819 -0.613480 7.118510 169 0 0 0.858113
0.391408 -0.609508 7.136850 187 0 0 0.802551
0.513422 -0.711846 7.176060 255 38 0 0.566395
0.526592 -0.740542 7.171170 255 23 0 0.612644
0.500423 -0.683184 7.181190 255 27 0 0.602970
0.522061 -0.673069 7.197300 255 56 0 0.522343
0.535141 -0.701737 7.192540 255 38 0 0.567303
0.548215 -0.730476 7.187820 255 30 0 0.593003
0.498301 -0.649446 7.194190 255 38 0 0.572272
0.496372 -0.615810 7.207140 255 27 0 0.602225
0.473228 -0.622863 7.192000 255 49 0 0.538046
0.475138 -0.656714 7.179070 255 41 0 0.565054
0.557835 -0.693385 7.206160 255 38 0 0.575366
0.569949 -0.720992 7.201140 255 71 0 0.483416
0.545663 -0.665831 7.211070 255 38 0 0.568528
0.567500 -0.656591 7.224400 255 67 0 0.491696
0.579456 -0.684136 7.219520 255 38 0 0.566574
0.591558 -0.711803 7.214770 255 53 0 0.526882
0.544552 -0.633671 7.222640 255 49 0 0.536865
0.543734 -0.601649 7.234510 255 49 0 0.544333
0.520163 -0.608623 7.220790 255 56 0 0.522865
0.521024 -0.640812 7.209000 255 41 0 0.557611
0.513517 -0.514975 7.231760 255 64 0 0.504463
0.507720 -0.548482 7.223540 255 34 0 0.576514
0.489321 -0.519169 7.218020 255 41 0 0.559008
0.483527 -0.552800 7.209720 255 34 0 0.578719
0.501905 -0.582113 7.215240 255 41 0 0.563853
0.525674 -0.575094 7.228910 255 56 0 0.523368
0.531498 -0.541550 7.237210 255 64 0 0.498244
0.465548 -0.524626 7.203450 255 34 0 0.575889
0.460240 -0.559636 7.194690 255 23 0 0.614885
0.441898 -0.527961 7.188750 255 23 0 0.614646
0.455022 -0.594821 7.185910 255 30 0 0.596446
0.478223 -0.587774 7.200750 255 34 0 0.581535
0.600573 -0.676471 7.231240 255 86 0 0.448446
0.612100 -0.703255 7.226230 255 64 0 0.503187
0.589291 -0.649838 7.236470 255 67 0 0.489238
0.609787 -0.641326 7.247700 255 130 0 0.352038
0.621044 -0.667953 7.242640 255 119 0 0.375430
0.632595 -0.694611 7.237810 255 108 0 0.399592
0.588298 -0.619008 7.247270 255 93 0 0.430907
0.587382 -0.588242 7.258100 255 134 0 0.350008
0.565497 -0.594959 7.246120 255 101 0 0.418658
0.566422 -0.625744 7.235250 255 71 0 0.485278
0.641085 -0.660927 7.254190 255 186 0 0.260624
0.651711 -0.686963 7.248790 255 141 0 0.335765
0.630216 -0.635052 7.259610 255 175 0 0.278358
0.629273 -0.605350 7.270600 255 201 0 0.235661
0.618221 -0.578822 7.275680 255 201 0 0.237980
0.608737 -0.611578 7.258700 255 160 0 0.298921
0.596432 -0.526341 7.273770 255 212 0 0.220140
0.580284 -0.499812 7.269340 255 186 0 0.259159
0.575580 -0.530681 7.261390 255 141 0 0.331718
0.591766 -0.557274 7.265840 255 164 0 0.292120
0.558908 -0.505141 7.257400 255 119 0 0.375943
0.553587 -0.537215 7.249520 255 93 0 0.427535
0.536379 -0.509457 7.244580 255 82 0 0.457898
0.548672 -0.569389 7.242040 255 78 0 0.461552
0.570460 -0.562735 7.253680 255 127 0 0.359151
0.137439 -0.472202 6.934800 255 60 0 0.515972
0.121627 -0.438147 6.929380 255 56 0 0.519591
0.127911 -0.497735 6.918690 255 64 0 0.503293
0.112057 -0.463644 6.913510 255 60 0 0.507796
0.102455 -0.489120 6.897580 255 64 0 0.498174
0.096478 -0.429623 6.908000 255 60 0 0.512850
0.118427 -0.523294 6.902740 255 67 0 0.495718
0.108877 -0.549097 6.886840 255 67 0 0.493031
0.122583 -0.555208 6.897200 255 67 0 0.497139
0.131927 -0.529386 6.913240 255 64 0 0.502239
0.136256 -0.561174 6.907730 255 64 0 0.504760
0.145708 -0.535488 6.923810 255 60 0 0.512136
0.141515 -0.503607 6.929380 255 60 0 0.512340
0.149992 -0.567196 6.918200 255 60 0 0.512684
0.086054 -0.455317 6.893250 255 64 0 0.504675
0.071370 -0.423294 6.887920 255 60 0 0.510820
0.075739 -0.481138 6.878530 255 64 0 0.498330
0.061067 -0.448991 6.873130 255 64 0 0.504993
0.050720 -0.474723 6.858740 255 64 0 0.501026
0.046308 -0.417233 6.867800 255 64 0 0.502612
0.065549 -0.506856 6.863840 255 67 0 0.496486
0.055462 -0.532969 6.849270 255 64 0 0.497809
0.082129 -0.541032 6.868000 255 67 0 0.493719
0.092245 -0.514921 6.882880 255 67 0 0.493648
0.089871 -0.618235 6.825840 255 86 0 0.452672
0.104349 -0.622570 6.834870 255 82 0 0.453240
0.096151 -0.594935 6.846230 255 75 0 0.478452
0.118890 -0.627021 6.843940 255 82 0 0.454645
0.110665 -0.599242 6.855420 255 71 0 0.481024
0.125211 -0.603774 6.864570 255 71 0 0.483864
0.133531 -0.631281 6.853080 255 75 0 0.477712
0.102484 -0.571875 6.866590 255 71 0 0.486262
0.117006 -0.576286 6.875810 255 67 0 0.488623
0.075679 -0.563847 6.847900 255 71 0 0.485972
0.069412 -0.586859 6.827770 255 75 0 0.477301
0.147367 -0.637264 6.863410 255 71 0 0.479924
0.162441 -0.644378 6.873880 255 71 0 0.480405
0.152810 -0.615664 6.885210 255 67 0 0.491709
0.177649 -0.651462 6.884470 255 71 0 0.481935
0.167954 -0.622772 6.895840 255 67 0 0.494118
0.158353 -0.594301 6.907020 255 64 0 0.505778
0.144402 -0.588326 6.896540 255 64 0 0.500205
0.130634 -0.582295 6.886130 255 67 0 0.494302
0.138965 -0.609708 6.874860 255 71 0 0.488060
0.182789 -0.230835 6.906520 255 34 0 0.577861
0.158993 -0.256928 6.904380 255 49 0 0.540981
0.156357 -0.229227 6.884290 255 38 0 0.574395
0.132761 -0.255347 6.881930 255 53 0 0.527405
0.135554 -0.283252 6.901810 255 60 0 0.512317
0.112537 -0.309900 6.898690 255 60 0 0.512431
0.137429 -0.314664 6.920740 255 53 0 0.531483
0.160635 -0.288009 6.923610 255 53 0 0.534717
0.130314 -0.226592 6.862760 255 45 0 0.548823
0.107161 -0.251844 6.860980 255 56 0 0.522142
0.103266 -0.225501 6.841110 255 45 0 0.550982
0.080240 -0.250848 6.839190 255 56 0 0.517652
0.084388 -0.277256 6.858800 255 67 0 0.491000
0.062175 -0.303228 6.856080 255 67 0 0.497066
0.087380 -0.306441 6.877400 255 67 0 0.489877
0.109803 -0.280726 6.879890 255 60 0 0.513440
0.062764 -0.390290 6.875440 255 64 0 0.504323
0.079168 -0.363352 6.883280 255 60 0 0.516179
0.087916 -0.396372 6.895670 255 60 0 0.512737
0.104236 -0.369476 6.903640 255 56 0 0.516713
0.095708 -0.336561 6.891130 255 60 0 0.509115
0.070834 -0.333246 6.869610 255 64 0 0.497856
0.054287 -0.360041 6.861930 255 56 0 0.518912
0.112686 -0.401931 6.916930 255 56 0 0.517746
0.128908 -0.374331 6.925920 255 53 0 0.526344
0.137880 -0.410380 6.938420 255 53 0 0.527674
0.145612 -0.346739 6.934460 255 45 0 0.547080
0.120689 -0.342003 6.912350 255 56 0 0.523079
0.035202 -0.443548 6.854740 255 64 0 0.497927
0.020632 -0.413552 6.849250 255 71 0 0.480847
0.024162 -0.470123 6.841800 255 78 0 0.465070
0.009549 -0.440029 6.836460 255 97 0 0.426230
-0.001459 -0.466579 6.823780 255 86 0 0.446335
-0.004953 -0.410082 6.830930 255 104 0 0.406345
0.013179 -0.496768 6.828890 255 67 0 0.490472
0.002442 -0.523746 6.816100 255 67 0 0.494291
0.028946 -0.528282 6.832490 255 64 0 0.499636
0.039659 -0.501377 6.845560 255 64 0 0.497547
-0.016361 -0.437124 6.820020 255 101 0 0.414667
-0.030872 -0.408323 6.814730 255 93 0 0.430499
-0.027660 -0.464414 6.809200 255 93 0 0.434215
-0.042279 -0.435286 6.804000 255 97 0 0.427455
-0.053687 -0.462707 6.793440 255 82 0 0.455804
-0.057425 -0.406652 6.798760 255 75 0 0.470482
-0.038869 -0.491804 6.798380 255 78 0 0.462628
-0.050064 -0.519552 6.787580 255 75 0 0.472886
-0.023647 -0.521619 6.801740 255 71 0 0.480079
-0.012686 -0.494025 6.812660 255 75 0 0.472580
-0.025592 -0.628281 6.749700 255 67 0 0.495965
-0.018776 -0.601938 6.766550 255 71 0 0.482574
0.001302 -0.630035 6.762510 255 71 0 0.486239
-0.011770 -0.575676 6.783120 255 75 0 0.474166
0.008122 -0.603813 6.779430 255 75 0 0.476995
0.015143 -0.577402 6.796230 255 75 0 0.475577
0.028298 -0.631841 6.775530 255 75 0 0.477702
-0.004672 -0.549597 6.799630 255 71 0 0.482657
-0.030887 -0.547530 6.785530 255 75 0 0.474938
-0.038009 -0.573658 6.769040 255 75 0 0.476706
0.034922 -0.607038 6.793990 255 75 0 0.474303
0.055943 -0.636746 6.790500 255 75 0 0.472288
0.041529 -0.582106 6.812330 255 75 0 0.476596
0.062618 -0.611785 6.809040 255 86 0 0.452383
0.048426 -0.557410 6.830800 255 67 0 0.488373
0.022039 -0.552739 6.814290 255 71 0 0.488066
-0.833468 -0.792125 6.388520 255 90 0 0.443379
-0.852939 -0.794161 6.372120 255 93 0 0.433088
-0.839140 -0.804761 6.357280 255 149 0 0.320148
-0.858817 -0.807207 6.341060 255 119 0 0.378538
-0.872613 -0.796580 6.355900 255 119 0 0.379090
-0.844963 -0.817733 6.326190 255 141 0 0.335003
-0.878523 -0.809954 6.324980 255 123 0 0.371018
-0.864639 -0.820422 6.310140 255 101 0 0.415343
-0.884478 -0.823475 6.294200 255 104 0 0.410278
-0.892318 -0.799247 6.339790 255 134 0 0.345055
-0.898326 -0.812896 6.309040 255 127 0 0.361714
-0.912103 -0.802205 6.323750 255 149 0 0.318294
-0.850713 -0.830905 6.295250 255 116 0 0.380260
-0.870493 -0.833884 6.279290 255 82 0 0.457728
-0.856461 -0.844143 6.264370 255 86 0 0.451878
-0.836754 -0.842888 6.279400 255 78 0 0.466224
-0.831059 -0.829871 6.310380 255 97 0 0.422816
-0.817098 -0.841811 6.294490 255 97 0 0.422051
-0.811466 -0.829053 6.325560 255 119 0 0.375425
-0.825362 -0.816947 6.341440 255 116 0 0.380152
-0.805871 -0.816439 6.356770 255 108 0 0.402802
-0.797575 -0.840995 6.309660 255 119 0 0.379032
-0.792009 -0.828499 6.340870 255 108 0 0.398726
-0.778101 -0.840432 6.324900 255 104 0 0.408842
-0.819712 -0.804294 6.372670 255 90 0 0.435835
-0.933495 -0.799280 6.307340 255 134 0 0.346987
-0.919919 -0.809888 6.292450 255 127 0 0.364114
-0.941555 -0.807372 6.276190 255 108 0 0.395479
-0.955080 -0.796794 6.290950 255 104 0 0.404757
-0.927924 -0.817898 6.261330 255 101 0 0.413582
-0.963319 -0.805184 6.259950 255 90 0 0.443327
-0.949714 -0.815749 6.245170 255 90 0 0.443101
-0.971477 -0.813528 6.228940 255 75 0 0.473606
-0.976775 -0.794436 6.274620 255 78 0 0.463368
-0.985156 -0.803027 6.243670 255 75 0 0.478171
-0.998614 -0.792342 6.258370 255 60 0 0.513130
-0.935886 -0.825936 6.230170 255 82 0 0.457105
-0.957728 -0.823924 6.213970 255 75 0 0.476867
-0.943811 -0.834016 6.198860 255 71 0 0.481697
-0.921737 -0.836251 6.215190 255 71 0 0.479943
-0.913916 -0.828359 6.246510 255 82 0 0.457419
-0.899808 -0.838632 6.231550 255 75 0 0.479183
-0.892117 -0.830983 6.262870 255 82 0 0.455800
-0.906126 -0.820531 6.277720 255 104 0 0.410763
-0.878062 -0.841263 6.247900 255 71 0 0.479816
-0.878096 -0.870273 6.129980 255 56 0 0.522524
-0.856553 -0.872623 6.145630 255 56 0 0.521859
-0.872994 -0.864361 6.163810 255 71 0 0.479362
-0.851512 -0.866989 6.179500 255 60 0 0.508711
-0.835258 -0.875532 6.161320 255 56 0 0.521482
-0.867658 -0.858054 6.197470 255 78 0 0.467023
-0.830115 -0.869786 6.195210 255 60 0 0.508654
-0.846187 -0.860774 6.213200 255 67 0 0.496744
-0.824835 -0.863644 6.228930 255 64 0 0.497616
-0.813902 -0.878339 6.177020 255 56 0 0.521708
-0.808825 -0.872739 6.210900 255 60 0 0.509447
-0.792725 -0.881422 6.192780 255 56 0 0.522565
-0.862117 -0.851219 6.231060 255 82 0 0.457361
-0.840711 -0.854060 6.246740 255 71 0 0.488184
-0.883838 -0.848601 6.214650 255 71 0 0.486606
-0.905724 -0.846137 6.198300 255 71 0 0.487411
-0.889425 -0.855459 6.181130 255 64 0 0.497535
-0.911227 -0.853025 6.164750 255 64 0 0.498907
-0.927687 -0.843858 6.181930 255 67 0 0.488999
-0.894727 -0.861826 6.147440 255 60 0 0.510457
-0.773531 -0.881919 6.206190 255 67 0 0.490484
-0.789321 -0.871642 6.226000 255 71 0 0.483956
-0.770052 -0.872220 6.239450 255 93 0 0.431343
-0.754375 -0.882455 6.219690 255 67 0 0.489899
-0.785645 -0.861378 6.259020 255 93 0 0.430624
-0.750896 -0.872959 6.253010 255 90 0 0.443328
-0.766448 -0.862162 6.272560 255 119 0 0.379138
-0.747387 -0.863250 6.286170 255 93 0 0.428909
-0.735376 -0.883332 6.233300 255 82 0 0.454947
-0.731889 -0.874083 6.266660 255 93 0 0.430667
-0.716360 -0.884404 6.246890 255 67 0 0.494095
-0.781872 -0.850945 6.291980 255 119 0 0.379307
-0.762746 -0.851954 6.305570 255 127 0 0.359802
-0.801408 -0.851786 6.276850 255 97 0 0.422263
-0.821043 -0.852869 6.261790 255 78 0 0.462972
-0.805184 -0.862465 6.243940 255 75 0 0.472602
-0.612554 -0.875073 6.320270 255 27 0 0.599628
-0.609005 -0.886725 6.287710 255 34 0 0.576288
-0.635455 -0.877895 6.304580 246 12 0 0.642568
-0.605424 -0.898150 6.255010 255 53 0 0.529247
-0.631895 -0.889815 6.272110 255 30 0 0.592516
-0.628294 -0.901268 6.239470 255 45 0 0.545672
-0.658412 -0.881096 6.289000 255 34 0 0.578498
-0.601757 -0.909247 6.222120 255 49 0 0.536637
-0.598059 -0.920633 6.189280 255 27 0 0.604647
-0.576916 -0.919924 6.202110 255 30 0 0.587639
-0.580553 -0.908686 6.235020 255 45 0 0.552112
-0.584222 -0.897687 6.268000 255 53 0 0.527434
-0.555756 -0.919229 6.214940 255 53 0 0.529641
-0.672858 -0.881648 6.278380 255 93 0 0.430628
-0.657013 -0.890824 6.255530 255 60 0 0.512642
-0.671451 -0.891584 6.244980 255 104 0 0.406182
-0.687336 -0.882527 6.267860 255 86 0 0.450051
-0.655532 -0.900349 6.221850 255 38 0 0.575441
-0.685910 -0.892392 6.234470 255 104 0 0.408637
-0.669966 -0.901027 6.211350 255 82 0 0.454457
-0.684387 -0.901953 6.200910 255 71 0 0.487520
-0.701815 -0.883380 6.257330 255 119 0 0.374891
-0.700406 -0.893391 6.224020 255 78 0 0.463068
-0.654012 -0.909518 6.188030 255 34 0 0.580319
-0.668405 -0.910474 6.177620 255 64 0 0.500918
-0.652425 -0.918932 6.154190 255 19 0 0.622179
-0.625184 -0.919728 6.171710 255 19 0 0.623177
-0.626764 -0.910260 6.205580 255 30 0 0.586628
-0.592683 -0.955571 6.052770 255 93 0 0.429942
-0.593785 -0.945537 6.086520 255 60 0 0.511716
-0.565558 -0.956564 6.068250 255 45 0 0.548992
-0.595090 -0.936546 6.120600 255 49 0 0.544616
-0.566758 -0.946855 6.102140 255 41 0 0.563016
-0.568115 -0.938101 6.136340 255 27 0 0.603063
-0.538572 -0.957984 6.083830 255 34 0 0.586045
-0.596549 -0.928265 6.154900 255 38 0 0.571998
-0.623702 -0.927558 6.137420 255 30 0 0.589962
-0.622279 -0.936115 6.103260 255 53 0 0.534178
-0.542656 -0.947094 6.116340 255 38 0 0.571934
-0.517690 -0.957478 6.095340 255 38 0 0.570889
-0.546914 -0.937013 6.149080 255 41 0 0.558331
-0.521779 -0.946679 6.127920 255 60 0 0.509773
-0.526148 -0.936866 6.160700 255 49 0 0.543749
-0.496835 -0.957068 6.106860 255 45 0 0.553373
-0.551323 -0.927817 6.181960 255 53 0 0.532181
-0.572451 -0.928647 6.169180 255 34 0 0.584717
-0.752007 -0.935835 5.957460 255 78 0 0.469774
-0.730570 -0.938573 5.970290 255 75 0 0.479205
-0.745087 -0.928251 5.994360 255 67 0 0.492294
-0.723803 -0.931465 6.007250 255 64 0 0.500475
-0.709271 -0.941684 5.983170 255 67 0 0.489547
-0.738665 -0.921881 6.031310 255 53 0 0.529659
-0.702662 -0.934733 6.020050 255 60 0 0.508931
-0.717491 -0.925315 6.044200 255 53 0 0.535134
-0.696408 -0.928971 6.057100 255 49 0 0.541862
-0.688112 -0.944943 5.996000 255 64 0 0.499519
-0.681583 -0.938355 6.032940 255 56 0 0.518374
-0.666990 -0.948363 6.008890 255 60 0 0.508678
-0.732526 -0.916665 6.068450 255 41 0 0.561029
-0.711449 -0.920298 6.081360 255 38 0 0.565598
-0.726636 -0.912135 6.105660 255 38 0 0.575414
-0.747438 -0.908813 6.091280 255 38 0 0.573431
-0.753356 -0.913519 6.054120 255 41 0 0.559794
-0.768287 -0.905550 6.076860 255 38 0 0.570989
-0.774292 -0.910516 6.039770 255 41 0 0.556533
-0.759593 -0.919041 6.017010 255 53 0 0.525895
-0.780663 -0.916392 6.002700 255 56 0 0.523540
-0.789249 -0.902466 6.062500 255 38 0 0.568451
-0.795379 -0.907721 6.025420 255 45 0 0.554408
-0.810414 -0.899786 6.048190 255 38 0 0.565826
-0.766172 -0.925749 5.980090 255 67 0 0.491821
-0.648403 -0.949987 6.019840 255 71 0 0.484084
-0.663071 -0.939616 6.044880 255 53 0 0.527293
-0.644477 -0.941379 6.055830 255 86 0 0.444377
-0.629779 -0.951702 6.030790 255 86 0 0.447232
-0.659361 -0.931928 6.081130 255 45 0 0.548577
-0.625913 -0.943419 6.066880 255 90 0 0.443237
-0.640769 -0.933967 6.092180 255 75 0 0.473874
-0.611182 -0.953541 6.041770 255 112 0 0.390073
-0.655884 -0.925075 6.117560 255 23 0 0.610179
-0.670961 -0.917026 6.142010 255 53 0 0.533682
-0.674353 -0.923332 6.105480 255 53 0 0.526840
-0.689494 -0.915285 6.129870 255 64 0 0.501210
-0.692917 -0.921794 6.093370 255 49 0 0.537017
-0.677895 -0.930318 6.069070 255 56 0 0.518790
-0.708121 -0.913600 6.117690 255 49 0 0.543221
-0.719057 -0.891600 6.211760 255 64 0 0.506744
-0.737989 -0.890342 6.198120 255 64 0 0.501023
-0.721654 -0.898236 6.176440 255 45 0 0.545979
-0.757048 -0.889624 6.184590 255 53 0 0.533364
-0.740632 -0.897350 6.162870 255 45 0 0.548052
-0.759632 -0.896890 6.149490 255 45 0 0.549357
-0.776150 -0.889097 6.171180 255 53 0 0.535158
-0.724189 -0.905013 6.140980 255 41 0 0.561774
-0.743089 -0.904415 6.127600 255 41 0 0.563223
-0.705536 -0.906696 6.153160 255 60 0 0.513761
-0.686971 -0.908463 6.165390 255 71 0 0.486024
-0.703022 -0.899884 6.188660 255 64 0 0.503162
-0.797297 -0.885985 6.156710 255 53 0 0.534471
-0.818444 -0.883012 6.140970 255 64 0 0.499100
-0.801615 -0.890184 6.120540 255 45 0 0.547007
-0.839680 -0.880144 6.125320 255 64 0 0.498742
-0.822720 -0.887223 6.104820 255 71 0 0.485025
-0.844073 -0.884869 6.089210 255 82 0 0.456360
-0.861145 -0.877772 6.109670 255 64 0 0.498517
-0.805904 -0.894699 6.084340 255 41 0 0.557907
-0.827117 -0.891997 6.068670 255 75 0 0.476176
-0.784884 -0.897753 6.098720 255 41 0 0.559628
-0.763971 -0.901049 6.113130 255 41 0 0.561455
-0.780625 -0.893576 6.134980 255 45 0 0.548065
-0.641764 -0.277593 6.896260 255 193 0 0.248171
-0.644798 -0.285865 6.879990 255 164 0 0.292308
-0.643913 -0.265629 6.873960 255 208 0 0.227092
-0.646755 -0.273973 6.857750 255 134 0 0.347535
-0.647334 -0.294164 6.863620 255 90 0 0.437424
-0.646200 -0.253347 6.851820 255 204 0 0.233521
-0.649404 -0.281933 6.841540 255 130 0 0.351754
-0.648721 -0.261547 6.835750 255 182 0 0.263345
-0.651594 -0.269589 6.819430 255 167 0 0.290295
-0.650089 -0.302329 6.847490 255 82 0 0.460333
-0.652435 -0.290163 6.825320 255 97 0 0.420005
-0.653250 -0.310771 6.831620 255 119 0 0.374636
-0.648232 -0.240800 6.829810 255 227 0 0.202741
-0.651291 -0.248680 6.813290 255 201 0 0.233917
-0.651054 -0.227673 6.807940 255 230 0 0.195530
-0.648104 -0.221087 6.824920 255 223 0 0.204517
-0.645722 -0.234154 6.846730 255 219 0 0.211789
-0.645202 -0.214666 6.842050 255 230 0 0.194747
-0.642777 -0.227731 6.864000 255 238 0 0.189206
-0.643345 -0.246821 6.868870 255 208 0 0.225483
-0.640529 -0.240212 6.885940 255 197 0 0.242566
-0.642550 -0.208618 6.859240 245 249 3 0.176725
-0.640000 -0.221018 6.881060 255 208 0 0.228328
-0.641200 -0.258945 6.891040 255 178 0 0.269059
-0.656607 -0.317765 6.816300 255 112 0 0.393216
-0.655976 -0.296375 6.809480 255 138 0 0.343319
-0.659586 -0.303522 6.793960 255 138 0 0.338226
-0.660242 -0.325046 6.801210 255 127 0 0.361410
-0.659178 -0.282153 6.787400 255 153 0 0.311187
-0.663215 -0.310708 6.778960 255 119 0 0.376727
-0.662830 -0.289034 6.772040 255 127 0 0.360214
-0.666578 -0.296098 6.756780 255 116 0 0.387417
-0.663890 -0.332450 6.785890 255 82 0 0.459934
-0.667053 -0.317951 6.763710 255 60 0 0.507782
-0.667629 -0.339795 6.770750 255 41 0 0.560850
-0.662483 -0.267061 6.765320 255 134 0 0.344831
-0.666295 -0.273976 6.749860 255 116 0 0.380288
-0.666449 -0.251998 6.743470 255 116 0 0.387272
-0.662430 -0.246108 6.759580 255 160 0 0.301825
-0.658656 -0.261138 6.781350 255 164 0 0.295684
-0.658498 -0.240077 6.775720 255 190 0 0.253092
-0.654816 -0.255107 6.797480 255 186 0 0.256353
-0.655374 -0.275542 6.803050 255 141 0 0.334965
-0.654810 -0.234048 6.791750 255 216 0 0.218151
-0.693334 -0.162960 6.718280 255 175 0 0.273279
-0.687893 -0.157746 6.735560 255 153 0 0.314454
-0.681539 -0.178811 6.740140 255 134 0 0.344289
-0.676453 -0.174136 6.757300 255 130 0 0.354409
-0.682583 -0.152652 6.752840 255 175 0 0.277464
-0.670623 -0.195461 6.762290 255 141 0 0.335988
-0.671470 -0.168959 6.774630 255 175 0 0.273812
-0.665860 -0.190244 6.779570 255 178 0 0.270730
-0.661219 -0.185146 6.796930 255 190 0 0.252872
-0.677568 -0.147452 6.770230 255 175 0 0.273096
-0.666784 -0.163844 6.792040 255 182 0 0.261229
-0.672561 -0.142426 6.787430 255 175 0 0.278488
-0.660605 -0.211959 6.785050 255 197 0 0.243279
-0.656139 -0.206534 6.802260 255 208 0 0.223689
-0.664388 -0.217641 6.768810 255 167 0 0.288212
-0.668193 -0.223833 6.752700 255 130 0 0.357174
-0.674732 -0.200877 6.746220 255 101 0 0.411601
-0.678925 -0.207014 6.729940 255 123 0 0.372456
-0.672331 -0.229924 6.736450 255 71 0 0.480240
-0.685889 -0.184784 6.723730 255 127 0 0.359252
-0.668804 -0.137259 6.805180 251 241 0 0.182277
-0.663463 -0.157297 6.809170 255 219 0 0.212867
-0.659951 -0.152634 6.826980 255 234 0 0.193832
-0.665027 -0.132293 6.823170 255 219 0 0.209902
-0.655116 -0.172646 6.831390 255 227 0 0.203290
-0.651707 -0.167666 6.849210 229 255 19 0.153665
-0.647264 -0.187378 6.853690 255 230 0 0.198439
-0.650041 -0.193745 6.836520 251 241 0 0.183091
-0.652932 -0.200187 6.819470 255 234 0 0.194050
-0.658068 -0.178806 6.814110 255 227 0 0.202913
-0.699200 -0.365299 6.925390 255 123 0 0.367985
-0.694765 -0.355661 6.941570 255 164 0 0.292265
-0.700669 -0.351631 6.959350 255 234 0 0.193704
-0.722496 -0.362236 6.962260 255 230 0 0.196386
-0.728400 -0.371970 6.945570 255 138 0 0.337275
-0.722492 -0.376236 6.927890 255 160 0 0.300564
-0.745731 -0.386765 6.930280 255 167 0 0.287986
-0.770009 -0.373726 6.964610 255 227 0 0.201377
-0.777287 -0.383150 6.947400 255 182 0 0.262674
-0.771768 -0.390801 6.930190 255 164 0 0.295104
-0.797416 -0.394514 6.930340 255 197 0 0.241452
-0.751819 -0.379173 6.947710 255 175 0 0.278301
-0.745554 -0.369675 6.964000 255 219 0 0.211556
-0.801931 -0.383776 6.947450 255 204 0 0.230682
-0.794471 -0.374256 6.964570 245 249 3 0.176589
-0.818887 -0.371634 6.963720 232 255 16 0.159525
-0.827188 -0.381076 6.945780 255 204 0 0.230776
-0.823034 -0.391857 6.928590 255 182 0 0.264949
-0.848344 -0.389222 6.926920 255 171 0 0.280961
-0.864831 -0.358666 6.960220 219 255 29 0.141570
-0.874145 -0.368222 6.941120 255 234 0 0.190323
-0.871871 -0.381498 6.923650 255 208 0 0.227552
-0.895322 -0.374123 6.920310 255 160 0 0.298070
-0.850889 -0.375922 6.944320 251 241 0 0.181115
-0.842300 -0.366395 6.962310 216 255 32 0.138912
-0.905713 -0.383324 6.900390 255 71 0 0.479880
-0.903562 -0.396196 6.883580 255 138 0 0.337436
-0.914083 -0.405441 6.863490 255 116 0 0.385175
-0.911901 -0.418222 6.846610 255 119 0 0.380016
-0.937410 -0.411119 6.840410 255 101 0 0.414150
-0.888704 -0.412913 6.869670 255 97 0 0.426381
-0.886417 -0.425851 6.852630 255 71 0 0.481772
-0.879123 -0.403601 6.888350 255 82 0 0.458176
-0.869482 -0.394424 6.906960 255 101 0 0.412037
-0.947874 -0.420534 6.820280 255 49 0 0.536829
-0.944855 -0.433398 6.804310 255 112 0 0.393428
-0.955259 -0.442779 6.783790 255 112 0 0.388927
-0.952154 -0.455552 6.767490 255 127 0 0.359582
-0.979113 -0.449018 6.758470 255 127 0 0.361088
-0.928303 -0.449741 6.792620 255 101 0 0.411574
-0.925020 -0.462581 6.776400 255 108 0 0.399069
-0.918590 -0.440393 6.811890 255 75 0 0.475351
-0.908904 -0.431136 6.830870 255 41 0 0.558111
-0.865588 -0.468106 6.791680 251 16 0 0.639695
-0.856724 -0.458909 6.809550 255 78 0 0.465437
-0.862030 -0.448416 6.824720 255 116 0 0.382584
-0.853371 -0.439094 6.842390 255 101 0 0.415420
-0.858655 -0.428498 6.857410 255 93 0 0.433201
-0.830617 -0.431539 6.861960 255 41 0 0.559270
-0.881329 -0.436462 6.837500 255 97 0 0.425473
-0.890914 -0.445388 6.818750 255 56 0 0.517454
-0.900652 -0.454508 6.799640 255 67 0 0.493201
-0.895457 -0.464994 6.784110 255 108 0 0.399397
-0.822149 -0.422073 6.879370 255 64 0 0.498721
-0.826738 -0.411716 6.895440 255 149 0 0.322828
-0.818464 -0.402509 6.912370 255 156 0 0.305799
-0.844054 -0.399859 6.910690 255 145 0 0.327738
-0.853408 -0.408837 6.892280 255 104 0 0.408372
-0.862862 -0.418024 6.873670 255 34 0 0.579471
-0.643818 -0.281431 6.916960 255 182 0 0.265934
-0.654494 -0.307908 6.925520 255 156 0 0.305259
-0.652266 -0.304260 6.904770 255 167 0 0.285846
-0.663059 -0.330245 6.913410 255 138 0 0.336905
-0.681408 -0.337538 6.954840 255 164 0 0.291113
-0.676743 -0.338610 6.935590 255 145 0 0.324272
-0.680941 -0.348053 6.919230 255 167 0 0.288986
-0.791596 -0.402282 6.914450 255 149 0 0.321437
-0.799766 -0.411483 6.897540 255 104 0 0.406836
-0.793938 -0.419322 6.881490 255 82 0 0.455344
-0.802208 -0.428522 6.864640 255 93 0 0.434926
-0.773756 -0.425368 6.866890 255 104 0 0.408261
-0.766317 -0.415819 6.882690 255 104 0 0.407763
-0.772418 -0.408118 6.898650 255 138 0 0.340845
-0.765496 -0.398704 6.914220 255 167 0 0.288220
-0.832701 -0.448548 6.829910 255 86 0 0.451985
-0.826361 -0.456420 6.815060 255 75 0 0.474661
-0.835350 -0.465294 6.797450 255 71 0 0.479516
-0.804855 -0.462715 6.802980 255 60 0 0.513164
-0.796896 -0.453223 6.819350 255 82 0 0.455027
-0.803385 -0.445563 6.834130 255 49 0 0.544559
-0.795663 -0.436144 6.850100 255 38 0 0.569390
-0.746987 -0.443081 6.804830 255 67 0 0.495228
-0.740303 -0.433499 6.819760 255 75 0 0.475401
-0.733371 -0.424046 6.834450 255 86 0 0.447332
-0.760125 -0.434441 6.835740 255 67 0 0.496461
-0.753606 -0.424903 6.850630 255 141 0 0.335161
-0.747293 -0.415303 6.865630 255 123 0 0.369774
-0.727118 -0.414314 6.849390 255 134 0 0.344164
-0.720936 -0.404615 6.864270 255 108 0 0.395483
-0.768197 -0.443649 6.820140 255 41 0 0.556689
-0.776061 -0.453070 6.804170 255 67 0 0.492696
-0.715077 -0.394717 6.879430 255 141 0 0.336197
-0.721412 -0.390421 6.896120 255 134 0 0.344887
-0.727767 -0.386038 6.912590 255 127 0 0.359531
-0.704173 -0.375177 6.909910 255 101 0 0.411806
-0.746250 -0.401119 6.897890 255 145 0 0.329124
-0.740213 -0.405633 6.881330 255 123 0 0.369520
-0.699137 -0.375993 6.891550 255 127 0 0.360268
-0.694136 -0.376726 6.873080 255 116 0 0.381018
-0.699741 -0.386536 6.857890 255 119 0 0.377631
-0.678616 -0.368034 6.851610 255 101 0 0.414113
-0.674785 -0.358566 6.867170 255 112 0 0.387783
-0.679687 -0.358092 6.885450 255 97 0 0.419933
-0.675631 -0.348892 6.900940 255 93 0 0.428066
-0.709357 -0.404285 6.828540 255 82 0 0.458132
-0.715609 -0.413866 6.813630 255 93 0 0.430719
-0.722140 -0.423706 6.798640 255 93 0 0.430867
-0.697610 -0.403307 6.792690 255 104 0 0.408496
-0.692669 -0.394364 6.807380 255 82 0 0.460442
-0.687852 -0.385508 6.822020 255 82 0 0.460566
-0.693829 -0.386005 6.839960 255 138 0 0.337419
-0.672875 -0.354494 6.811370 255 108 0 0.401819
-0.669168 -0.347093 6.826410 255 112 0 0.390368
-0.665645 -0.339658 6.841530 255 116 0 0.384361
-0.677566 -0.363270 6.796540 255 64 0 0.500082
-0.682291 -0.371983 6.781780 255 67 0 0.494718
-0.658043 -0.320926 6.872460 255 75 0 0.473740
-0.655354 -0.312741 6.888750 255 145 0 0.326841
-0.661702 -0.330213 6.857000 255 127 0 0.363361
-0.704675 -0.146659 6.713230 255 171 0 0.279247
-0.698568 -0.141859 6.731360 255 197 0 0.243002
-0.709959 -0.125574 6.726610 255 171 0 0.282635
-0.716438 -0.130263 6.708430 255 141 0 0.332220
-0.703969 -0.120829 6.744870 255 212 0 0.221770
-0.721902 -0.109538 6.722290 255 160 0 0.297800
-0.715534 -0.104578 6.740260 255 193 0 0.248955
-0.727186 -0.088892 6.735890 255 164 0 0.295206
-0.728515 -0.114542 6.703990 255 153 0 0.310326
-0.733916 -0.093989 6.717890 255 141 0 0.331113
-0.740696 -0.099393 6.699680 255 78 0 0.469970
-0.709325 -0.100026 6.758440 255 219 0 0.211039
-0.720907 -0.083855 6.754070 255 186 0 0.256931
-0.714772 -0.078914 6.772300 255 171 0 0.279790
-0.703767 -0.094544 6.775390 255 201 0 0.235346
-0.698645 -0.115526 6.762060 255 212 0 0.218904
-0.693359 -0.110390 6.779360 255 197 0 0.239809
-0.687973 -0.131448 6.765950 255 212 0 0.222030
-0.693084 -0.136770 6.748670 255 190 0 0.252843
-0.682789 -0.126195 6.783020 255 193 0 0.246340
-0.761306 -0.075037 6.711110 255 134 0 0.346359
-0.768798 -0.080480 6.691800 255 141 0 0.333518
-0.753942 -0.069657 6.730060 255 153 0 0.312008
-0.781424 -0.051274 6.722460 255 141 0 0.336205
-0.789008 -0.056809 6.703240 255 145 0 0.326495
-0.796518 -0.062885 6.683760 255 141 0 0.330044
-0.760477 -0.054855 6.745270 255 164 0 0.292571
-0.767150 -0.040299 6.760890 255 149 0 0.317751
-0.740730 -0.059115 6.766210 255 145 0 0.325695
-0.722373 -0.063417 6.788750 255 167 0 0.287340
-0.748262 -0.043697 6.783300 255 153 0 0.310896
-0.684406 -0.100395 6.816370 255 201 0 0.238067
-0.678527 -0.121276 6.801770 255 212 0 0.220257
-0.688688 -0.105492 6.797630 255 208 0 0.224925
-0.699150 -0.089516 6.794160 255 175 0 0.275319
-0.816139 -0.049310 6.697510 255 145 0 0.324334
-0.824493 -0.055374 6.677370 255 141 0 0.330111
-0.808059 -0.043714 6.717830 255 153 0 0.311706
-0.835360 -0.035860 6.711070 255 156 0 0.309312
-0.843478 -0.041669 6.690450 255 130 0 0.356853
-0.851801 -0.048240 6.670120 255 127 0 0.362098
-0.813737 -0.034043 6.734500 255 175 0 0.274608
-0.819447 -0.024509 6.751620 255 186 0 0.256131
-0.793338 -0.032165 6.756410 255 167 0 0.286532
-0.787432 -0.041576 6.739430 255 167 0 0.285858
-0.869435 -0.043435 6.686810 255 123 0 0.370433
-0.877913 -0.049685 6.665250 255 116 0 0.385374
-0.860651 -0.037147 6.707910 255 153 0 0.310660
-0.886404 -0.037962 6.702850 255 156 0 0.303845
-0.895082 -0.044334 6.681480 255 138 0 0.342657
-0.903777 -0.050694 6.659880 255 130 0 0.352577
-0.864876 -0.031727 6.726800 255 186 0 0.257744
-0.869302 -0.026345 6.745630 255 208 0 0.226819
-0.844481 -0.025395 6.748740 255 204 0 0.231648
-0.839907 -0.030566 6.729810 255 190 0 0.250208
-0.824354 -0.018804 6.771650 255 216 0 0.213475
-0.849260 -0.019493 6.768950 255 216 0 0.214928
-0.773603 -0.030268 6.779170 255 178 0 0.267528
-0.799576 -0.021978 6.774600 255 216 0 0.215200
0.359586 0.025534 6.534950 255 119 0 0.377728
0.375926 0.027864 6.518570 255 116 0 0.387097
0.352988 0.029141 6.506100 255 116 0 0.382087
0.392315 0.030101 6.502160 255 108 0 0.399567
0.369336 0.031274 6.489550 255 112 0 0.392924
0.385709 0.033305 6.473060 255 104 0 0.405430
0.408788 0.032214 6.485780 255 101 0 0.413050
0.346494 0.032107 6.477010 255 112 0 0.389141
0.362861 0.034124 6.460450 255 108 0 0.399869
0.339937 0.034631 6.447750 255 108 0 0.398568
0.325211 0.032065 6.465070 255 112 0 0.389284
0.331764 0.029364 6.494230 255 119 0 0.380016
0.310459 0.029278 6.482320 255 116 0 0.380888
0.317104 0.026184 6.511240 255 119 0 0.373490
0.338347 0.026039 6.523120 255 119 0 0.374297
0.323754 0.022756 6.540080 255 123 0 0.370296
0.295786 0.026110 6.499380 255 119 0 0.374820
0.302489 0.022823 6.528210 255 123 0 0.370445
0.281216 0.022761 6.516350 255 123 0 0.371917
0.344975 0.022381 6.551900 255 123 0 0.372311
0.422092 0.031696 6.469020 255 97 0 0.427071
0.436601 0.030378 6.453080 255 90 0 0.442542
0.412183 0.031838 6.439420 255 93 0 0.433651
0.451139 0.029023 6.437060 255 82 0 0.458842
0.426597 0.030456 6.423290 255 86 0 0.449054
0.440992 0.028810 6.407190 255 78 0 0.463923
0.465707 0.027450 6.421120 255 75 0 0.474185
0.402543 0.031591 6.409740 255 90 0 0.439723
0.416907 0.030029 6.393550 255 82 0 0.453310
0.392945 0.030994 6.379940 255 86 0 0.444922
0.379674 0.031988 6.396870 255 93 0 0.433107
0.389296 0.032532 6.426630 255 97 0 0.425454
0.366415 0.032968 6.413870 255 97 0 0.420582
0.376089 0.033462 6.443520 255 101 0 0.411764
0.398954 0.032663 6.456190 255 101 0 0.418765
0.353187 0.033898 6.430800 255 104 0 0.408722
0.300165 0.032781 6.327960 255 90 0 0.436429
0.288091 0.033375 6.345650 255 93 0 0.428982
0.310243 0.033742 6.358050 255 93 0 0.429350
0.298165 0.034291 6.375760 255 97 0 0.420406
0.276012 0.033864 6.363420 255 97 0 0.420535
0.320258 0.034434 6.388100 255 97 0 0.419634
0.286118 0.034787 6.393540 255 101 0 0.411409
0.308193 0.034968 6.405830 255 104 0 0.410160
0.296152 0.035248 6.423490 255 108 0 0.401547
0.263945 0.034271 6.381130 255 101 0 0.412158
0.274067 0.035041 6.411180 255 108 0 0.403237
0.251890 0.034552 6.398820 255 104 0 0.404626
0.330147 0.034784 6.418020 255 104 0 0.408713
0.318094 0.035142 6.435690 255 108 0 0.399684
0.343418 0.033868 6.401000 255 101 0 0.419135
0.356665 0.032870 6.384050 255 93 0 0.430163
0.333521 0.033496 6.371100 255 93 0 0.429399
0.346810 0.032490 6.354060 255 90 0 0.438570
0.369940 0.031877 6.367010 255 90 0 0.440523
0.323547 0.032762 6.341030 255 90 0 0.437464
0.238725 0.031543 6.416870 255 108 0 0.396935
0.259305 0.032399 6.428610 255 112 0 0.395083
0.246189 0.029145 6.446560 255 116 0 0.387527
0.225567 0.028256 6.434900 255 112 0 0.389568
0.266653 0.029744 6.458160 255 116 0 0.385110
0.233082 0.025492 6.464390 255 116 0 0.381653
0.253520 0.026135 6.475930 255 119 0 0.379221
0.240517 0.022235 6.493560 255 119 0 0.375994
0.212539 0.024637 6.452700 255 116 0 0.383929
0.220114 0.021602 6.482010 255 119 0 0.378422
0.199532 0.020679 6.470410 255 116 0 0.380809
0.273918 0.026512 6.487390 255 119 0 0.376790
0.260879 0.022562 6.504940 255 119 0 0.373742
0.288608 0.029685 6.470310 255 116 0 0.382679
0.303343 0.032540 6.453040 255 112 0 0.390764
0.281363 0.032624 6.440890 255 112 0 0.392921
-0.068720 -0.434251 6.789640 255 86 0 0.446074
-0.083213 -0.405781 6.784750 255 78 0 0.463003
-0.079928 -0.462274 6.780650 255 86 0 0.444781
-0.094544 -0.433525 6.775630 255 97 0 0.425652
-0.105801 -0.461459 6.766610 255 86 0 0.448848
-0.109181 -0.404849 6.770710 255 86 0 0.447543
-0.091075 -0.490358 6.771410 255 82 0 0.460211
-0.102095 -0.518759 6.762270 255 75 0 0.474323
-0.075836 -0.519117 6.775020 255 75 0 0.471582
-0.064798 -0.490745 6.784200 255 82 0 0.459220
-0.120469 -0.433397 6.762980 255 97 0 0.425245
-0.135020 -0.404533 6.758100 255 104 0 0.407274
-0.131732 -0.462162 6.755180 255 82 0 0.455282
-0.146307 -0.433354 6.750410 255 104 0 0.409497
-0.157525 -0.462109 6.742600 255 86 0 0.444484
-0.161003 -0.404555 6.745330 255 93 0 0.432818
-0.142842 -0.491063 6.747410 255 75 0 0.472687
-0.153928 -0.520426 6.739450 255 67 0 0.489875
-0.127972 -0.519633 6.750900 255 71 0 0.480614
-0.116904 -0.490323 6.758800 255 78 0 0.465108
-0.131502 -0.633504 6.704480 255 45 0 0.547867
-0.124380 -0.604594 6.719260 255 53 0 0.527080
-0.105032 -0.631369 6.715310 255 53 0 0.532080
-0.117108 -0.575927 6.733790 255 64 0 0.502225
-0.097904 -0.602431 6.730120 255 60 0 0.513647
-0.090652 -0.573765 6.744560 255 67 0 0.490583
-0.078700 -0.629026 6.726130 255 56 0 0.519400
-0.109631 -0.547245 6.748180 255 71 0 0.482558
-0.135528 -0.548229 6.736870 255 78 0 0.465343
-0.142975 -0.576938 6.722470 255 78 0 0.462630
-0.071711 -0.601418 6.741830 255 64 0 0.500168
-0.051930 -0.628558 6.737910 255 64 0 0.506121
-0.064571 -0.573954 6.757200 255 71 0 0.482184
-0.045090 -0.601105 6.753540 255 67 0 0.490790
-0.057340 -0.546712 6.772610 255 75 0 0.473446
-0.083268 -0.546317 6.759940 255 75 0 0.476385
0.123466 0.033467 6.235090 255 141 0 0.335837
0.113568 0.033889 6.253770 255 149 0 0.317960
0.134427 0.033943 6.264340 255 153 0 0.311962
0.124411 0.034384 6.283060 255 138 0 0.342252
0.103583 0.034373 6.272450 255 156 0 0.303886
0.145218 0.034249 6.293730 255 134 0 0.344938
0.114399 0.034826 6.301770 255 138 0 0.339786
0.135196 0.034645 6.312460 255 119 0 0.379603
0.125183 0.035041 6.331180 255 119 0 0.378694
0.093612 0.034843 6.291120 255 138 0 0.339263
0.104404 0.035236 6.320470 255 116 0 0.380323
0.083632 0.035306 6.309750 255 138 0 0.343427
0.155908 0.034383 6.323150 255 116 0 0.380413
0.145868 0.034756 6.341940 255 108 0 0.401695
0.166511 0.034348 6.352720 255 104 0 0.403538
0.177416 0.034078 6.334460 255 116 0 0.382649
0.166796 0.034097 6.304980 255 134 0 0.346077
0.188318 0.033802 6.316260 255 134 0 0.348576
0.177700 0.033792 6.286770 255 149 0 0.319738
0.156105 0.033944 6.275530 255 156 0 0.308056
0.166961 0.033627 6.257340 255 153 0 0.314800
0.199219 0.033480 6.298000 255 130 0 0.355611
0.188591 0.033497 6.268530 255 134 0 0.344159
0.210175 0.033172 6.279720 255 97 0 0.424192
0.145228 0.033636 6.246210 255 160 0 0.301694
0.072981 0.032178 6.329020 255 119 0 0.375575
0.092681 0.032177 6.339100 255 119 0 0.372925
0.081982 0.028719 6.358290 255 112 0 0.391822
0.062268 0.028761 6.348240 255 138 0 0.339303
0.101676 0.028600 6.368380 255 112 0 0.391910
0.071255 0.025007 6.377510 255 134 0 0.349056
0.090980 0.024856 6.387620 255 112 0 0.391138
0.080222 0.020727 6.406770 255 123 0 0.369721
0.051498 0.025067 6.367510 255 130 0 0.352536
0.060483 0.020985 6.396750 255 123 0 0.371698
0.040720 0.021166 6.386710 255 138 0 0.339042
0.110641 0.024605 6.397690 255 112 0 0.390935
0.099920 0.020399 6.416830 255 112 0 0.391189
0.119577 0.020007 6.426870 255 112 0 0.389963
0.131335 0.024201 6.408420 255 112 0 0.390733
0.122416 0.028350 6.379170 255 112 0 0.393000
0.143053 0.027916 6.389940 255 112 0 0.393705
0.134128 0.031656 6.360570 255 108 0 0.396845
0.113454 0.031962 6.349780 255 112 0 0.395019
0.154750 0.031224 6.371350 255 108 0 0.398398
0.191321 0.024901 6.441280 255 116 0 0.385894
0.204385 0.028487 6.423470 255 112 0 0.391021
0.183099 0.028523 6.411900 255 112 0 0.392259
0.217523 0.031760 6.405440 255 108 0 0.397871
0.196172 0.031792 6.393940 255 108 0 0.398382
0.209391 0.034824 6.375840 255 104 0 0.405004
0.230691 0.034803 6.387400 255 104 0 0.405149
0.174814 0.031636 6.382370 255 108 0 0.398568
0.188001 0.034647 6.364250 255 104 0 0.404396
0.163120 0.028285 6.400930 255 112 0 0.393175
0.151419 0.024599 6.419400 255 112 0 0.389419
0.171411 0.024829 6.430340 255 112 0 0.387794
0.159778 0.020661 6.448710 255 116 0 0.385589
0.139747 0.020388 6.437790 255 112 0 0.387866
0.179687 0.020760 6.459600 255 116 0 0.383154
0.241595 0.034591 6.369130 255 101 0 0.411927
0.253693 0.034205 6.351380 255 97 0 0.419467
0.231233 0.034271 6.339280 255 101 0 0.417822
0.265753 0.033765 6.333640 255 97 0 0.427224
0.243296 0.033899 6.321550 255 97 0 0.424673
0.255387 0.033458 6.303800 255 93 0 0.431011
0.277846 0.033248 6.315900 255 93 0 0.434230
0.220768 0.033805 6.309500 255 97 0 0.421912
0.232851 0.033435 6.291760 255 97 0 0.427427
0.209822 0.034127 6.327760 255 123 0 0.369026
0.198900 0.034454 6.346080 255 116 0 0.384045
0.220301 0.034617 6.357630 255 116 0 0.385200
0.185783 0.012628 6.488060 255 116 0 0.380370
0.204605 0.013830 6.499240 255 119 0 0.378146
0.190820 0.005418 6.516790 255 116 0 0.381056
0.171959 0.004261 6.505650 255 116 0 0.382990
0.209568 0.006435 6.527910 255 119 0 0.379394
0.176986 -0.003104 6.534390 255 116 0 0.387036
0.195750 -0.002123 6.545430 255 116 0 0.385986
0.181923 -0.010606 6.563040 255 112 0 0.393963
0.158044 -0.004213 6.523350 255 112 0 0.388440
0.163003 -0.011506 6.552120 255 112 0 0.394229
0.144019 -0.012434 6.541200 255 112 0 0.394661
0.214474 -0.001225 6.556410 255 116 0 0.385168
0.200659 -0.009854 6.573950 255 112 0 0.393820
0.219356 -0.009221 6.584900 255 112 0 0.393887
0.234805 -0.000844 6.567740 255 116 0 0.384386
0.229980 0.007138 6.539260 255 119 0 0.377743
0.250350 0.007421 6.550620 255 119 0 0.376489
0.245454 0.015056 6.522130 255 119 0 0.373846
0.225061 0.014610 6.510740 255 119 0 0.375872
0.265750 0.015246 6.533520 255 123 0 0.372271
0.129736 -0.024390 6.559160 255 108 0 0.400941
0.147049 -0.023571 6.569750 255 108 0 0.401508
0.132741 -0.035059 6.587770 255 104 0 0.409263
0.115312 -0.035663 6.577350 255 104 0 0.407849
0.150008 -0.034532 6.598250 255 104 0 0.410953
0.118221 -0.046136 6.605990 255 101 0 0.416747
0.135431 -0.045654 6.616540 255 101 0 0.419051
0.121071 -0.056848 6.634530 255 97 0 0.425821
0.100886 -0.046782 6.595560 255 101 0 0.414605
0.103728 -0.057276 6.624170 255 97 0 0.422987
0.086456 -0.057762 6.613650 255 97 0 0.420382
0.152659 -0.045215 6.626980 255 97 0 0.421473
0.138297 -0.056512 6.644980 255 93 0 0.428665
0.155506 -0.055999 6.655350 255 93 0 0.431285
0.171602 -0.044951 6.637620 255 97 0 0.423510
0.168865 -0.033972 6.609010 255 101 0 0.412491
0.187667 -0.033488 6.619810 255 101 0 0.413846
0.184837 -0.022197 6.591390 255 108 0 0.402868
0.165961 -0.022855 6.580600 255 108 0 0.402215
0.203572 -0.021662 6.602230 255 104 0 0.403549
0.223012 -0.043090 6.671210 255 93 0 0.429828
0.241136 -0.031565 6.653690 255 101 0 0.417928
0.221911 -0.032331 6.642340 255 101 0 0.416736
0.258980 -0.019544 6.636610 255 104 0 0.405329
0.239832 -0.020154 6.625070 255 104 0 0.404960
0.257637 -0.007653 6.608100 255 112 0 0.393938
0.276725 -0.007173 6.619720 255 112 0 0.393980
0.220676 -0.020895 6.613540 255 104 0 0.404332
0.238548 -0.008356 6.596510 255 112 0 0.393958
0.204797 -0.032878 6.631140 255 101 0 0.415275
0.188913 -0.044353 6.648740 255 97 0 0.425593
0.205972 -0.043701 6.660060 255 93 0 0.427768
0.189947 -0.054745 6.677720 255 90 0 0.436435
0.172720 -0.055263 6.666670 255 93 0 0.433697
0.207135 -0.054309 6.688710 255 90 0 0.439200
0.292215 0.000999 6.602560 255 116 0 0.383366
0.309791 0.008470 6.585700 255 119 0 0.374910
0.288607 0.008637 6.573840 255 119 0 0.374956
0.327322 0.015628 6.568870 255 123 0 0.371159
0.306161 0.015921 6.557020 255 123 0 0.370375
0.284964 0.015895 6.545130 255 123 0 0.371011
0.269523 0.008166 6.562230 255 119 0 0.375543
0.254011 -0.000050 6.579330 255 116 0 0.383869
0.273153 0.000567 6.590930 255 116 0 0.383490
0.476950 0.023737 6.404870 255 71 0 0.487747
0.488763 0.019707 6.388800 255 64 0 0.502013
0.463346 0.021260 6.374550 255 67 0 0.490829
0.500578 0.015779 6.372730 255 60 0 0.516000
0.475094 0.017170 6.358370 255 64 0 0.503727
0.486821 0.013236 6.342200 255 60 0 0.514829
0.512453 0.011933 6.356640 255 53 0 0.528095
0.450284 0.018658 6.344360 255 67 0 0.490227
0.461917 0.014633 6.328120 255 64 0 0.500181
0.437388 0.015905 6.314270 255 71 0 0.486725
0.426307 0.019584 6.330660 255 75 0 0.477727
0.439145 0.022438 6.360770 255 75 0 0.478349
0.415228 0.023434 6.347080 255 78 0 0.466926
0.428041 0.026215 6.377130 255 78 0 0.465629
0.452215 0.025036 6.390840 255 75 0 0.477257
0.404109 0.027251 6.363470 255 82 0 0.455565
0.521809 0.006524 6.340500 255 60 0 0.508510
0.531385 0.001370 6.324140 255 75 0 0.476503
0.505521 0.002491 6.309970 255 78 0 0.463104
0.541118 -0.003266 6.307690 255 82 0 0.460217
0.515158 -0.002401 6.293540 255 86 0 0.446558
0.524881 -0.006667 6.277040 255 67 0 0.492159
0.550791 -0.007353 6.291230 255 64 0 0.506366
0.490027 -0.001173 6.279690 255 93 0 0.427593
