ply
format ascii 1.0
comment Seamless Cloth Simulation with High Geometric Fidelity 
comment Wed May  8 12:32:12 2019
element vertex 1010
property float x
property float y
property float z
property float quality
property uchar red
property uchar green
property uchar blue
end_header
0.615031 -1.03355 6.40951 0.438414 255 0 255 
0.58305 -1.0133 6.38473 0.423811 255 0 255 
0.497375 -0.966668 6.38197 0.40727 255 0 255 
0.513684 -0.979513 6.39588 0.408069 255 0 255 
0.523579 -0.979454 6.36962 0.412198 255 0 255 
0.507291 -0.966672 6.35581 0.410919 255 0 255 
0.539984 -0.991212 6.38349 0.413021 255 0 255 
0.533727 -0.979429 6.34315 0.419702 255 0 255 
0.550249 -0.991749 6.35686 0.421359 255 0 255 
0.560416 -0.992489 6.3301 0.431616 255 0 255 
0.517499 -0.966669 6.32947 0.417999 255 0 255 
0.543944 -0.979811 6.31633 0.429368 255 0 255 
0.527727 -0.966682 6.30272 0.42757 255 0 255 
0.566574 -1.00272 6.37057 0.422696 255 0 255 
0.576731 -1.00373 6.34385 0.434284 255 0 255 
0.556882 -1.00221 6.39773 0.412789 255 0 255 
0.547323 -1.00201 6.42469 0.406468 255 0 255 
0.530541 -0.991049 6.41041 0.407822 255 0 255 
0.538103 -0.9609 6.27467 0.438812 255 0 255 
0.553663 -0.972823 6.28648 0.440911 255 0 255 
0.564341 -0.966867 6.25806 0.455965 255 0 255 
0.548725 -0.955015 6.24627 0.453237 255 0 255 
0.579802 -0.978618 6.27005 0.459768 255 0 255 
0.574727 -0.960799 6.22958 0.473693 255 0 255 
0.590161 -0.972675 6.24159 0.479234 255 0 255 
0.600605 -0.966413 6.21309 0.499017 255 0 255 
0.559269 -0.949272 6.21756 0.470157 255 0 255 
0.585321 -0.954701 6.20108 0.491782 255 0 255 
0.569855 -0.943104 6.18894 0.487615 255 0 255 
0.60586 -0.984281 6.2537 0.485787 255 0 255 
0.615998 -0.978129 6.22532 0.508613 255 0 255 
0.596145 -0.991578 6.28388 0.464264 255 0 255 
0.586585 -0.997982 6.31384 0.446967 255 0 255 
0.570154 -0.985744 6.3001 0.443422 255 0 255 
0.543074 -0.939961 6.20624 0.470251 255 0 255 
0.532462 -0.945778 6.23476 0.453272 255 0 255 
0.516323 -0.936932 6.22314 0.453015 255 0 255 
0.522018 -0.951848 6.26308 0.438656 255 0 255 
0.505859 -0.942415 6.2515 0.437848 255 0 255 
0.495634 -0.948226 6.2795 0.425355 255 0 255 
0.511544 -0.95774 6.29112 0.426888 255 0 255 
0.48986 -0.933605 6.23976 0.436113 255 0 255 
0.479676 -0.939027 6.26767 0.42311 255 0 255 
0.463944 -0.930138 6.25576 0.420092 255 0 255 
0.474748 -0.925245 6.229 0.432939 255 0 255 
0.500897 -0.92827 6.21269 0.451223 255 0 255 
0.4857 -0.920243 6.20191 0.448358 255 0 255 
0.512309 -0.923178 6.18534 0.468029 255 0 255 
0.527639 -0.931589 6.19587 0.469668 255 0 255 
0.53901 -0.926227 6.16831 0.486204 255 0 255 
0.496989 -0.915014 6.1746 0.465777 255 0 255 
0.523856 -0.918055 6.15763 0.485 255 0 255 
0.508649 -0.909798 6.14709 0.482812 255 0 255 
0.554347 -0.934472 6.17874 0.487187 255 0 255 
0.500686 -0.957432 6.31724 0.417255 255 0 255 
0.490651 -0.95751 6.34338 0.409975 255 0 255 
0.47421 -0.948107 6.33109 0.407986 255 0 255 
0.480648 -0.957605 6.36939 0.40638 255 0 255 
0.46434 -0.948467 6.3569 0.404242 255 0 255 
0.448207 -0.938723 6.34433 0.401763 255 0 255 
0.433042 -0.929088 6.33236 0.39934 255 0 255 
0.458724 -0.938797 6.31922 0.405144 255 0 255 
0.443443 -0.929168 6.30726 0.402396 255 0 255 
0.469159 -0.938938 6.29359 0.412544 255 0 255 
0.484814 -0.948336 6.30544 0.415178 255 0 255 
0.453759 -0.929655 6.28176 0.409551 255 0 255 
0.372119 -0.906398 6.28898 0.400867 255 0 255 
0.386712 -0.911853 6.29963 0.39651 255 0 255 
0.397971 -0.91284 6.27497 0.398134 255 0 255 
0.383444 -0.907687 6.26443 0.401278 255 0 255 
0.412391 -0.918256 6.28553 0.398843 255 0 255 
0.408969 -0.913797 6.24997 0.404483 255 0 255 
0.423335 -0.918979 6.26048 0.404905 255 0 255 
0.434299 -0.919677 6.23503 0.415282 255 0 255 
0.394539 -0.909103 6.23944 0.383583 255 0 255 
0.419881 -0.914825 6.2246 0.415761 255 0 255 
0.405622 -0.910202 6.21428 0.434067 255 0 255 
0.438029 -0.924355 6.27097 0.406917 255 0 255 
0.449007 -0.924886 6.24541 0.417089 255 0 255 
0.427867 -0.923775 6.29644 0.400185 255 0 255 
0.417576 -0.923116 6.32151 0.39744 255 0 255 
0.402157 -0.917286 6.31059 0.39646 255 0 255 
0.416682 -0.905679 6.18857 0.453409 255 0 255 
0.430322 -0.910389 6.19816 0.438403 255 0 255 
0.441466 -0.905522 6.17199 0.450067 255 0 255 
0.427954 -0.900731 6.16256 0.480704 255 0 255 
0.455286 -0.910303 6.18146 0.448625 255 0 255 
0.453133 -0.900239 6.14563 0.466673 255 0 255 
0.46715 -0.905011 6.15505 0.463741 255 0 255 
0.479485 -0.899893 6.1283 0.479903 255 0 255 
0.439636 -0.895636 6.13635 0.514337 255 0 255 
0.465297 -0.895124 6.11908 0.482924 255 0 255 
0.451578 -0.890445 6.1098 0.397444 255 0 255 
0.481581 -0.909932 6.1645 0.464734 255 0 255 
0.493876 -0.904763 6.13781 0.480774 255 0 255 
0.470386 -0.915075 6.1917 0.446659 255 0 255 
0.459522 -0.920099 6.21872 0.430309 255 0 255 
0.444661 -0.915124 6.20841 0.429282 255 0 255 
0.692621 -0.147023 5.98459 0.422195 255 0 255 
0.716452 -0.146722 5.99709 0.423113 255 0 255 
0.713915 -0.171001 5.97934 0.434929 255 0 255 
0.742064 -0.14772 6.01311 0.419732 255 0 255 
0.738615 -0.17112 5.99317 0.430948 255 0 255 
0.76529 -0.172211 6.01102 0.424179 255 0 255 
0.769429 -0.150182 6.03273 0.412543 255 0 255 
0.73512 -0.195594 5.97555 0.446776 255 0 255 
0.760941 -0.195853 5.99097 0.441525 255 0 255 
0.75649 -0.220404 5.97318 0.456308 255 0 255 
0.733651 -0.22078 5.96186 0.459293 255 0 255 
0.713146 -0.195736 5.96508 0.449587 255 0 255 
0.712012 -0.221365 5.95197 0.460581 255 0 255 
0.691793 -0.195953 5.95563 0.449834 255 0 255 
0.692377 -0.171389 5.96966 0.435064 255 0 255 
0.671368 -0.171332 5.96007 0.433562 255 0 255 
0.690998 -0.221501 5.94211 0.45995 255 0 255 
0.670844 -0.196002 5.94583 0.448645 255 0 255 
0.670147 -0.221168 5.93183 0.458883 255 0 255 
0.671496 -0.146816 5.97516 0.418811 255 0 255 
0.791934 -0.151917 6.0459 0.401615 255 0 255 
0.815793 -0.152978 6.05992 0.392413 255 0 255 
0.81079 -0.175304 6.03854 0.413553 255 0 255 
0.839415 -0.154092 6.073 0.389559 255 0 255 
0.834595 -0.17627 6.05197 0.412933 255 0 255 
0.858057 -0.177038 6.06479 0.415964 255 0 255 
0.863166 -0.155338 6.08588 0.392987 255 0 255 
0.829151 -0.198516 6.03121 0.437092 255 0 255 
0.852794 -0.199354 6.04419 0.43964 255 0 255 
0.847111 -0.221882 6.02396 0.459805 255 0 255 
0.825399 -0.221765 6.01241 0.456774 255 0 255 
0.807284 -0.197946 6.01933 0.436027 255 0 255 
0.803517 -0.221142 6.00065 0.454473 255 0 255 
0.784593 -0.196933 6.00569 0.437362 255 0 255 
0.788596 -0.174197 6.02596 0.417466 255 0 255 
0.77997 -0.220921 5.98637 0.453703 255 0 255 
0.812201 -0.333483 5.9591 0.501415 255 0 255 
0.791683 -0.333973 5.94942 0.494221 255 0 255 
0.798638 -0.306854 5.96291 0.490369 255 0 255 
0.777874 -0.307187 5.95343 0.484576 255 0 255 
0.771853 -0.333945 5.94018 0.486166 255 0 255 
0.784785 -0.279051 5.96626 0.47695 255 0 255 
0.75823 -0.306902 5.94441 0.479041 255 0 255 
0.764232 -0.278669 5.95669 0.473736 255 0 255 
0.744453 -0.278333 5.94819 0.471733 255 0 255 
0.752906 -0.333561 5.93164 0.478599 255 0 255 
0.739211 -0.306165 5.93591 0.47462 255 0 255 
0.734527 -0.332788 5.92314 0.473372 255 0 255 
0.770814 -0.250133 5.96975 0.464231 255 0 255 
0.750247 -0.249644 5.96032 0.464857 255 0 255 
0.794726 -0.249889 5.98294 0.465231 255 0 255 
0.81763 -0.249922 5.99589 0.46826 255 0 255 
0.808641 -0.278408 5.97948 0.480176 255 0 255 
0.831507 -0.277433 5.99118 0.484448 255 0 255 
0.839688 -0.250031 6.00718 0.471515 255 0 255 
0.822003 -0.305695 5.97535 0.49526 255 0 255 
0.715957 -0.332382 5.91454 0.469053 255 0 255 
0.718519 -0.306616 5.92577 0.471949 255 0 255 
0.699935 -0.306 5.91697 0.468304 255 0 255 
0.697343 -0.332023 5.90584 0.46426 255 0 255 
0.702491 -0.279318 5.9279 0.469014 255 0 255 
0.681295 -0.305751 5.9085 0.46452 255 0 255 
0.683791 -0.278622 5.91916 0.466184 255 0 255 
0.665179 -0.278141 5.91029 0.463622 255 0 255 
0.67874 -0.33163 5.89709 0.460083 255 0 255 
0.662759 -0.304817 5.89906 0.461233 255 0 255 
0.660161 -0.331146 5.88793 0.456972 255 0 255 
0.686399 -0.25114 5.92993 0.464391 255 0 255 
0.667629 -0.250204 5.92117 0.462676 255 0 255 
0.707135 -0.251026 5.94021 0.465811 255 0 255 
0.72827 -0.250309 5.95003 0.466047 255 0 255 
0.723211 -0.279093 5.93807 0.470664 255 0 255 
0.672924 -0.361152 5.88947 0.433286 255 0 255 
0.691546 -0.36144 5.89828 0.43854 255 0 255 
0.685592 -0.390605 5.89062 0.426157 255 0 255 
0.710136 -0.361767 5.90702 0.444511 255 0 255 
0.704229 -0.390819 5.89926 0.432844 255 0 255 
0.722793 -0.391154 5.9077 0.468963 255 0 255 
0.728689 -0.362321 5.91549 0.469351 255 0 255 
0.69841 -0.419397 5.89092 0.408824 255 0 255 
0.717119 -0.419355 5.89935 0.450383 255 0 255 
0.711438 -0.447481 5.89029 0.437958 255 0 255 
0.694053 -0.446547 5.88324 0.390988 255 0 255 
0.681232 -0.418081 5.88336 0.396952 255 0 255 
0.676742 -0.445385 5.87623 0.431353 255 0 255 
0.66377 -0.417123 5.87623 0.435274 255 0 255 
0.668439 -0.389266 5.88295 0.41689 255 0 255 
0.651004 -0.388238 5.87557 0.450622 255 0 255 
0.659158 -0.444523 5.86923 0.418327 255 0 255 
0.646245 -0.415998 5.86898 0.406639 255 0 255 
0.641425 -0.443825 5.86229 0.417989 255 0 255 
0.655688 -0.360015 5.88164 0.426914 255 0 255 
0.74552 -0.36388 5.92314 0.45174 255 0 255 
0.763876 -0.36441 5.93175 0.460178 255 0 255 
0.756562 -0.394408 5.92277 0.4492 255 0 255 
0.782832 -0.364672 5.94056 0.469423 255 0 255 
0.774751 -0.394788 5.93147 0.458407 255 0 255 
0.793698 -0.394787 5.94048 0.467462 255 0 255 
0.802653 -0.364487 5.94986 0.453503 255 0 255 
0.767552 -0.42408 5.92138 0.432251 255 0 255 
0.785974 -0.424072 5.93022 0.415198 255 0 255 
0.7788 -0.453115 5.91905 0.429168 255 0 255 
0.762067 -0.451899 5.91167 0.470787 255 0 255 
0.750825 -0.422344 5.91398 0.46842 255 0 255 
0.745337 -0.450357 5.90432 0.454034 255 0 255 
0.733953 -0.421091 5.90669 0.455342 255 0 255 
0.739657 -0.392774 5.91525 0.479184 255 0 255 
0.728344 -0.448984 5.89746 0.483565 255 0 255 
0.747375 -0.57506 5.90123 0.622293 255 0 255 
0.738618 -0.543482 5.8992 0.553468 255 0 255 
0.715634 -0.570639 5.88974 0.600755 255 0 255 
0.729456 -0.511774 5.89702 0.522596 255 0 255 
0.706619 -0.538996 5.88717 0.570311 255 0 255 
0.697304 -0.507165 5.88442 0.522696 255 0 255 
0.683385 -0.566294 5.87843 0.586628 255 0 255 
0.720476 -0.479821 5.89373 0.500679 255 0 255 
0.737462 -0.481085 5.90075 0.512782 255 0 255 
0.754279 -0.482411 5.90769 0.481957 255 0 255 
0.746347 -0.513087 5.90349 0.513227 255 0 255 
0.763268 -0.51428 5.91034 0.496725 255 0 255 
0.771039 -0.483597 5.91502 0.525837 255 0 255 
0.755348 -0.544729 5.90579 0.633971 255 0 255 
0.672853 -0.536156 5.87511 0.577473 255 0 255 
0.650527 -0.563149 5.8673 0.552928 255 0 255 
0.662086 -0.505769 5.87182 0.502173 255 0 255 
0.639697 -0.533089 5.86371 0.54567 255 0 255 
0.629024 -0.502435 5.85968 0.496036 255 0 255 
0.617201 -0.560099 5.85658 0.544167 255 0 255 
0.651694 -0.474939 5.86738 0.478136 255 0 255 
0.669341 -0.475606 5.87418 0.444285 255 0 255 
0.687045 -0.476326 5.8804 0.470677 255 0 255 
0.679857 -0.506245 5.87822 0.474085 255 0 255 
0.778991 -0.854304 6.04658 0.868483 255 0 255 
0.767948 -0.879937 6.07398 0.814359 255 0 255 
0.753125 -0.872443 6.06413 0.790463 255 0 255 
0.742073 -0.898309 6.0918 0.756476 255 0 255 
0.756875 -0.90596 6.10148 0.811496 255 0 255 
0.727237 -0.890312 6.08171 0.66535 255 0 255 
0.731037 -0.9241 6.1192 0.731827 255 0 255 
0.716193 -0.916116 6.10926 0.627482 255 0 255 
0.705204 -0.941938 6.13658 0.623657 255 0 255 
0.746203 -0.931898 6.12894 0.721687 255 0 255 
0.720366 -0.949949 6.14639 0.627878 255 0 255 
0.735479 -0.95775 6.15599 0.578475 255 0 255 
0.701084 -0.90821 6.09954 0.527707 255 0 255 
0.690034 -0.933824 6.12698 0.534891 255 0 255 
0.674692 -0.925257 6.11737 0.514544 255 0 255 
0.68636 -0.902357 6.09131 0.533352 255 0 255 
0.69794 -0.878814 6.0654 0.547412 255 0 255 
0.724188 -0.861394 6.04766 0.663804 255 0 255 
0.750179 -0.843708 6.03025 0.801227 255 0 255 
0.709562 -0.855612 6.03963 0.610845 255 0 255 
0.720964 -0.83244 6.01404 0.63205 255 0 255 
0.72559 -0.976123 6.18798 0.577853 255 0 255 
0.709791 -0.96644 6.17606 0.561126 255 0 255 
0.699991 -0.984921 6.20797 0.573547 255 0 255 
0.715926 -0.994654 6.21978 0.594509 255 0 255 
0.68389 -0.974518 6.19619 0.55417 255 0 255 
0.689958 -1.00279 6.24016 0.564582 255 0 255 
0.674064 -0.992873 6.22855 0.543693 255 0 255 
0.705482 -1.01184 6.25157 0.586038 255 0 255 
0.657825 -0.982311 6.21678 0.525793 255 0 255 
0.641905 -0.973258 6.20748 0.53866 255 0 255 
0.668283 -0.966127 6.18659 0.548958 255 0 255 
0.652896 -0.957525 6.17722 0.530129 255 0 255 
0.679219 -0.950088 6.15669 0.555747 255 0 255 
0.694365 -0.958101 6.16633 0.598953 255 0 255 
0.663821 -0.94152 6.14713 0.534783 255 0 255 
0.581398 -0.929809 6.16058 0.502248 255 0 255 
0.596092 -0.939531 6.17071 0.507263 255 0 255 
0.607399 -0.926033 6.14256 0.524234 255 0 255 
0.592698 -0.916576 6.1323 0.516636 255 0 255 
0.622292 -0.935277 6.15266 0.507835 255 0 255 
0.618891 -0.912506 6.11427 0.539491 255 0 255 
0.633679 -0.921624 6.12463 0.551392 255 0 255 
0.645356 -0.90769 6.09645 0.537216 255 0 255 
0.604418 -0.902793 6.10424 0.530209 255 0 255 
0.63068 -0.898696 6.08611 0.551486 255 0 255 
0.615927 -0.889356 6.07595 0.540915 255 0 255 
0.648575 -0.930455 6.13486 0.522772 255 0 255 
0.660058 -0.916595 6.10669 0.551911 255 0 255 
0.63756 -0.946556 6.1648 0.517432 255 0 255 
0.626714 -0.961954 6.19518 0.525529 255 0 255 
0.611317 -0.950914 6.18282 0.514766 255 0 255 
0.628088 -0.868774 6.05189 0.516816 255 0 255 
0.642585 -0.876031 6.05983 0.527792 255 0 255 
0.654512 -0.855222 6.03599 0.558764 255 0 255 
0.640149 -0.848525 6.02779 0.502924 255 0 255 
0.669064 -0.861981 6.04418 0.535889 255 0 255 
0.666674 -0.834579 6.01212 0.56166 255 0 255 
0.681068 -0.841078 6.0203 0.588173 255 0 255 
0.692773 -0.820305 5.99669 0.592132 255 0 255 
0.65219 -0.828054 6.00367 0.498119 255 0 255 
0.678512 -0.814024 5.98835 0.560048 255 0 255 
0.663935 -0.807605 5.98005 0.494714 255 0 255 
0.695176 -0.847292 6.02908 0.562542 255 0 255 
0.707042 -0.826295 6.00537 0.639818 255 0 255 
0.683575 -0.870493 6.0548 0.566098 255 0 255 
0.671691 -0.893475 6.08084 0.512347 255 0 255 
0.657187 -0.884835 6.07031 0.542219 255 0 255 
0.95622 -0.342106 6.01388 0.595579 255 0 255 
0.949616 -0.314356 6.02473 0.580213 255 0 255 
0.922804 -0.338683 6.00264 0.605346 255 0 255 
0.942652 -0.286184 6.03622 0.548617 255 0 255 
0.916202 -0.310517 6.01335 0.567517 255 0 255 
0.908697 -0.282248 6.02439 0.494801 255 0 255 
0.88918 -0.335598 5.99104 0.555914 255 0 255 
0.934987 -0.257951 6.0477 0.484324 255 0 255 
0.926928 -0.229088 6.05982 0.394363 255 0 255 
0.944572 -0.231456 6.06652 0.451516 255 0 255 
0.952612 -0.260097 6.0545 0.519736 255 0 255 
0.962533 -0.234494 6.07323 0.497445 255 0 255 
0.970311 -0.262804 6.06086 0.509505 255 0 255 
0.960099 -0.2884 6.04281 0.526771 255 0 255 
0.977438 -0.290918 6.04896 0.530058 255 0 255 
0.980004 -0.237468 6.0803 0.460207 255 0 255 
0.98766 -0.265229 6.06737 0.456352 255 0 255 
0.997811 -0.239913 6.08702 0.430642 255 0 255 
0.96694 -0.316457 6.03128 0.582525 255 0 255 
0.870425 -0.33473 5.98374 0.501817 255 0 255 
0.879678 -0.308162 5.99927 0.522095 255 0 255 
0.860696 -0.307064 5.99159 0.489331 255 0 255 
0.85177 -0.333663 5.97633 0.484062 255 0 255 
0.869483 -0.279888 6.00745 0.494907 255 0 255 
0.841487 -0.306046 5.98367 0.47987 255 0 255 
0.850607 -0.278592 5.99931 0.486459 255 0 255 
0.832262 -0.333411 5.96849 0.50678 255 0 255 
0.858679 -0.251357 6.01586 0.475039 255 0 255 
0.867111 -0.22383 6.03312 0.461479 255 0 255 
0.878403 -0.252639 6.02454 0.483387 255 0 255 
0.887149 -0.22577 6.04251 0.429715 255 0 255 
0.898262 -0.254193 6.03358 0.462274 255 0 255 
0.889041 -0.281072 6.01603 0.511613 255 0 255 
0.907092 -0.227538 6.05144 0.434079 255 0 255 
0.883351 -0.157528 6.09509 0.375063 255 0 255 
0.904889 -0.160206 6.10616 0.382812 255 0 255 
0.898336 -0.181343 6.08296 0.392613 255 0 255 
0.92596 -0.162679 6.11711 0.392088 255 0 255 
0.919848 -0.183852 6.09378 0.399802 255 0 255 
0.941237 -0.186567 6.10476 0.407331 255 0 255 
0.947915 -0.166083 6.12801 0.401843 255 0 255 
0.912979 -0.205356 6.07138 0.391435 255 0 255 
0.934302 -0.207534 6.08202 0.395227 255 0 255 
0.892764 -0.20333 6.06241 0.425957 255 0 255 
0.872668 -0.201296 6.05336 0.420363 255 0 255 
0.878225 -0.179187 6.07403 0.420656 255 0 255 
0.966472 -0.16932 6.13606 0.398002 255 0 255 
0.986074 -0.173574 6.14588 0.386339 255 0 255 
0.977336 -0.192729 6.11903 0.430337 255 0 255 
1.00497 -0.177461 6.15486 0.339521 255 0 255 
0.996644 -0.196686 6.12821 0.398086 255 0 255 
1.01605 -0.200803 6.13762 0.380874 255 0 255 
1.02462 -0.182047 6.16409 0.260763 255 0 255 
0.987883 -0.216438 6.10311 0.423519 255 0 255 
1.00723 -0.220128 6.11224 0.410259 255 0 255 
0.969816 -0.213679 6.09614 0.458821 255 0 255 
0.952003 -0.210221 6.0888 0.448687 255 0 255 
0.95924 -0.189643 6.11217 0.455262 255 0 255 
0.821042 -0.365137 5.95827 0.485302 255 0 255 
0.840692 -0.364696 5.96672 0.490917 255 0 255 
0.829727 -0.3962 5.95685 0.484742 255 0 255 
0.860101 -0.365053 5.97449 0.469806 255 0 255 
0.848923 -0.395693 5.96464 0.491221 255 0 255 
0.8677 -0.396082 5.97172 0.530082 255 0 255 
0.877993 -0.36621 5.98135 0.530942 255 0 255 
0.838363 -0.426563 5.95386 0.498817 255 0 255 
0.856967 -0.42625 5.96111 0.601192 255 0 255 
0.846985 -0.456337 5.94985 0.599914 255 0 255 
0.829427 -0.456493 5.94198 0.489671 255 0 255 
0.820409 -0.426341 5.94591 0.476452 255 0 255 
0.812263 -0.455728 5.93435 0.503666 255 0 255 
0.802844 -0.425765 5.93769 0.471985 255 0 255 
0.811398 -0.395812 5.94835 0.477881 255 0 255 
0.795427 -0.454504 5.92693 0.44367 255 0 255 
0.91131 -0.369381 5.99314 0.591524 255 0 255 
0.899975 -0.399822 5.98308 0.60834 255 0 255 
0.933056 -0.402653 5.99424 0.606614 255 0 255 
0.944464 -0.372593 6.00434 0.607287 255 0 255 
0.905288 -0.431471 5.97807 0.620289 255 0 255 
0.910785 -0.462826 5.97236 0.644127 255 0 255 
0.879383 -0.459014 5.96152 0.662112 255 0 255 
0.867339 -0.592446 5.95381 0.715037 255 0 255 
0.862245 -0.559048 5.95289 0.703093 255 0 255 
0.838136 -0.589216 5.94068 0.699012 255 0 255 
0.85725 -0.524948 5.95248 0.674004 255 0 255 
0.832564 -0.555554 5.9397 0.646225 255 0 255 
0.826741 -0.52174 5.9388 0.693225 255 0 255 
0.808707 -0.585184 5.92721 0.664579 255 0 255 
0.852028 -0.490777 5.95163 0.694584 255 0 255 
0.883976 -0.493447 5.9633 0.656252 255 0 255 
0.888383 -0.527912 5.96411 0.679713 255 0 255 
0.801354 -0.552436 5.9261 0.691699 255 0 255 
0.77818 -0.580491 5.91383 0.673162 255 0 255 
0.793937 -0.519551 5.9244 0.601446 255 0 255 
0.802883 -0.487959 5.92945 0.563275 255 0 255 
0.819528 -0.488794 5.93707 0.630162 255 0 255 
0.810364 -0.520748 5.93172 0.612277 255 0 255 
0.675293 -0.780793 5.96471 0.577282 255 0 255 
0.701203 -0.758139 5.95617 0.628124 255 0 255 
0.712563 -0.730692 5.94109 0.618448 255 0 255 
0.737874 -0.707319 5.93379 0.651097 255 0 255 
0.70863 -0.699204 5.92022 0.558956 255 0 255 
0.741984 -0.738867 5.9548 0.695263 255 0 255 
0.767276 -0.714975 5.94752 0.722925 255 0 255 
0.756053 -0.744694 5.96337 0.771084 255 0 255 
0.730344 -0.768289 5.97132 0.698414 255 0 255 
0.744603 -0.773995 5.97985 0.786833 255 0 255 
0.718619 -0.797326 5.9881 0.675466 255 0 255 
0.70447 -0.791338 5.97981 0.598506 255 0 255 
0.732832 -0.803225 5.99689 0.804747 255 0 255 
0.718381 -0.668757 5.91473 0.649939 255 0 255 
0.743519 -0.640344 5.91562 0.691101 255 0 255 
0.753334 -0.609035 5.91134 0.634018 255 0 255 
0.783761 -0.614126 5.92405 0.6052 255 0 255 
0.773332 -0.646862 5.9288 0.724067 255 0 255 
0.762836 -0.679324 5.93425 0.686337 255 0 255 
0.856133 -0.626829 5.95785 0.745131 255 0 255 
0.831295 -0.658063 5.95561 0.743805 255 0 255 
0.820571 -0.692048 5.96114 0.773583 255 0 255 
0.795765 -0.722153 5.96122 0.740117 255 0 255 
0.823814 -0.729111 5.97487 0.795072 255 0 255 
0.792279 -0.68521 5.94747 0.710857 255 0 255 
0.802525 -0.652732 5.94237 0.721566 255 0 255 
0.812952 -0.620238 5.9377 0.744559 255 0 255 
0.812738 -0.760745 5.99185 0.758615 255 0 255 
0.787418 -0.787047 6.0013 0.76774 255 0 255 
0.775988 -0.81817 6.01985 0.841724 255 0 255 
0.784533 -0.752027 5.97684 0.760821 255 0 255 
1.16326 -0.848704 6.19827 0.253746 255 0 255 
1.16152 -0.826443 6.1793 0.304459 255 0 255 
1.14161 -0.85199 6.19046 0.361986 255 0 255 
1.16027 -0.804154 6.15996 0.33837 255 0 255 
1.13956 -0.829659 6.17115 0.387706 255 0 255 
1.13843 -0.807436 6.15173 0.422168 255 0 255 
1.11937 -0.855148 6.18251 0.436283 255 0 255 
1.1594 -0.78178 6.14059 0.352751 255 0 255 
1.15856 -0.759472 6.12104 0.346474 255 0 255 
1.17972 -0.758804 6.13005 0.261109 255 0 255 
1.18062 -0.781136 6.14956 0.269414 255 0 255 
1.18142 -0.80352 6.16892 0.256424 255 0 255 
1.1177 -0.831661 6.16224 0.466042 255 0 255 
1.09622 -0.858599 6.17353 0.516033 255 0 255 
1.11677 -0.807993 6.14194 0.482963 255 0 255 
1.09487 -0.835151 6.15324 0.542288 255 0 255 
1.09357 -0.811461 6.13277 0.562831 255 0 255 
1.07362 -0.862221 6.16457 0.541119 255 0 255 
1.11589 -0.784118 6.12152 0.483031 255 0 255 
1.11502 -0.760237 6.10108 0.487368 255 0 255 
1.13714 -0.759798 6.11105 0.415206 255 0 255 
1.13751 -0.783696 6.13138 0.426585 255 0 255 
1.16094 -0.646025 6.06706 0.338552 255 0 255 
1.16019 -0.674914 6.08033 0.338307 255 0 255 
1.18177 -0.648619 6.07698 0.306286 255 0 255 
1.15949 -0.703382 6.09374 0.342711 255 0 255 
1.18076 -0.677266 6.0903 0.297897 255 0 255 
1.17983 -0.705604 6.10376 0.288672 255 0 255 
1.15897 -0.731553 6.10728 0.355637 255 0 255 
1.13733 -0.73178 6.09736 0.42353 255 0 255 
1.13754 -0.703451 6.08397 0.407786 255 0 255 
1.19037 -0.732125 6.12152 0.29524 255 0 255 
1.06252 -0.361179 6.04334 0.454341 255 0 255 
1.06222 -0.333841 6.05823 0.425016 255 0 255 
1.03769 -0.355883 6.03676 0.447418 255 0 255 
1.06135 -0.306533 6.07321 0.422659 255 0 255 
1.03601 -0.328934 6.05092 0.451854 255 0 255 
1.03482 -0.301473 6.06611 0.437169 255 0 255 
1.01233 -0.350742 6.03006 0.564898 255 0 255 
1.05937 -0.279593 6.08876 0.449859 255 0 255 
1.0569 -0.25284 6.10517 0.36935 255 0 255 
1.08345 -0.25957 6.11235 0.413505 255 0 255 
1.08496 -0.286375 6.09533 0.406836 255 0 255 
1.08579 -0.313569 6.07935 0.365653 255 0 255 
1.00973 -0.323198 6.04369 0.538965 255 0 255 
0.984459 -0.346265 6.02201 0.621612 255 0 255 
1.00627 -0.295472 6.05762 0.456573 255 0 255 
1.01678 -0.27088 6.07633 0.421819 255 0 255 
1.02771 -0.246252 6.09646 0.442141 255 0 255 
1.04635 -0.207761 6.14737 0.284924 255 0 255 
1.05211 -0.22989 6.12567 0.376152 255 0 255 
1.13545 -0.37976 6.06327 0.363352 255 0 255 
1.12354 -0.349643 6.07418 0.35558 255 0 255 
1.1115 -0.373103 6.05621 0.373551 255 0 255 
1.09928 -0.343122 6.06775 0.353873 255 0 255 
1.08785 -0.366679 6.05014 0.439942 255 0 255 
1.11146 -0.319331 6.08649 0.362256 255 0 255 
1.1818 -0.617796 6.07219 0.308463 255 0 255 
0.758906 -1.07214 6.60723 0.38087 255 0 255 
0.748127 -1.06215 6.62838 0.353159 255 0 255 
0.730558 -1.06308 6.61671 0.359775 255 0 255 
0.719304 -1.05288 6.63785 0.318729 255 0 255 
0.736971 -1.05215 6.64953 0.326658 255 0 255 
0.702647 -1.05535 6.6273 0.363152 255 0 255 
0.707944 -1.04265 6.65893 0.301229 255 0 255 
0.691237 -1.04489 6.64845 0.308052 255 0 255 
0.679864 -1.03439 6.66957 0.282273 255 0 255 
0.725714 -1.04207 6.67063 0.303531 255 0 255 
0.696997 -1.0326 6.68036 0.285221 255 0 255 
0.714855 -1.03217 6.69204 0.281644 255 0 255 
0.674082 -1.04753 6.63784 0.371879 255 0 255 
0.662624 -1.03704 6.65916 0.305038 255 0 255 
0.644992 -1.03993 6.64854 0.38055 255 0 255 
0.65451 -1.04729 6.62665 0.347516 255 0 255 
0.683801 -1.05499 6.6163 0.36152 255 0 255 
0.66405 -1.05479 6.60491 0.37502 255 0 255 
0.693162 -1.06245 6.59454 0.403015 255 0 255 
0.712316 -1.06255 6.60579 0.361229 255 0 255 
0.721814 -1.06998 6.58425 0.411083 255 0 255 
0.673198 -1.06215 6.58282 0.415604 255 0 255 
0.702454 -1.06987 6.57277 0.431999 255 0 255 
0.682717 -1.06993 6.56117 0.442437 255 0 255 
0.740053 -1.07025 6.59532 0.387616 255 0 255 
0.705699 -1.02432 6.70916 0.31689 255 0 255 
0.687048 -1.02418 6.69917 0.297148 255 0 255 
0.677834 -1.01617 6.71629 0.304307 255 0 255 
0.696661 -1.01645 6.72637 0.265169 255 0 255 
0.659286 -1.01707 6.70684 0.326605 255 0 255 
0.668658 -1.00833 6.73361 0.243183 255 0 255 
0.650151 -1.00926 6.72428 0.306455 255 0 255 
0.687528 -1.0086 6.74355 0.253107 255 0 255 
0.632102 -1.01134 6.71564 0.333877 255 0 255 
0.614605 -1.01423 6.70538 0.346782 255 0 255 
0.642206 -1.0199 6.69679 0.314815 255 0 255 
0.624677 -1.02272 6.68639 0.337687 255 0 255 
0.652304 -1.02835 6.6779 0.290016 255 0 255 
0.669454 -1.02568 6.6881 0.295348 255 0 255 
0.634763 -1.03124 6.66735 0.326788 255 0 255 
0.562458 -1.00251 6.67415 0.402415 255 0 255 
0.573058 -1.01066 6.65466 0.34365 255 0 255 
0.590223 -1.01513 6.66579 0.423313 255 0 255 
0.583604 -1.01885 6.63526 0.351827 255 0 255 
0.600814 -1.02325 6.64636 0.339336 255 0 255 
0.611417 -1.03141 6.62702 0.33614 255 0 255 
0.59411 -1.02706 6.61575 0.35466 255 0 255 
0.617826 -1.02758 6.65727 0.408778 255 0 255 
0.628391 -1.03568 6.6379 0.345357 255 0 255 
0.607745 -1.01898 6.67635 0.331481 255 0 255 
0.59757 -1.01047 6.69536 0.338045 255 0 255 
0.580126 -1.00662 6.68496 0.324146 255 0 255 
0.603399 -1.03456 6.59374 0.411773 255 0 255 
0.613465 -1.0413 6.57211 0.406828 255 0 255 
0.630044 -1.04635 6.58283 0.417535 255 0 255 
0.623458 -1.04804 6.55033 0.401326 255 0 255 
0.640137 -1.05313 6.56123 0.417522 255 0 255 
0.649969 -1.05998 6.53935 0.422988 255 0 255 
0.633299 -1.05492 6.52834 0.413779 255 0 255 
0.656532 -1.05809 6.57188 0.412031 255 0 255 
0.666564 -1.06504 6.55036 0.433059 255 0 255 
0.646881 -1.0504 6.59372 0.384305 255 0 255 
0.63782 -1.04313 6.61599 0.342092 255 0 255 
0.620725 -1.03887 6.60494 0.369744 255 0 255 
1.06341 -0.394002 6.03709 0.47425 255 0 255 
1.06435 -0.426531 6.03041 0.507783 255 0 255 
1.08803 -0.399708 6.04358 0.440469 255 0 255 
1.08824 -0.432714 6.03697 0.478805 255 0 255 
1.06499 -0.459301 6.02346 0.5286 255 0 255 
1.06686 -0.491183 6.01672 0.55543 255 0 255 
1.04176 -0.4862 6.0092 0.646031 255 0 255 
1.04057 -0.453613 6.01673 0.619478 255 0 255 
1.03963 -0.420992 6.02385 0.609043 255 0 255 
1.01722 -0.480939 6.00228 0.65287 255 0 255 
1.11209 -0.40593 6.0506 0.397261 255 0 255 
1.11222 -0.438772 6.04445 0.425977 255 0 255 
1.13559 -0.41261 6.05742 0.371188 255 0 255 
1.13511 -0.445401 6.05114 0.374418 255 0 255 
1.11275 -0.471065 6.03812 0.420518 255 0 255 
1.11388 -0.503192 6.03202 0.429463 255 0 255 
1.09022 -0.497244 6.02413 0.489881 255 0 255 
1.08903 -0.465106 6.0307 0.478166 255 0 255 
1.06978 -0.630467 6.02589 0.623136 255 0 255 
1.06848 -0.596192 6.02307 0.551959 255 0 255 
1.04591 -0.626019 6.01645 0.56263 255 0 255 
1.0679 -0.56147 6.02074 0.530423 255 0 255 
1.04486 -0.591329 6.01428 0.563304 255 0 255 
1.0439 -0.556568 6.01208 0.572748 255 0 255 
1.02284 -0.621109 6.00757 0.618609 255 0 255 
1.0675 -0.526428 6.0188 0.533691 255 0 255 
1.09078 -0.532383 6.02658 0.464954 255 0 255 
1.09136 -0.567066 6.02907 0.462542 255 0 255 
1.02111 -0.586384 6.00582 0.613754 255 0 255 
0.998276 -0.616248 5.99876 0.636159 255 0 255 
1.01972 -0.551588 6.00446 0.616395 255 0 255 
0.996804 -0.58139 5.99759 0.643454 255 0 255 
0.994979 -0.546576 5.99661 0.665055 255 0 255 
0.97388 -0.611381 5.99017 0.687617 255 0 255 
1.01847 -0.516376 6.00335 0.625755 255 0 255 
1.04265 -0.521513 6.01066 0.595759 255 0 255 
1.06916 -0.663254 6.03863 0.631183 255 0 255 
1.09316 -0.634607 6.0361 0.547472 255 0 255 
1.06856 -0.695775 6.05176 0.625123 255 0 255 
1.09243 -0.667247 6.04921 0.553558 255 0 255 
1.09152 -0.699649 6.06251 0.563086 255 0 255 
1.11619 -0.638965 6.0463 0.47523 255 0 255 
1.06836 -0.72803 6.06542 0.615907 255 0 255 
1.06804 -0.759916 6.07934 0.598996 255 0 255 
1.04386 -0.758642 6.06837 0.648367 255 0 255 
1.04433 -0.726665 6.05451 0.664393 255 0 255 
1.0445 -0.694263 6.04112 0.671454 255 0 255 
1.01974 -0.757552 6.05723 0.672191 255 0 255 
1.11568 -0.669745 6.05957 0.475825 255 0 255 
1.13896 -0.642424 6.05678 0.40866 255 0 255 
1.11559 -0.700028 6.07323 0.480952 255 0 255 
1.13841 -0.673118 6.07034 0.405041 255 0 255 
1.11526 -0.730334 6.0871 0.496796 255 0 255 
1.09162 -0.76006 6.09031 0.574482 255 0 255 
1.09147 -0.730093 6.07627 0.581581 255 0 255 
1.07178 -0.836902 6.14337 0.566314 255 0 255 
1.04836 -0.865299 6.15476 0.59304 255 0 255 
1.07031 -0.811488 6.122 0.589055 255 0 255 
1.04676 -0.840056 6.13336 0.632524 255 0 255 
1.04537 -0.8146 6.1119 0.615079 255 0 255 
1.0235 -0.868617 6.1448 0.661645 255 0 255 
1.06911 -0.785748 6.10064 0.595978 255 0 255 
1.09276 -0.785805 6.11156 0.570372 255 0 255 
1.02208 -0.841216 6.12291 0.621126 255 0 255 
0.998986 -0.870732 6.13519 0.652177 255 0 255 
1.02172 -0.813619 6.10096 0.641665 255 0 255 
0.997402 -0.843234 6.11313 0.691083 255 0 255 
0.996074 -0.815526 6.09087 0.666562 255 0 255 
0.97395 -0.872989 6.12537 0.727086 255 0 255 
1.02113 -0.785717 6.07908 0.644184 255 0 255 
1.0447 -0.786746 6.0901 0.620642 255 0 255 
0.961842 -0.644928 5.9963 0.692533 255 0 255 
0.93746 -0.675627 5.99831 0.680352 255 0 255 
0.926428 -0.708984 6.00513 0.677255 255 0 255 
0.903032 -0.740516 6.00769 0.811875 255 0 255 
0.927878 -0.744437 6.01778 0.678115 255 0 255 
0.901066 -0.704713 5.99545 0.766548 255 0 255 
0.877914 -0.737278 5.99786 0.745927 255 0 255 
0.912134 -0.671076 5.98901 0.652187 255 0 255 
0.923614 -0.637447 5.98322 0.796355 255 0 255 
0.948424 -0.60636 5.98189 0.775455 255 0 255 
0.92244 -0.601611 5.97329 0.802931 255 0 255 
0.916636 -0.776277 6.03504 0.851491 255 0 255 
0.893273 -0.806088 6.048 0.882513 255 0 255 
0.883293 -0.838727 6.06668 0.786142 255 0 255 
0.861563 -0.869807 6.08096 0.784056 255 0 255 
0.885524 -0.872147 6.0907 0.815775 255 0 255 
0.858348 -0.836112 6.05703 0.845665 255 0 255 
0.835777 -0.866653 6.07127 0.918109 255 0 255 
0.868851 -0.803724 6.0381 0.753875 255 0 255 
0.879332 -0.771039 6.01994 0.806888 255 0 255 
0.804191 -0.825712 6.03355 0.906288 255 0 255 
0.815405 -0.794402 6.01525 0.830555 255 0 255 
0.840247 -0.765227 6.00322 0.758416 255 0 255 
0.851334 -0.733764 5.98629 0.754391 255 0 255 
0.842911 -0.799373 6.02698 0.846951 255 0 255 
0.832283 -0.831713 6.04605 0.793026 255 0 255 
0.807933 -0.860575 6.05896 0.835519 255 0 255 
0.84809 -0.697087 5.97335 0.791361 255 0 255 
0.85884 -0.662784 5.96778 0.773051 255 0 255 
0.883626 -0.63001 5.96862 0.807564 255 0 255 
0.895087 -0.596796 5.96381 0.681018 255 0 255 
0.885933 -0.666066 5.97912 0.823677 255 0 255 
0.875174 -0.700998 5.98484 0.760396 255 0 255 
0.986155 -0.64941 6.00534 0.640216 255 0 255 
0.974051 -0.682246 6.01221 0.625144 255 0 255 
0.998028 -0.686919 6.02154 0.671292 255 0 255 
1.01024 -0.654124 6.01435 0.660483 255 0 255 
0.974135 -0.717286 6.02433 0.746037 255 0 255 
0.974064 -0.75189 6.03722 0.745602 255 0 255 
0.950993 -0.748087 6.02748 0.791822 255 0 255 
0.950674 -0.713201 6.01488 0.693312 255 0 255 
1.03331 -0.658027 6.02377 0.675002 255 0 255 
1.02083 -0.690094 6.03107 0.687314 255 0 255 
1.02011 -0.723956 6.04387 0.684831 255 0 255 
0.997398 -0.754769 6.04723 0.692184 255 0 255 
0.997638 -0.721018 6.03406 0.701973 255 0 255 
0.974527 -0.8433 6.10308 0.722081 255 0 255 
0.951533 -0.873106 6.1168 0.738883 255 0 255 
0.974418 -0.813179 6.08087 0.70258 255 0 255 
0.950816 -0.843007 6.09453 0.742654 255 0 255 
0.950832 -0.812883 6.0721 0.752988 255 0 255 
0.928724 -0.87367 6.10825 0.828742 255 0 255 
0.974183 -0.782636 6.05888 0.710436 255 0 255 
0.996511 -0.785371 6.06879 0.666867 255 0 255 
0.928504 -0.841872 6.08515 0.831408 255 0 255 
0.906826 -0.872503 6.09933 0.868989 255 0 255 
0.928647 -0.809748 6.06201 0.827039 255 0 255 
0.906288 -0.840364 6.07603 0.821145 255 0 255 
0.939718 -0.778983 6.04445 0.777559 255 0 255 
0.972845 -0.376836 6.01257 0.616262 255 0 255 
0.961612 -0.406891 6.00264 0.642061 255 0 255 
0.988782 -0.411326 6.01039 0.622219 255 0 255 
1.00032 -0.381165 6.02037 0.601544 255 0 255 
0.963819 -0.439216 5.99598 0.635491 255 0 255 
0.966299 -0.471167 5.98851 0.665808 255 0 255 
0.938627 -0.467173 5.98039 0.634818 255 0 255 
0.936027 -0.434916 5.98792 0.616775 255 0 255 
1.02643 -0.38585 6.02743 0.567062 255 0 255 
1.01494 -0.416034 6.01751 0.613888 255 0 255 
1.01576 -0.448695 6.00997 0.622967 255 0 255 
0.991941 -0.475924 5.99556 0.659074 255 0 255 
0.990087 -0.443916 6.00317 0.627248 255 0 255 
0.972063 -0.576517 5.98985 0.729781 255 0 255 
0.970314 -0.541601 5.98958 0.678348 255 0 255 
0.946245 -0.571529 5.98199 0.741753 255 0 255 
0.943785 -0.536787 5.98167 0.621451 255 0 255 
0.968255 -0.506607 5.98926 0.60518 255 0 255 
0.993484 -0.5115 5.99621 0.635222 255 0 255 
0.919624 -0.567164 5.97349 0.662418 255 0 255 
0.916741 -0.532622 5.9735 0.631102 255 0 255 
0.891762 -0.56242 5.96414 0.67348 255 0 255 
0.913685 -0.497893 5.97311 0.632521 255 0 255 
0.941159 -0.502092 5.98129 0.614732 255 0 255 
1.1593 -0.483755 6.05469 0.350933 255 0 255 
1.16041 -0.515326 6.0497 0.370212 255 0 255 
1.13744 -0.509146 6.04091 0.378704 255 0 255 
1.13631 -0.477291 6.04609 0.3583 255 0 255 
1.16066 -0.61375 6.06244 0.340948 255 0 255 
1.16056 -0.581264 6.05796 0.36707 255 0 255 
1.13797 -0.610178 6.05219 0.406978 255 0 255 
1.13767 -0.577624 6.04798 0.395429 255 0 255 
1.16031 -0.548336 6.05364 0.371791 255 0 255 
1.11557 -0.605474 6.04236 0.473735 255 0 255 
1.11528 -0.571379 6.03876 0.454967 255 0 255 
1.09233 -0.600954 6.03253 0.542885 255 0 255 
1.115 -0.537186 6.03541 0.411216 255 0 255 
1.13792 -0.543316 6.04444 0.386983 255 0 255 
0.816036 -1.05397 6.32779 0.755718 255 0 255 
0.807698 -1.0607 6.36201 0.637486 255 0 255 
0.792856 -1.05965 6.3567 0.642283 255 0 255 
0.784586 -1.0661 6.39098 0.581793 255 0 255 
0.799501 -1.06708 6.39609 0.56252 255 0 255 
0.76948 -1.06521 6.386 0.608531 255 0 255 
0.77602 -1.07229 6.42491 0.519254 255 0 255 
0.761103 -1.07155 6.42017 0.544214 255 0 255 
0.752613 -1.07805 6.45407 0.527265 255 0 255 
0.79112 -1.07347 6.42985 0.523069 255 0 255 
0.767736 -1.07907 6.4586 0.512776 255 0 255 
0.782753 -1.08036 6.46327 0.539478 255 0 255 
0.745042 -1.07008 6.41538 0.572125 255 0 255 
0.736631 -1.07643 6.44936 0.552884 255 0 255 
0.720432 -1.07495 6.44458 0.568288 255 0 255 
0.729816 -1.06842 6.41185 0.560103 255 0 255 
0.75473 -1.06378 6.38258 0.636176 255 0 255 
0.739339 -1.06193 6.37903 0.566697 255 0 255 
0.764134 -1.05711 6.34973 0.62999 255 0 255 
0.778939 -1.05866 6.35332 0.658178 255 0 255 
0.788112 -1.05179 6.32031 0.721028 255 0 255 
0.748886 -1.0554 6.34595 0.550733 255 0 255 
0.77359 -1.05043 6.31666 0.635625 255 0 255 
0.758096 -1.04858 6.31269 0.551294 255 0 255 
0.802045 -1.05276 6.3239 0.744536 255 0 255 
0.776711 -1.07662 6.49956 0.540455 255 0 255 
0.758523 -1.07777 6.48768 0.499224 255 0 255 
0.752702 -1.07444 6.52397 0.493111 255 0 255 
0.770528 -1.07379 6.53556 0.515712 255 0 255 
0.733962 -1.07529 6.51231 0.476055 255 0 255 
0.746225 -1.07188 6.55969 0.458339 255 0 255 
0.727797 -1.07224 6.5484 0.46282 255 0 255 
0.764536 -1.07233 6.57133 0.461909 255 0 255 
0.708541 -1.07274 6.53688 0.459631 255 0 255 
0.692231 -1.07078 6.53243 0.471053 255 0 255 
0.718188 -1.07381 6.50802 0.492475 255 0 255 
0.701755 -1.07194 6.50341 0.50308 255 0 255 
0.727369 -1.07495 6.47876 0.524407 255 0 255 
0.7433 -1.07649 6.48336 0.504529 255 0 255 
0.711075 -1.07326 6.47418 0.536372 255 0 255 
0.642498 -1.05583 6.49879 0.430203 255 0 255 
0.652321 -1.05679 6.4718 0.45194 255 0 255 
0.668402 -1.06205 6.48078 0.467523 255 0 255 
0.662186 -1.0579 6.44442 0.476837 255 0 255 
0.678406 -1.06327 6.45353 0.495771 255 0 255 
0.688415 -1.0647 6.42607 0.523573 255 0 255 
0.672054 -1.05927 6.41671 0.502078 255 0 255 
0.694429 -1.06842 6.46263 0.515428 255 0 255 
0.704376 -1.06974 6.43524 0.54664 255 0 255 
0.685159 -1.06703 6.49214 0.484728 255 0 255 
0.675873 -1.06586 6.52135 0.456685 255 0 255 
0.659281 -1.06086 6.51012 0.442688 255 0 255 
0.681261 -1.05259 6.38363 0.49144 255 0 255 
0.691541 -1.04633 6.35291 0.552344 255 0 255 
0.707154 -1.05146 6.35991 0.521661 255 0 255 
0.701608 -1.03987 6.32217 0.54829 255 0 255 
0.71743 -1.04511 6.32922 0.574798 255 0 255 
0.727546 -1.03862 6.29847 0.582865 255 0 255 
0.711499 -1.0332 6.29096 0.617481 255 0 255 
0.733073 -1.0504 6.3363 0.531202 255 0 255 
0.743142 -1.04383 6.30552 0.609326 255 0 255 
0.723614 -1.05705 6.36959 0.544936 255 0 255 
0.714149 -1.06346 6.40266 0.53764 255 0 255 
0.697727 -1.05805 6.39297 0.513719 255 0 255 
0.721212 -1.01634 6.25799 0.605808 255 0 255 
0.731484 -0.999222 6.22652 0.673646 255 0 255 
0.74677 -1.00354 6.23288 0.644298 255 0 255 
0.741666 -0.981241 6.19478 0.671578 255 0 255 
0.757046 -0.985646 6.20154 0.703858 255 0 255 
0.766989 -0.967683 6.16987 0.707932 255 0 255 
0.751219 -0.962816 6.16307 0.676844 255 0 255 
0.772151 -0.990087 6.20812 0.723297 255 0 255 
0.782024 -0.972119 6.17659 0.810152 255 0 255 
0.796656 -0.976132 6.18319 0.806016 255 0 255 
0.787592 -0.995428 6.21587 0.801898 255 0 255 
0.762679 -1.00913 6.2407 0.687553 255 0 255 
0.778194 -1.01433 6.24833 0.652475 255 0 255 
0.753235 -1.02691 6.27336 0.604503 255 0 255 
0.737455 -1.02156 6.26571 0.638688 255 0 255 
0.768122 -1.03169 6.28074 0.655472 255 0 255 
0.786422 -0.912615 6.11352 0.762695 255 0 255 
0.797192 -0.886365 6.08612 0.885949 255 0 255 
0.825844 -0.894322 6.09917 0.806292 255 0 255 
0.801639 -0.917039 6.12028 0.806873 255 0 255 
0.81624 -0.921532 6.12731 0.871024 255 0 255 
0.791766 -0.944881 6.14865 0.842775 255 0 255 
0.776795 -0.940311 6.14164 0.728657 255 0 255 
0.806315 -0.949188 6.15532 0.917383 255 0 255 
0.876299 -0.899804 6.11847 0.810655 255 0 255 
0.854894 -0.92604 6.14135 0.871825 255 0 255 
0.846402 -0.953599 6.16878 0.904219 255 0 255 
0.8249 -0.979594 6.19171 0.895735 255 0 255 
0.849946 -0.981795 6.20015 0.903629 255 0 255 
0.851783 -0.897242 6.10886 0.779798 255 0 255 
0.842008 -1.00103 6.23235 0.888067 255 0 255 
0.828323 -0.999724 6.22795 0.87422 255 0 255 
0.819945 -1.01828 6.26015 0.812776 255 0 255 
0.833307 -1.0192 6.2644 0.83583 255 0 255 
0.806042 -1.01709 6.25602 0.746463 255 0 255 
0.810986 -1.03573 6.29229 0.797787 255 0 255 
0.797028 -1.03464 6.28835 0.723299 255 0 255 
0.824598 -1.03674 6.29621 0.82071 255 0 255 
0.855672 -1.0164 6.26896 0.760034 255 0 255 
0.864333 -0.998219 6.2372 0.828911 255 0 255 
0.87282 -0.97938 6.205 0.862007 255 0 255 
0.895039 -0.976908 6.21014 0.76991 255 0 255 
0.888 -0.995068 6.24067 0.713856 255 0 255 
0.881208 -1.01283 6.2709 0.757888 255 0 255 
0.861455 -1.03152 6.29997 0.718572 255 0 255 
0.842144 -1.05023 6.32904 0.70117 255 0 255 
0.867554 -1.04653 6.33055 0.665401 255 0 255 
0.868974 -0.954521 6.17686 0.863841 255 0 255 
0.87752 -0.92715 6.14976 0.864671 255 0 255 
0.896896 -0.899609 6.12653 0.818355 255 0 255 
0.919951 -0.899402 6.13395 0.791042 255 0 255 
0.899303 -0.926048 6.15647 0.803974 255 0 255 
0.891271 -0.952222 6.18212 0.786939 255 0 255 
0.965447 -0.89664 6.14918 0.680239 255 0 255 
0.945961 -0.922239 6.17041 0.64624 255 0 255 
0.938266 -0.946116 6.19382 0.730934 255 0 255 
0.918867 -0.972185 6.21485 0.724147 255 0 255 
0.943361 -0.968244 6.21939 0.615913 255 0 255 
0.914023 -0.950281 6.18881 0.747646 255 0 255 
0.922259 -0.924529 6.16352 0.783145 255 0 255 
0.942525 -0.898581 6.1424 0.737752 255 0 255 
0.937969 -0.985392 6.24748 0.658475 255 0 255 
0.918929 -1.00514 6.27522 0.663417 255 0 255 
0.913677 -1.02186 6.3029 0.563633 255 0 255 
0.894732 -1.04084 6.33051 0.598322 255 0 255 
0.922381 -1.03578 6.33046 0.561291 255 0 255 
0.886118 -1.02744 6.30283 0.711069 255 0 255 
0.912421 -0.990579 6.2451 0.67868 255 0 255 
0.940204 -1.01653 6.30622 0.576809 255 0 255 
0.94527 -0.999547 6.27861 0.596833 255 0 255 
0.963175 -0.979676 6.25415 0.540567 255 0 255 
0.968741 -0.962611 6.22637 0.598964 255 0 255 
0.993999 -0.957504 6.23314 0.545536 255 0 255 
0.989019 -0.973952 6.25935 0.503317 255 0 255 
0.970856 -0.993545 6.28363 0.496062 255 0 255 
0.96634 -1.01001 6.30967 0.574623 255 0 255 
0.948661 -1.02943 6.33384 0.561526 255 0 255 
0.975186 -1.02363 6.33731 0.529915 255 0 255 
0.962828 -0.942795 6.20094 0.543354 255 0 255 
0.970102 -0.918983 6.17762 0.667076 255 0 255 
0.990656 -0.894198 6.15893 0.688023 255 0 255 
1.01577 -0.890791 6.16727 0.616366 255 0 255 
0.995219 -0.915222 6.18595 0.630668 255 0 255 
0.988219 -0.937603 6.20799 0.600618 255 0 255 
1.06561 -0.883052 6.18599 0.523542 255 0 255 
1.04561 -0.906828 6.20315 0.532165 255 0 255 
1.03843 -0.927913 6.22412 0.501801 255 0 255 
1.01913 -0.951883 6.24097 0.489994 255 0 255 
1.04429 -0.94649 6.24884 0.531558 255 0 255 
1.01312 -0.933338 6.21616 0.527652 255 0 255 
1.02045 -0.911164 6.19436 0.57369 255 0 255 
1.04071 -0.887403 6.17707 0.563349 255 0 255 
1.03883 -0.962219 6.27372 0.49784 255 0 255 
1.02141 -0.981444 6.2958 0.488739 255 0 255 
1.01641 -0.997455 6.32062 0.461663 255 0 255 
0.999418 -1.01686 6.34267 0.483347 255 0 255 
1.0235 -1.01046 6.34779 0.429727 255 0 255 
0.992134 -1.00424 6.31518 0.51844 255 0 255 
0.996724 -0.987677 6.28923 0.533966 255 0 255 
1.01417 -0.968346 6.26708 0.517182 255 0 255 
1.03983 -0.991606 6.32681 0.432368 255 0 255 
1.04481 -0.97532 6.30214 0.47219 255 0 255 
1.0617 -0.956733 6.28114 0.4896 255 0 255 
1.06698 -0.940878 6.25628 0.524212 255 0 255 
1.08963 -0.935409 6.26356 0.476732 255 0 255 
1.08399 -0.950557 6.28763 0.458761 255 0 255 
1.06757 -0.96931 6.30876 0.479306 255 0 255 
1.06198 -0.984898 6.3326 0.415475 255 0 255 
1.04568 -1.00394 6.35351 0.404463 255 0 255 
1.06788 -0.997608 6.35914 0.455524 255 0 255 
1.0625 -0.923459 6.23241 0.527282 255 0 255 
1.06956 -0.902283 6.2115 0.503108 255 0 255 
1.08831 -0.879531 6.1948 0.495841 255 0 255 
1.11136 -0.875022 6.20299 0.416167 255 0 255 
1.09266 -0.897805 6.21967 0.470924 255 0 255 
1.0853 -0.917822 6.23993 0.506414 255 0 255 
1.1553 -0.867679 6.21818 0.295353 255 0 255 
1.13664 -0.889281 6.23445 0.329606 255 0 255 
1.12952 -0.908594 6.25419 0.404563 255 0 255 
1.11156 -0.930539 6.27036 0.451607 255 0 255 
1.13344 -0.925812 6.27693 0.34332 255 0 255 
1.10772 -0.913537 6.24747 0.444258 255 0 255 
1.11492 -0.893381 6.22729 0.398574 255 0 255 
1.13326 -0.871795 6.21083 0.343217 255 0 255 
1.12728 -0.940557 6.30016 0.315194 255 0 255 
1.11088 -0.958545 6.32071 0.339143 255 0 255 
1.10525 -0.973805 6.34395 0.351123 255 0 255 
1.08906 -0.992107 6.36453 0.427768 255 0 255 
1.11049 -0.986801 6.36975 0.369816 255 0 255 
1.08396 -0.979445 6.33859 0.461815 255 0 255 
1.08957 -0.963658 6.31489 0.421299 255 0 255 
1.10573 -0.945814 6.29422 0.411089 255 0 255 
1.12722 -0.969835 6.34925 0.295611 255 0 255 
1.13286 -0.954164 6.32614 0.252319 255 0 255 
1.15 -0.937491 6.30572 0.229912 255 0 255 
1.15606 -0.922572 6.28262 0.249744 255 0 255 
1.15495 -0.950856 6.33092 0.151996 255 0 255 
1.14893 -0.966174 6.35351 0.195148 255 0 255 
1.13209 -0.983452 6.37408 0.2434 255 0 255 
1.15191 -0.905255 6.26083 0.297847 255 0 255 
1.15897 -0.88577 6.24118 0.28253 255 0 255 
1.17814 -0.865555 6.22502 0.214429 255 0 255 
1.18298 -0.826113 6.18764 0.198161 255 0 255 
0.637969 -0.82135 5.99463 0.482553 255 0 255 
0.625834 -0.841383 6.01867 0.489474 255 0 255 
0.611335 -0.834464 6.00959 0.482238 255 0 255 
0.613667 -0.861951 6.04263 0.506704 255 0 255 
0.599263 -0.854765 6.03368 0.496706 255 0 255 
0.586945 -0.875017 6.05772 0.525255 255 0 255 
0.601599 -0.882143 6.06689 0.533963 255 0 255 
0.58504 -0.847567 6.0246 0.493087 255 0 255 
0.572849 -0.867875 6.04864 0.515099 255 0 255 
0.558544 -0.860735 6.03957 0.528636 255 0 255 
0.582805 -0.822916 5.99487 0.528377 255 0 255 
0.609362 -0.809776 5.97983 0.536347 255 0 255 
0.63555 -0.796597 5.96512 0.536509 255 0 255 
0.606875 -0.785261 5.95077 0.554894 255 0 255 
0.589242 -0.894904 6.09357 0.526436 255 0 255 
0.577587 -0.908245 6.12176 0.513794 255 0 255 
0.562511 -0.900001 6.11123 0.512265 255 0 255 
0.566094 -0.921601 6.15017 0.500511 255 0 255 
0.550686 -0.91315 6.13972 0.499438 255 0 255 
0.535525 -0.905004 6.129 0.49844 255 0 255 
0.520906 -0.897618 6.12014 0.49717 255 0 255 
0.547832 -0.89265 6.1022 0.508635 255 0 255 
0.533497 -0.88572 6.09313 0.508729 255 0 255 
0.560094 -0.8803 6.07531 0.51435 255 0 255 
0.574735 -0.887597 6.08439 0.521627 255 0 255 
0.546103 -0.873225 6.06627 0.520048 255 0 255 
0.464337 -0.878469 6.08368 0.444477 255 0 255 
0.490948 -0.87081 6.06585 0.469889 255 0 255 
0.503767 -0.858506 6.04034 0.476231 255 0 255 
0.530604 -0.850874 6.02296 0.51942 255 0 255 
0.502856 -0.841412 6.00669 0.480342 255 0 255 
0.531364 -0.868096 6.05688 0.512079 255 0 255 
0.51915 -0.88063 6.08354 0.502353 255 0 255 
0.506266 -0.892798 6.11072 0.493006 255 0 255 
0.491744 -0.887903 6.10131 0.47368 255 0 255 
0.514616 -0.823039 5.98583 0.545928 255 0 255 
0.540293 -0.808642 5.97187 0.540765 255 0 255 
0.552075 -0.790264 5.95114 0.545332 255 0 255 
0.577905 -0.776196 5.93757 0.549485 255 0 255 
0.549519 -0.767439 5.92487 0.543817 255 0 255 
0.580663 -0.799364 5.96443 0.559163 255 0 255 
0.556678 -0.836711 6.00888 0.530695 255 0 255 
0.723139 -0.602783 5.8992 0.64238 255 0 255 
0.71353 -0.633936 5.90374 0.623494 255 0 255 
0.688847 -0.661474 5.90273 0.621417 255 0 255 
0.679066 -0.691863 5.90837 0.659857 255 0 255 
0.648982 -0.684321 5.89708 0.67588 255 0 255 
0.657718 -0.655431 5.89216 0.537304 255 0 255 
0.682633 -0.628257 5.89253 0.537583 255 0 255 
0.6912 -0.598605 5.88822 0.593181 255 0 255 
0.68366 -0.721535 5.92707 0.557983 255 0 255 
0.672209 -0.748465 5.94222 0.594936 255 0 255 
0.646986 -0.769884 5.94989 0.541127 255 0 255 
0.61754 -0.760164 5.93694 0.524494 255 0 255 
0.643164 -0.739221 5.92904 0.548714 255 0 255 
0.653784 -0.713879 5.91542 0.656829 255 0 255 
0.559184 -0.743636 5.91268 0.560586 255 0 255 
0.584075 -0.723047 5.90591 0.699471 255 0 255 
0.593677 -0.699026 5.89398 0.504176 255 0 255 
0.618479 -0.677982 5.88694 0.544646 255 0 255 
0.587703 -0.671305 5.87728 0.546804 255 0 255 
0.624263 -0.705817 5.904 0.667718 255 0 255 
0.613833 -0.731027 5.91681 0.673972 255 0 255 
0.588885 -0.751409 5.924 0.569796 255 0 255 
0.595156 -0.644169 5.87258 0.54925 255 0 255 
0.619271 -0.618564 5.87187 0.54376 255 0 255 
0.62662 -0.590413 5.86688 0.516218 255 0 255 
0.659746 -0.593703 5.87695 0.53085 255 0 255 
0.651264 -0.623266 5.88173 0.511674 255 0 255 
0.627378 -0.649476 5.88125 0.540203 255 0 255 
0.524117 -0.783163 5.93767 0.53315 255 0 255 
0.512612 -0.801604 5.95785 0.526549 255 0 255 
0.48741 -0.817509 5.97146 0.530716 255 0 255 
0.475949 -0.836277 5.9922 0.538684 255 0 255 
0.44948 -0.831189 5.97833 0.52417 255 0 255 
0.460187 -0.812391 5.95867 0.524015 255 0 255 
0.484696 -0.796152 5.94495 0.517198 255 0 255 
0.495777 -0.777268 5.9261 0.520572 255 0 255 
0.520925 -0.761529 5.91292 0.543262 255 0 255 
0.492077 -0.755386 5.90197 0.501318 255 0 255 
0.47672 -0.851634 6.02402 0.468416 255 0 255 
0.463909 -0.864108 6.04975 0.463031 255 0 255 
0.438174 -0.873872 6.06777 0.445424 255 0 255 
0.425976 -0.886218 6.09347 0.442837 255 0 255 
0.401153 -0.883603 6.07693 0.478886 255 0 255 
0.413242 -0.87036 6.05244 0.451486 255 0 255 
0.437939 -0.859357 6.03461 0.458411 255 0 255 
