ply
format ascii 1.0
comment Seamless Cloth Simulation with High Geometric Fidelity 
comment Wed May  8 12:34:47 2019
element vertex 998
property float x
property float y
property float z
property float quality
property uchar red
property uchar green
property uchar blue
end_header
0.323367 -0.902585 6.66366 0.461062 255 0 255 
0.196586 -0.83275 6.70698 0.438054 255 0 255 
0.208825 -0.845559 6.68485 0.437691 255 0 255 
0.192108 -0.840283 6.67526 0.437465 255 0 255 
0.179956 -0.827785 6.6974 0.438192 255 0 255 
0.204711 -0.851232 6.6527 0.443039 255 0 255 
0.175794 -0.834798 6.66591 0.437988 255 0 255 
0.188647 -0.844698 6.64287 0.44358 255 0 255 
0.172756 -0.838365 6.63332 0.447263 255 0 255 
0.163723 -0.822476 6.68802 0.438611 255 0 255 
0.159942 -0.828577 6.65671 0.414733 255 0 255 
0.147522 -0.817366 6.67902 0.439192 255 0 255 
0.201559 -0.854141 6.62022 0.454978 255 0 255 
0.186079 -0.846383 6.61018 0.431066 255 0 255 
0.199492 -0.853388 6.58663 0.472798 255 0 255 
0.215466 -0.861143 6.59745 0.468528 255 0 255 
0.218106 -0.860593 6.63062 0.454348 255 0 255 
0.231969 -0.868759 6.6083 0.468214 255 0 255 
0.235248 -0.866453 6.64099 0.454099 255 0 255 
0.221786 -0.856849 6.66328 0.443183 255 0 255 
0.248957 -0.875429 6.61889 0.467791 255 0 255 
0.256584 -0.8633 6.48929 0.398692 255 0 255 
0.272118 -0.873808 6.50071 0.395987 255 0 255 
0.257931 -0.870807 6.52433 0.419432 255 0 255 
0.274 -0.880355 6.53585 0.415627 255 0 255 
0.288255 -0.883481 6.51211 0.391647 255 0 255 
0.259947 -0.876805 6.55968 0.44383 255 0 255 
0.290712 -0.888761 6.5473 0.411031 255 0 255 
0.276556 -0.884963 6.57114 0.440561 255 0 255 
0.293665 -0.892563 6.58246 0.436483 255 0 255 
0.304714 -0.892805 6.52363 0.386411 255 0 255 
0.307647 -0.896735 6.55869 0.405891 255 0 255 
0.321533 -0.901424 6.53522 0.381047 255 0 255 
0.262463 -0.881212 6.59502 0.462095 255 0 255 
0.279832 -0.887484 6.60598 0.459553 255 0 255 
0.245804 -0.873189 6.58397 0.463323 255 0 255 
0.229498 -0.864523 6.57313 0.464236 255 0 255 
0.243776 -0.867483 6.54862 0.445551 255 0 255 
0.228267 -0.857464 6.53751 0.447854 255 0 255 
0.213758 -0.855671 6.56213 0.467358 255 0 255 
0.24276 -0.85961 6.51318 0.421591 255 0 255 
0.33929 -0.911625 6.54772 0.37464 255 0 255 
0.325465 -0.907652 6.57061 0.400995 255 0 255 
0.343793 -0.915309 6.58247 0.39522 255 0 255 
0.357263 -0.92001 6.55977 0.367788 255 0 255 
0.330235 -0.910823 6.60555 0.428615 255 0 255 
0.362347 -0.922806 6.59487 0.388383 255 0 255 
0.349146 -0.917083 6.61781 0.42273 255 0 255 
0.37558 -0.928224 6.5721 0.361062 255 0 255 
0.336116 -0.910539 6.64058 0.449947 255 0 255 
0.316943 -0.904233 6.62893 0.453972 255 0 255 
0.298194 -0.896694 6.61762 0.456806 255 0 255 
0.311631 -0.902625 6.59421 0.432419 255 0 255 
0.300088 -0.772798 6.98984 0.62062 255 0 255 
0.287749 -0.762939 6.97938 0.599009 255 0 255 
0.300963 -0.787228 6.96252 0.554513 255 0 255 
0.288316 -0.777413 6.95161 0.536778 255 0 255 
0.274642 -0.752873 6.96854 0.577335 255 0 255 
0.301691 -0.801158 6.93474 0.498517 255 0 255 
0.274498 -0.767307 6.94016 0.52078 255 0 255 
0.288532 -0.791176 6.92361 0.485217 255 0 255 
0.274134 -0.781408 6.91182 0.475792 255 0 255 
0.260089 -0.742638 6.95675 0.558761 255 0 255 
0.259497 -0.757228 6.92815 0.509247 255 0 255 
0.245007 -0.732423 6.94477 0.545004 255 0 255 
0.30241 -0.814793 6.90678 0.457239 255 0 255 
0.288829 -0.805236 6.89543 0.449703 255 0 255 
0.303407 -0.828851 6.87859 0.432584 255 0 255 
0.318177 -0.840141 6.88983 0.439174 255 0 255 
0.316841 -0.826572 6.91767 0.469604 255 0 255 
0.332105 -0.851502 6.90054 0.450775 255 0 255 
0.330433 -0.838188 6.92804 0.486521 255 0 255 
0.315659 -0.813002 6.94545 0.515781 255 0 255 
0.328909 -0.824465 6.95549 0.536931 255 0 255 
0.345449 -0.862933 6.91064 0.466128 255 0 255 
0.343426 -0.849575 6.9379 0.506227 255 0 255 
0.358116 -0.874182 6.9202 0.482933 255 0 255 
0.31451 -0.799085 6.97271 0.576377 255 0 255 
0.22869 -0.72144 6.93347 0.535177 255 0 255 
0.24244 -0.74485 6.91686 0.502783 255 0 255 
0.226103 -0.734193 6.90533 0.498362 255 0 255 
0.212693 -0.710599 6.92219 0.526006 255 0 255 
0.239833 -0.757456 6.88894 0.470713 255 0 255 
0.209684 -0.723365 6.89374 0.494928 255 0 255 
0.223174 -0.74698 6.87741 0.47093 255 0 255 
0.2065 -0.736775 6.86548 0.472405 255 0 255 
0.196129 -0.699626 6.91028 0.518723 255 0 255 
0.193071 -0.712684 6.88169 0.493595 255 0 255 
0.179779 -0.688511 6.89837 0.514179 255 0 255 
0.236869 -0.770608 6.86107 0.451113 255 0 255 
0.219846 -0.760885 6.84922 0.454771 255 0 255 
0.233545 -0.784871 6.83319 0.442991 255 0 255 
0.251997 -0.795819 6.84511 0.437611 255 0 255 
0.255044 -0.782183 6.87297 0.448183 255 0 255 
0.270295 -0.806654 6.85661 0.433836 255 0 255 
0.272506 -0.793678 6.88436 0.447738 255 0 255 
0.257523 -0.769586 6.90062 0.471862 255 0 255 
0.287681 -0.817638 6.86785 0.432205 255 0 255 
0.2952 -0.849343 6.78877 0.420153 255 0 255 
0.31442 -0.858538 6.79995 0.412874 255 0 255 
0.299233 -0.840967 6.8188 0.417293 255 0 255 
0.332379 -0.868084 6.81084 0.406076 255 0 255 
0.317273 -0.85131 6.82992 0.411895 255 0 255 
0.333568 -0.861918 6.84042 0.408372 255 0 255 
0.348579 -0.878221 6.82115 0.400809 255 0 255 
0.301972 -0.834326 6.84889 0.421046 255 0 255 
0.318573 -0.845533 6.85958 0.41915 255 0 255 
0.28484 -0.823714 6.83767 0.424411 255 0 255 
0.266526 -0.813484 6.82647 0.429348 255 0 255 
0.280964 -0.831369 6.80759 0.42322 255 0 255 
0.261822 -0.822076 6.79624 0.429513 255 0 255 
0.247692 -0.803509 6.81481 0.43536 255 0 255 
0.276018 -0.840235 6.77782 0.42661 255 0 255 
0.363105 -0.888471 6.83201 0.400734 255 0 255 
0.377724 -0.899725 6.84198 0.402683 255 0 255 
0.361572 -0.883297 6.86158 0.41648 255 0 255 
0.391387 -0.911157 6.85121 0.406713 255 0 255 
0.375384 -0.894899 6.87107 0.423636 255 0 255 
0.388935 -0.906627 6.88007 0.432785 255 0 255 
0.404471 -0.922648 6.85995 0.412035 255 0 255 
0.36 -0.87863 6.89107 0.444179 255 0 255 
0.373447 -0.890442 6.90017 0.456927 255 0 255 
0.346805 -0.86742 6.8812 0.432879 255 0 255 
0.333154 -0.856378 6.87069 0.423984 255 0 255 
0.348146 -0.872503 6.85136 0.410939 255 0 255 
0.163855 -0.681333 6.88696 0.513721 255 0 255 
0.175853 -0.704936 6.87047 0.495949 255 0 255 
0.160075 -0.697811 6.85957 0.497635 255 0 255 
0.148113 -0.674037 6.87592 0.512853 255 0 255 
0.171637 -0.721948 6.84352 0.481178 255 0 255 
0.144377 -0.690997 6.84871 0.497988 255 0 255 
0.155861 -0.715399 6.83312 0.483457 255 0 255 
0.140176 -0.708861 6.82306 0.483447 255 0 255 
0.132827 -0.666883 6.86492 0.511512 255 0 255 
0.128971 -0.684119 6.83815 0.497088 255 0 255 
0.11779 -0.659898 6.85398 0.509569 255 0 255 
0.167386 -0.739971 6.81767 0.470152 255 0 255 
0.151636 -0.733974 6.8079 0.471097 255 0 255 
0.162979 -0.759171 6.79246 0.461993 255 0 255 
0.180234 -0.765523 6.80257 0.460451 255 0 255 
0.184596 -0.74701 6.82813 0.466506 255 0 255 
0.19777 -0.772076 6.81261 0.456307 255 0 255 
0.202092 -0.753997 6.83858 0.461069 255 0 255 
0.188973 -0.72937 6.85435 0.476993 255 0 255 
0.2156 -0.778346 6.82281 0.450045 255 0 255 
0.103294 -0.655895 6.84464 0.508957 255 0 255 
0.113282 -0.680497 6.8291 0.498658 255 0 255 
0.0988555 -0.677041 6.82057 0.500206 255 0 255 
0.0890277 -0.652235 6.83562 0.467621 255 0 255 
0.108606 -0.702059 6.80588 0.487016 255 0 255 
0.0844211 -0.673409 6.81207 0.451444 255 0 255 
0.0942158 -0.698789 6.79795 0.49083 255 0 255 
0.0799018 -0.695129 6.79009 0.437167 255 0 255 
0.0748831 -0.648521 6.82701 0.465256 255 0 255 
0.0703301 -0.670061 6.80461 0.451511 255 0 255 
0.0609682 -0.644918 6.81872 0.465088 255 0 255 
0.104193 -0.724051 6.78295 0.488088 255 0 255 
0.0898412 -0.720419 6.77509 0.508122 255 0 255 
0.100139 -0.74479 6.75907 0.494826 255 0 255 
0.115584 -0.748726 6.76727 0.475885 255 0 255 
0.119762 -0.727372 6.7912 0.476894 255 0 255 
0.131174 -0.75249 6.77558 0.466195 255 0 255 
0.135487 -0.730476 6.79946 0.472139 255 0 255 
0.12426 -0.705392 6.81429 0.484417 255 0 255 
0.146873 -0.755664 6.78408 0.462311 255 0 255 
0.15092 -0.805568 6.70814 0.442036 255 0 255 
0.167296 -0.810215 6.7172 0.442043 255 0 255 
0.154524 -0.792078 6.7368 0.448082 255 0 255 
0.183962 -0.814648 6.72668 0.441642 255 0 255 
0.171321 -0.795854 6.74589 0.447789 255 0 255 
0.188458 -0.799194 6.75515 0.447326 255 0 255 
0.201152 -0.818396 6.73595 0.441586 255 0 255 
0.158563 -0.77643 6.76513 0.455087 255 0 255 
0.17568 -0.779294 6.77402 0.454671 255 0 255 
0.142728 -0.772643 6.7566 0.454905 255 0 255 
0.12718 -0.768575 6.748 0.462998 255 0 255 
0.139011 -0.78737 6.72825 0.446906 255 0 255 
0.123845 -0.782533 6.71991 0.461676 255 0 255 
0.112054 -0.76404 6.73971 0.479882 255 0 255 
0.135658 -0.800456 6.69956 0.44038 255 0 255 
0.218441 -0.825286 6.74625 0.441193 255 0 255 
0.237276 -0.831196 6.75677 0.438394 255 0 255 
0.223467 -0.811456 6.77553 0.442861 255 0 255 
0.256521 -0.836284 6.76728 0.433236 255 0 255 
0.24252 -0.817235 6.78595 0.436963 255 0 255 
0.228603 -0.797676 6.80427 0.443039 255 0 255 
0.210693 -0.791895 6.79402 0.449065 255 0 255 
0.192954 -0.785816 6.78399 0.453184 255 0 255 
0.205844 -0.805668 6.76519 0.446214 255 0 255 
0.35013 0.0198321 6.59132 0.381662 255 0 255 
0.371752 0.0162078 6.60347 0.394175 255 0 255 
0.35357 0.00881451 6.6202 0.388683 255 0 255 
0.332537 0.0116622 6.60818 0.382093 255 0 255 
0.376742 0.00547565 6.63322 0.391334 255 0 255 
0.335744 0.000466225 6.63697 0.395259 255 0 255 
0.358025 -0.00209424 6.64972 0.394248 255 0 255 
0.339332 -0.0109242 6.66615 0.407918 255 0 255 
0.315077 0.00247935 6.62487 0.394002 255 0 255 
0.317909 -0.00937934 6.65361 0.411196 255 0 255 
0.297489 -0.00801566 6.64151 0.412901 255 0 255 
0.383266 -0.00499928 6.66389 0.39006 255 0 255 
0.363478 -0.0128449 6.68004 0.403082 255 0 255 
0.389587 -0.0141027 6.69465 0.398763 255 0 255 
0.41272 -0.00759857 6.679 0.384246 255 0 255 
0.407434 0.0011815 6.64882 0.388076 255 0 255 
0.435003 -0.00147064 6.66308 0.380461 255 0 255 
0.431031 0.00723005 6.63332 0.398658 255 0 255 
0.399593 0.0114901 6.61754 0.399306 255 0 255 
0.457461 0.00425696 6.64712 0.38825 255 0 255 
0.27932 -0.0236213 6.65882 0.43291 255 0 255 
0.296746 -0.0245437 6.67028 0.430493 255 0 255 
0.277965 -0.038866 6.68839 0.45129 255 0 255 
0.260577 -0.0379789 6.67722 0.453339 255 0 255 
0.295716 -0.0394255 6.69965 0.448455 255 0 255 
0.259074 -0.0517802 6.70738 0.469215 255 0 255 
0.276322 -0.051946 6.71825 0.468071 255 0 255 
0.257016 -0.0631735 6.73774 0.480205 255 0 255 
0.241452 -0.0507944 6.69672 0.469878 255 0 255 
0.239579 -0.0627092 6.72735 0.479141 255 0 255 
0.2222 -0.062016 6.71663 0.47796 255 0 255 
0.294377 -0.0520766 6.72951 0.465866 255 0 255 
0.274751 -0.063435 6.74867 0.480513 255 0 255 
0.29332 -0.0629312 6.76029 0.479651 255 0 255 
0.316903 -0.0514486 6.74266 0.463206 255 0 255 
0.317045 -0.0395916 6.71183 0.444547 255 0 255 
0.340919 -0.0393026 6.72573 0.441115 255 0 255 
0.340223 -0.0262731 6.69557 0.421965 255 0 255 
0.317555 -0.0255516 6.68243 0.42664 255 0 255 
0.365405 -0.0264689 6.70995 0.418254 255 0 255 
0.369445 -0.0550045 6.81225 0.4952 255 0 255 
0.397338 -0.0455425 6.79623 0.478304 255 0 255 
0.376209 -0.0469172 6.78283 0.471488 255 0 255 
0.403273 -0.0365913 6.76676 0.44988 255 0 255 
0.423483 -0.0351961 6.78037 0.458125 255 0 255 
0.381815 -0.037755 6.75301 0.443931 255 0 255 
0.429071 -0.0262325 6.75073 0.428615 255 0 255 
0.408355 -0.0266309 6.73728 0.421122 255 0 255 
0.433989 -0.0159895 6.72149 0.402081 255 0 255 
0.449684 -0.0261394 6.76414 0.438722 255 0 255 
0.455027 -0.0168237 6.73469 0.410768 255 0 255 
0.475741 -0.0174074 6.74806 0.421788 255 0 255 
0.386333 -0.0266133 6.72372 0.417533 255 0 255 
0.412675 -0.0152594 6.70832 0.39773 255 0 255 
0.361958 -0.0387943 6.73955 0.440795 255 0 255 
0.33689 -0.0505809 6.75592 0.462866 255 0 255 
0.357627 -0.0487081 6.76972 0.46617 255 0 255 
0.332811 -0.0595434 6.78627 0.483474 255 0 255 
0.312306 -0.0618354 6.77308 0.480028 255 0 255 
0.351802 -0.0571472 6.79943 0.489157 255 0 255 
0.500869 -0.0141272 6.73233 0.400373 255 0 255 
0.477275 -0.0123387 6.71824 0.389352 255 0 255 
0.502288 -0.00845526 6.70298 0.368171 255 0 255 
0.525937 -0.0107424 6.71677 0.377268 255 0 255 
0.478595 -0.00579928 6.68907 0.364209 255 0 255 
0.527253 -0.00433086 6.68752 0.350912 255 0 255 
0.503177 -0.00158519 6.67365 0.352767 255 0 255 
0.551021 -0.00685632 6.70136 0.357671 255 0 255 
0.479263 0.00155597 6.66004 0.3673 255 0 255 
0.457281 -0.00374894 6.67611 0.368473 255 0 255 
0.43485 -0.00933158 6.69216 0.379908 255 0 255 
0.456643 -0.010865 6.70533 0.382064 255 0 255 
0.203557 -0.0774237 6.73624 0.476647 255 0 255 
0.219258 -0.0786744 6.74639 0.453939 255 0 255 
0.200876 -0.0940442 6.76535 0.460244 255 0 255 
0.185338 -0.0932095 6.75495 0.450308 255 0 255 
0.216317 -0.0947772 6.77559 0.441785 255 0 255 
0.182066 -0.108413 6.78421 0.41726 255 0 255 
0.197564 -0.109148 6.79462 0.45541 255 0 255 
0.179402 -0.123796 6.81225 0.426459 255 0 255 
0.166502 -0.1077 6.77375 0.431102 255 0 255 
0.16387 -0.123215 6.8018 0.429924 255 0 255 
0.148192 -0.122324 6.7914 0.395311 255 0 255 
0.212866 -0.109588 6.80503 0.417003 255 0 255 
0.194393 -0.124026 6.82313 0.444909 255 0 255 
0.209696 -0.123676 6.83391 0.404341 255 0 255 
0.230179 -0.108679 6.81618 0.425848 255 0 255 
0.233654 -0.0944436 6.78637 0.449726 255 0 255 
0.251403 -0.0939143 6.79705 0.454581 255 0 255 
0.254323 -0.0793792 6.76724 0.462141 255 0 255 
0.236703 -0.0788975 6.75692 0.458361 255 0 255 
0.272226 -0.0787978 6.77833 0.464476 255 0 255 
0.132161 -0.141161 6.80699 0.435116 255 0 255 
0.146314 -0.142574 6.8174 0.404181 255 0 255 
0.130756 -0.161601 6.83215 0.467986 255 0 255 
0.116089 -0.159726 6.82216 0.415728 255 0 255 
0.114547 -0.180074 6.84677 0.444858 255 0 255 
0.113193 -0.200749 6.87069 0.510954 255 0 255 
0.100012 -0.178355 6.83666 0.41924 255 0 255 
0.0853458 -0.198101 6.84945 0.542468 255 0 255 
0.142709 -0.182966 6.86749 0.491392 255 0 255 
0.140587 -0.202387 6.89205 0.530658 255 0 255 
0.157777 -0.182887 6.87814 0.53262 255 0 255 
0.160162 -0.163623 6.85287 0.490405 255 0 255 
0.175029 -0.163275 6.86411 0.457473 255 0 255 
0.177199 -0.14372 6.8384 0.430896 255 0 255 
0.161991 -0.143646 6.82767 0.450964 255 0 255 
0.192142 -0.143488 6.8493 0.47265 255 0 255 
0.192342 -0.201606 6.93832 0.56487 255 0 255 
0.211573 -0.180541 6.92447 0.569929 255 0 255 
0.197046 -0.18268 6.91291 0.562019 255 0 255 
0.21621 -0.161375 6.89872 0.519387 255 0 255 
0.23129 -0.158881 6.91007 0.553927 255 0 255 
0.201661 -0.16354 6.88706 0.508919 255 0 255 
0.235749 -0.140388 6.88392 0.526283 255 0 255 
0.220635 -0.142347 6.87234 0.505227 255 0 255 
0.239849 -0.121645 6.85663 0.49403 255 0 255 
0.251019 -0.137387 6.89568 0.511208 255 0 255 
0.255587 -0.119338 6.86843 0.466746 255 0 255 
0.271505 -0.116017 6.88035 0.427911 255 0 255 
0.224622 -0.122854 6.84544 0.450229 255 0 255 
0.166498 -0.203104 6.91511 0.542879 255 0 255 
0.296106 -0.100307 6.8633 0.442874 255 0 255 
0.277638 -0.104208 6.8511 0.438441 255 0 255 
0.301994 -0.0884694 6.83367 0.465679 255 0 255 
0.320921 -0.0852653 6.84615 0.470708 255 0 255 
0.283071 -0.0920157 6.82087 0.46001 255 0 255 
0.327421 -0.0730356 6.81623 0.473386 255 0 255 
0.307653 -0.075924 6.8031 0.467993 255 0 255 
0.34534 -0.0704144 6.82901 0.479094 255 0 255 
0.288354 -0.078092 6.79048 0.462891 255 0 255 
0.267329 -0.0932788 6.80862 0.491795 255 0 255 
0.245743 -0.108173 6.82725 0.468763 255 0 255 
0.261544 -0.106912 6.83877 0.473326 255 0 255 
0.218126 -0.475617 7.06795 0.786723 255 0 255 
0.206135 -0.471135 7.05925 0.673967 255 0 255 
0.212418 -0.507066 7.05268 0.731592 255 0 255 
0.2003 -0.502265 7.04326 0.652938 255 0 255 
0.194125 -0.466464 7.04988 0.625075 255 0 255 
0.207023 -0.538415 7.03633 0.67251 255 0 255 
0.187946 -0.497598 7.03315 0.585334 255 0 255 
0.194312 -0.533512 7.02613 0.646076 255 0 255 
0.181534 -0.528937 7.01548 0.573822 255 0 255 
0.181622 -0.461921 7.0398 0.593341 255 0 255 
0.175282 -0.492973 7.02211 0.534671 255 0 255 
0.169371 -0.457278 7.02863 0.513816 255 0 255 
0.201202 -0.569983 7.01862 0.648363 255 0 255 
0.188108 -0.565314 7.00767 0.594299 255 0 255 
0.194942 -0.601751 6.99941 0.628863 255 0 255 
0.209354 -0.609193 7.01124 0.652637 255 0 255 
0.215049 -0.577671 7.02937 0.678859 255 0 255 
0.223332 -0.616714 7.02199 0.628679 255 0 255 
0.22833 -0.584862 7.0396 0.656989 255 0 255 
0.220233 -0.545757 7.04644 0.714035 255 0 255 
0.232884 -0.553231 7.05578 0.694149 255 0 255 
0.23654 -0.624076 7.03221 0.652502 255 0 255 
0.241283 -0.592403 7.0492 0.70447 255 0 255 
0.249655 -0.631572 7.04178 0.677227 255 0 255 
0.225187 -0.514346 7.0621 0.83988 255 0 255 
0.156727 -0.452043 7.01758 0.551014 255 0 255 
0.161834 -0.484595 7.01066 0.519328 255 0 255 
0.14896 -0.479318 6.99913 0.550553 255 0 255 
0.144573 -0.446822 7.00561 0.524026 255 0 255 
0.153909 -0.51222 6.99188 0.538686 255 0 255 
0.136694 -0.47406 6.98654 0.526428 255 0 255 
0.140976 -0.50696 6.97972 0.562646 255 0 255 
0.128393 -0.501489 6.96694 0.541141 255 0 255 
0.132348 -0.441656 6.99352 0.543369 255 0 255 
0.12445 -0.468891 6.97409 0.529051 255 0 255 
0.120343 -0.43671 6.98046 0.514208 255 0 255 
0.145648 -0.540175 6.97226 0.53999 255 0 255 
0.13257 -0.534787 6.95987 0.550551 255 0 255 
0.137363 -0.568047 6.95199 0.558144 255 0 255 
0.151492 -0.576377 6.96478 0.571912 255 0 255 
0.159549 -0.548514 6.98463 0.555871 255 0 255 
0.165721 -0.584977 6.97706 0.589332 255 0 255 
0.17373 -0.556972 6.99676 0.574567 255 0 255 
0.167531 -0.520538 7.00392 0.555138 255 0 255 
0.180385 -0.593465 6.98845 0.609101 255 0 255 
0.183642 -0.666643 6.92382 0.537689 255 0 255 
0.200033 -0.677712 6.93565 0.546645 255 0 255 
0.187502 -0.644986 6.94924 0.567175 255 0 255 
0.216226 -0.688766 6.94702 0.558704 255 0 255 
0.203755 -0.655996 6.96088 0.580944 255 0 255 
0.219858 -0.666997 6.97208 0.597495 255 0 255 
0.232245 -0.699795 6.9581 0.572292 255 0 255 
0.191289 -0.623378 6.97449 0.599137 255 0 255 
0.20747 -0.634183 6.98614 0.616999 255 0 255 
0.176516 -0.614965 6.96324 0.582687 255 0 255 
0.161673 -0.606432 6.95173 0.567144 255 0 255 
0.17265 -0.636493 6.93782 0.555261 255 0 255 
0.157813 -0.6281 6.92599 0.544793 255 0 255 
0.147467 -0.597935 6.93936 0.554443 255 0 255 
0.168712 -0.658262 6.91192 0.53076 255 0 255 
0.246867 -0.707525 6.96977 0.587208 255 0 255 
0.261728 -0.717849 6.98137 0.575747 255 0 255 
0.248215 -0.682119 6.99464 0.637617 255 0 255 
0.275604 -0.728187 6.99241 0.596224 255 0 255 
0.26286 -0.692606 7.0057 0.609314 255 0 255 
0.276276 -0.702787 7.01603 0.628746 255 0 255 
0.288556 -0.738239 7.00293 0.617343 255 0 255 
0.249139 -0.656793 7.01879 0.654293 255 0 255 
0.263174 -0.66706 7.029 0.611007 255 0 255 
0.235544 -0.649196 7.00834 0.63258 255 0 255 
0.22179 -0.641868 6.99743 0.609595 255 0 255 
0.234039 -0.674422 6.98347 0.617133 255 0 255 
0.486389 -0.0401116 6.9171 0.606345 255 0 255 
0.516179 -0.033036 6.90218 0.57315 255 0 255 
0.502658 -0.0349055 6.88854 0.600085 255 0 255 
0.532636 -0.0289409 6.87314 0.558126 255 0 255 
0.547568 -0.0286042 6.88654 0.536141 255 0 255 
0.518783 -0.0295543 6.86011 0.521297 255 0 255 
0.563757 -0.0246177 6.85758 0.533418 255 0 255 
0.54866 -0.02458 6.84428 0.508614 255 0 255 
0.578658 -0.0202591 6.82837 0.485294 255 0 255 
0.578417 -0.0243036 6.87073 0.497039 255 0 255 
0.594184 -0.020303 6.84193 0.463238 255 0 255 
0.609208 -0.0187905 6.8562 0.377225 255 0 255 
0.533901 -0.0251824 6.83071 0.46226 255 0 255 
0.563142 -0.0199939 6.81493 0.453662 255 0 255 
0.548439 -0.019741 6.80198 0.388279 255 0 255 
0.49148 -0.0323506 6.83397 0.459011 255 0 255 
0.476366 -0.0377728 6.86317 0.555225 255 0 255 
0.460342 -0.0438969 6.89128 0.615822 255 0 255 
0.433156 -0.0470672 6.86591 0.554885 255 0 255 
0.640632 -0.0210718 6.84212 0.32475 255 0 255 
0.62292 -0.0199123 6.82716 0.374407 255 0 255 
0.653668 -0.0210001 6.81312 0.328415 255 0 255 
0.671886 -0.0227581 6.82795 0.286085 255 0 255 
0.636116 -0.019121 6.79863 0.37247 255 0 255 
0.685351 -0.0221468 6.79934 0.289515 255 0 255 
0.667927 -0.0193293 6.7856 0.326548 255 0 255 
0.649932 -0.0169726 6.77122 0.366589 255 0 255 
0.63278 -0.0162686 6.75719 0.371625 255 0 255 
0.620997 -0.0192347 6.78527 0.399103 255 0 255 
0.604737 -0.0179396 6.77195 0.3862 255 0 255 
0.591954 -0.0198512 6.79987 0.432746 255 0 255 
0.607263 -0.0204397 6.81299 0.433621 255 0 255 
0.576639 -0.0190045 6.78699 0.385381 255 0 255 
0.569757 -0.00885722 6.71467 0.342278 255 0 255 
0.544345 -0.0126006 6.72977 0.388839 255 0 255 
0.563038 -0.0140058 6.7432 0.365124 255 0 255 
0.5193 -0.0155916 6.74545 0.388709 255 0 255 
0.5377 -0.0172095 6.75854 0.403289 255 0 255 
0.512532 -0.0192646 6.77465 0.408822 255 0 255 
0.494005 -0.0184893 6.76127 0.434875 255 0 255 
0.55621 -0.0178657 6.77235 0.373288 255 0 255 
0.530795 -0.0203311 6.78809 0.423964 255 0 255 
0.583483 -0.0156013 6.75762 0.378102 255 0 255 
0.611427 -0.0138123 6.74277 0.364635 255 0 255 
0.590605 -0.0110896 6.72888 0.353128 255 0 255 
0.466335 -0.0260494 6.77728 0.426632 255 0 255 
0.440257 -0.0343319 6.79365 0.469759 255 0 255 
0.456026 -0.0335116 6.80666 0.446477 255 0 255 
0.412786 -0.0436541 6.80934 0.488378 255 0 255 
0.429685 -0.0424484 6.82276 0.505919 255 0 255 
0.401855 -0.0515083 6.83868 0.518356 255 0 255 
0.386454 -0.0535332 6.82544 0.502636 255 0 255 
0.445211 -0.0406491 6.83623 0.501075 255 0 255 
0.417954 -0.0494057 6.85227 0.544172 255 0 255 
0.473949 -0.0330823 6.82039 0.472751 255 0 255 
0.502446 -0.0259976 6.80443 0.428506 255 0 255 
0.484601 -0.0260461 6.79091 0.445358 255 0 255 
0.360345 -0.0693671 6.8415 0.48706 255 0 255 
0.335551 -0.0834718 6.85864 0.518107 255 0 255 
0.350695 -0.0823252 6.87092 0.490969 255 0 255 
0.310992 -0.0983512 6.87551 0.496654 255 0 255 
0.324851 -0.0962695 6.88763 0.508894 255 0 255 
0.300868 -0.110832 6.90447 0.495943 255 0 255 
0.286397 -0.112969 6.89269 0.482686 255 0 255 
0.339879 -0.0949085 6.89997 0.504112 255 0 255 
0.314702 -0.10898 6.91663 0.548206 255 0 255 
0.328779 -0.107389 6.92853 0.52217 255 0 255 
0.354486 -0.092711 6.91259 0.536337 255 0 255 
0.365526 -0.080152 6.88363 0.512398 255 0 255 
0.381171 -0.0778289 6.89671 0.571609 255 0 255 
0.392098 -0.0648443 6.86795 0.537602 255 0 255 
0.376435 -0.067297 6.85456 0.500058 255 0 255 
0.407695 -0.0627476 6.88144 0.601537 255 0 255 
0.258268 -0.15503 6.93358 0.517715 255 0 255 
0.238247 -0.177103 6.94741 0.613644 255 0 255 
0.217845 -0.199567 6.96133 0.585302 255 0 255 
0.24387 -0.196821 6.9833 0.630024 255 0 255 
0.26417 -0.173594 6.97036 0.614256 255 0 255 
0.27197 -0.15253 6.94523 0.570353 255 0 255 
0.285456 -0.150673 6.9569 0.597257 255 0 255 
0.292648 -0.130707 6.93117 0.564881 255 0 255 
0.279318 -0.132639 6.91942 0.50785 255 0 255 
0.307192 -0.128812 6.94306 0.595312 255 0 255 
0.290242 -0.196253 7.02639 0.617189 255 0 255 
0.311198 -0.17179 7.01415 0.614312 255 0 255 
0.321063 -0.149041 6.99067 0.602713 255 0 255 
0.343015 -0.125621 6.97748 0.579882 255 0 255 
0.352934 -0.104567 6.95228 0.582545 255 0 255 
0.376986 -0.101084 6.97595 0.587336 255 0 255 
0.288127 -0.172837 6.99256 0.606412 255 0 255 
0.267765 -0.195962 7.00514 0.610706 255 0 255 
0.403964 -0.0859714 6.96109 0.59717 255 0 255 
0.418707 -0.0721916 6.93421 0.61814 255 0 255 
0.445718 -0.0566205 6.91922 0.608155 255 0 255 
0.37932 -0.089045 6.93702 0.593043 255 0 255 
0.13532 -0.406509 6.99295 0.525814 255 0 255 
0.1475 -0.411508 7.00527 0.565962 255 0 255 
0.151013 -0.376365 7.00407 0.548915 255 0 255 
0.159554 -0.416301 7.01683 0.555829 255 0 255 
0.163249 -0.381271 7.01565 0.604647 255 0 255 
0.17537 -0.385849 7.02653 0.600928 255 0 255 
0.171754 -0.421399 7.02811 0.616941 255 0 255 
0.168006 -0.346599 7.01296 0.60986 255 0 255 
0.179755 -0.351187 7.0244 0.714312 255 0 255 
0.185781 -0.317051 7.02073 0.678664 255 0 255 
0.162262 -0.313296 6.99871 0.571599 255 0 255 
0.144873 -0.342424 6.98976 0.53382 255 0 255 
0.127829 -0.371752 6.97947 0.504867 255 0 255 
0.138808 -0.309571 6.97479 0.515451 255 0 255 
0.195485 -0.428325 7.04901 0.673438 255 0 255 
0.198751 -0.390302 7.04684 0.682496 255 0 255 
0.207849 -0.432814 7.05819 0.645984 255 0 255 
0.21094 -0.394526 7.056 0.696804 255 0 255 
0.222947 -0.398631 7.06389 0.671479 255 0 255 
0.219755 -0.437164 7.06636 0.702919 255 0 255 
0.215575 -0.356805 7.05288 0.758605 255 0 255 
0.228021 -0.360581 7.06086 0.777484 255 0 255 
0.233792 -0.323702 7.05789 0.788674 255 0 255 
0.209475 -0.320017 7.04045 0.743281 255 0 255 
0.264364 -0.225619 7.02424 0.604509 255 0 255 
0.238675 -0.255213 7.02196 0.678495 255 0 255 
0.241154 -0.225478 7.00286 0.598333 255 0 255 
0.214241 -0.256094 7.00196 0.61519 255 0 255 
0.211222 -0.285719 7.02135 0.659446 255 0 255 
0.235709 -0.288681 7.04055 0.730193 255 0 255 
0.261341 -0.258951 7.04248 0.688413 255 0 255 
0.216514 -0.22596 6.98199 0.570892 255 0 255 
0.189426 -0.254501 6.98067 0.578882 255 0 255 
0.190821 -0.227715 6.95967 0.552721 255 0 255 
0.164522 -0.255035 6.95756 0.538449 255 0 255 
0.163087 -0.281829 6.97873 0.53296 255 0 255 
0.187223 -0.284723 7.00096 0.601271 255 0 255 
0.511529 -0.43041 7.2408 0.310138 255 0 255 
0.517531 -0.457821 7.2454 0.282265 255 0 255 
0.503536 -0.311414 7.22991 0.353363 255 0 255 
0.503469 -0.341482 7.23689 0.301469 255 0 255 
0.483553 -0.342475 7.22571 0.398773 255 0 255 
0.479524 -0.374395 7.22313 0.368014 255 0 255 
0.485841 -0.404021 7.22631 0.337718 255 0 255 
0.48187 -0.435475 7.22471 0.440364 255 0 255 
0.488047 -0.464619 7.2288 0.398659 255 0 255 
0.467812 -0.469103 7.21812 0.482066 255 0 255 
0.505557 -0.401353 7.23695 0.324161 255 0 255 
0.509547 -0.371261 7.23956 0.282036 255 0 255 
0.561019 -0.0260889 7.00741 0.359159 255 0 255 
0.584293 -0.0220776 6.98279 0.363557 255 0 255 
0.608017 -0.0191401 6.95798 0.362577 255 0 255 
0.622365 -0.0193082 6.92061 0.339311 255 0 255 
0.589955 -0.0224708 6.93532 0.394186 255 0 255 
0.566814 -0.025992 6.96035 0.468687 255 0 255 
0.544376 -0.0291849 6.98582 0.467528 255 0 255 
0.5266 -0.0329327 6.9634 0.51925 255 0 255 
0.632183 -0.0180544 6.8811 0.313771 255 0 255 
0.568402 -0.0250474 6.91037 0.490984 255 0 255 
0.53761 -0.0308179 6.9252 0.518566 255 0 255 
0.506346 -0.0364336 6.94032 0.567337 255 0 255 
0.600761 -0.0212136 6.89614 0.400491 255 0 255 
0.542295 -0.969922 6.89927 0.396425 255 0 255 
0.524158 -0.966194 6.89065 0.397094 255 0 255 
0.537678 -0.973165 6.87058 0.359099 255 0 255 
0.520655 -0.971672 6.86361 0.370238 255 0 255 
0.506997 -0.965007 6.884 0.412326 255 0 255 
0.534337 -0.978501 6.8435 0.338489 255 0 255 
0.504802 -0.971418 6.85781 0.385361 255 0 255 
0.518584 -0.977887 6.83748 0.35318 255 0 255 
0.502409 -0.977102 6.83082 0.364565 255 0 255 
0.49078 -0.964741 6.87831 0.425528 255 0 255 
0.488303 -0.97069 6.85133 0.393624 255 0 255 
0.47473 -0.964254 6.87225 0.430029 255 0 255 
0.532332 -0.984386 6.81679 0.330291 255 0 255 
0.516447 -0.983597 6.81018 0.344281 255 0 255 
0.530308 -0.989912 6.78919 0.332403 255 0 255 
0.545921 -0.988313 6.79353 0.28084 255 0 255 
0.547469 -0.982791 6.82043 0.291264 255 0 255 
0.561 -0.986808 6.79753 0.249593 255 0 255 
0.564017 -0.982214 6.8253 0.26659 255 0 255 
0.551056 -0.977703 6.84813 0.326452 255 0 255 
0.568163 -0.979149 6.85391 0.332568 255 0 255 
0.577549 -0.98671 6.80268 0.246004 255 0 255 
0.581477 -0.983839 6.83146 0.257759 255 0 255 
0.594985 -0.9882 6.80893 0.302821 255 0 255 
0.555242 -0.974506 6.87665 0.364155 255 0 255 
0.461239 -0.958454 6.86494 0.418719 255 0 255 
0.474372 -0.965435 6.84404 0.390251 255 0 255 
0.461167 -0.959475 6.83621 0.386725 255 0 255 
0.447623 -0.95216 6.857 0.40859 255 0 255 
0.474505 -0.966782 6.81572 0.36928 255 0 255 
0.447495 -0.953021 6.82793 0.383849 255 0 255 
0.461266 -0.960592 6.80747 0.371608 255 0 255 
0.433659 -0.945509 6.84857 0.400472 255 0 255 
0.474354 -0.967959 6.7868 0.3643 255 0 255 
0.488496 -0.974753 6.76591 0.319767 255 0 255 
0.488718 -0.973439 6.79499 0.330845 255 0 255 
0.503063 -0.980033 6.7743 0.327524 255 0 255 
0.50292 -0.97855 6.80292 0.342588 255 0 255 
0.488575 -0.971981 6.82343 0.347828 255 0 255 
0.51712 -0.985098 6.78217 0.338078 255 0 255 
0.53558 -0.9935 6.68224 0.332073 255 0 255 
0.523691 -0.989453 6.70303 0.36842 255 0 255 
0.538538 -0.993718 6.71202 0.323444 255 0 255 
0.550344 -0.997659 6.69133 0.328477 255 0 255 
0.526608 -0.989668 6.73261 0.404978 255 0 255 
0.552763 -0.997711 6.7203 0.35839 255 0 255 
0.540757 -0.993727 6.74074 0.322752 255 0 255 
0.554044 -0.997679 6.74849 0.287558 255 0 255 
0.564719 -1.0015 6.69986 0.310607 255 0 255 
0.565994 -1.00152 6.72809 0.342242 255 0 255 
0.577893 -1.00535 6.70757 0.395532 255 0 255 
0.528704 -0.989656 6.76119 0.365427 255 0 255 
0.541973 -0.993746 6.76864 0.301104 255 0 255 
0.514886 -0.984952 6.75357 0.360509 255 0 255 
0.500342 -0.979705 6.74511 0.317227 255 0 255 
0.51205 -0.984649 6.72408 0.352446 255 0 255 
0.592326 -1.00313 6.71386 0.304857 255 0 255 
0.58152 -0.999972 6.73275 0.346846 255 0 255 
0.595549 -0.998053 6.73876 0.27524 255 0 255 
0.606816 -1.00136 6.72027 0.242659 255 0 255 
0.584547 -0.99477 6.75735 0.321915 255 0 255 
0.611111 -0.997722 6.7461 0.225473 255 0 255 
0.600369 -0.99446 6.76469 0.265391 255 0 255 
0.616276 -0.995399 6.77241 0.260003 255 0 255 
0.622136 -1.00099 6.72774 0.201737 255 0 255 
0.627026 -0.998854 6.75409 0.255924 255 0 255 
0.638062 -1.00221 6.736 0.169589 255 0 255 
0.589397 -0.990899 6.78294 0.307303 255 0 255 
0.605655 -0.991917 6.79075 0.279252 255 0 255 
0.572765 -0.990824 6.77747 0.260718 255 0 255 
0.557896 -0.992312 6.77344 0.261193 255 0 255 
0.569749 -0.996292 6.75328 0.283571 255 0 255 
0.532906 -0.040601 7.02132 0.426015 255 0 255 
0.514032 -0.0551141 7.04535 0.406596 255 0 255 
0.487236 -0.0728129 7.058 0.441718 255 0 255 
0.468462 -0.0901959 7.0801 0.495993 255 0 255 
0.45064 -0.0912358 7.06015 0.484981 255 0 255 
0.503547 -0.0710649 7.07797 0.414897 255 0 255 
0.485648 -0.0899865 7.09913 0.423023 255 0 255 
0.530558 -0.0539145 7.06598 0.376642 255 0 255 
0.557757 -0.0376422 7.05321 0.343097 255 0 255 
0.430372 -0.117393 7.07139 0.58772 255 0 255 
0.419184 -0.143756 7.09163 0.605554 255 0 255 
0.398874 -0.171412 7.10189 0.677945 255 0 255 
0.389058 -0.199641 7.12043 0.666088 255 0 255 
0.370106 -0.198012 7.10321 0.684298 255 0 255 
0.417488 -0.17265 7.119 0.647445 255 0 255 
0.40803 -0.201581 7.13651 0.686219 255 0 255 
0.436873 -0.14497 7.10941 0.499384 255 0 255 
0.457008 -0.117077 7.09987 0.50539 255 0 255 
0.446546 -0.206514 7.16787 0.547754 255 0 255 
0.465155 -0.177751 7.16057 0.494653 255 0 255 
0.474161 -0.148149 7.14393 0.45282 255 0 255 
0.493151 -0.120051 7.1359 0.377481 255 0 255 
0.503728 -0.0914357 7.11804 0.372657 255 0 255 
0.475282 -0.117877 7.11771 0.375262 255 0 255 
0.455605 -0.146059 7.12699 0.448359 255 0 255 
0.436224 -0.174229 7.13567 0.549741 255 0 255 
0.427349 -0.203955 7.15257 0.550216 255 0 255 
0.519979 -0.0713464 7.0974 0.39082 255 0 255 
0.433741 -0.240689 7.16999 0.553985 255 0 255 
0.432566 -0.275042 7.17904 0.540578 255 0 255 
0.420862 -0.308753 7.18147 0.698745 255 0 255 
0.419513 -0.342651 7.18934 0.667589 255 0 255 
0.39837 -0.341888 7.17775 0.769329 255 0 255 
0.442379 -0.309229 7.19438 0.552093 255 0 255 
0.44123 -0.343086 7.20233 0.530472 255 0 255 
0.45327 -0.27673 7.19239 0.459543 255 0 255 
0.464777 -0.243967 7.19102 0.508894 255 0 255 
0.466397 -0.209378 7.18233 0.53911 255 0 255 
0.486047 -0.212299 7.19643 0.444376 255 0 255 
0.393528 -0.37765 7.17611 0.683244 255 0 255 
0.400571 -0.411724 7.18069 0.696815 255 0 255 
0.396694 -0.44682 7.1796 0.7169 255 0 255 
0.40299 -0.480648 7.18416 0.592456 255 0 255 
0.381518 -0.48391 7.17294 0.679375 255 0 255 
0.418275 -0.443791 7.191 0.586981 255 0 255 
0.42453 -0.477378 7.19589 0.574857 255 0 255 
0.422151 -0.410421 7.19236 0.571544 255 0 255 
0.426141 -0.376755 7.19397 0.631959 255 0 255 
0.461813 -0.437958 7.21396 0.519208 255 0 255 
0.465331 -0.406432 7.21531 0.465508 255 0 255 
0.458776 -0.374815 7.21183 0.496112 255 0 255 
0.462329 -0.342875 7.21378 0.388502 255 0 255 
0.444093 -0.40844 7.20436 0.555368 255 0 255 
0.43995 -0.441829 7.20272 0.565804 255 0 255 
0.44655 -0.473241 7.20706 0.529983 255 0 255 
0.483938 -0.310421 7.21837 0.372541 255 0 255 
0.494796 -0.279258 7.21802 0.301103 255 0 255 
0.49534 -0.246605 7.21073 0.386283 255 0 255 
0.474249 -0.27796 7.20554 0.428561 255 0 255 
0.462429 -0.310802 7.20609 0.449946 255 0 255 
0.346706 -0.231039 7.10027 0.655177 255 0 255 
0.350349 -0.197163 7.08529 0.664521 255 0 255 
0.323364 -0.264069 7.09701 0.665108 255 0 255 
0.326497 -0.23004 7.0823 0.641148 255 0 255 
0.303737 -0.262485 7.08042 0.69246 255 0 255 
0.331392 -0.196829 7.0665 0.61793 255 0 255 
0.300565 -0.296789 7.09507 0.709213 255 0 255 
0.277766 -0.329747 7.09276 0.742566 255 0 255 
0.298919 -0.331713 7.10927 0.730768 255 0 255 
0.320968 -0.298941 7.11099 0.692454 255 0 255 
0.344331 -0.26577 7.1146 0.681757 255 0 255 
0.319275 -0.334254 7.12433 0.733311 255 0 255 
0.306704 -0.228353 7.06398 0.627341 255 0 255 
0.310771 -0.196174 7.04674 0.626049 255 0 255 
0.282159 -0.259777 7.06166 0.677199 255 0 255 
0.286141 -0.227455 7.04466 0.613264 255 0 255 
0.257936 -0.291486 7.0594 0.730476 255 0 255 
0.255946 -0.326531 7.07568 0.76941 255 0 255 
0.279691 -0.294395 7.07777 0.731981 255 0 255 
0.24189 -0.439605 7.0811 0.807332 255 0 255 
0.240245 -0.479372 7.0834 0.887233 255 0 255 
0.245237 -0.400137 7.07896 0.745328 255 0 255 
0.268376 -0.405482 7.09527 0.802729 255 0 255 
0.265027 -0.444329 7.0962 0.866251 255 0 255 
0.262244 -0.483758 7.09721 0.950538 255 0 255 
0.261421 -0.364451 7.08555 0.751147 255 0 255 
0.286433 -0.446169 7.11071 0.85152 255 0 255 
0.283742 -0.485173 7.11127 0.946962 255 0 255 
0.289655 -0.407512 7.11001 0.823899 255 0 255 
0.310886 -0.410021 7.12492 0.816296 255 0 255 
0.308113 -0.448353 7.12559 0.864463 255 0 255 
0.305471 -0.487034 7.12581 0.899286 255 0 255 
0.304636 -0.370689 7.11785 0.750499 255 0 255 
0.283458 -0.368274 7.10202 0.742954 255 0 255 
0.365799 -0.232988 7.11656 0.652805 255 0 255 
0.363237 -0.267855 7.12915 0.72237 255 0 255 
0.341487 -0.300968 7.12689 0.742049 255 0 255 
0.339359 -0.336279 7.13876 0.819424 255 0 255 
0.360602 -0.303231 7.14086 0.73645 255 0 255 
0.358571 -0.338804 7.15211 0.80827 255 0 255 
0.382788 -0.270176 7.14463 0.695111 255 0 255 
0.385599 -0.234831 7.13281 0.677274 255 0 255 
0.324788 -0.372394 7.13195 0.784596 255 0 255 
0.330835 -0.410551 7.13845 0.864479 255 0 255 
0.327467 -0.448816 7.13794 0.870835 255 0 255 
0.324338 -0.487323 7.13714 0.739989 255 0 255 
0.343462 -0.487121 7.15013 0.62895 255 0 255 
0.346489 -0.449906 7.15009 0.765544 255 0 255 
0.350005 -0.412758 7.1505 0.855467 255 0 255 
0.344712 -0.374378 7.14532 0.827877 255 0 255 
0.376023 -0.447772 7.16837 0.752564 255 0 255 
0.379757 -0.41231 7.16905 0.768241 255 0 255 
0.373799 -0.376066 7.1636 0.82407 255 0 255 
0.37864 -0.340193 7.16481 0.686446 255 0 255 
0.362613 -0.485434 7.16147 0.657663 255 0 255 
0.4003 -0.306962 7.16833 0.609352 255 0 255 
0.412206 -0.273233 7.16557 0.673694 255 0 255 
0.414833 -0.237919 7.15549 0.673181 255 0 255 
0.380705 -0.305213 7.15513 0.694989 255 0 255 
0.469774 -0.053075 6.94386 0.596479 255 0 255 
0.44238 -0.0684989 6.95826 0.600175 255 0 255 
0.424382 -0.0819954 6.98387 0.578862 255 0 255 
0.396536 -0.0987388 6.99774 0.59334 255 0 255 
0.415934 -0.0952173 7.01937 0.581606 255 0 255 
0.444426 -0.0788082 7.00616 0.582732 255 0 255 
0.462761 -0.0651122 6.98096 0.598761 255 0 255 
0.488674 -0.0489362 6.96681 0.530399 255 0 255 
0.36489 -0.123439 7.00005 0.575761 255 0 255 
0.343023 -0.146928 7.0124 0.588843 255 0 255 
0.331654 -0.171216 7.03497 0.601787 255 0 255 
0.351667 -0.170771 7.05489 0.623371 255 0 255 
0.363081 -0.146097 7.0333 0.59552 255 0 255 
0.384975 -0.121179 7.02141 0.590753 255 0 255 
0.380191 -0.170645 7.08375 0.673191 255 0 255 
0.400273 -0.144026 7.07287 0.663164 255 0 255 
0.412226 -0.118467 7.05174 0.619367 255 0 255 
0.434152 -0.0929393 7.04041 0.584439 255 0 255 
0.382372 -0.144612 7.05356 0.624853 255 0 255 
0.46955 -0.0746813 7.03755 0.485408 255 0 255 
0.49773 -0.058234 7.02435 0.475987 255 0 255 
0.516991 -0.0440388 7.00011 0.482386 255 0 255 
0.480086 -0.06135 7.0031 0.499978 255 0 255 
0.511913 -0.12211 7.15279 0.319894 255 0 255 
0.493021 -0.150518 7.1603 0.394431 255 0 255 
0.484682 -0.180527 7.17553 0.438127 255 0 255 
0.503757 -0.184125 7.1905 0.344048 255 0 255 
0.373445 -0.78777 7.0584 0.781575 255 0 255 
0.365126 -0.788751 7.05199 0.762974 255 0 255 
0.380877 -0.815997 7.03461 0.682736 255 0 255 
0.37308 -0.817111 7.02772 0.694901 255 0 255 
0.357231 -0.789571 7.04518 0.695717 255 0 255 
0.389041 -0.844217 7.00976 0.635631 255 0 255 
0.364903 -0.817871 7.01982 0.618181 255 0 255 
0.381097 -0.845093 7.0021 0.658578 255 0 255 
0.372923 -0.845856 6.99334 0.581414 255 0 255 
0.348954 -0.790283 7.03739 0.670964 255 0 255 
0.356632 -0.818666 7.01126 0.569036 255 0 255 
0.340453 -0.790947 7.02864 0.575181 255 0 255 
0.397411 -0.871614 6.9835 0.589228 255 0 255 
0.389659 -0.872538 6.97537 0.570981 255 0 255 
0.406018 -0.898491 6.95652 0.577419 255 0 255 
0.415493 -0.89813 6.96487 0.565647 255 0 255 
0.406923 -0.871184 6.99131 0.564797 255 0 255 
0.424947 -0.897611 6.97271 0.545244 255 0 255 
0.416297 -0.870166 6.998 0.543522 255 0 255 
0.398556 -0.843494 7.01668 0.612392 255 0 255 
0.408469 -0.842717 7.02312 0.593802 255 0 255 
0.434223 -0.896496 6.97959 0.535674 255 0 255 
0.426229 -0.869314 7.00503 0.549342 255 0 255 
0.444212 -0.895604 6.98706 0.565775 255 0 255 
0.391075 -0.815574 7.04124 0.680096 255 0 255 
0.331149 -0.786717 7.02042 0.6317 255 0 255 
0.345324 -0.8129 7.00346 0.548967 255 0 255 
0.335429 -0.80856 6.99397 0.589586 255 0 255 
0.321289 -0.782433 7.01099 0.606287 255 0 255 
0.349528 -0.834066 6.97643 0.532119 255 0 255 
0.325052 -0.803815 6.9837 0.563546 255 0 255 
0.339513 -0.829372 6.96643 0.558783 255 0 255 
0.310869 -0.777665 7.00075 0.640588 255 0 255 
0.354133 -0.854495 6.94876 0.494694 255 0 255 
0.370679 -0.880676 6.93045 0.501559 255 0 255 
0.366193 -0.860787 6.95829 0.518977 255 0 255 
0.383085 -0.887081 6.94004 0.52584 255 0 255 
0.378188 -0.866869 6.9673 0.545489 255 0 255 
0.361618 -0.840205 6.9855 0.557066 255 0 255 
0.394607 -0.892962 6.94862 0.552134 255 0 255 
0.416309 -0.928812 6.8696 0.4202 255 0 255 
0.430712 -0.935764 6.87835 0.432242 255 0 255 
0.413186 -0.919197 6.89937 0.46132 255 0 255 
0.444302 -0.942368 6.88628 0.447135 255 0 255 
0.427225 -0.92593 6.90732 0.480013 255 0 255 
0.440478 -0.931927 6.91455 0.501494 255 0 255 
0.457616 -0.94827 6.89334 0.464383 255 0 255 
0.409795 -0.909161 6.92847 0.51548 255 0 255 
0.42343 -0.91542 6.93566 0.539856 255 0 255 
0.398229 -0.903297 6.9197 0.494012 255 0 255 
0.386001 -0.897032 6.91026 0.473359 255 0 255 
0.401269 -0.913053 6.88993 0.445473 255 0 255 
0.466849 -0.947808 6.90193 0.458386 255 0 255 
0.48304 -0.947782 6.90719 0.468729 255 0 255 
0.459027 -0.930807 6.93096 0.488077 255 0 255 
0.50014 -0.94792 6.91275 0.472657 255 0 255 
0.475701 -0.930428 6.93557 0.512052 255 0 255 
0.494165 -0.931963 6.9426 0.538185 255 0 255 
0.518418 -0.950759 6.92091 0.482564 255 0 255 
0.451253 -0.913201 6.9589 0.521279 255 0 255 
0.469394 -0.913794 6.96476 0.56588 255 0 255 
0.441928 -0.914254 6.95162 0.519683 255 0 255 
0.432719 -0.915137 6.94402 0.53277 255 0 255 
0.449998 -0.931652 6.92315 0.496313 255 0 255 
0.298747 -0.741497 7.0132 0.601229 255 0 255 
0.309429 -0.74623 7.02343 0.669218 255 0 255 
0.296883 -0.709509 7.03532 0.680114 255 0 255 
0.31946 -0.750689 7.03272 0.637625 255 0 255 
0.307208 -0.714244 7.04443 0.722064 255 0 255 
0.316975 -0.718873 7.05258 0.690156 255 0 255 
0.329021 -0.754933 7.04116 0.691276 255 0 255 
0.294277 -0.677436 7.05593 0.727536 255 0 255 
0.304591 -0.682097 7.06403 0.815087 255 0 255 
0.291553 -0.645464 7.0753 0.785028 255 0 255 
0.282062 -0.642259 7.06835 0.773547 255 0 255 
0.284751 -0.674252 7.0478 0.737179 255 0 255 
0.272034 -0.638959 7.06032 0.740046 255 0 255 
0.274248 -0.670786 7.03876 0.63419 255 0 255 
0.286879 -0.706275 7.02601 0.648469 255 0 255 
0.261153 -0.635402 7.05142 0.688187 255 0 255 
0.345135 -0.753869 7.0562 0.770555 255 0 255 
0.332573 -0.717828 7.06635 0.791266 255 0 255 
0.353458 -0.753311 7.0632 0.763547 255 0 255 
0.341427 -0.717565 7.07363 0.86705 255 0 255 
0.350535 -0.71733 7.08116 0.84506 255 0 255 
0.361774 -0.752739 7.06976 0.862636 255 0 255 
0.329319 -0.681631 7.08411 0.9065 255 0 255 
0.338903 -0.681649 7.09205 0.97985 255 0 255 
0.32712 -0.645685 7.10312 1 255 0 255 
0.308694 -0.645645 7.08871 0.899646 255 0 255 
0.299692 -0.525968 7.11202 0.914262 255 0 255 
0.295024 -0.565296 7.0991 0.957514 255 0 255 
0.27871 -0.524438 7.09872 0.987744 255 0 255 
0.275727 -0.564671 7.08703 0.864284 255 0 255 
0.292477 -0.605487 7.08702 0.891305 255 0 255 
0.311676 -0.605925 7.10134 0.982297 255 0 255 
0.316013 -0.566355 7.11443 0.858688 255 0 255 
0.257376 -0.520463 7.08496 0.914223 255 0 255 
0.254409 -0.557448 7.07236 0.839082 255 0 255 
0.263071 -0.598084 7.06664 0.846776 255 0 255 
0.273654 -0.601715 7.07425 0.810073 255 0 255 
0.265156 -0.561118 7.08027 0.883328 255 0 255 
0.378223 -0.744765 7.08544 0.693788 255 0 255 
0.389609 -0.777994 7.07554 0.637136 255 0 255 
0.366867 -0.711444 7.09505 0.903853 255 0 255 
0.384112 -0.70248 7.1132 0.73035 255 0 255 
0.395288 -0.735718 7.1038 0.675199 255 0 255 
0.406408 -0.768848 7.09426 0.621503 255 0 255 
0.364046 -0.673414 7.11332 0.892055 255 0 255 
0.361662 -0.635499 7.13159 0.823912 255 0 255 
0.344111 -0.640543 7.11696 0.912185 255 0 255 
0.412295 -0.725259 7.11896 0.636005 255 0 255 
0.423153 -0.756234 7.11131 0.645024 255 0 255 
0.401708 -0.694334 7.127 0.619334 255 0 255 
0.418551 -0.682173 7.14342 0.529291 255 0 255 
0.428895 -0.712987 7.13572 0.619379 255 0 255 
0.439695 -0.744014 7.1284 0.637525 255 0 255 
0.399388 -0.657269 7.1425 0.582833 255 0 255 
0.397079 -0.620297 7.15784 0.5719 255 0 255 
0.379373 -0.627717 7.14432 0.656684 255 0 255 
0.381564 -0.665087 7.12877 0.710407 255 0 255 
0.376081 -0.521274 7.16187 0.611938 255 0 255 
0.371255 -0.558971 7.15163 0.596264 255 0 255 
0.357581 -0.523277 7.1509 0.591698 255 0 255 
0.352851 -0.561437 7.14069 0.674382 255 0 255 
0.366205 -0.597015 7.1414 0.699865 255 0 255 
0.384353 -0.589789 7.15454 0.607702 255 0 255 
0.389176 -0.552264 7.16459 0.603859 255 0 255 
0.338866 -0.526212 7.13823 0.623952 255 0 255 
0.334291 -0.565538 7.12622 0.714471 255 0 255 
0.319695 -0.526552 7.12552 0.753789 255 0 255 
0.330054 -0.605487 7.11447 0.861348 255 0 255 
0.348345 -0.600728 7.12881 0.799465 255 0 255 
0.447994 -0.703391 7.14846 0.532423 255 0 255 
0.45812 -0.732938 7.14207 0.582572 255 0 255 
0.437925 -0.674012 7.15512 0.57789 255 0 255 
0.456195 -0.663354 7.16838 0.498953 255 0 255 
0.46616 -0.692783 7.16224 0.536861 255 0 255 
0.476422 -0.722474 7.15645 0.580829 255 0 255 
0.437376 -0.639305 7.16825 0.553531 255 0 255 
0.437311 -0.605006 7.18168 0.574927 255 0 255 
0.417341 -0.61246 7.16949 0.517349 255 0 255 
0.417818 -0.647193 7.15652 0.528718 255 0 255 
0.485841 -0.684292 7.17408 0.562964 255 0 255 
0.49531 -0.712869 7.16814 0.466519 255 0 255 
0.476571 -0.655921 7.18008 0.533883 255 0 255 
0.496047 -0.646564 7.19212 0.467587 255 0 255 
0.504561 -0.675015 7.18595 0.544714 255 0 255 
0.513603 -0.703682 7.18014 0.498844 255 0 255 
0.477481 -0.623025 7.1922 0.513968 255 0 255 
0.478891 -0.590356 7.20472 0.516966 255 0 255 
0.458086 -0.597563 7.19287 0.501271 255 0 255 
0.456718 -0.630346 7.18032 0.522053 255 0 255 
0.45989 -0.502795 7.20832 0.486892 255 0 255 
0.451944 -0.536734 7.19895 0.563156 255 0 255 
0.438426 -0.507124 7.19713 0.54789 255 0 255 
0.430602 -0.541268 7.18781 0.559518 255 0 255 
0.444311 -0.570834 7.18995 0.549046 255 0 255 
0.465219 -0.563576 7.20136 0.502936 255 0 255 
0.473419 -0.529516 7.21068 0.473292 255 0 255 
0.417024 -0.512751 7.18537 0.555891 255 0 255 
0.410103 -0.548443 7.17593 0.594571 255 0 255 
0.395992 -0.516237 7.17407 0.590826 255 0 255 
0.403486 -0.584241 7.16671 0.579393 255 0 255 
0.423797 -0.57677 7.17841 0.558996 255 0 255 
0.523009 -0.667469 7.1968 0.42479 255 0 255 
0.532066 -0.6954 7.1913 0.464757 255 0 255 
0.514882 -0.639857 7.2029 0.476787 255 0 255 
0.533295 -0.631295 7.21376 0.339366 255 0 255 
0.541631 -0.659045 7.20809 0.346732 255 0 255 
0.550267 -0.687004 7.20269 0.378873 255 0 255 
0.516138 -0.608112 7.2144 0.414527 255 0 255 
0.517307 -0.576598 7.22576 0.334386 255 0 255 
0.497887 -0.583487 7.21477 0.393627 255 0 255 
0.496743 -0.614937 7.20333 0.457139 255 0 255 
0.559575 -0.652153 7.21964 0.242017 255 0 255 
0.567262 -0.679519 7.21393 0.311438 255 0 255 
0.551515 -0.624962 7.22549 0.269653 255 0 255 
0.552825 -0.594124 7.23698 0.23086 255 0 255 
0.545257 -0.566827 7.24277 0.236045 255 0 255 
0.534371 -0.600554 7.22526 0.283884 255 0 255 
0.531023 -0.513606 7.24328 0.216911 255 0 255 
0.519647 -0.486851 7.24113 0.252039 255 0 255 
0.512791 -0.518149 7.232 0.313612 255 0 255 
0.523962 -0.545071 7.23434 0.281845 255 0 255 
0.500493 -0.492517 7.23039 0.352078 255 0 255 
0.493375 -0.524941 7.22158 0.39859 255 0 255 
0.480483 -0.497066 7.21935 0.429116 255 0 255 
0.485688 -0.557637 7.21279 0.439582 255 0 255 
0.504995 -0.550775 7.22309 0.336401 255 0 255 
0.111631 -0.463365 6.96124 0.507401 255 0 255 
0.0971979 -0.429186 6.95527 0.490486 255 0 255 
0.102794 -0.489874 6.94216 0.50128 255 0 255 
0.0884165 -0.455422 6.93647 0.484973 255 0 255 
0.0791018 -0.481654 6.91796 0.481064 255 0 255 
0.0746594 -0.421685 6.93015 0.468081 255 0 255 
0.0935828 -0.516614 6.92336 0.499117 255 0 255 
0.084535 -0.54369 6.90505 0.501957 255 0 255 
0.0973495 -0.549751 6.91657 0.516515 255 0 255 
0.106198 -0.522639 6.93547 0.516706 255 0 255 
0.110193 -0.555817 6.9287 0.53225 255 0 255 
0.119272 -0.528661 6.94778 0.534661 255 0 255 
0.115499 -0.4956 6.9547 0.521105 255 0 255 
0.1236 -0.561935 6.94047 0.546389 255 0 255 
0.0650262 -0.447921 6.91262 0.464949 255 0 255 
0.0524918 -0.416348 6.90635 0.449102 255 0 255 
0.0550682 -0.474528 6.8958 0.464588 255 0 255 
0.0428872 -0.442588 6.88896 0.447991 255 0 255 
0.0328886 -0.46901 6.87306 0.451236 255 0 255 
0.0307201 -0.411663 6.88257 0.43188 255 0 255 
0.045167 -0.501125 6.87901 0.470947 255 0 255 
0.0353497 -0.528389 6.86304 0.482404 255 0 255 
0.0596763 -0.535894 6.88391 0.490166 255 0 255 
0.0692707 -0.508534 6.90097 0.4827 255 0 255 
0.0669462 -0.61825 6.83836 0.477919 255 0 255 
0.0808498 -0.622329 6.84764 0.481322 255 0 255 
0.0728148 -0.592617 6.85992 0.50126 255 0 255 
0.0948527 -0.626275 6.85709 0.486375 255 0 255 
0.0866447 -0.596752 6.86994 0.509046 255 0 255 
0.100604 -0.601097 6.88001 0.517255 255 0 255 
0.108974 -0.630163 6.86694 0.515659 255 0 255 
0.0786073 -0.567803 6.88234 0.502229 255 0 255 
0.0922621 -0.572078 6.8929 0.512793 255 0 255 
0.0535629 -0.560109 6.86193 0.492898 255 0 255 
0.0477853 -0.585213 6.84069 0.495464 255 0 255 
0.122569 -0.636209 6.87805 0.52135 255 0 255 
0.137526 -0.643537 6.88935 0.524082 255 0 255 
0.127349 -0.613237 6.90265 0.534172 255 0 255 
