ply
format ascii 1.0
comment VCGLIB generated
element vertex 1022
property float x
property float y
property float z
property uchar red
property uchar green
property uchar blue
property float quality
end_header
-0.100413 -0.129001 0.820582 0 0 153 0.006898
-0.102408 -0.127583 0.823890 0 0 153 0.007223
-0.099483 -0.128024 0.825662 0 0 153 0.007337
-0.097485 -0.129429 0.822352 0 0 153 0.007177
-0.101525 -0.126707 0.828969 0 0 153 0.006967
-0.096577 -0.128474 0.827421 0 0 153 0.007412
-0.098615 -0.127179 0.830740 0 0 153 0.006938
-0.095717 -0.127682 0.832513 0 0 153 0.006838
-0.094577 -0.129877 0.824115 0 0 153 0.007215
-0.093680 -0.128971 0.829193 0 0 153 0.007295
-0.091674 -0.130347 0.825887 0 0 153 0.007114
-0.100681 -0.125990 0.834073 0 0 153 0.006249
-0.097785 -0.126490 0.835848 0 0 153 0.006463
-0.099872 -0.125368 0.839188 0 0 153 0.006696
-0.102731 -0.124911 0.837211 0 0 153 0.006147
-0.103544 -0.125558 0.832104 0 0 153 0.006198
-0.105597 -0.124463 0.835229 0 0 153 0.005768
-0.106422 -0.125145 0.830131 0 0 153 0.006241
-0.104402 -0.126317 0.827003 0 0 153 0.006911
-0.107298 -0.125953 0.825036 0 0 153 0.006552
-0.108478 -0.124039 0.833255 0 0 153 0.005589
-0.109320 -0.124761 0.828159 0 0 153 0.006000
-0.111387 -0.123670 0.831289 0 0 153 0.005685
-0.105306 -0.127239 0.821929 0 0 153 0.006826
-0.089119 -0.130570 0.827392 0 0 153 0.007187
-0.091135 -0.129145 0.830834 0 0 153 0.007241
-0.088580 -0.129387 0.832339 0 0 153 0.007108
-0.086559 -0.130806 0.828897 0 0 153 0.007120
-0.090625 -0.128088 0.835816 0 0 153 0.006770
-0.086028 -0.129667 0.833857 0 0 153 0.006952
-0.088070 -0.128368 0.837335 0 0 153 0.006734
-0.084003 -0.131059 0.830406 0 0 153 0.006965
-0.090147 -0.127146 0.840823 0 0 153 0.006842
-0.092220 -0.126040 0.844184 0 0 179 0.007839
-0.092686 -0.126907 0.839163 0 0 153 0.006653
-0.094767 -0.125801 0.842515 0 0 153 0.007250
-0.095237 -0.126695 0.837498 0 0 153 0.006497
-0.093173 -0.127867 0.834158 0 0 153 0.006830
-0.097327 -0.125569 0.840841 0 0 153 0.006827
-0.098830 -0.122545 0.853770 0 0 229 0.017010
-0.101432 -0.122372 0.851896 0 0 204 0.015058
-0.099187 -0.123457 0.848916 0 0 179 0.011068
-0.104052 -0.122274 0.850036 0 0 204 0.014681
-0.101796 -0.123336 0.847051 0 0 179 0.010627
-0.104407 -0.123272 0.845212 0 0 179 0.011074
-0.106677 -0.122201 0.848193 0 0 204 0.015091
-0.099536 -0.124389 0.844042 0 0 179 0.007849
-0.102133 -0.124307 0.842203 0 0 179 0.008237
-0.096972 -0.124620 0.845716 0 0 179 0.008497
-0.094420 -0.124863 0.847397 0 0 179 0.009476
-0.096626 -0.123684 0.850595 0 0 204 0.012452
-0.109584 -0.121773 0.846204 0 0 204 0.013314
-0.112490 -0.121365 0.844041 0 0 204 0.011983
-0.110177 -0.122351 0.841233 0 0 179 0.008124
-0.115409 -0.120971 0.841890 0 0 179 0.011693
-0.113078 -0.121944 0.839072 0 0 153 0.007779
-0.116013 -0.121620 0.836927 0 0 179 0.008582
-0.118359 -0.120645 0.839739 0 0 179 0.008721
-0.110767 -0.122971 0.836257 0 0 153 0.005987
-0.113682 -0.122600 0.834103 0 0 153 0.006193
-0.107878 -0.123391 0.838234 0 0 153 0.006246
-0.105003 -0.123844 0.840214 0 0 153 0.006898
-0.107292 -0.122817 0.843217 0 0 179 0.009415
-0.088207 -0.038154 0.947851 216 255 31 0.292007
-0.088624 -0.039290 0.945615 211 255 37 0.280456
-0.088502 -0.036509 0.944786 204 255 44 0.262667
-0.088893 -0.037656 0.942558 200 255 47 0.254215
-0.088972 -0.040431 0.943365 206 255 42 0.266346
-0.088816 -0.034821 0.941743 197 255 51 0.247416
-0.089257 -0.038750 0.940330 195 255 53 0.243251
-0.089163 -0.035948 0.939534 191 255 56 0.237800
-0.089558 -0.037053 0.937291 186 255 62 0.224247
-0.089351 -0.041553 0.941148 207 255 40 0.271563
-0.089673 -0.039881 0.938101 193 255 55 0.240014
-0.089785 -0.042714 0.938967 207 255 40 0.270836
-0.089096 -0.033097 0.938718 188 255 60 0.228217
-0.089516 -0.034180 0.936447 179 255 69 0.207448
-0.089484 -0.031292 0.935712 177 255 71 0.206746
-0.089078 -0.030387 0.938046 183 255 65 0.216495
-0.088751 -0.032183 0.941043 193 255 55 0.239472
-0.088679 -0.029505 0.940400 190 255 58 0.232653
-0.088346 -0.031300 0.943417 204 255 44 0.262945
-0.088424 -0.033924 0.944086 200 255 47 0.257140
-0.088037 -0.033016 0.946432 216 255 31 0.291375
-0.088315 -0.028673 0.942763 193 255 55 0.241053
-0.087964 -0.030378 0.945762 211 255 37 0.279017
-0.088129 -0.035590 0.947133 213 255 35 0.283265
-0.090247 -0.043675 0.936861 202 255 46 0.260905
-0.090160 -0.040735 0.935924 191 255 56 0.237891
-0.090656 -0.041717 0.933790 174 255 74 0.195454
-0.090746 -0.044676 0.934787 195 255 53 0.244940
-0.090600 -0.038780 0.932889 165 255 83 0.177799
-0.091155 -0.042705 0.931729 165 255 83 0.177477
-0.091102 -0.039726 0.930778 154 255 94 0.153488
-0.091617 -0.040697 0.928680 145 255 103 0.135952
-0.091248 -0.045693 0.932681 174 255 74 0.198518
-0.091683 -0.043701 0.929633 152 255 95 0.151364
-0.091762 -0.046703 0.930600 163 255 85 0.174884
-0.091054 -0.036706 0.929854 149 255 99 0.142901
-0.091578 -0.037656 0.927729 143 255 104 0.129735
-0.091600 -0.034636 0.926851 147 255 101 0.137163
-0.091047 -0.033826 0.929065 151 255 97 0.144660
-0.090528 -0.035892 0.932057 161 255 87 0.169200
-0.090507 -0.032997 0.931283 161 255 87 0.168939
-0.090001 -0.035063 0.934274 172 255 76 0.194569
-0.090077 -0.037872 0.935040 179 255 69 0.209988
-0.090000 -0.032169 0.933487 170 255 78 0.190030
-0.095295 -0.022398 0.923389 143 255 104 0.128981
-0.094547 -0.021681 0.925764 149 255 99 0.143753
-0.093674 -0.024577 0.926393 143 255 104 0.132320
-0.092975 -0.023934 0.928752 149 255 99 0.141443
-0.093817 -0.020981 0.928139 158 255 90 0.162928
-0.092173 -0.026865 0.929438 147 255 101 0.140334
-0.092290 -0.023222 0.931134 165 255 83 0.176688
-0.091519 -0.026148 0.931813 161 255 87 0.168406
-0.090881 -0.025447 0.934199 172 255 76 0.194405
-0.093128 -0.020266 0.930529 165 255 83 0.179497
-0.091646 -0.022519 0.933526 168 255 79 0.187495
-0.092440 -0.019576 0.932893 170 255 78 0.187611
-0.090796 -0.029133 0.932566 163 255 85 0.171943
-0.090182 -0.028387 0.934931 174 255 74 0.196244
-0.091316 -0.029913 0.930334 151 255 97 0.148038
-0.091839 -0.030765 0.928119 147 255 101 0.138776
-0.092738 -0.027609 0.927229 142 255 106 0.128032
-0.093314 -0.028453 0.924991 136 255 112 0.116555
-0.092408 -0.031602 0.925886 140 255 108 0.122037
-0.094271 -0.025397 0.924138 138 255 110 0.118169
-0.091923 -0.018865 0.935332 181 255 67 0.212296
-0.091189 -0.021620 0.935881 175 255 72 0.202351
-0.090706 -0.020979 0.938329 184 255 63 0.220673
-0.091404 -0.018183 0.937805 186 255 62 0.222909
-0.090042 -0.023729 0.938935 184 255 63 0.220970
-0.089573 -0.023045 0.941384 193 255 55 0.241651
-0.088963 -0.025754 0.942000 199 255 49 0.250430
-0.089344 -0.026629 0.939640 181 255 67 0.214028
-0.089742 -0.027515 0.937297 175 255 72 0.200977
-0.090448 -0.024576 0.936560 174 255 74 0.198284
-0.096101 -0.050208 0.951855 243 251 5 0.348443
-0.095491 -0.048884 0.954078 243 251 5 0.349387
-0.096303 -0.048330 0.956522 247 247 2 0.356304
-0.099303 -0.049787 0.956922 248 245 0 0.359646
-0.100114 -0.051125 0.954628 241 253 7 0.344367
-0.099302 -0.051711 0.952198 238 255 10 0.336782
-0.102496 -0.053159 0.952527 236 255 12 0.335782
-0.105833 -0.051366 0.957245 250 243 0 0.365986
-0.106834 -0.052662 0.954880 243 251 5 0.350174
-0.106075 -0.053713 0.952514 236 255 12 0.335916
-0.109600 -0.054224 0.952535 232 255 15 0.326937
-0.103333 -0.052115 0.954922 239 255 8 0.343029
-0.102472 -0.050810 0.957161 250 243 0 0.364124
-0.110221 -0.052748 0.954887 245 249 3 0.354248
-0.109195 -0.051439 0.957240 254 239 0 0.373434
-0.112551 -0.051079 0.957123 250 243 0 0.364424
-0.113692 -0.052377 0.954657 239 255 8 0.340308
-0.113121 -0.053858 0.952294 227 255 21 0.316036
-0.116600 -0.053496 0.952065 232 255 15 0.324803
-0.118866 -0.049297 0.956642 252 241 0 0.367322
-0.120146 -0.050610 0.954017 236 255 12 0.333122
-0.119834 -0.052435 0.951615 223 255 24 0.307607
-0.123057 -0.051421 0.951156 216 255 31 0.292176
-0.116950 -0.051668 0.954457 239 255 8 0.339862
-0.115769 -0.050359 0.956929 245 249 3 0.352499
-0.124485 -0.052686 0.948419 199 255 49 0.250270
-0.124189 -0.054455 0.946108 184 255 63 0.219307
-0.125635 -0.055726 0.943347 174 255 74 0.197209
-0.125335 -0.057482 0.941027 161 255 87 0.170351
-0.128842 -0.056506 0.940175 159 255 88 0.164163
-0.122147 -0.056752 0.944196 179 255 69 0.210290
-0.121833 -0.058531 0.941854 168 255 79 0.185434
-0.120830 -0.055473 0.946764 193 255 55 0.241958
-0.119505 -0.054211 0.949322 211 255 37 0.279523
-0.130280 -0.057800 0.937408 149 255 99 0.141236
-0.129865 -0.059568 0.935213 138 255 110 0.118872
-0.131295 -0.060857 0.932393 133 255 115 0.106732
-0.130868 -0.062613 0.930152 131 255 117 0.102621
-0.134573 -0.061715 0.928912 133 255 115 0.107109
-0.127590 -0.061814 0.933606 138 255 110 0.118376
-0.127139 -0.063579 0.931377 134 255 113 0.110555
-0.126255 -0.060529 0.936255 143 255 104 0.132811
-0.124924 -0.059257 0.938863 154 255 94 0.152853
-0.118970 -0.064338 0.933477 147 255 101 0.138359
-0.117752 -0.063074 0.935933 156 255 92 0.158862
-0.118481 -0.061632 0.938018 159 255 88 0.167957
-0.117291 -0.060351 0.940447 168 255 79 0.187460
-0.118017 -0.058895 0.942511 179 255 69 0.207776
-0.114163 -0.059313 0.943137 190 255 58 0.230999
-0.121134 -0.059989 0.939775 158 255 90 0.162142
-0.122451 -0.061216 0.937198 152 255 95 0.148877
-0.123789 -0.062469 0.934571 142 255 106 0.128678
-0.123075 -0.063911 0.932437 136 255 112 0.116990
-0.113000 -0.058011 0.945530 206 255 42 0.266255
-0.113630 -0.056588 0.947738 209 255 39 0.276545
-0.112493 -0.055323 0.950065 222 255 26 0.300822
-0.116010 -0.054958 0.949834 220 255 28 0.299258
-0.117296 -0.056192 0.947304 204 255 44 0.265468
-0.118595 -0.057455 0.944746 186 255 62 0.226505
-0.088489 -0.038681 0.950696 225 255 23 0.310073
-0.089956 -0.042320 0.951873 234 255 14 0.329789
-0.089650 -0.041819 0.949021 222 255 26 0.302019
-0.091134 -0.045390 0.950208 236 255 12 0.333326
-0.093656 -0.046393 0.955902 243 251 5 0.347825
-0.093014 -0.046540 0.953257 238 255 10 0.336397
-0.093591 -0.047838 0.951008 238 255 10 0.337037
-0.108800 -0.055291 0.950351 231 255 17 0.321297
-0.109923 -0.056556 0.948027 225 255 23 0.312477
-0.109122 -0.057633 0.945821 215 255 33 0.287055
-0.110259 -0.058898 0.943505 200 255 47 0.256375
-0.106348 -0.058464 0.943814 215 255 33 0.288995
-0.105326 -0.057152 0.945986 229 255 19 0.316899
-0.106164 -0.056093 0.948179 227 255 21 0.315431
-0.105213 -0.054800 0.950319 236 255 12 0.335018
-0.114450 -0.061650 0.938731 168 255 79 0.185970
-0.113579 -0.062732 0.936690 167 255 81 0.180341
-0.114814 -0.063952 0.934270 156 255 92 0.156981
-0.110623 -0.063597 0.935030 168 255 79 0.186218
-0.109529 -0.062293 0.937280 181 255 67 0.211599
-0.110421 -0.061240 0.939312 184 255 63 0.221442
-0.109359 -0.059945 0.941507 193 255 55 0.241642
-0.102669 -0.060899 0.935284 190 255 58 0.232982
-0.101750 -0.059582 0.937336 202 255 46 0.259301
-0.100798 -0.058283 0.939355 216 255 31 0.292278
-0.104475 -0.059711 0.939533 200 255 47 0.257755
-0.103579 -0.058400 0.941579 213 255 35 0.284031
-0.102711 -0.057081 0.943641 225 255 23 0.310318
-0.099938 -0.056945 0.941409 229 255 19 0.320086
-0.099088 -0.055612 0.943454 234 255 14 0.328730
-0.105584 -0.060977 0.937389 188 255 60 0.228506
-0.106665 -0.062272 0.935194 174 255 74 0.198220
-0.098283 -0.054252 0.945538 239 255 8 0.343183
-0.099154 -0.053661 0.947832 234 255 14 0.328653
-0.100027 -0.053059 0.950095 238 255 10 0.335949
-0.096784 -0.051566 0.949727 236 255 12 0.333942
-0.102568 -0.055131 0.948075 238 255 10 0.335984
-0.101738 -0.055752 0.945799 231 255 17 0.320386
-0.096092 -0.051678 0.947204 232 255 15 0.324380
-0.095405 -0.051779 0.944665 232 255 15 0.327323
-0.096175 -0.053127 0.942577 225 255 23 0.310058
-0.093272 -0.050584 0.941714 232 255 15 0.324695
-0.092745 -0.049283 0.943853 238 255 10 0.336924
-0.093419 -0.049218 0.946365 238 255 10 0.339608
-0.092862 -0.047953 0.948494 234 255 14 0.328865
-0.097497 -0.055567 0.938543 213 255 35 0.282987
-0.098356 -0.056883 0.936494 200 255 47 0.257352
-0.099254 -0.058236 0.934434 181 255 67 0.211760
-0.095882 -0.055432 0.933616 184 255 63 0.219430
-0.095203 -0.054203 0.935635 199 255 49 0.253708
-0.094541 -0.052986 0.937647 211 255 37 0.281106
-0.095363 -0.053054 0.940113 222 255 26 0.303291
-0.092483 -0.048723 0.936183 197 255 51 0.249597
-0.091973 -0.047706 0.938250 213 255 35 0.284743
-0.091489 -0.046684 0.940329 218 255 30 0.296306
-0.093128 -0.049929 0.934145 183 255 65 0.218695
-0.093777 -0.051127 0.932116 167 255 81 0.182062
-0.090444 -0.044109 0.944580 218 255 30 0.296598
-0.090075 -0.042984 0.946819 220 255 28 0.300513
-0.090947 -0.045386 0.942455 223 255 24 0.307007
-0.096853 -0.020157 0.922695 145 255 103 0.133751
-0.096014 -0.019498 0.925186 151 255 97 0.146651
-0.097580 -0.017259 0.924534 159 255 88 0.166225
-0.098470 -0.017904 0.922035 149 255 99 0.144353
-0.096756 -0.016607 0.927043 168 255 79 0.183949
-0.099221 -0.015055 0.923940 168 255 79 0.183734
-0.098346 -0.014374 0.926410 177 255 71 0.203324
-0.099947 -0.012218 0.925809 183 255 65 0.216121
-0.100130 -0.015743 0.921425 161 255 87 0.168231
-0.100872 -0.012918 0.923335 177 255 71 0.206343
-0.101804 -0.013661 0.920832 168 255 79 0.185892
-0.097493 -0.013748 0.928908 183 255 65 0.215459
-0.099084 -0.011525 0.928308 191 255 56 0.237985
-0.098241 -0.010846 0.930813 193 255 55 0.239165
-0.096729 -0.012995 0.931238 181 255 67 0.211607
-0.096025 -0.015878 0.929406 170 255 78 0.188636
-0.095298 -0.015172 0.931784 175 255 72 0.201354
-0.094558 -0.018067 0.929941 168 255 79 0.184630
-0.095260 -0.018798 0.927566 161 255 87 0.170423
-0.093845 -0.017345 0.932287 172 255 76 0.194603
-0.104637 -0.010313 0.922403 190 255 58 0.231976
-0.105667 -0.011062 0.919749 175 255 72 0.200710
-0.103625 -0.009574 0.925008 195 255 53 0.242551
-0.107402 -0.007047 0.923963 206 255 42 0.269413
-0.108445 -0.007808 0.921321 200 255 47 0.254892
-0.109477 -0.008643 0.918644 190 255 58 0.230608
-0.104523 -0.007539 0.927098 207 255 40 0.272385
-0.105440 -0.005539 0.929245 213 255 35 0.284035
-0.101809 -0.008125 0.929976 202 255 46 0.257905
-0.099286 -0.008716 0.933074 204 255 44 0.262588
-0.102844 -0.006006 0.932325 213 255 35 0.282937
-0.094068 -0.013799 0.936871 195 255 53 0.244029
-0.093260 -0.016669 0.934864 181 255 67 0.213948
-0.094656 -0.014499 0.934295 188 255 60 0.228580
-0.096094 -0.012304 0.933818 193 255 55 0.239062
-0.112174 -0.006777 0.920534 204 255 44 0.263969
-0.113322 -0.007611 0.917766 191 255 56 0.236421
-0.111063 -0.006008 0.923327 213 255 35 0.284195
-0.114815 -0.004929 0.922398 222 255 26 0.301183
-0.115931 -0.005727 0.919564 211 255 37 0.277413
-0.117075 -0.006630 0.916769 200 255 47 0.257533
-0.111843 -0.004679 0.925618 218 255 30 0.293718
-0.112628 -0.003369 0.927971 236 255 12 0.332038
-0.109040 -0.004421 0.928629 218 255 30 0.296287
-0.108228 -0.005714 0.926296 215 255 33 0.286382
-0.119499 -0.005970 0.919063 209 255 39 0.273467
-0.120664 -0.006829 0.916100 190 255 58 0.232034
-0.118291 -0.005106 0.921963 216 255 31 0.290207
-0.121831 -0.005218 0.921268 215 255 33 0.285446
-0.123024 -0.006093 0.918331 204 255 44 0.263478
-0.124219 -0.006968 0.915362 191 255 56 0.236984
-0.118872 -0.004361 0.924560 227 255 21 0.315126
-0.119481 -0.003621 0.927148 241 253 7 0.347048
-0.116069 -0.003490 0.927575 238 255 10 0.336302
-0.115440 -0.004201 0.924973 225 255 23 0.308690
-0.113303 -0.002584 0.930724 248 245 0 0.360438
-0.116726 -0.002679 0.930353 254 239 0 0.374408
-0.106327 -0.004160 0.931758 223 255 24 0.304692
-0.109897 -0.003021 0.931129 236 255 12 0.332532
0.049423 0.003510 0.898191 0 7 255 0.025234
0.051669 0.003830 0.895940 0 7 255 0.024087
0.048516 0.004005 0.894226 0 7 255 0.026167
0.053921 0.004137 0.893684 0 0 255 0.022784
0.050763 0.004298 0.891951 0 7 255 0.024592
0.053013 0.004578 0.889685 0 7 255 0.024346
0.056186 0.004428 0.891433 0 0 255 0.023069
0.047624 0.004413 0.890227 0 7 255 0.025561
0.049873 0.004690 0.887951 0 7 255 0.025316
0.046722 0.004760 0.886206 0 7 255 0.026062
0.044698 0.004407 0.888586 0 7 255 0.024430
0.045599 0.004036 0.892594 0 7 255 0.025597
0.042671 0.004024 0.890957 0 7 255 0.024755
0.043584 0.003599 0.894932 0 7 255 0.025834
0.046504 0.003579 0.896565 0 7 255 0.026074
0.044498 0.003128 0.898896 0 7 255 0.025922
0.040654 0.003589 0.893302 0 7 255 0.024686
0.041575 0.003137 0.897265 0 7 255 0.025570
0.038652 0.003128 0.895634 0 7 255 0.025340
0.047415 0.003076 0.900521 0 7 255 0.025155
0.058014 0.004356 0.889129 0 0 255 0.020400
0.060008 0.004175 0.886938 0 0 229 0.018220
0.056652 0.004376 0.885061 0 0 255 0.019903
0.062006 0.003989 0.884737 0 0 229 0.016071
0.058633 0.004186 0.882844 0 0 229 0.017224
0.060612 0.003960 0.880631 0 0 204 0.015256
0.064009 0.003773 0.882546 0 0 204 0.013987
0.055327 0.004342 0.880982 0 0 229 0.018162
0.057301 0.004127 0.878756 0 0 229 0.016012
0.054008 0.004260 0.876886 0 0 229 0.016964
0.052184 0.004397 0.879213 0 0 229 0.018176
0.053506 0.004471 0.883303 0 0 255 0.019722
0.050362 0.004531 0.881549 0 0 255 0.019816
0.051691 0.004599 0.885624 0 0 255 0.022279
0.054834 0.004489 0.887366 0 0 255 0.021032
0.048544 0.004659 0.883876 0 0 255 0.021442
0.041256 0.004506 0.869741 0 0 229 0.016330
0.039596 0.004587 0.872173 0 0 229 0.016555
0.042641 0.004638 0.873877 0 0 229 0.018246
0.040981 0.004713 0.876311 0 0 229 0.018956
0.037936 0.004654 0.874615 0 0 229 0.017328
0.044018 0.004733 0.878007 0 0 255 0.020265
0.039325 0.004781 0.878755 0 0 255 0.020840
0.042359 0.004806 0.880444 0 0 255 0.021871
0.040704 0.004845 0.882871 0 7 255 0.025362
0.036278 0.004710 0.877049 0 0 229 0.019329
0.037669 0.004816 0.881180 0 7 255 0.024350
0.034621 0.004749 0.879481 0 0 255 0.022225
0.045377 0.004781 0.882120 0 0 255 0.022183
0.043720 0.004830 0.884548 0 7 255 0.025670
0.047201 0.004655 0.879780 0 0 255 0.020230
0.049022 0.004518 0.877451 0 0 229 0.018592
0.045841 0.004604 0.875671 0 0 229 0.018467
0.047667 0.004466 0.873329 0 0 229 0.017894
0.050846 0.004381 0.875109 0 0 229 0.017750
0.044470 0.004503 0.871538 0 0 229 0.017461
0.032811 0.004335 0.881962 0 0 255 0.020832
0.035640 0.004453 0.883575 0 0 255 0.022608
0.033837 0.004006 0.886042 0 0 255 0.021863
0.031003 0.003884 0.884440 0 0 229 0.019509
0.036650 0.004088 0.887637 0 7 255 0.023531
0.032036 0.003504 0.888493 0 0 255 0.021811
0.034845 0.003592 0.890079 0 7 255 0.023576
0.033058 0.003056 0.892502 0 0 255 0.023434
0.029212 0.003386 0.886886 0 0 229 0.019378
0.030253 0.002969 0.890915 0 0 255 0.021581
0.027425 0.002842 0.889320 0 0 229 0.019350
0.037648 0.003644 0.891654 0 7 255 0.024704
0.035856 0.003101 0.894066 0 7 255 0.024344
0.039667 0.004080 0.889307 0 7 255 0.025176
0.041693 0.004472 0.886933 0 7 255 0.024761
0.038672 0.004484 0.885263 0 7 255 0.024360
-0.009445 -0.059685 0.933197 36 255 211 0.071012
-0.011437 -0.055772 0.932525 90 255 157 0.082103
-0.010986 -0.063537 0.931961 18 252 229 0.067157
-0.012995 -0.059585 0.931271 36 255 211 0.072784
-0.014542 -0.063425 0.930031 18 252 229 0.070272
-0.015006 -0.055644 0.930595 72 255 175 0.080928
-0.012518 -0.067397 0.930691 18 252 229 0.066702
-0.014032 -0.071300 0.929435 36 255 211 0.070400
-0.010423 -0.071350 0.931187 18 252 229 0.070202
-0.008906 -0.067450 0.932449 1 230 247 0.064785
-0.016558 -0.059568 0.929532 36 255 211 0.073318
-0.018558 -0.055601 0.928862 36 255 211 0.074079
-0.018106 -0.063521 0.928460 18 252 229 0.069528
-0.020109 -0.059562 0.927805 18 252 229 0.068763
-0.021651 -0.063514 0.926731 1 230 247 0.065756
-0.022129 -0.055604 0.927106 36 255 211 0.071158
-0.019633 -0.067494 0.927392 18 252 229 0.069427
-0.021157 -0.071530 0.926298 54 255 193 0.075975
-0.017589 -0.071421 0.927872 36 255 211 0.073854
-0.016068 -0.067392 0.928958 18 252 229 0.069612
-0.018074 -0.087071 0.921492 18 252 229 0.069815
-0.017095 -0.083098 0.923523 1 230 247 0.065434
-0.014436 -0.086778 0.922980 18 252 229 0.066973
-0.016096 -0.079158 0.925520 1 230 247 0.064250
-0.013456 -0.082801 0.925016 0 208 255 0.061113
-0.012460 -0.078861 0.927001 0 208 255 0.059159
-0.010817 -0.086456 0.924468 0 208 255 0.062236
-0.015068 -0.075216 0.927498 18 252 229 0.067588
-0.018628 -0.075351 0.925944 18 252 229 0.068412
-0.019651 -0.079297 0.923964 1 230 247 0.063471
-0.009856 -0.082661 0.926625 0 208 255 0.059356
-0.007138 -0.086392 0.926087 0 208 255 0.059145
-0.008875 -0.078887 0.928738 0 208 255 0.058896
-0.006197 -0.082618 0.928235 0 185 255 0.055442
-0.007881 -0.075142 0.930856 0 208 255 0.061791
-0.011445 -0.075088 0.929115 1 230 247 0.064759
0.016970 0.004600 0.856977 0 0 204 0.012161
0.015609 0.004658 0.859544 0 0 204 0.012289
0.018476 0.004665 0.860997 0 0 204 0.012840
0.017100 0.004726 0.863570 0 0 204 0.014194
0.014237 0.004724 0.862112 0 0 204 0.013596
0.019959 0.004707 0.865037 0 0 204 0.014553
0.015723 0.004787 0.866142 0 0 229 0.015772
0.018582 0.004762 0.867611 0 0 229 0.016139
0.017206 0.004816 0.870184 0 0 229 0.019285
0.012866 0.004789 0.864678 0 0 204 0.015042
0.014350 0.004843 0.868712 0 0 229 0.018530
0.011495 0.004853 0.867239 0 0 229 0.017493
0.021429 0.004726 0.869080 0 0 229 0.016430
0.020049 0.004777 0.871663 0 0 229 0.019219
0.022886 0.004721 0.873144 0 0 229 0.018930
0.024385 0.004684 0.870635 0 0 229 0.016303
0.022925 0.004686 0.866583 0 0 204 0.014877
0.025883 0.004646 0.868133 0 0 204 0.014766
0.024424 0.004644 0.864080 0 0 204 0.013526
0.021456 0.004665 0.862535 0 0 204 0.013535
0.022948 0.004622 0.860035 0 0 204 0.013241
0.027381 0.004602 0.865624 0 0 204 0.013631
0.025921 0.004604 0.861573 0 0 204 0.013742
0.028887 0.004559 0.863111 0 0 204 0.014187
0.019961 0.004623 0.858505 0 0 204 0.012864
0.010031 0.004423 0.869887 0 0 229 0.015744
0.012738 0.004423 0.871273 0 0 229 0.016955
0.011268 0.003947 0.873910 0 0 229 0.015858
0.008558 0.003953 0.872529 0 0 204 0.015429
0.013975 0.003931 0.875297 0 0 229 0.016835
0.009794 0.003437 0.876552 0 0 229 0.015657
0.012505 0.003416 0.877941 0 0 229 0.015960
0.011026 0.002849 0.880573 0 0 204 0.015585
0.007078 0.003445 0.875177 0 0 204 0.014580
0.008313 0.002884 0.879196 0 0 204 0.015491
0.005597 0.002909 0.877816 0 0 204 0.015054
0.015207 0.003382 0.879325 0 0 229 0.016631
0.013733 0.002804 0.881956 0 0 204 0.015511
0.016435 0.002750 0.883336 0 0 229 0.015921
0.018051 0.003326 0.880800 0 0 229 0.016933
0.016825 0.003897 0.876780 0 0 229 0.017790
0.019662 0.003837 0.878260 0 0 229 0.017520
0.018435 0.004351 0.874223 0 0 229 0.017495
0.015594 0.004393 0.872740 0 0 229 0.017552
0.021269 0.004292 0.875705 0 0 229 0.017954
0.026296 0.003422 0.885317 0 0 229 0.019458
0.028092 0.003915 0.882869 0 0 229 0.019379
0.025166 0.003920 0.881278 0 0 229 0.018765
0.029897 0.004365 0.880391 0 0 255 0.019995
0.026963 0.004370 0.878810 0 0 229 0.019435
0.028780 0.004786 0.876322 0 0 255 0.020628
0.031707 0.004783 0.877911 0 0 255 0.021520
0.024027 0.004348 0.877220 0 0 229 0.018927
0.025840 0.004762 0.874729 0 0 255 0.019962
0.022420 0.003888 0.879771 0 0 229 0.018329
0.020812 0.003381 0.882309 0 0 229 0.018049
0.023559 0.003413 0.883813 0 0 229 0.019039
0.021961 0.002840 0.886338 0 0 229 0.018479
0.019207 0.002802 0.884837 0 0 229 0.017401
0.024697 0.002853 0.887835 0 0 229 0.018878
0.033206 0.004754 0.875400 0 0 229 0.018806
0.034869 0.004701 0.872960 0 0 229 0.016950
0.031782 0.004710 0.871297 0 0 229 0.016413
0.036526 0.004641 0.870522 0 0 229 0.016218
0.033440 0.004659 0.868860 0 0 204 0.015106
0.035101 0.004599 0.866421 0 0 229 0.016185
0.038188 0.004570 0.868084 0 0 229 0.016203
0.030343 0.004646 0.867204 0 0 204 0.014706
0.032004 0.004595 0.864766 0 0 204 0.015204
0.028839 0.004691 0.869714 0 0 229 0.015745
0.027338 0.004736 0.872232 0 0 229 0.017495
0.030279 0.004758 0.873819 0 0 229 0.018372
0.025535 0.001736 0.891746 0 0 204 0.014030
0.028122 0.001901 0.893283 0 0 229 0.016144
0.026227 0.000745 0.895695 0 0 204 0.012269
0.023635 0.000586 0.894164 0 0 179 0.010904
0.028804 0.000885 0.897223 0 0 204 0.013787
0.024326 -0.000427 0.898114 0 0 179 0.010084
0.026905 -0.000292 0.899631 0 0 179 0.011498
0.025004 -0.001458 0.902052 0 0 179 0.009761
0.021722 -0.000579 0.896597 0 0 179 0.009018
0.022404 -0.001582 0.900551 0 0 179 0.008717
0.019795 -0.001709 0.899050 0 0 179 0.007954
0.029478 -0.000168 0.901141 0 0 204 0.012884
0.027579 -0.001354 0.903551 0 0 179 0.010785
0.030149 -0.001267 0.905056 0 0 179 0.011566
0.032273 -0.000116 0.902698 0 0 204 0.013057
0.031609 0.000981 0.898783 0 0 204 0.015211
0.034409 0.001020 0.900345 0 0 204 0.015556
0.033736 0.002069 0.896429 0 0 229 0.018477
0.030933 0.002008 0.894863 0 0 229 0.017847
0.036526 0.002095 0.897994 0 0 229 0.019148
0.017831 -0.003352 0.901519 0 0 153 0.005602
0.020211 -0.003240 0.902974 0 0 153 0.006018
0.018244 -0.004819 0.905451 0 0 153 0.005674
0.015849 -0.004902 0.904019 0 0 153 0.005413
0.020618 -0.004746 0.906891 0 0 153 0.005945
0.016249 -0.006341 0.907955 0 0 153 0.006362
0.018614 -0.006275 0.909405 0 0 153 0.006593
0.016641 -0.007813 0.911878 0 0 179 0.008317
0.013866 -0.006430 0.906521 0 0 153 0.006057
0.014257 -0.007872 0.910454 0 0 179 0.008610
0.011883 -0.007939 0.909008 0 0 179 0.008381
0.020982 -0.006215 0.910840 0 0 153 0.006597
0.019008 -0.007767 0.913314 0 0 179 0.008530
0.021373 -0.007697 0.914739 0 0 179 0.008567
0.023586 -0.006178 0.912302 0 0 153 0.006745
0.023210 -0.004669 0.908370 0 0 153 0.006158
0.025794 -0.004603 0.909854 0 0 153 0.006321
0.025405 -0.003051 0.905948 0 0 153 0.006986
0.022810 -0.003141 0.904465 0 0 153 0.006639
0.027980 -0.002977 0.907438 0 0 153 0.007171
0.030652 -0.005922 0.916919 0 0 179 0.008447
0.033143 -0.004338 0.914511 0 0 179 0.007900
0.030500 -0.004444 0.912951 0 0 153 0.007514
0.035595 -0.002686 0.912164 0 0 179 0.010028
0.032964 -0.002770 0.910577 0 0 179 0.009087
0.035411 -0.001052 0.908245 0 0 204 0.014104
0.038034 -0.000986 0.909842 0 0 204 0.014764
0.030331 -0.002872 0.908993 0 0 179 0.008225
0.032787 -0.001149 0.906652 0 0 204 0.012883
0.028148 -0.004519 0.911412 0 0 153 0.006998
0.025965 -0.006096 0.913831 0 0 153 0.007276
0.028310 -0.006006 0.915387 0 0 153 0.007788
0.026107 -0.007524 0.917814 0 0 179 0.009503
0.023739 -0.007596 0.916295 0 0 179 0.009728
0.028470 -0.007465 0.919324 0 0 179 0.009824
0.040163 0.000137 0.907484 0 0 229 0.017103
0.042579 0.001164 0.905166 0 0 229 0.017975
0.039667 0.001187 0.903536 0 0 229 0.018252
0.044989 0.002148 0.902853 0 0 255 0.020086
0.042080 0.002188 0.901224 0 0 255 0.020673
0.039167 0.002185 0.899590 0 0 255 0.020426
0.037044 0.001122 0.901940 0 0 229 0.017014
0.034912 -0.000007 0.904291 0 0 204 0.014401
0.037543 0.000078 0.905885 0 0 229 0.016078
0.065554 0.003262 0.880312 0 0 179 0.009643
0.067178 0.002709 0.878103 0 0 153 0.006409
0.063684 0.002922 0.876145 0 0 153 0.007551
0.068802 0.002169 0.875895 0 0 153 0.004928
0.065299 0.002360 0.873921 0 0 153 0.005520
0.066911 0.001819 0.871699 0 0 153 0.003995
0.070434 0.001640 0.873683 0 0 128 0.003416
0.061889 0.002564 0.871995 0 0 153 0.006308
0.063488 0.002011 0.869763 0 0 153 0.004601
0.060116 0.002186 0.867860 0 0 153 0.005530
0.058593 0.002692 0.870112 0 0 153 0.006782
0.060358 0.003084 0.874251 0 0 179 0.008428
0.057071 0.003221 0.872369 0 0 179 0.009166
0.058832 0.003603 0.876500 0 0 179 0.011458
0.062154 0.003441 0.878384 0 0 179 0.010480
0.055542 0.003746 0.874622 0 0 204 0.012323
0.071720 0.000897 0.871465 0 0 128 0.001854
0.073036 0.000188 0.869216 0 0 128 0.001181
0.069481 0.000342 0.867269 0 0 128 0.001300
0.074374 -0.000449 0.866955 0 0 128 0.000980
0.070805 -0.000330 0.865011 0 0 128 0.000992
0.072142 -0.000916 0.862743 0 0 128 0.000950
0.075703 -0.001011 0.864693 0 0 128 0.000932
0.067351 -0.000161 0.863107 0 0 128 0.001092
0.068682 -0.000778 0.860845 0 0 128 0.001036
0.065266 -0.000646 0.858977 0 0 128 0.001218
0.063975 -0.000030 0.861206 0 0 128 0.001291
0.066056 0.000499 0.865328 0 0 128 0.001470
0.062685 0.000656 0.863426 0 0 128 0.001650
0.064772 0.001235 0.867544 0 0 128 0.002498
0.068196 0.001052 0.869483 0 0 128 0.002086
0.061402 0.001397 0.865641 0 0 128 0.002997
0.052043 -0.000196 0.851711 0 0 128 0.002554
0.050789 0.000456 0.853923 0 0 128 0.002788
0.054085 0.000394 0.855758 0 0 128 0.002512
0.052838 0.001088 0.857958 0 0 128 0.003372
0.049543 0.001159 0.856125 0 0 128 0.003696
0.056109 0.000985 0.859790 0 0 128 0.002805
0.051584 0.001829 0.860164 0 0 153 0.004931
0.054860 0.001716 0.861994 0 0 153 0.004265
0.053616 0.002487 0.864198 0 0 153 0.006906
0.048291 0.001903 0.858325 0 0 153 0.005224
0.050336 0.002591 0.862361 0 0 153 0.007569
0.047041 0.002668 0.860526 0 0 179 0.008062
0.058121 0.001581 0.863827 0 0 128 0.003688
0.056872 0.002352 0.866036 0 0 153 0.006147
0.059405 0.000828 0.861612 0 0 128 0.002169
0.060690 0.000133 0.859395 0 0 128 0.001609
0.057392 0.000276 0.857578 0 0 128 0.002098
0.058689 -0.000375 0.855352 0 0 128 0.001846
0.061979 -0.000501 0.857167 0 0 128 0.001510
0.055374 -0.000274 0.853537 0 0 128 0.002241
0.045604 0.003123 0.862811 0 0 179 0.009169
0.048811 0.003093 0.864612 0 0 179 0.009194
0.047371 0.003569 0.866913 0 0 179 0.011127
0.044160 0.003591 0.865111 0 0 179 0.010810
0.050560 0.003508 0.868713 0 0 179 0.010815
0.045921 0.004042 0.869222 0 0 204 0.013598
0.049117 0.003998 0.871020 0 0 204 0.013913
0.042707 0.004050 0.867428 0 0 204 0.013188
0.052295 0.003905 0.872802 0 0 204 0.013493
0.053823 0.003384 0.870541 0 0 179 0.010067
0.055350 0.002863 0.868284 0 0 153 0.007712
0.052089 0.002995 0.866450 0 0 179 0.008627
0.007626 -0.108237 0.908496 0 96 255 0.041963
0.007999 -0.106084 0.912157 0 96 255 0.040006
0.011506 -0.108262 0.910395 0 74 255 0.035812
0.008378 -0.103845 0.915765 0 96 255 0.039927
0.011868 -0.106084 0.914068 0 74 255 0.036839
0.012248 -0.103837 0.917643 0 74 255 0.035793
0.015395 -0.108317 0.912328 0 51 255 0.033782
0.008769 -0.101512 0.919330 0 96 255 0.041223
0.009141 -0.099138 0.922859 0 96 255 0.039679
0.005307 -0.099007 0.921047 0 118 255 0.045078
0.004937 -0.101382 0.917516 0 118 255 0.043327
0.004562 -0.103691 0.913971 0 96 255 0.041929
0.001514 -0.098878 0.919284 0 141 255 0.046878
0.017458 -0.108575 0.913405 0 51 255 0.032433
0.015812 -0.106419 0.916055 0 51 255 0.032667
0.017881 -0.106683 0.917125 0 51 255 0.033163
0.019541 -0.108837 0.914510 0 51 255 0.031285
0.016233 -0.104463 0.919730 0 51 255 0.034418
0.019959 -0.106917 0.918212 0 51 255 0.031369
0.018317 -0.104696 0.920803 0 51 255 0.033617
0.021611 -0.109103 0.915617 0 29 255 0.029587
0.016684 -0.102414 0.923372 0 74 255 0.035514
0.013122 -0.099734 0.924924 0 74 255 0.038236
0.012681 -0.101816 0.921299 0 74 255 0.036902
0.008977 -0.090657 0.931263 0 96 255 0.040553
0.010287 -0.093744 0.929193 0 96 255 0.039684
0.006466 -0.093046 0.927127 0 96 255 0.042957
0.005170 -0.089979 0.929216 0 118 255 0.044984
0.009693 -0.096465 0.926040 0 96 255 0.039837
0.001419 -0.089806 0.927421 0 141 255 0.049024
0.002668 -0.092943 0.925335 0 118 255 0.045529
-0.001019 -0.092695 0.923558 0 141 255 0.049299
-0.002280 -0.089542 0.925661 0 163 255 0.051772
0.002079 -0.095926 0.922328 0 118 255 0.046157
0.005879 -0.096042 0.924105 0 118 255 0.044142
0.020868 -0.117636 0.883795 0 7 255 0.024970
0.021212 -0.116615 0.887887 0 7 255 0.025086
0.024820 -0.117496 0.885906 0 7 255 0.025452
0.021513 -0.115727 0.892043 0 0 255 0.023207
0.025123 -0.116588 0.890019 0 7 255 0.024436
0.025389 -0.115771 0.894191 0 0 255 0.022204
0.028735 -0.117565 0.888056 0 7 255 0.024817
0.021779 -0.114869 0.896205 0 0 255 0.021916
0.021998 -0.114063 0.900422 0 0 255 0.022702
0.018091 -0.113993 0.898364 0 7 255 0.023575
0.017829 -0.114871 0.894169 0 0 255 0.022871
0.017542 -0.115776 0.890012 0 7 255 0.023447
0.014153 -0.114027 0.896327 0 7 255 0.023639
0.030857 -0.117807 0.889283 0 0 255 0.020939
0.029191 -0.116958 0.892314 0 0 255 0.020595
0.031292 -0.117245 0.893558 0 0 229 0.018561
0.032976 -0.118100 0.890544 0 0 229 0.018559
0.029593 -0.116427 0.896608 0 0 229 0.017635
0.033392 -0.117580 0.894822 0 0 204 0.015526
0.031709 -0.116712 0.897865 0 0 229 0.015984
0.035070 -0.118459 0.891804 0 0 229 0.017043
0.029996 -0.115882 0.900927 0 0 204 0.015404
0.028287 -0.114965 0.904020 0 0 229 0.017460
0.027907 -0.115524 0.899701 0 0 229 0.018255
0.026199 -0.114643 0.902812 0 0 255 0.020148
0.025799 -0.115216 0.898493 0 0 229 0.019310
0.027503 -0.116080 0.895395 0 0 255 0.019751
0.024094 -0.114357 0.901617 0 0 255 0.021438
0.023248 -0.110723 0.912713 0 29 255 0.027423
0.021175 -0.110438 0.911582 0 29 255 0.028246
0.022817 -0.111972 0.908649 0 7 255 0.024245
0.019103 -0.110166 0.910488 0 29 255 0.028922
0.020759 -0.111636 0.907528 0 7 255 0.025741
0.018704 -0.111338 0.906413 0 29 255 0.029224
0.017046 -0.109850 0.909365 0 29 255 0.030031
0.022430 -0.113052 0.904538 0 7 255 0.025165
0.020335 -0.112751 0.903425 0 7 255 0.025933
0.024513 -0.113326 0.905713 0 0 255 0.021162
0.026606 -0.113615 0.906931 0 0 255 0.020863
0.024936 -0.112204 0.909834 0 7 255 0.023592
0.013155 -0.109826 0.907375 0 51 255 0.035049
0.014828 -0.111323 0.904358 0 29 255 0.030692
0.010893 -0.111282 0.902446 0 51 255 0.032047
0.009258 -0.109788 0.905477 0 74 255 0.036455
0.014483 -0.112724 0.900352 0 29 255 0.027513
0.010011 -0.010028 0.911424 0 0 179 0.008818
0.012171 -0.010017 0.912807 0 0 179 0.009005
0.010294 -0.012053 0.915227 0 0 204 0.012091
0.008121 -0.012048 0.913861 0 0 204 0.012540
0.012445 -0.012057 0.916599 0 0 204 0.012421
0.008405 -0.014084 0.917654 0 0 229 0.018214
0.010568 -0.014075 0.919019 0 0 229 0.017803
0.008705 -0.016103 0.921403 0 29 255 0.027902
0.006262 -0.014098 0.916265 0 0 229 0.017816
0.006542 -0.016116 0.920043 0 29 255 0.029395
0.004398 -0.016127 0.918665 0 29 255 0.028214
0.012733 -0.014104 0.920368 0 0 229 0.017197
0.010848 -0.016112 0.922769 0 7 255 0.026938
0.012987 -0.016129 0.924129 0 7 255 0.025611
0.015091 -0.014074 0.921786 0 0 229 0.016608
0.014818 -0.012020 0.918024 0 0 179 0.011648
0.017186 -0.011975 0.919443 0 0 179 0.010829
0.016911 -0.009917 0.915675 0 0 179 0.008613
0.014548 -0.009963 0.914232 0 0 179 0.009145
0.019289 -0.009872 0.917091 0 0 179 0.008494
0.002768 -0.018795 0.920779 0 51 255 0.034485
0.003170 -0.021549 0.924117 0 96 255 0.041534
0.001653 -0.024325 0.926076 0 141 255 0.047620
0.002119 -0.027135 0.929282 0 208 255 0.059011
-0.001745 -0.027129 0.926630 0 185 255 0.058027
0.005551 -0.024364 0.928698 0 141 255 0.048180
0.005977 -0.027162 0.931924 0 208 255 0.060014
0.007653 -0.024321 0.930078 0 141 255 0.050411
0.007262 -0.021555 0.926800 0 96 255 0.040851
0.009385 -0.021536 0.928163 0 96 255 0.041487
0.009044 -0.018810 0.924811 0 51 255 0.032218
0.006898 -0.018813 0.923453 0 51 255 0.033322
0.011185 -0.018829 0.926164 0 51 255 0.031293
0.013470 -0.024550 0.934233 0 141 255 0.050404
0.015424 -0.021724 0.932347 0 74 255 0.038302
0.013302 -0.021726 0.930911 0 96 255 0.040373
0.017384 -0.018926 0.930430 0 29 255 0.031082
0.015277 -0.018930 0.928984 0 29 255 0.030607
0.017257 -0.016148 0.927016 0 7 255 0.024164
0.019401 -0.016161 0.928447 0 7 255 0.024034
0.015125 -0.016132 0.925573 0 7 255 0.024821
0.009816 -0.027267 0.934724 1 230 247 0.063228
0.021482 -0.014062 0.926146 0 0 229 0.015703
0.023814 -0.011883 0.923890 0 0 204 0.012003
0.021462 -0.011974 0.922356 0 0 179 0.011508
0.026121 -0.009668 0.921636 0 0 179 0.009624
0.023783 -0.009765 0.920099 0 0 179 0.009532
0.021424 -0.009861 0.918562 0 0 179 0.008475
0.019326 -0.011986 0.920904 0 0 179 0.011613
0.017227 -0.014083 0.923240 0 0 229 0.016098
0.019371 -0.014076 0.924683 0 0 229 0.016441
-0.002797 -0.030569 0.927987 0 185 255 0.057090
-0.001977 -0.034103 0.930555 0 208 255 0.060144
-0.002994 -0.037555 0.931855 1 230 247 0.063441
-0.002195 -0.041070 0.934383 72 255 175 0.078744
-0.005873 -0.040930 0.931954 54 255 193 0.074973
0.000674 -0.037706 0.934331 36 255 211 0.071072
0.001445 -0.041196 0.936853 54 255 193 0.076335
0.001774 -0.034166 0.933121 0 208 255 0.060380
0.002898 -0.030626 0.931892 0 208 255 0.061776
-0.006379 -0.044686 0.932589 54 255 193 0.076033
-0.005028 -0.048543 0.934331 54 255 193 0.075714
-0.005555 -0.052269 0.934920 54 255 193 0.077776
-0.001918 -0.052509 0.937148 54 255 193 0.076240
-0.001379 -0.048746 0.936630 54 255 193 0.074835
-0.000876 -0.044941 0.936117 54 255 193 0.075528
0.005166 -0.053274 0.942170 72 255 175 0.080089
0.003947 -0.049236 0.940404 72 255 175 0.080815
0.006245 -0.045456 0.941358 90 255 157 0.083048
0.005020 -0.041443 0.939571 90 255 157 0.085789
0.002742 -0.045232 0.938615 72 255 175 0.080021
0.001637 -0.052802 0.939618 72 255 175 0.080959
0.007930 -0.038070 0.939744 54 255 193 0.075461
0.007298 -0.034458 0.937150 1 230 247 0.063429
0.010427 -0.030880 0.937379 0 208 255 0.062205
0.006637 -0.030801 0.934557 0 208 255 0.061966
0.004354 -0.037810 0.937011 18 252 229 0.069856
0.100339 -0.136344 0.932966 0 51 255 0.033708
0.102561 -0.134843 0.936127 0 7 255 0.026611
0.105770 -0.133788 0.937474 0 0 255 0.022522
0.108043 -0.132391 0.940696 0 0 255 0.019539
0.109937 -0.133202 0.937011 0 0 255 0.020595
0.103872 -0.132985 0.941166 0 0 255 0.022605
0.106154 -0.131564 0.944386 0 0 229 0.019222
0.102476 -0.132476 0.943587 0 0 255 0.022739
0.100223 -0.133944 0.940406 0 29 255 0.028341
0.098823 -0.133438 0.942830 0 29 255 0.029502
0.096593 -0.134969 0.939678 0 74 255 0.037506
0.097994 -0.135465 0.937247 0 74 255 0.035748
0.095196 -0.134471 0.942115 0 96 255 0.040519
0.113034 -0.131130 0.937960 0 7 255 0.026297
0.115708 -0.128802 0.940153 0 74 255 0.035317
0.118889 -0.126776 0.941150 0 118 255 0.044446
0.121590 -0.124466 0.943357 0 163 255 0.050963
0.122528 -0.125050 0.940935 0 185 255 0.055546
0.117952 -0.126199 0.943578 0 96 255 0.039124
0.120681 -0.123876 0.945795 0 118 255 0.043987
0.114293 -0.128101 0.943207 0 29 255 0.029624
0.110671 -0.130013 0.942852 0 0 255 0.021135
0.120081 -0.122772 0.951101 0 29 255 0.028530
0.116036 -0.124604 0.951320 0 0 255 0.021818
0.112524 -0.126780 0.949609 0 0 229 0.018361
0.108528 -0.128637 0.949834 0 0 229 0.015890
0.105108 -0.130886 0.948195 0 0 255 0.021449
0.104038 -0.130192 0.951992 0 29 255 0.029075
0.109585 -0.129337 0.946026 0 0 229 0.017370
0.113198 -0.127399 0.946371 0 7 255 0.023682
0.116845 -0.125492 0.946738 0 51 255 0.031939
0.120379 -0.123321 0.948453 0 51 255 0.034928
0.099108 -0.130842 0.952284 0 74 255 0.037852
0.100891 -0.131446 0.949297 0 29 255 0.029887
0.095994 -0.132163 0.949636 0 96 255 0.041844
0.094211 -0.131562 0.952631 0 163 255 0.052444
0.097769 -0.132750 0.946636 0 51 255 0.034333
0.091108 -0.132962 0.950021 0 208 255 0.060964
0.092893 -0.133545 0.947022 0 163 255 0.051290
0.089335 -0.132368 0.953033 54 255 193 0.074306
0.123062 -0.120166 0.949781 0 141 255 0.049206
0.123352 -0.120723 0.947116 0 208 255 0.058954
0.124233 -0.121465 0.943730 54 255 193 0.074891
0.125163 -0.122052 0.941300 72 255 175 0.078307
0.116525 -0.123583 0.954555 0 0 229 0.019026
0.120503 -0.121905 0.953797 0 7 255 0.024028
0.112569 -0.125264 0.955299 0 0 229 0.017798
0.113001 -0.124392 0.958009 0 0 255 0.021446
0.116958 -0.122716 0.957260 0 0 255 0.020485
0.120915 -0.121039 0.956496 0 0 255 0.022945
0.108847 -0.126518 0.957413 0 7 255 0.026782
0.105164 -0.127795 0.959539 0 163 255 0.052022
0.104598 -0.128995 0.955761 0 74 255 0.037850
0.108281 -0.127711 0.953632 0 0 229 0.018766
0.118075 -0.121551 0.960154 0 7 255 0.024758
0.114417 -0.123021 0.961323 0 29 255 0.029089
0.115238 -0.122048 0.963807 0 74 255 0.038624
0.111184 -0.124025 0.963727 0 141 255 0.049374
0.107960 -0.125014 0.966117 36 255 211 0.073808
0.106564 -0.126406 0.962827 0 208 255 0.059951
0.109773 -0.125395 0.960416 0 74 255 0.036941
0.092956 -0.125152 0.971500 156 255 92 0.156890
0.096007 -0.125797 0.968509 140 255 108 0.123813
0.090951 -0.126897 0.967765 147 255 101 0.139346
0.099060 -0.126449 0.965523 108 255 139 0.089108
0.093995 -0.127513 0.964755 131 255 117 0.103188
0.097026 -0.128146 0.961736 72 255 175 0.078838
0.088939 -0.128670 0.964036 142 255 106 0.125875
0.102115 -0.127114 0.962531 18 252 229 0.069397
0.103500 -0.125709 0.965804 90 255 157 0.083001
0.100431 -0.125030 0.968774 134 255 113 0.109547
0.087824 -0.129796 0.961400 136 255 112 0.115030
0.092716 -0.129021 0.961021 108 255 139 0.088137
0.091587 -0.130123 0.958350 72 255 175 0.078296
0.086710 -0.130942 0.958758 136 255 112 0.113441
0.096480 -0.129395 0.957998 0 208 255 0.060482
0.090465 -0.131237 0.955695 36 255 211 0.073748
0.095350 -0.130469 0.955311 0 185 255 0.055739
0.085590 -0.132099 0.956117 134 255 113 0.111598
0.100259 -0.129789 0.954986 0 96 255 0.041722
0.100811 -0.128560 0.958753 0 185 255 0.055751
0.105896 -0.116122 0.983904 159 255 88 0.167474
0.107906 -0.117087 0.981595 156 255 92 0.159087
0.103730 -0.117566 0.982219 163 255 85 0.174126
0.105736 -0.118534 0.979886 156 255 92 0.157264
0.108826 -0.118794 0.978406 147 255 101 0.139607
0.101565 -0.119024 0.980525 161 255 87 0.169174
0.110836 -0.119777 0.976064 142 255 106 0.126917
0.082277 -0.101792 0.989451 133 255 115 0.106077
0.083256 -0.105764 0.987262 138 255 110 0.118331
0.079302 -0.103067 0.987564 131 255 117 0.101747
0.080267 -0.107048 0.985357 134 255 113 0.109382
0.084234 -0.109744 0.985058 142 255 106 0.127136
0.085219 -0.113733 0.982837 149 255 99 0.143217
0.087861 -0.112248 0.984722 149 255 99 0.144189
0.086891 -0.108254 0.986936 142 255 106 0.126196
0.085908 -0.104273 0.989128 138 255 110 0.119277
0.090506 -0.110777 0.986645 154 255 94 0.152640
0.076499 -0.104541 0.985442 129 255 119 0.100203
0.077665 -0.108695 0.982936 129 255 119 0.101464
0.073540 -0.105946 0.983144 127 255 120 0.094913
0.074706 -0.110101 0.980633 127 255 120 0.097267
0.078830 -0.112844 0.980410 134 255 113 0.110415
0.080010 -0.117000 0.977873 145 255 103 0.133327
0.082616 -0.115357 0.980344 147 255 101 0.140021
0.081445 -0.111198 0.982865 138 255 110 0.117685
0.091030 -0.122296 0.974354 151 255 97 0.144673
0.095077 -0.123569 0.974084 158 255 90 0.162006
0.089101 -0.119440 0.977201 145 255 103 0.135938
0.093153 -0.120691 0.976927 154 255 94 0.153742
0.091210 -0.117827 0.979743 149 255 99 0.143745
0.097198 -0.121992 0.976685 161 255 87 0.170548
0.087151 -0.116590 0.980014 145 255 103 0.135791
0.084553 -0.118193 0.977503 143 255 104 0.129907
0.086495 -0.121035 0.974664 143 255 104 0.131847
0.095543 -0.119174 0.979199 156 255 92 0.158292
0.099386 -0.120501 0.978601 159 255 88 0.165689
0.093868 -0.116375 0.981694 154 255 94 0.155470
0.097713 -0.117682 0.981103 154 255 94 0.154631
0.096033 -0.114875 0.983582 152 255 95 0.150518
0.092197 -0.113564 0.984179 151 255 97 0.146308
0.089548 -0.115031 0.982245 149 255 99 0.142171
0.103898 -0.119874 0.978122 149 255 99 0.144328
0.106228 -0.120741 0.975712 143 255 104 0.129912
0.101704 -0.121351 0.976186 151 255 97 0.144640
0.104029 -0.122187 0.973762 142 255 106 0.128070
0.108567 -0.121608 0.973295 136 255 112 0.113987
0.110896 -0.122462 0.970867 127 255 120 0.093837
0.112415 -0.121258 0.972708 131 255 117 0.101727
0.099888 -0.122735 0.974051 149 255 99 0.142833
0.102583 -0.123484 0.971413 138 255 110 0.118791
0.097757 -0.124290 0.971432 145 255 103 0.134593
0.105273 -0.124250 0.968769 126 255 122 0.093665
0.109431 -0.123751 0.968484 90 255 157 0.083435
0.106727 -0.122958 0.971128 133 255 115 0.106291
0.116710 -0.120783 0.966171 0 141 255 0.048097
0.113792 -0.121617 0.968524 18 252 229 0.067250
0.112328 -0.122883 0.966152 0 208 255 0.058710
0.062564 -0.111612 0.971697 108 255 139 0.086501
0.065331 -0.115280 0.969658 90 255 157 0.082267
0.066771 -0.114615 0.971432 72 255 175 0.081308
0.068110 -0.118901 0.967603 108 255 139 0.087994
0.069542 -0.118276 0.969448 108 255 139 0.087487
0.072314 -0.121897 0.967423 131 255 117 0.102950
0.070881 -0.122535 0.965600 131 255 117 0.104271
0.070977 -0.117645 0.971270 108 255 139 0.089623
0.073735 -0.121290 0.969266 131 255 117 0.104923
0.075158 -0.120695 0.971116 134 255 113 0.112714
0.069576 -0.113561 0.974551 90 255 157 0.083154
0.065386 -0.110504 0.974731 90 255 157 0.084238
0.074382 -0.124453 0.963772 108 255 139 0.088559
0.078128 -0.126982 0.961200 90 255 157 0.083286
0.079256 -0.125776 0.963808 90 255 157 0.082277
0.081874 -0.129533 0.958662 126 255 122 0.091193
0.082989 -0.128345 0.961270 126 255 122 0.089864
0.084102 -0.127176 0.963893 126 255 122 0.093379
0.085532 -0.126649 0.965800 133 255 115 0.108194
0.080671 -0.125205 0.965677 108 255 139 0.088265
0.082091 -0.124646 0.967559 129 255 119 0.098443
0.077205 -0.123238 0.967459 108 255 139 0.089384
0.075787 -0.123837 0.965613 108 255 139 0.088349
0.078629 -0.122666 0.969332 129 255 119 0.101058
0.088535 -0.123949 0.971344 143 255 104 0.132207
0.084091 -0.122812 0.971232 136 255 112 0.113402
0.082053 -0.119910 0.974567 136 255 112 0.115885
0.077595 -0.118828 0.974501 136 255 112 0.117094
0.076028 -0.114306 0.977847 131 255 117 0.102346
0.072035 -0.111636 0.977851 126 255 122 0.090192
0.070712 -0.107428 0.980642 126 255 122 0.092329
0.068015 -0.109000 0.977876 108 255 139 0.086911
0.073585 -0.116175 0.974500 126 255 122 0.093173
0.100085 -0.116262 0.982888 159 255 88 0.165774
0.098593 -0.113495 0.985236 156 255 92 0.157531
0.102241 -0.114795 0.984571 161 255 87 0.168191
0.100749 -0.112007 0.986899 159 255 88 0.166624
0.097104 -0.110722 0.987567 156 255 92 0.159278
0.095611 -0.107956 0.989884 151 255 97 0.147900
0.093057 -0.109363 0.988253 151 255 97 0.145444
0.094541 -0.112117 0.985933 152 255 95 0.151215
0.104521 -0.113435 0.986180 161 255 87 0.171842
0.100581 -0.108740 0.989913 159 255 88 0.166899
0.098006 -0.106705 0.991378 158 255 90 0.163016
0.093034 -0.096994 0.995868 147 255 101 0.140031
0.093894 -0.100663 0.993892 149 255 99 0.142305
0.090422 -0.098053 0.994317 140 255 108 0.122184
0.091248 -0.101709 0.992328 143 255 104 0.129750
0.094751 -0.104306 0.991883 151 255 97 0.144676
0.097145 -0.103046 0.993379 152 255 95 0.151937
0.087829 -0.099291 0.992770 138 255 110 0.118541
0.088709 -0.103114 0.990746 142 255 106 0.125761
0.085015 -0.100466 0.991172 134 255 113 0.113026
0.089613 -0.106934 0.988702 143 255 104 0.132399
0.092156 -0.105538 0.990302 147 255 101 0.137151
-0.145427 -0.014053 0.861618 0 7 255 0.024770
-0.143758 -0.013384 0.863360 0 0 255 0.020360
-0.146270 -0.014476 0.864018 0 7 255 0.023751
-0.142109 -0.012697 0.865070 0 0 229 0.019368
-0.144601 -0.013761 0.865754 0 0 255 0.020376
-0.142956 -0.013061 0.867457 0 0 229 0.019266
-0.147090 -0.014800 0.866421 0 0 255 0.023079
-0.140484 -0.011967 0.866778 0 0 255 0.019628
-0.138889 -0.011225 0.868460 0 0 255 0.022474
-0.137582 -0.010432 0.865202 0 7 255 0.026000
-0.139194 -0.011177 0.863515 0 0 255 0.022361
-0.145486 -0.014372 0.869230 0 0 229 0.018495
-0.143697 -0.013730 0.870823 0 0 229 0.017563
-0.147758 -0.015387 0.869981 0 0 255 0.021113
-0.141951 -0.013055 0.872416 0 0 229 0.019242
-0.139683 -0.011940 0.871721 0 0 255 0.022858
-0.132064 -0.010057 0.875191 0 51 255 0.033420
-0.133743 -0.010388 0.873505 0 29 255 0.030745
-0.135422 -0.010695 0.871822 0 7 255 0.023865
-0.131068 -0.009288 0.872338 0 51 255 0.033397
-0.132764 -0.009604 0.870660 0 29 255 0.028127
-0.137144 -0.010970 0.870151 0 0 255 0.022672
-0.137965 -0.011675 0.873403 0 0 255 0.022471
-0.129708 -0.008424 0.869623 0 51 255 0.032768
-0.133905 -0.009635 0.867758 0 7 255 0.023844
-0.131284 -0.008724 0.867795 0 29 255 0.029194
-0.135003 -0.009590 0.865039 0 7 255 0.025528
-0.096571 -0.032194 0.893853 204 255 44 0.263007
-0.096241 -0.035464 0.895802 222 255 26 0.304323
-0.095954 -0.038888 0.897840 231 255 17 0.321220
-0.098727 -0.032455 0.894642 218 255 30 0.295446
-0.095748 -0.042439 0.899871 231 255 17 0.322013
-0.095642 -0.046069 0.901921 234 255 14 0.331551
-0.098646 -0.035605 0.896715 223 255 24 0.308385
-0.098165 -0.038860 0.898656 232 255 15 0.327844
-0.097694 -0.058842 0.906499 204 255 44 0.261835
-0.097078 -0.055667 0.905437 222 255 26 0.304142
-0.096551 -0.052488 0.904322 229 255 19 0.320056
-0.096060 -0.049293 0.903154 239 255 8 0.339967
-0.095781 -0.060013 0.905962 200 255 47 0.254068
-0.094982 -0.056674 0.904926 213 255 35 0.281887
-0.094252 -0.053324 0.903832 222 255 26 0.303607
-0.093584 -0.049961 0.902672 225 255 23 0.309061
-0.097558 -0.045411 0.902681 236 255 12 0.333372
-0.098098 -0.048367 0.904068 234 255 14 0.329342
-0.098079 -0.042208 0.900812 232 255 15 0.328027
-0.101084 -0.032540 0.895854 218 255 30 0.295353
-0.100736 -0.035438 0.897825 222 255 26 0.302446
-0.102939 -0.032156 0.897326 207 255 40 0.273211
