ply
format ascii 1.0
comment VCGLIB generated
element vertex 1038
property float x
property float y
property float z
property uchar red
property uchar green
property uchar blue
property float quality
end_header
-0.042458 -0.011126 0.783795 0 0 128 0.001769
-0.043585 -0.010158 0.786719 0 0 128 0.000546
-0.046866 -0.010373 0.785345 0 0 128 0.002236
-0.040437 -0.009989 0.788030 0 0 128 0.000125
-0.044754 -0.009169 0.789656 0 0 128 0.000545
-0.041618 -0.009007 0.790969 0 0 128 0.000058
-0.042788 -0.007998 0.793816 0 0 128 0.000087
-0.047992 -0.009365 0.788282 0 0 128 0.001838
-0.045889 -0.008162 0.792566 0 0 128 0.000385
-0.049107 -0.008326 0.791216 0 0 128 0.002069
-0.038682 -0.008826 0.792214 0 0 128 0.000102
-0.039860 -0.007826 0.795067 0 0 128 0.000181
-0.037309 -0.009905 0.789165 0 0 128 0.000099
-0.035983 -0.010955 0.786121 0 0 128 0.000254
-0.039134 -0.011027 0.784947 0 0 128 0.000607
-0.050460 -0.007435 0.793970 0 0 128 0.001407
-0.047406 -0.007208 0.795384 0 0 128 0.000408
-0.048766 -0.006298 0.798103 0 0 128 0.000366
-0.051821 -0.006518 0.796679 0 0 128 0.001128
-0.045842 -0.006067 0.799465 0 0 128 0.000218
-0.050159 -0.005322 0.800817 0 0 128 0.000344
-0.047287 -0.005092 0.802177 0 0 128 0.000177
-0.053142 -0.005558 0.799366 0 0 128 0.001164
-0.044580 -0.004855 0.803486 0 0 128 0.000095
-0.043004 -0.005903 0.800640 0 0 128 0.000156
-0.041427 -0.006886 0.797842 0 0 128 0.000097
-0.044327 -0.007052 0.796649 0 0 128 0.000065
-0.047842 -0.012812 0.778634 0 0 128 0.003412
-0.048929 -0.011862 0.781249 0 0 128 0.001858
-0.052095 -0.012314 0.780351 0 0 128 0.001173
-0.051042 -0.013270 0.777720 0 0 128 0.002491
-0.053168 -0.011348 0.782922 0 0 128 0.000912
-0.055283 -0.012832 0.779348 0 0 128 0.002425
-0.056248 -0.011856 0.782038 0 0 128 0.001467
-0.059364 -0.012403 0.781030 0 0 153 0.003930
-0.054176 -0.013837 0.776836 0 0 128 0.002626
-0.058358 -0.013410 0.778488 0 0 153 0.004437
-0.057315 -0.014423 0.775939 0 0 153 0.005805
-0.057281 -0.010843 0.784644 0 0 128 0.001799
-0.060398 -0.011401 0.783691 0 0 128 0.003556
-0.061422 -0.010372 0.786353 0 0 153 0.004027
-0.058335 -0.009750 0.787528 0 0 128 0.002193
-0.054246 -0.010295 0.785794 0 0 128 0.000803
-0.055298 -0.009222 0.788696 0 0 128 0.001016
-0.051117 -0.009797 0.787027 0 0 128 0.001010
-0.050043 -0.010834 0.784072 0 0 128 0.001317
-0.052145 -0.008738 0.789983 0 0 128 0.001158
-0.060298 -0.015318 0.775269 0 0 128 0.003119
-0.061260 -0.014360 0.777624 0 0 128 0.002411
-0.064201 -0.015295 0.776985 0 0 128 0.001337
-0.063236 -0.016291 0.774660 0 0 128 0.001923
-0.065173 -0.014315 0.779366 0 0 128 0.000827
-0.067125 -0.016302 0.776452 0 0 128 0.002012
-0.068071 -0.015284 0.778770 0 0 128 0.002026
-0.071008 -0.016324 0.778266 0 0 128 0.003574
-0.066122 -0.017319 0.774131 0 0 128 0.002936
-0.069942 -0.017342 0.775993 0 0 128 0.003885
-0.068949 -0.018390 0.773725 0 0 153 0.004246
-0.069127 -0.014277 0.781174 0 0 128 0.002009
-0.071994 -0.015270 0.780615 0 0 128 0.003312
-0.073000 -0.014236 0.783008 0 0 128 0.003638
-0.070206 -0.013170 0.783763 0 0 128 0.002124
-0.066243 -0.013263 0.781915 0 0 128 0.000861
-0.067333 -0.012202 0.784521 0 0 128 0.001382
-0.063355 -0.012309 0.782731 0 0 128 0.001988
-0.062293 -0.013339 0.780156 0 0 128 0.001901
-0.064399 -0.011272 0.785358 0 0 128 0.002229
-0.073964 -0.010552 0.791078 0 0 128 0.001078
-0.071107 -0.009523 0.792078 0 0 128 0.000286
-0.069806 -0.010460 0.789503 0 0 128 0.000601
-0.068186 -0.008576 0.793120 0 0 128 0.001067
-0.066912 -0.009485 0.790595 0 0 128 0.001053
-0.064007 -0.008597 0.791625 0 0 128 0.002364
-0.065199 -0.007681 0.794228 0 0 128 0.001686
-0.065677 -0.010401 0.787901 0 0 128 0.001646
-0.062700 -0.009487 0.789034 0 0 128 0.002741
-0.068564 -0.011316 0.787027 0 0 128 0.000936
-0.071500 -0.012304 0.786229 0 0 128 0.001752
-0.072739 -0.011417 0.788667 0 0 128 0.001279
-0.075546 -0.012435 0.787904 0 0 128 0.003292
-0.074283 -0.013313 0.785486 0 0 128 0.003236
-0.076696 -0.011503 0.790313 0 0 128 0.002566
-0.062135 -0.007098 0.795389 0 0 128 0.000776
-0.059072 -0.006541 0.796681 0 0 128 0.000393
-0.057789 -0.007484 0.794034 0 0 128 0.000423
-0.056095 -0.006013 0.798055 0 0 128 0.000638
-0.054772 -0.006979 0.795375 0 0 128 0.000581
-0.053428 -0.007887 0.792676 0 0 128 0.000693
-0.056534 -0.008356 0.791417 0 0 128 0.000475
-0.059620 -0.008894 0.790209 0 0 128 0.001294
-0.060870 -0.008012 0.792821 0 0 128 0.000676
-0.000650 -0.093141 0.701831 0 74 255 0.036756
0.002607 -0.093400 0.701012 0 7 255 0.025035
0.004640 -0.094840 0.699364 0 7 255 0.025043
0.007859 -0.095191 0.698657 0 29 255 0.028634
0.005605 -0.097683 0.696848 0 7 255 0.025145
0.002237 -0.097245 0.697593 0 0 255 0.022576
0.000179 -0.095740 0.699209 0 7 255 0.023451
-0.003258 -0.095475 0.699861 0 51 255 0.034203
-0.005390 -0.094222 0.701526 0 0 255 0.023252
-0.007937 -0.096358 0.699849 0 0 255 0.021015
0.012283 -0.094452 0.698635 1 230 247 0.063309
0.015537 -0.094947 0.697580 72 255 175 0.078982
0.013359 -0.097542 0.695698 0 163 255 0.052304
0.010045 -0.096956 0.696704 0 29 255 0.028648
0.011846 -0.105291 0.691275 0 29 255 0.030692
0.009323 -0.103259 0.692998 0 7 255 0.026857
0.005897 -0.102732 0.694051 0 0 179 0.010752
0.003528 -0.100654 0.695676 0 0 179 0.008349
0.001477 -0.103560 0.694472 0 0 179 0.011518
0.007999 -0.099658 0.695298 0 0 255 0.020729
0.011345 -0.100248 0.694180 0 51 255 0.032865
-0.002015 -0.103011 0.695479 0 0 153 0.007519
-0.004348 -0.101165 0.696834 0 0 179 0.008334
-0.007866 -0.100759 0.697572 0 0 179 0.010324
-0.010233 -0.099035 0.698822 0 0 204 0.012524
-0.012521 -0.101690 0.697788 0 0 204 0.012500
-0.005569 -0.098079 0.698522 0 0 229 0.017910
-0.002161 -0.098409 0.697808 0 0 229 0.015992
0.000153 -0.100201 0.696493 0 0 179 0.008706
0.011861 -0.111611 0.689074 0 7 255 0.025929
0.010500 -0.114507 0.689025 0 29 255 0.029627
0.009154 -0.117345 0.688882 0 74 255 0.036127
0.006448 -0.128382 0.690557 18 252 229 0.067080
0.002193 -0.128137 0.691642 0 118 255 0.043381
-0.001512 -0.126484 0.692460 0 0 204 0.014837
-0.005499 -0.126243 0.693417 0 0 255 0.021170
-0.009110 -0.124497 0.694118 0 0 204 0.014312
-0.009825 -0.127399 0.694577 0 7 255 0.025605
-0.004795 -0.123375 0.692996 0 0 204 0.013843
-0.008410 -0.121610 0.693696 0 0 179 0.010988
-0.000897 -0.123760 0.691963 0 0 204 0.011831
0.003032 -0.124156 0.690938 0 7 255 0.025976
0.006842 -0.125794 0.690059 0 118 255 0.043054
0.007299 -0.123155 0.689469 0 96 255 0.042672
-0.013772 -0.127012 0.695343 0 7 255 0.024885
-0.017234 -0.125011 0.696003 0 0 229 0.016457
-0.021177 -0.124519 0.696805 0 0 204 0.014915
-0.024648 -0.122320 0.697471 0 0 153 0.006673
-0.025839 -0.125462 0.697715 0 0 255 0.019680
-0.020209 -0.121391 0.696540 0 0 153 0.005502
-0.023617 -0.119253 0.697153 0 0 153 0.005776
-0.016374 -0.121974 0.695665 0 0 179 0.010668
-0.012595 -0.122547 0.694791 0 0 179 0.011499
-0.020568 -0.112963 0.696876 0 0 128 0.003901
-0.016944 -0.113646 0.696003 0 0 153 0.005679
-0.013959 -0.115824 0.695240 0 0 153 0.004539
-0.010273 -0.116463 0.694295 0 0 153 0.007405
-0.007161 -0.118545 0.693494 0 0 153 0.005627
-0.005897 -0.115385 0.693206 0 0 179 0.011141
-0.011488 -0.119536 0.694523 0 0 153 0.006255
-0.015306 -0.118930 0.695409 0 0 153 0.005140
-0.019053 -0.118326 0.696293 0 0 128 0.003873
-0.022066 -0.116102 0.697103 0 0 128 0.001879
-0.002147 -0.115923 0.692151 0 0 204 0.014089
0.001127 -0.117899 0.691218 0 0 179 0.009346
0.004893 -0.118390 0.690148 0 0 229 0.019307
0.008252 -0.120302 0.689193 0 51 255 0.031826
0.003915 -0.121310 0.690494 0 0 229 0.018034
-0.000022 -0.120909 0.691526 0 0 179 0.008394
-0.003932 -0.120509 0.692572 0 0 179 0.010966
-0.016094 -0.101196 0.698372 0 0 229 0.018438
-0.018383 -0.099487 0.699382 0 29 255 0.028690
-0.022115 -0.099050 0.699987 0 7 255 0.026591
-0.024477 -0.097408 0.701243 0 29 255 0.030854
-0.026979 -0.099642 0.700470 0 7 255 0.026292
-0.019500 -0.096608 0.700996 0 51 255 0.032032
-0.021976 -0.095054 0.702327 0 118 255 0.043593
-0.015966 -0.097019 0.700387 0 7 255 0.026276
-0.012474 -0.097342 0.699853 0 7 255 0.027176
-0.029863 -0.099092 0.701005 0 29 255 0.027389
-0.031333 -0.097575 0.701974 0 74 255 0.038262
-0.034150 -0.097276 0.702523 0 96 255 0.041814
-0.031557 -0.095225 0.703913 0 96 255 0.039689
-0.028818 -0.095413 0.703147 0 118 255 0.044082
-0.026059 -0.095840 0.702505 0 96 255 0.040503
-0.024814 -0.092682 0.705572 0 118 255 0.045633
-0.022049 -0.092894 0.704729 0 163 255 0.053149
-0.019256 -0.093121 0.703994 0 208 255 0.060481
-0.029050 -0.093477 0.705664 0 118 255 0.044889
-0.014276 -0.092232 0.704198 0 96 255 0.041152
-0.010911 -0.092572 0.703466 0 118 255 0.046800
-0.008728 -0.093976 0.702061 0 51 255 0.033081
-0.013435 -0.094618 0.701748 0 74 255 0.038686
-0.017009 -0.094319 0.702390 0 141 255 0.047661
-0.024210 -0.112248 0.697576 0 0 153 0.003942
-0.026970 -0.110008 0.698470 0 0 128 0.002586
-0.030689 -0.109173 0.698968 0 0 128 0.003482
-0.033270 -0.107140 0.699466 0 0 153 0.004632
-0.035228 -0.109747 0.699158 0 0 128 0.003869
-0.028699 -0.106481 0.699054 0 0 153 0.006577
-0.031328 -0.104465 0.699502 0 0 179 0.009317
-0.024992 -0.107342 0.698413 0 0 153 0.005068
-0.021399 -0.108064 0.697668 0 0 153 0.003979
-0.018719 -0.110111 0.696981 0 0 128 0.002782
-0.016844 -0.107174 0.696953 0 0 153 0.007196
-0.038074 -0.109057 0.699238 0 0 153 0.005663
-0.039851 -0.107155 0.699595 0 0 153 0.006578
-0.042709 -0.106501 0.699758 0 0 153 0.006964
-0.044667 -0.104594 0.700205 0 0 179 0.009947
-0.046708 -0.107104 0.699746 0 0 204 0.011734
-0.040749 -0.104061 0.700199 0 0 204 0.013651
-0.042689 -0.102197 0.700632 0 7 255 0.025437
-0.037957 -0.104634 0.699978 0 0 153 0.006901
-0.035182 -0.105220 0.699808 0 0 153 0.005900
-0.036481 -0.099360 0.701534 0 7 255 0.026123
-0.033746 -0.099859 0.701125 0 7 255 0.023456
-0.031982 -0.101498 0.700417 0 0 179 0.011362
-0.029124 -0.102101 0.700000 0 0 179 0.009947
-0.035897 -0.102189 0.700434 0 0 204 0.012789
-0.038695 -0.101647 0.700714 0 0 255 0.020860
-0.040414 -0.100031 0.701509 0 0 255 0.022001
-0.024400 -0.101500 0.699467 0 0 229 0.017627
-0.020770 -0.102118 0.698801 0 0 229 0.019281
-0.018241 -0.103980 0.698005 0 0 179 0.008247
-0.014697 -0.104496 0.697436 0 0 179 0.008101
-0.022909 -0.104689 0.698460 0 0 179 0.011038
-0.026595 -0.103968 0.699188 0 0 179 0.010611
-0.010062 -0.103552 0.696923 0 0 153 0.006341
-0.006521 -0.104034 0.696064 0 0 153 0.007222
-0.004021 -0.106010 0.694957 0 0 153 0.004564
-0.000454 -0.106403 0.694011 0 0 153 0.005912
-0.002416 -0.109354 0.693430 0 0 179 0.009762
-0.006086 -0.108884 0.694387 0 0 179 0.007971
-0.008623 -0.106899 0.695534 0 0 153 0.006296
-0.012207 -0.106401 0.696411 0 0 153 0.005421
0.004008 -0.105589 0.693265 0 0 153 0.005912
0.007478 -0.106136 0.692178 0 0 229 0.016606
0.010103 -0.108163 0.690813 0 0 255 0.020529
0.008305 -0.111054 0.690167 0 7 255 0.025052
0.005701 -0.108994 0.691545 0 0 204 0.014507
0.002090 -0.108428 0.692683 0 0 179 0.008681
0.006168 -0.115432 0.690053 0 0 229 0.017485
0.002469 -0.114925 0.691106 0 0 179 0.011697
-0.000447 -0.112992 0.692307 0 0 179 0.007888
-0.004146 -0.112438 0.693326 0 0 179 0.008376
0.004030 -0.111975 0.691270 0 0 179 0.009161
-0.008702 -0.113349 0.694252 0 0 179 0.008864
-0.012441 -0.112809 0.695179 0 0 153 0.006218
-0.015105 -0.110741 0.696107 0 0 153 0.004793
-0.010606 -0.109814 0.695296 0 0 153 0.006146
-0.073093 -0.096284 0.706022 0 0 229 0.017408
-0.076260 -0.097115 0.706549 0 0 179 0.007825
-0.076485 -0.099373 0.705707 0 0 204 0.012284
-0.079417 -0.097946 0.706987 0 0 153 0.006689
-0.079686 -0.100260 0.706180 0 0 179 0.010376
-0.082895 -0.101131 0.706517 0 0 229 0.018357
-0.079903 -0.102593 0.705406 0 0 229 0.016205
-0.082620 -0.098729 0.707305 0 0 179 0.009320
-0.085740 -0.099618 0.707621 0 0 255 0.023102
-0.082023 -0.096201 0.708096 0 0 179 0.009984
-0.078766 -0.095478 0.707775 0 0 179 0.009028
-0.075650 -0.094681 0.707317 0 0 229 0.017375
-0.078129 -0.093097 0.708702 0 0 204 0.015586
-0.082790 -0.103983 0.706221 0 0 153 0.006676
-0.082217 -0.106625 0.705851 0 0 179 0.008168
-0.085577 -0.105386 0.707018 0 0 153 0.006381
-0.085051 -0.108029 0.706679 0 0 179 0.008471
-0.087772 -0.109491 0.707505 0 0 229 0.017033
-0.084476 -0.110716 0.706428 0 0 229 0.017256
-0.088341 -0.106814 0.707795 0 0 179 0.010503
-0.091018 -0.108308 0.708571 0 0 255 0.020824
-0.088560 -0.103897 0.707944 0 0 179 0.010061
-0.085745 -0.102505 0.707272 0 0 179 0.010426
-0.097030 -0.105615 0.711023 0 51 255 0.033714
-0.095772 -0.103251 0.710816 0 0 255 0.020146
-0.092990 -0.101746 0.710017 0 0 179 0.010787
-0.091547 -0.099437 0.709852 0 0 204 0.012034
-0.088491 -0.098009 0.709074 0 0 229 0.018272
-0.091232 -0.096318 0.710425 0 29 255 0.029889
-0.088740 -0.101069 0.708479 0 0 179 0.011263
-0.091379 -0.105426 0.708907 0 0 179 0.011539
-0.094128 -0.107011 0.709846 0 0 255 0.021731
-0.089114 -0.094535 0.710817 0 0 204 0.012887
-0.085861 -0.093695 0.710397 0 0 179 0.008760
-0.083775 -0.092061 0.710801 0 0 153 0.007541
-0.080532 -0.091302 0.710353 0 0 204 0.013778
-0.082844 -0.089484 0.711919 0 0 229 0.018653
-0.081424 -0.093815 0.709198 0 0 153 0.007531
-0.085285 -0.097089 0.708621 0 0 179 0.010394
-0.080492 -0.088289 0.712710 0 0 179 0.008571
-0.077201 -0.088083 0.712649 0 0 128 0.003617
-0.074932 -0.086952 0.713428 0 0 128 0.002170
-0.071643 -0.086697 0.713252 0 0 153 0.006292
-0.073700 -0.084900 0.715061 0 0 153 0.005886
-0.072784 -0.088760 0.711597 0 0 128 0.003038
-0.069563 -0.088493 0.711386 0 0 179 0.008387
-0.073749 -0.090717 0.710002 0 0 153 0.004213
-0.077147 -0.091014 0.710204 0 0 153 0.006604
-0.071361 -0.084101 0.716085 0 0 128 0.002486
-0.068086 -0.084283 0.716176 0 0 128 0.001327
-0.065912 -0.083518 0.717218 0 0 128 0.001529
-0.064092 -0.085327 0.715262 0 0 128 0.001692
-0.065221 -0.086941 0.713320 0 0 128 0.002144
-0.068421 -0.086881 0.713385 0 0 128 0.001965
-0.059996 -0.088600 0.711822 0 0 153 0.004161
-0.060797 -0.090104 0.710029 0 0 153 0.004262
-0.063094 -0.088587 0.711725 0 0 128 0.002008
-0.063994 -0.090157 0.709910 0 0 153 0.004765
-0.067263 -0.090118 0.709820 0 0 179 0.008932
-0.064963 -0.091678 0.708257 0 0 179 0.011026
-0.066333 -0.088537 0.711576 0 0 128 0.003000
-0.062074 -0.087018 0.713507 0 0 128 0.001771
-0.068298 -0.092034 0.708520 0 0 153 0.004946
-0.068982 -0.093898 0.707097 0 0 179 0.009901
-0.071476 -0.092368 0.708576 0 0 153 0.005981
-0.072317 -0.094305 0.707266 0 0 179 0.008130
-0.074849 -0.092719 0.708651 0 0 153 0.006705
-0.070463 -0.090382 0.709913 0 0 153 0.005034
-0.049391 -0.096751 0.703853 0 0 255 0.023138
-0.048698 -0.098794 0.702391 0 0 255 0.021478
-0.051433 -0.099160 0.702232 0 29 255 0.030544
-0.052306 -0.096978 0.703654 0 7 255 0.023951
-0.055400 -0.097258 0.703498 0 29 255 0.028228
-0.043576 -0.098926 0.702190 0 7 255 0.026461
-0.046260 -0.101010 0.701158 0 51 255 0.033505
-0.049528 -0.104657 0.700449 0 0 204 0.012422
-0.052689 -0.102162 0.701340 0 0 255 0.020569
-0.053018 -0.105201 0.700390 0 0 229 0.017133
-0.049213 -0.101616 0.701286 0 0 255 0.022724
-0.056895 -0.103903 0.700992 0 0 255 0.021775
-0.055304 -0.100851 0.701989 0 0 255 0.021524
-0.058527 -0.101396 0.701995 0 0 229 0.017526
-0.061947 -0.101884 0.702000 0 51 255 0.031716
-0.069849 -0.095827 0.705984 0 0 179 0.008894
-0.065761 -0.093519 0.707000 0 0 179 0.010375
-0.061451 -0.093876 0.706245 0 0 229 0.018646
-0.062156 -0.095647 0.705094 0 0 229 0.018792
-0.065246 -0.096100 0.705275 0 0 204 0.012215
-0.065849 -0.097931 0.704232 0 0 255 0.021707
-0.069160 -0.098413 0.704363 0 0 255 0.020666
-0.061803 -0.091617 0.708460 0 0 153 0.007455
-0.057807 -0.090047 0.710122 0 0 153 0.007009
-0.054664 -0.092095 0.707994 0 0 179 0.008808
-0.057584 -0.092227 0.707826 0 0 179 0.009005
-0.058354 -0.093692 0.706331 0 0 204 0.014091
-0.051528 -0.094094 0.706158 0 0 204 0.013314
-0.054318 -0.094210 0.705923 0 0 229 0.016650
-0.058354 -0.097708 0.703580 0 0 255 0.023252
-0.061399 -0.098185 0.703648 0 0 255 0.020962
-0.064801 -0.100526 0.702911 0 0 255 0.021956
-0.069017 -0.072303 0.726783 0 0 153 0.004988
-0.066145 -0.071695 0.727739 0 0 153 0.004340
-0.063250 -0.072267 0.727869 0 0 153 0.005162
-0.060455 -0.071646 0.728796 0 0 153 0.006212
-0.057617 -0.072270 0.728892 0 0 153 0.007508
-0.057760 -0.069492 0.730197 0 0 153 0.007005
-0.060208 -0.074219 0.727291 0 0 153 0.006981
-0.057390 -0.074846 0.727339 0 0 179 0.008010
-0.062692 -0.074895 0.726248 0 0 153 0.005310
-0.065174 -0.075537 0.725206 0 0 153 0.004685
-0.068126 -0.074937 0.725048 0 0 128 0.003771
-0.067210 -0.077397 0.723107 0 0 128 0.003540
-0.054897 -0.069281 0.731296 0 0 128 0.003394
-0.052286 -0.070325 0.731783 0 0 153 0.003941
-0.049514 -0.070162 0.732813 0 0 128 0.003108
-0.049873 -0.072826 0.731701 0 0 179 0.009251
-0.052474 -0.073115 0.730638 0 0 204 0.012065
-0.054936 -0.073342 0.729388 0 0 179 0.007838
-0.052118 -0.076941 0.728419 0 0 204 0.015244
-0.054405 -0.077141 0.727167 0 0 204 0.013449
-0.056669 -0.077247 0.725782 0 0 153 0.007728
-0.049820 -0.075498 0.730375 0 0 204 0.015527
-0.058619 -0.078973 0.723746 0 0 153 0.005200
-0.060803 -0.079691 0.722673 0 0 128 0.003834
-0.063659 -0.079089 0.722429 0 0 128 0.002760
-0.065989 -0.079676 0.721319 0 0 128 0.002616
-0.061873 -0.077321 0.724508 0 0 153 0.004023
-0.059389 -0.076780 0.725614 0 0 153 0.007647
-0.067605 -0.081562 0.719284 0 0 128 0.002298
-0.069940 -0.082333 0.718222 0 0 128 0.001302
-0.073179 -0.082039 0.718227 0 0 128 0.001855
-0.075567 -0.082871 0.717222 0 0 153 0.004419
-0.077191 -0.080696 0.719274 0 0 153 0.006543
-0.074683 -0.079911 0.720216 0 0 128 0.002479
-0.071513 -0.080193 0.720234 0 0 128 0.001877
-0.069041 -0.079362 0.721224 0 0 128 0.002698
-0.076988 -0.085040 0.715404 0 0 128 0.001876
-0.079271 -0.086209 0.714612 0 0 128 0.002479
-0.082647 -0.086323 0.714835 0 0 153 0.005835
-0.084968 -0.087523 0.714052 0 0 204 0.013100
-0.086901 -0.085485 0.716122 0 0 204 0.014011
-0.084408 -0.084320 0.716962 0 0 153 0.004330
-0.081151 -0.084169 0.716690 0 0 128 0.001477
-0.078738 -0.082979 0.717511 0 0 128 0.001711
-0.090952 -0.081198 0.721039 0 51 255 0.032008
-0.088265 -0.079910 0.721759 0 0 204 0.012606
-0.084970 -0.079822 0.721413 0 0 128 0.002707
-0.082209 -0.078647 0.722103 0 0 128 0.002796
-0.078820 -0.078486 0.721602 0 0 153 0.004211
-0.080383 -0.076111 0.723770 0 0 153 0.006905
-0.080691 -0.080809 0.719812 0 0 128 0.001594
-0.083066 -0.082039 0.719045 0 0 128 0.001182
-0.086557 -0.082171 0.719504 0 0 128 0.003771
-0.089015 -0.083352 0.718571 0 0 229 0.016469
-0.077495 -0.075165 0.724516 0 0 128 0.003420
-0.074237 -0.075471 0.724369 0 0 128 0.003858
-0.071391 -0.074573 0.725164 0 0 153 0.004631
-0.070533 -0.077047 0.723308 0 0 153 0.004708
-0.073047 -0.077901 0.722394 0 0 128 0.003395
-0.076315 -0.077549 0.722481 0 0 128 0.002502
-0.031145 -0.070027 0.741840 0 0 128 0.002806
-0.035377 -0.067384 0.739198 0 0 255 0.020253
-0.032747 -0.067592 0.740941 0 0 179 0.009488
-0.028514 -0.070355 0.743325 0 0 128 0.002655
-0.040623 -0.066701 0.737340 0 0 128 0.002786
-0.042920 -0.065116 0.736681 0 0 153 0.005397
-0.045488 -0.064801 0.735609 0 0 179 0.010913
-0.037499 -0.066027 0.738752 0 0 179 0.010575
-0.043376 -0.058959 0.738208 0 51 255 0.035020
-0.040490 -0.059669 0.739399 0 0 255 0.021449
-0.038256 -0.061249 0.739869 0 0 255 0.019716
-0.035457 -0.061838 0.740832 0 29 255 0.028929
-0.033271 -0.063352 0.741148 0 141 255 0.048068
-0.044243 -0.061217 0.737097 0 29 255 0.027753
-0.030070 -0.063063 0.743713 0 0 229 0.019190
-0.028509 -0.065404 0.744469 0 0 153 0.007752
-0.026323 -0.066799 0.745439 0 0 179 0.009250
-0.024400 -0.043163 0.755756 0 0 128 0.001672
-0.022454 -0.045064 0.756689 0 0 128 0.001809
-0.021641 -0.047862 0.756369 0 0 128 0.001921
-0.019552 -0.049646 0.756971 0 0 128 0.003564
-0.021868 -0.051438 0.754765 0 0 153 0.004534
-0.024167 -0.050081 0.754099 0 0 128 0.003781
-0.025032 -0.047303 0.754414 0 0 128 0.003250
-0.027245 -0.045774 0.753428 0 0 128 0.002537
-0.027999 -0.042921 0.753543 0 0 153 0.005017
-0.030956 -0.045610 0.751235 0 0 128 0.003468
-0.016710 -0.051015 0.758953 0 0 128 0.001550
-0.015064 -0.053561 0.759641 0 0 128 0.003205
-0.014362 -0.056400 0.759270 0 0 128 0.003813
-0.012506 -0.058734 0.759555 0 0 128 0.002860
-0.014396 -0.059616 0.757540 0 0 153 0.004649
-0.016405 -0.057720 0.757176 0 0 128 0.003762
-0.017199 -0.054866 0.757707 0 0 153 0.005274
-0.019035 -0.052759 0.756936 0 0 128 0.003889
-0.019887 -0.060314 0.753146 0 0 128 0.001782
-0.020964 -0.057744 0.753540 0 0 128 0.002976
-0.023076 -0.055931 0.752622 0 0 128 0.003280
-0.023966 -0.053218 0.752654 0 0 153 0.005910
-0.026132 -0.055027 0.750370 0 0 153 0.005660
-0.021030 -0.054149 0.754900 0 0 128 0.003906
-0.019202 -0.056265 0.755675 0 0 153 0.005018
-0.018074 -0.058841 0.755306 0 0 128 0.002140
-0.016017 -0.060704 0.755652 0 0 153 0.006577
-0.028647 -0.054067 0.749686 0 0 153 0.006362
-0.029903 -0.051713 0.749965 0 0 179 0.008349
-0.032451 -0.050666 0.749068 0 0 153 0.007493
-0.033731 -0.048219 0.749139 0 0 153 0.005582
-0.036417 -0.050921 0.746961 0 0 179 0.010428
-0.029802 -0.048051 0.751196 0 0 153 0.005026
-0.027528 -0.049531 0.752127 0 0 153 0.005857
-0.026307 -0.051866 0.751905 0 0 128 0.003808
-0.037845 -0.025478 0.758301 0 0 204 0.013005
-0.034225 -0.025885 0.759326 0 0 179 0.008933
-0.035072 -0.027189 0.757576 0 0 204 0.012229
-0.030821 -0.026348 0.760313 0 0 179 0.010230
-0.031610 -0.027694 0.758663 0 0 204 0.012781
-0.028324 -0.028244 0.759698 0 0 229 0.016611
-0.027545 -0.026916 0.761216 0 0 204 0.015307
-0.032398 -0.029083 0.757013 0 0 229 0.019299
-0.029087 -0.029615 0.758164 0 0 229 0.018789
-0.029918 -0.030991 0.756624 0 51 255 0.031801
-0.036512 -0.029984 0.754614 0 7 255 0.025220
-0.039242 -0.028199 0.755183 0 0 255 0.021605
-0.042111 -0.026484 0.755960 0 7 255 0.026794
-0.043544 -0.029222 0.753091 0 141 255 0.046944
-0.024769 -0.028163 0.762151 0 0 153 0.005523
-0.021276 -0.029438 0.763374 0 0 153 0.006433
-0.022895 -0.030814 0.761567 0 0 153 0.005663
-0.017938 -0.030632 0.764366 0 0 204 0.012497
-0.019533 -0.032072 0.762818 0 0 179 0.007960
-0.021150 -0.033501 0.761176 0 0 153 0.006083
-0.021957 -0.034893 0.759897 0 0 153 0.007419
-0.023677 -0.032211 0.760271 0 0 153 0.004470
-0.024490 -0.033605 0.758860 0 0 153 0.007131
-0.026315 -0.030880 0.759215 0 0 179 0.009265
-0.025541 -0.029513 0.760701 0 0 153 0.007333
-0.027133 -0.032277 0.757781 0 0 179 0.010186
-0.027552 -0.039183 0.754779 0 0 179 0.009880
-0.028788 -0.036846 0.755019 0 0 179 0.007948
-0.031474 -0.035712 0.753845 0 0 229 0.016196
-0.032831 -0.033430 0.754027 0 7 255 0.025205
-0.035727 -0.035895 0.751404 0 29 255 0.030308
-0.024780 -0.036882 0.757372 0 0 153 0.006996
-0.038890 -0.035492 0.750580 0 0 255 0.020202
-0.040824 -0.033801 0.750950 0 0 255 0.020174
-0.044143 -0.033537 0.750240 0 0 255 0.022286
-0.046173 -0.031967 0.750805 0 7 255 0.024881
-0.048786 -0.034822 0.748659 0 29 255 0.030038
-0.041478 -0.030802 0.752461 0 51 255 0.032838
-0.034584 -0.031672 0.754214 0 29 255 0.028841
-0.049086 -0.067347 0.733880 0 0 128 0.002774
-0.051933 -0.067657 0.732940 0 0 128 0.002307
-0.054591 -0.066548 0.732573 0 0 128 0.001973
-0.057461 -0.066746 0.731461 0 0 153 0.005789
-0.057046 -0.064030 0.732671 0 0 153 0.006775
-0.054031 -0.064003 0.733662 0 0 128 0.002481
-0.051387 -0.065110 0.734043 0 0 128 0.001795
-0.048111 -0.063786 0.735316 0 0 153 0.005956
-0.060776 -0.068751 0.730228 0 0 153 0.004139
-0.063579 -0.069476 0.729404 0 0 128 0.003143
-0.066727 -0.068680 0.729401 0 0 128 0.002634
-0.069559 -0.069436 0.728495 0 0 153 0.004924
-0.069924 -0.066555 0.730058 0 0 179 0.007944
-0.066717 -0.065963 0.730785 0 0 128 0.002692
-0.063643 -0.066562 0.730751 0 0 128 0.002042
-0.060492 -0.065976 0.731468 0 0 128 0.003197
-0.069459 -0.060633 0.733325 0 0 229 0.017697
-0.066071 -0.060130 0.733839 0 0 179 0.007979
-0.062985 -0.060850 0.733654 0 0 153 0.004287
-0.059531 -0.060394 0.734151 0 0 153 0.007018
-0.056439 -0.061292 0.733980 0 0 179 0.011067
-0.055814 -0.058594 0.735315 0 0 229 0.016075
-0.060166 -0.063063 0.732766 0 0 153 0.005188
-0.063412 -0.063705 0.732135 0 0 128 0.002719
-0.066512 -0.062913 0.732378 0 0 153 0.003925
-0.069703 -0.063643 0.731749 0 0 179 0.009600
-0.052658 -0.058703 0.736161 0 0 153 0.007142
-0.049985 -0.059908 0.736333 0 0 153 0.006496
-0.046926 -0.060040 0.737038 0 0 204 0.012169
-0.050739 -0.062436 0.735130 0 0 128 0.002497
-0.053438 -0.061125 0.734879 0 0 153 0.005043
-0.047181 -0.036559 0.748234 0 0 179 0.011586
-0.043854 -0.036759 0.748739 0 0 204 0.013149
-0.045603 -0.038366 0.747853 0 0 179 0.008313
-0.040641 -0.037060 0.749569 0 0 204 0.012556
-0.042358 -0.038662 0.748580 0 0 153 0.006964
-0.039219 -0.039003 0.749394 0 0 179 0.008962
-0.037465 -0.037410 0.750379 0 0 229 0.016175
-0.044113 -0.040201 0.747553 0 0 153 0.006306
-0.040903 -0.040600 0.748348 0 0 153 0.006476
-0.042591 -0.042092 0.747242 0 0 153 0.007537
-0.045830 -0.041903 0.746564 0 0 128 0.003376
-0.047377 -0.040099 0.746925 0 0 153 0.004673
-0.049160 -0.041777 0.745983 0 0 128 0.002890
-0.050668 -0.040033 0.746436 0 0 153 0.006503
-0.048921 -0.038295 0.747324 0 0 204 0.012141
-0.052250 -0.038334 0.746920 0 0 229 0.017390
-0.052356 -0.041743 0.745518 0 0 153 0.004043
-0.053901 -0.040038 0.746059 0 0 179 0.011285
-0.055523 -0.041756 0.745048 0 0 204 0.015580
-0.050551 -0.036566 0.747794 0 7 255 0.024898
-0.034596 -0.038336 0.751551 0 0 153 0.005550
-0.031820 -0.039436 0.752725 0 0 128 0.002212
-0.030714 -0.041842 0.752670 0 0 128 0.001783
-0.033768 -0.044779 0.750363 0 0 128 0.002173
-0.035031 -0.042317 0.750480 0 0 128 0.001456
-0.036606 -0.043901 0.749398 0 0 128 0.001664
-0.037947 -0.041447 0.749458 0 0 128 0.001668
-0.036293 -0.039906 0.750541 0 0 128 0.002449
-0.039562 -0.042962 0.748316 0 0 128 0.002091
-0.039490 -0.050318 0.746131 0 0 229 0.017232
-0.041081 -0.048092 0.746252 0 0 179 0.010596
-0.044207 -0.047458 0.745243 0 0 153 0.006798
-0.045824 -0.045254 0.745343 0 0 153 0.004479
-0.048781 -0.048486 0.743212 0 0 153 0.005147
-0.036542 -0.047391 0.748258 0 0 153 0.006540
-0.052077 -0.048474 0.742668 0 0 153 0.005213
-0.050490 -0.046678 0.743596 0 0 128 0.003615
-0.053730 -0.046689 0.743085 0 0 153 0.004958
-0.055282 -0.048435 0.742039 0 0 153 0.005519
-0.052136 -0.044938 0.744024 0 0 153 0.005475
-0.057001 -0.046774 0.742548 0 0 153 0.006044
-0.055441 -0.045007 0.743556 0 0 179 0.008155
-0.058622 -0.045209 0.743146 0 0 204 0.015154
-0.058495 -0.048510 0.741603 0 0 153 0.006423
-0.060188 -0.046897 0.742133 0 0 204 0.014033
-0.061782 -0.048586 0.741076 0 0 229 0.015833
-0.057137 -0.043483 0.744182 0 0 204 0.012573
-0.089513 -0.028170 0.773571 0 0 128 0.002097
-0.088071 -0.025898 0.775473 0 0 128 0.001355
-0.091027 -0.026035 0.776851 0 0 128 0.001253
-0.086600 -0.023645 0.777381 0 0 128 0.001657
-0.089579 -0.023852 0.778813 0 0 128 0.001404
-0.088070 -0.021669 0.780819 0 0 128 0.001380
-0.092493 -0.023993 0.780178 0 0 128 0.001690
-0.085098 -0.021435 0.779297 0 0 128 0.001629
-0.083516 -0.019188 0.781296 0 0 128 0.003729
-0.081757 -0.021342 0.777248 0 0 128 0.003766
-0.083258 -0.023634 0.775414 0 0 128 0.001923
-0.084765 -0.025960 0.773589 0 0 128 0.001379
-0.079926 -0.023554 0.773372 0 0 128 0.003762
-0.091319 -0.021891 0.782502 0 0 128 0.001078
-0.094228 -0.022249 0.783682 0 0 128 0.001595
-0.090178 -0.019850 0.784834 0 0 128 0.000755
-0.093030 -0.020236 0.786095 0 0 128 0.000708
-0.087960 -0.018662 0.785165 0 0 128 0.001016
-0.085654 -0.017407 0.785483 0 0 128 0.002211
-0.078301 -0.013653 0.787350 0 0 128 0.002061
-0.080875 -0.014857 0.786838 0 0 128 0.001316
-0.077023 -0.014546 0.784961 0 0 128 0.001989
-0.079713 -0.015817 0.784466 0 0 128 0.001850
-0.078443 -0.016732 0.782115 0 0 128 0.001929
-0.075827 -0.015506 0.782542 0 0 128 0.002930
-0.082258 -0.017031 0.784011 0 0 128 0.001850
-0.081012 -0.017975 0.781723 0 0 128 0.001992
-0.084352 -0.015301 0.788256 0 0 128 0.000953
-0.073945 -0.017561 0.778094 0 0 128 0.002391
-0.076722 -0.018756 0.777967 0 0 128 0.001724
-0.072895 -0.018619 0.775843 0 0 128 0.002301
-0.075674 -0.019880 0.775739 0 0 128 0.002167
-0.074631 -0.020993 0.773558 0 0 128 0.001935
-0.071781 -0.019672 0.773662 0 0 128 0.002841
-0.078378 -0.021126 0.775617 0 0 128 0.001770
-0.077308 -0.022283 0.773476 0 0 128 0.002083
-0.065427 -0.018616 0.771726 0 0 128 0.002652
-0.062546 -0.017553 0.772163 0 0 128 0.001766
-0.061885 -0.018861 0.769720 0 0 128 0.001729
-0.059671 -0.016551 0.772755 0 0 128 0.002978
-0.058957 -0.017843 0.770201 0 0 128 0.003215
-0.055948 -0.016872 0.770781 0 0 153 0.005877
-0.056648 -0.015650 0.773315 0 0 153 0.005886
-0.058233 -0.019137 0.767754 0 0 128 0.003697
-0.055227 -0.018157 0.768288 0 0 153 0.006450
-0.054543 -0.019459 0.765852 0 0 179 0.007936
-0.057605 -0.020342 0.765597 0 0 153 0.004161
-0.061261 -0.020071 0.767574 0 0 128 0.001816
-0.060646 -0.021291 0.765458 0 0 128 0.002802
-0.064282 -0.021057 0.767470 0 0 128 0.003652
-0.064869 -0.019817 0.769599 0 0 128 0.002544
-0.067694 -0.020807 0.769543 0 0 128 0.003821
-0.063598 -0.022309 0.765412 0 0 128 0.003898
-0.067064 -0.022056 0.767476 0 0 153 0.004301
-0.066372 -0.023319 0.765426 0 0 153 0.005962
-0.068328 -0.019586 0.771635 0 0 128 0.003146
-0.053373 -0.015187 0.773902 0 0 128 0.002653
-0.050182 -0.014609 0.774769 0 0 128 0.001681
-0.049311 -0.015994 0.771877 0 0 128 0.001655
-0.046985 -0.014099 0.775671 0 0 128 0.003130
-0.046184 -0.015480 0.772763 0 0 128 0.002811
-0.045302 -0.016907 0.769954 0 0 128 0.003013
-0.044608 -0.018179 0.767536 0 0 153 0.004123
-0.048597 -0.017259 0.769342 0 0 128 0.002034
-0.047874 -0.018521 0.766906 0 0 128 0.002727
-0.051937 -0.017672 0.768787 0 0 128 0.003077
-0.052657 -0.016401 0.771311 0 0 128 0.002520
-0.051255 -0.018956 0.766338 0 0 153 0.004221
-0.044043 -0.023947 0.758773 0 0 204 0.012557
-0.044030 -0.022529 0.760644 0 0 179 0.008719
-0.047441 -0.022773 0.760236 0 0 153 0.006840
-0.047395 -0.024187 0.758344 0 0 179 0.009807
-0.047493 -0.021434 0.762194 0 0 128 0.003435
-0.050806 -0.023099 0.759923 0 0 179 0.008956
-0.050880 -0.021749 0.761885 0 0 153 0.005456
-0.054267 -0.022171 0.761686 0 0 179 0.010131
-0.050721 -0.024521 0.758064 0 0 179 0.011430
-0.054186 -0.023527 0.759762 0 0 179 0.011243
-0.054053 -0.024916 0.757889 0 0 229 0.017807
-0.051044 -0.020453 0.763917 0 0 128 0.003472
-0.054426 -0.020841 0.763727 0 0 153 0.007752
-0.047645 -0.019992 0.764470 0 0 128 0.002441
-0.044386 -0.019635 0.765092 0 0 153 0.004080
-0.044194 -0.021069 0.762810 0 0 153 0.005892
-0.057183 -0.025779 0.758003 0 0 179 0.010829
-0.060225 -0.025382 0.759795 0 0 153 0.006222
-0.063147 -0.026375 0.760092 0 0 153 0.005189
-0.066087 -0.026068 0.762050 0 0 153 0.005085
-0.065879 -0.028694 0.758810 0 0 179 0.008453
-0.063336 -0.023736 0.763359 0 0 153 0.004293
-0.060484 -0.022697 0.763429 0 0 128 0.003219
-0.057470 -0.021747 0.763510 0 0 153 0.004509
-0.057399 -0.023122 0.761491 0 0 153 0.006141
-0.063597 -0.029096 0.757228 0 0 153 0.006362
-0.060740 -0.028107 0.756921 0 0 153 0.007589
-0.058324 -0.028576 0.755385 0 0 179 0.011293
-0.055320 -0.027747 0.755151 0 0 229 0.018552
-0.056544 -0.030553 0.752634 0 7 255 0.024246
-0.059574 -0.031456 0.752992 0 0 179 0.011499
-0.061927 -0.030986 0.754527 0 0 153 0.006773
-0.064808 -0.031999 0.754955 0 0 153 0.005153
-0.067045 -0.031616 0.756587 0 0 153 0.004634
-0.068167 -0.034449 0.754313 0 0 153 0.006136
-0.048716 -0.026904 0.755143 0 0 229 0.018965
-0.045409 -0.026665 0.755507 0 0 255 0.020762
-0.046809 -0.029431 0.752799 0 51 255 0.033673
-0.050100 -0.029699 0.752612 0 7 255 0.025045
-0.052700 -0.028666 0.753819 0 0 229 0.019392
-0.050717 -0.033638 0.749455 0 51 255 0.033049
-0.053941 -0.034099 0.749575 0 0 229 0.018374
-0.057113 -0.034705 0.749713 0 0 229 0.016060
-0.058997 -0.033747 0.750800 0 0 229 0.017112
-0.061295 -0.036865 0.748973 0 0 229 0.017076
-0.054565 -0.031519 0.751512 0 0 255 0.022953
-0.064188 -0.037807 0.749416 0 0 204 0.012885
-0.067011 -0.038847 0.749925 0 0 153 0.006190
-0.064719 -0.035571 0.751512 0 0 179 0.008557
-0.067502 -0.036665 0.752097 0 0 128 0.002905
-0.070263 -0.037819 0.752725 0 0 128 0.001583
-0.069780 -0.039887 0.750427 0 0 153 0.004850
-0.072478 -0.041029 0.750918 0 0 128 0.003242
-0.061908 -0.034647 0.751136 0 0 179 0.008274
-0.072968 -0.063339 0.732184 0 0 179 0.011601
-0.076415 -0.065877 0.730964 0 0 179 0.011347
-0.073174 -0.066223 0.730548 0 0 153 0.006401
-0.076644 -0.068630 0.729266 0 0 153 0.006895
-0.079835 -0.068445 0.729814 0 0 179 0.011380
-0.083127 -0.070865 0.728372 0 0 229 0.018147
-0.083441 -0.068123 0.730677 0 7 255 0.025250
-0.080131 -0.065599 0.731977 0 0 204 0.014949
-0.076718 -0.062909 0.733058 0 0 204 0.014597
-0.083628 -0.065450 0.733029 0 0 229 0.018697
-0.072600 -0.069143 0.728738 0 0 153 0.004847
-0.075185 -0.071585 0.727158 0 0 153 0.003994
-0.072100 -0.071843 0.726929 0 0 153 0.004708
-0.078599 -0.072517 0.726614 0 0 153 0.006957
-0.081919 -0.073455 0.726069 0 0 204 0.013973
-0.089928 -0.077696 0.724575 0 0 204 0.014076
-0.092828 -0.079148 0.724208 0 29 255 0.028898
-0.087004 -0.076273 0.725031 0 0 179 0.009342
-0.088811 -0.074093 0.727926 0 0 179 0.010630
-0.091536 -0.075685 0.727653 0 0 204 0.014707
-0.094278 -0.077323 0.727351 0 0 255 0.021334
-0.085052 -0.073657 0.726782 0 0 204 0.012366
-0.083766 -0.076141 0.724351 0 0 153 0.006070
-0.094962 -0.076259 0.729259 0 0 229 0.019219
-0.092278 -0.073379 0.730792 0 0 179 0.009560
-0.095658 -0.075225 0.731147 0 0 229 0.017347
-0.088858 -0.071634 0.730487 0 0 153 0.007209
-0.092915 -0.072315 0.732628 0 0 153 0.004889
-0.089664 -0.070442 0.732170 0 0 153 0.005304
-0.090386 -0.069315 0.733951 0 0 153 0.005254
-0.096229 -0.074309 0.733171 0 0 179 0.011070
-0.093605 -0.071309 0.734552 0 0 153 0.004137
-0.096834 -0.073496 0.735351 0 0 153 0.004215
-0.086293 -0.068634 0.731805 0 0 204 0.012957
-0.087127 -0.067375 0.733460 0 0 179 0.008952
-0.086062 -0.071191 0.729411 0 0 179 0.011518
-0.070144 -0.042584 0.748136 0 0 153 0.006072
-0.067380 -0.041530 0.747757 0 0 153 0.006377
-0.064520 -0.040552 0.747389 0 0 204 0.012651
-0.067806 -0.044234 0.745489 0 0 204 0.013019
-0.070580 -0.045320 0.745920 0 0 153 0.006139
-0.073391 -0.046473 0.746318 0 0 153 0.004183
-0.072874 -0.043772 0.748646 0 0 128 0.003396
-0.075589 -0.045014 0.749193 0 0 128 0.001314
-0.076090 -0.047698 0.746757 0 0 128 0.003157
-0.078758 -0.048935 0.747270 0 0 128 0.001216
-0.056861 -0.037393 0.747768 0 0 204 0.014497
-0.058436 -0.039131 0.746905 0 0 229 0.017249
-0.060025 -0.040977 0.746112 0 0 179 0.010754
-0.061661 -0.042842 0.745218 0 0 204 0.015241
-0.064732 -0.043513 0.745336 0 0 204 0.013219
-0.065040 -0.049332 0.741099 0 0 204 0.013476
-0.068292 -0.050149 0.741111 0 0 179 0.011018
-0.064771 -0.046307 0.743092 0 0 229 0.018797
-0.068017 -0.047171 0.743315 0 0 204 0.012549
-0.071150 -0.048148 0.743488 0 0 179 0.010939
-0.071487 -0.051044 0.741233 0 0 179 0.009768
-0.074684 -0.051967 0.741355 0 0 204 0.013800
-0.077453 -0.053187 0.741842 0 0 153 0.007278
-0.080166 -0.054469 0.742351 0 0 153 0.004378
-0.076759 -0.050333 0.744210 0 0 153 0.007481
-0.079434 -0.051672 0.744826 0 0 128 0.001788
-0.082081 -0.052996 0.745441 0 0 128 0.000412
-0.082817 -0.055781 0.742908 0 0 128 0.001351
-0.085439 -0.057081 0.743468 0 0 128 0.000792
-0.074015 -0.049173 0.743824 0 0 179 0.010399
-0.086543 -0.028379 0.771932 0 0 128 0.001370
-0.083575 -0.028545 0.770273 0 0 128 0.001244
-0.081757 -0.026039 0.771809 0 0 128 0.001242
-0.078720 -0.026038 0.769957 0 0 128 0.001819
-0.080571 -0.028575 0.768459 0 0 128 0.001438
-0.077541 -0.028517 0.766629 0 0 128 0.001306
-0.082607 -0.030990 0.767381 0 0 128 0.001014
-0.085607 -0.030884 0.769098 0 0 128 0.001009
-0.088608 -0.030637 0.770624 0 0 128 0.001722
-0.087647 -0.033143 0.767807 0 0 128 0.000800
-0.076642 -0.023631 0.771481 0 0 128 0.001885
-0.074005 -0.022295 0.771502 0 0 128 0.002278
-0.073308 -0.023562 0.769532 0 0 128 0.001482
-0.071220 -0.020952 0.771540 0 0 128 0.001671
-0.070560 -0.022209 0.769530 0 0 128 0.001880
-0.069910 -0.023482 0.767500 0 0 128 0.002896
-0.072187 -0.025994 0.766005 0 0 128 0.001595
-0.075506 -0.026078 0.768062 0 0 128 0.001181
-0.068787 -0.030049 0.759392 0 0 128 0.002454
-0.071683 -0.030162 0.761337 0 0 128 0.000959
-0.074431 -0.031393 0.761903 0 0 128 0.000680
-0.077220 -0.031274 0.763817 0 0 128 0.000670
-0.077038 -0.033948 0.761040 0 0 128 0.000269
-0.074700 -0.028738 0.764681 0 0 128 0.001419
-0.069154 -0.026059 0.764035 0 0 128 0.002792
-0.079678 -0.035236 0.761679 0 0 128 0.001097
-0.082304 -0.035125 0.763377 0 0 128 0.000930
-0.084907 -0.036237 0.763799 0 0 128 0.001020
-0.087500 -0.035967 0.765357 0 0 128 0.000568
-0.087484 -0.038646 0.762849 0 0 128 0.000344
-0.084996 -0.033573 0.766250 0 0 128 0.000852
-0.079977 -0.031148 0.765640 0 0 128 0.000952
-0.085410 -0.039044 0.761463 0 0 128 0.000960
-0.082783 -0.037920 0.761097 0 0 128 0.001350
-0.080732 -0.038157 0.759580 0 0 128 0.001069
-0.078075 -0.036936 0.759003 0 0 128 0.000527
-0.079150 -0.039814 0.756839 0 0 128 0.000310
-0.081773 -0.041032 0.757474 0 0 128 0.001120
-0.083799 -0.040831 0.758975 0 0 128 0.001753
-0.086431 -0.041964 0.759411 0 0 128 0.001469
-0.088516 -0.041585 0.760812 0 0 128 0.000696
-0.089610 -0.044478 0.758640 0 0 128 0.000636
-0.074777 -0.034210 0.759308 0 0 128 0.000219
-0.072088 -0.032889 0.758787 0 0 128 0.000491
-0.069851 -0.032943 0.757107 0 0 128 0.001959
-0.070941 -0.035829 0.754984 0 0 128 0.001566
-0.073147 -0.035755 0.756642 0 0 128 0.000371
-0.075878 -0.037104 0.757322 0 0 128 0.000242
-0.075206 -0.042402 0.751498 0 0 128 0.000716
-0.077914 -0.043771 0.752043 0 0 128 0.000163
-0.075803 -0.040449 0.753872 0 0 128 0.000131
-0.078493 -0.041805 0.754497 0 0 128 0.000285
-0.081126 -0.043053 0.755029 0 0 128 0.000612
-0.080577 -0.045029 0.752648 0 0 128 0.000177
-0.083183 -0.046289 0.753094 0 0 128 0.000363
-0.073024 -0.039142 0.753317 0 0 128 0.000556
-0.085631 -0.047515 0.753611 0 0 128 0.000700
-0.088099 -0.048620 0.754108 0 0 128 0.000808
-0.086337 -0.045536 0.755982 0 0 128 0.000958
-0.088777 -0.046657 0.756394 0 0 128 0.001109
-0.091275 -0.047699 0.756760 0 0 128 0.000954
-0.090534 -0.049758 0.754510 0 0 128 0.000886
-0.093114 -0.050868 0.754886 0 0 128 0.001002
-0.083758 -0.044343 0.755550 0 0 128 0.001159
-0.123292 -0.126477 0.809048 0 0 153 0.004858
-0.120432 -0.126683 0.810811 0 0 153 0.005546
-0.119511 -0.128332 0.807898 0 0 153 0.007088
-0.122368 -0.127836 0.806033 0 0 153 0.005600
-0.116679 -0.128862 0.809644 0 0 153 0.005485
-0.118689 -0.129826 0.804942 0 0 153 0.006256
-0.115883 -0.130588 0.806799 0 0 153 0.006653
-0.115145 -0.132118 0.803958 0 0 179 0.008241
-0.121508 -0.129113 0.802994 0 0 153 0.006285
-0.117884 -0.131134 0.802028 0 0 153 0.005902
-0.120641 -0.130127 0.800003 0 0 153 0.004827
-0.113131 -0.131354 0.808544 0 0 179 0.008125
-0.112447 -0.133103 0.805838 0 0 204 0.012032
-0.109762 -0.134008 0.807600 0 0 204 0.013357
-0.110480 -0.131758 0.810522 0 0 153 0.007301
-0.113933 -0.129093 0.811555 0 0 153 0.004944
-0.111239 -0.129426 0.813441 0 0 153 0.005074
-0.114863 -0.126851 0.814674 0 0 153 0.005776
-0.117679 -0.126787 0.812809 0 0 153 0.005158
-0.112150 -0.127114 0.816485 0 0 153 0.005768
-0.120077 -0.130791 0.796582 0 0 128 0.002987
-0.117278 -0.132179 0.798546 0 0 153 0.004542
-0.116675 -0.132846 0.795214 0 0 128 0.002185
-0.119581 -0.131220 0.793120 0 0 128 0.001428
-0.113908 -0.134447 0.797076 0 0 153 0.007097
-0.116042 -0.133357 0.791843 0 0 128 0.000713
-0.113194 -0.135032 0.793693 0 0 128 0.003388
-0.112450 -0.135559 0.790340 0 0 128 0.002355
-0.119066 -0.131565 0.789645 0 0 128 0.000873
-0.115396 -0.133811 0.788417 0 0 128 0.000755
-0.118584 -0.131926 0.786174 0 0 128 0.000694
-0.110495 -0.136618 0.795395 0 0 179 0.008517
-0.109734 -0.137147 0.792011 0 0 153 0.007618
-0.107119 -0.138580 0.793530 0 0 204 0.014253
-0.107954 -0.137888 0.797136 0 0 204 0.013702
-0.111278 -0.135767 0.798961 0 0 179 0.010751
-0.108697 -0.136975 0.800749 0 0 229 0.015705
-0.111921 -0.134627 0.802474 0 0 204 0.012853
-0.114580 -0.133433 0.800550 0 0 153 0.007691
-0.109307 -0.135705 0.804248 0 0 229 0.017367
-0.098857 -0.141293 0.803145 0 96 255 0.041254
-0.099545 -0.139917 0.806740 0 96 255 0.040425
-0.102635 -0.139225 0.804740 0 74 255 0.036103
-0.100059 -0.137934 0.810067 0 7 255 0.026233
-0.103184 -0.137392 0.808163 0 7 255 0.025470
-0.103612 -0.135119 0.811399 0 0 204 0.014012
-0.100472 -0.135516 0.813211 0 0 179 0.010843
-0.106237 -0.136728 0.806214 0 7 255 0.025509
-0.106708 -0.134590 0.809526 0 0 229 0.016365
-0.105693 -0.138171 0.802751 0 7 255 0.023819
-0.105013 -0.139161 0.799121 0 0 229 0.017824
-0.101972 -0.140296 0.801152 0 7 255 0.027267
-0.101200 -0.140982 0.797494 0 7 255 0.023554
-0.104210 -0.139813 0.795495 0 0 229 0.015886
-0.098051 -0.142023 0.799519 0 51 255 0.035136
-0.101053 -0.132906 0.815876 0 0 128 0.003015
-0.101833 -0.129979 0.818797 0 0 128 0.002136
-0.104872 -0.129961 0.816937 0 0 128 0.002713
-0.102702 -0.127093 0.821741 0 0 179 0.009275
-0.105776 -0.127178 0.819999 0 0 153 0.007729
-0.108869 -0.127234 0.818141 0 0 153 0.006474
-0.108081 -0.129731 0.815186 0 0 153 0.003955
-0.107360 -0.132228 0.812381 0 0 153 0.006037
-0.104250 -0.132676 0.814185 0 0 153 0.005477
-0.090568 -0.052355 0.752221 0 0 128 0.001391
-0.088160 -0.051185 0.751778 0 0 128 0.001133
-0.085701 -0.050012 0.751328 0 0 128 0.001140
-0.088242 -0.053705 0.749397 0 0 128 0.001484
-0.090387 -0.054778 0.749928 0 0 128 0.001818
-0.092607 -0.055838 0.750458 0 0 128 0.002535
-0.092819 -0.053403 0.752718 0 0 128 0.002210
-0.095245 -0.054480 0.753171 0 0 128 0.002047
-0.095019 -0.056953 0.750990 0 0 128 0.002944
-0.097659 -0.058168 0.751477 0 0 128 0.003533
-0.080966 -0.047635 0.750225 0 0 128 0.000226
-0.078305 -0.046363 0.749725 0 0 128 0.000440
-0.081212 -0.050113 0.747857 0 0 128 0.000268
-0.083551 -0.051346 0.748394 0 0 128 0.000702
-0.083343 -0.048858 0.750782 0 0 128 0.000539
-0.085906 -0.052546 0.748925 0 0 128 0.001314
-0.087503 -0.058178 0.744071 0 0 128 0.000473
-0.089478 -0.059265 0.744692 0 0 128 0.000884
-0.086818 -0.055426 0.746426 0 0 128 0.000734
-0.088809 -0.056497 0.747024 0 0 128 0.001357
-0.090915 -0.057599 0.747651 0 0 128 0.002869
-0.091521 -0.060382 0.745288 0 0 128 0.002445
-0.093689 -0.061482 0.745937 0 0 128 0.002615
-0.084445 -0.054213 0.745947 0 0 128 0.000484
-0.096723 -0.061655 0.748105 0 0 153 0.005867
-0.100337 -0.061888 0.750058 0 0 153 0.005446
-0.100535 -0.064528 0.748155 0 0 179 0.009731
-0.093122 -0.058707 0.748198 0 0 128 0.003797
-0.044528 -0.109235 0.699507 0 0 153 0.004636
-0.041660 -0.109830 0.699418 0 0 128 0.002924
-0.039706 -0.112017 0.699345 0 0 128 0.001237
-0.036900 -0.112682 0.699255 0 0 128 0.001285
-0.038620 -0.115694 0.699079 0 0 128 0.002687
-0.041439 -0.115019 0.699129 0 0 128 0.002375
-0.043385 -0.112816 0.699321 0 0 128 0.002508
-0.046272 -0.112098 0.699360 0 0 153 0.004258
-0.048460 -0.109930 0.699617 0 0 153 0.007208
-0.050332 -0.112839 0.699502 0 0 179 0.008161
-0.032481 -0.111967 0.699016 0 0 128 0.002381
-0.028818 -0.112779 0.698508 0 0 128 0.002481
-0.025760 -0.115293 0.697868 0 0 128 0.001880
-0.027494 -0.118286 0.697892 0 0 153 0.004278
-0.030551 -0.115788 0.698604 0 0 128 0.003257
-0.034250 -0.114947 0.698988 0 0 128 0.002586
-0.029966 -0.124531 0.698389 0 0 229 0.015825
-0.033321 -0.122021 0.698850 0 0 153 0.007343
-0.036991 -0.121273 0.699148 0 0 153 0.007069
-0.039832 -0.118896 0.699314 0 0 128 0.003502
-0.041045 -0.122147 0.699400 0 0 204 0.012777
-0.035741 -0.118024 0.699023 0 0 128 0.003183
-0.032090 -0.118832 0.698664 0 0 128 0.003309
-0.028704 -0.121357 0.698214 0 0 153 0.004623
-0.043853 -0.121487 0.699502 0 0 229 0.017741
-0.046110 -0.119121 0.699557 0 0 153 0.005704
-0.049073 -0.118462 0.699778 0 0 153 0.006477
-0.051594 -0.116103 0.699854 0 0 153 0.006323
-0.052910 -0.119375 0.700157 0 0 229 0.016341
-0.047844 -0.115113 0.699478 0 0 153 0.004890
-0.044863 -0.115890 0.699337 0 0 128 0.003843
-0.042660 -0.118202 0.699335 0 0 128 0.002850
-0.091930 -0.141859 0.776176 0 0 128 0.001080
-0.092823 -0.141769 0.778995 0 0 128 0.001229
-0.096000 -0.141093 0.777172 0 0 128 0.000347
-0.093732 -0.141772 0.781963 0 0 128 0.001365
-0.096931 -0.141009 0.780067 0 0 128 0.001010
-0.097853 -0.140967 0.783054 0 0 128 0.001373
-0.094688 -0.141830 0.785004 0 0 128 0.001956
-0.100028 -0.140280 0.778137 0 0 128 0.001681
-0.100926 -0.140161 0.781080 0 0 128 0.003359
-0.103979 -0.139296 0.779071 0 0 153 0.005943
-0.103085 -0.139494 0.775982 0 0 153 0.007053
-0.099084 -0.140396 0.775098 0 0 128 0.001691
-0.102189 -0.139712 0.773007 0 0 179 0.008396
-0.098131 -0.140486 0.772253 0 0 128 0.001623
-0.095034 -0.141134 0.774184 0 0 128 0.000359
-0.094072 -0.141170 0.771315 0 0 128 0.001477
-0.101317 -0.139767 0.770191 0 0 179 0.008680
-0.097197 -0.140519 0.769413 0 0 128 0.001676
-0.100415 -0.139753 0.767374 0 0 153 0.007184
-0.090945 -0.141948 0.773195 0 0 128 0.001374
-0.095632 -0.142113 0.788768 0 0 153 0.005402
-0.096502 -0.142252 0.792311 0 0 179 0.010799
-0.099636 -0.141310 0.790396 0 0 179 0.008126
-0.097285 -0.142268 0.795908 0 0 255 0.020369
-0.100455 -0.141245 0.793912 0 0 204 0.013837
-0.103450 -0.140156 0.791979 0 0 204 0.013924
-0.106363 -0.138803 0.789835 0 0 179 0.009352
-0.102634 -0.140160 0.788273 0 0 153 0.007404
-0.105610 -0.138933 0.786190 0 0 153 0.006884
-0.101808 -0.140114 0.784662 0 0 153 0.005122
-0.098782 -0.141089 0.786715 0 0 128 0.002641
-0.104812 -0.139053 0.782631 0 0 153 0.006384
-0.118284 -0.131936 0.782281 0 0 128 0.000575
-0.114876 -0.134139 0.784680 0 0 128 0.001289
-0.114444 -0.134256 0.780890 0 0 128 0.001045
-0.118076 -0.132060 0.778477 0 0 128 0.000852
-0.111187 -0.136219 0.782939 0 0 153 0.005604
-0.114041 -0.134448 0.777227 0 0 128 0.001616
-0.110641 -0.136315 0.779285 0 0 128 0.002952
-0.110067 -0.136495 0.775728 0 0 153 0.003991
-0.117840 -0.132348 0.774833 0 0 128 0.001482
-0.113673 -0.134695 0.773633 0 0 128 0.003634
-0.117573 -0.132702 0.771355 0 0 153 0.006390
-0.107594 -0.137915 0.781070 0 0 153 0.006839
-0.106864 -0.138021 0.777492 0 0 153 0.004721
-0.108311 -0.137696 0.784664 0 0 153 0.005131
-0.109012 -0.137477 0.788310 0 0 153 0.005990
-0.111789 -0.135908 0.786637 0 0 128 0.003453
-0.117368 -0.132747 0.767507 0 0 204 0.011964
-0.112972 -0.135205 0.770706 0 0 204 0.013868
-0.112505 -0.135076 0.766958 0 0 204 0.013128
-0.116874 -0.132662 0.763820 0 0 229 0.017344
-0.108517 -0.137253 0.769747 0 0 204 0.014763
-0.111761 -0.134788 0.763211 0 0 179 0.009131
-0.107822 -0.136884 0.766067 0 0 153 0.005894
-0.107011 -0.136342 0.762301 0 0 128 0.000602
-0.116216 -0.132406 0.759995 0 0 255 0.021988
-0.110853 -0.134329 0.759382 0 0 153 0.006745
-0.115137 -0.131990 0.756190 0 0 229 0.018404
-0.104343 -0.138757 0.768600 0 0 204 0.012381
-0.103569 -0.138156 0.764975 0 0 128 0.002498
-0.105191 -0.138620 0.771462 0 0 204 0.011897
-0.106018 -0.138340 0.774427 0 0 153 0.007335
-0.109319 -0.136931 0.772674 0 0 179 0.008381
-0.097214 -0.137346 0.744033 0 0 179 0.008917
-0.095223 -0.138770 0.746094 0 0 153 0.004486
-0.094600 -0.139617 0.749960 0 0 128 0.002026
-0.092659 -0.141016 0.751931 0 0 128 0.002995
-0.092128 -0.141812 0.755647 0 0 179 0.009896
-0.089302 -0.143073 0.752045 0 0 204 0.015238
-0.095461 -0.140011 0.755437 0 0 153 0.003977
-0.094934 -0.140812 0.758937 0 0 179 0.008383
-0.097098 -0.139375 0.756791 0 0 128 0.003288
-0.097655 -0.138429 0.753174 0 0 128 0.003394
-0.099331 -0.137907 0.754592 0 0 128 0.002340
-0.099913 -0.136900 0.750848 0 0 153 0.004077
-0.098237 -0.137526 0.749415 0 0 153 0.004106
-0.100503 -0.135935 0.746995 0 0 153 0.007376
-0.101568 -0.136346 0.752179 0 0 153 0.004586
-0.102244 -0.135359 0.748339 0 0 179 0.008497
-0.103958 -0.134892 0.749635 0 0 179 0.009347
-0.098862 -0.136552 0.745550 0 0 153 0.006586
-0.086622 -0.144094 0.753786 0 0 179 0.009261
-0.085182 -0.144413 0.757524 0 0 153 0.006726
-0.082591 -0.145159 0.759114 0 0 153 0.007267
-0.084884 -0.144115 0.762868 0 0 153 0.005298
-0.087770 -0.143253 0.761133 0 0 153 0.004042
-0.090614 -0.142285 0.759306 0 0 153 0.006061
-0.089550 -0.142297 0.771092 0 0 128 0.002100
-0.092705 -0.141544 0.769280 0 0 128 0.001177
-0.091348 -0.141916 0.767243 0 0 128 0.001532
-0.095850 -0.140846 0.767350 0 0 128 0.002718
