ply
format ascii 1.0
comment Seamless Cloth Simulation with High Geometric Fidelity 
comment Thu Mar  7 14:57:50 2019
element vertex 1229
property float x
property float y
property float z
property float quality
end_header
0.0894189 -0.386841 5.59998 0.00658686 
0.0731147 -0.385888 5.59152 0.00639184 
0.0544131 -0.385111 5.58218 0.00666409 
0.0644436 -0.360791 5.58711 0.00766376 
0.0460109 -0.359615 5.57852 0.0070388 
0.0557144 -0.334432 5.58288 0.0112962 
0.0736839 -0.335442 5.59206 0.0114374 
0.0377745 -0.333895 5.57372 0.0107879 
-0.00602155 -0.383081 5.54846 0.00797376 
0.0105162 -0.382446 5.55824 0.00760435 
-0.000214843 -0.358826 5.55462 0.0073205 
-0.0167976 -0.359974 5.54598 0.00782363 
0.0165172 -0.358453 5.56347 0.00693398 
-0.0103611 -0.334958 5.55087 0.00810905 
0.00607557 -0.334258 5.55864 0.00877417 
-0.00374992 -0.309909 5.55266 0.0159181 
-0.0266983 -0.336324 5.54244 0.00821548 
-0.0198927 -0.311294 5.54477 0.0150875 
-0.0363115 -0.31327 5.53649 0.0123995 
0.0227754 -0.333681 5.56641 0.0097556 
0.0120789 -0.309015 5.56108 0.0176816 
0.031216 -0.359138 5.57129 0.00666505 
0.0395685 -0.384034 5.57413 0.00704444 
0.0250246 -0.383382 5.56617 0.00736648 
-0.050403 -0.290275 5.53497 0.0185846 
-0.0278678 -0.289174 5.5454 0.0219825 
-0.0428796 -0.26578 5.54447 0.0303964 
-0.0643584 -0.267246 5.53287 0.0259817 
-0.0209917 -0.264701 5.55573 0.032168 
-0.0570791 -0.242451 5.54278 0.0401363 
-0.0357366 -0.240606 5.55447 0.0428311 
-0.0502211 -0.217298 5.55299 0.0624791 
-0.0780445 -0.244579 5.52998 0.0413472 
-0.0709063 -0.219771 5.5403 0.0632882 
-0.091109 -0.222259 5.52682 0.0663034 
-0.0141572 -0.238411 5.56578 0.0470647 
-0.0293458 -0.214663 5.56478 0.0648331 
-0.00540968 -0.262471 5.56473 0.0326675 
0.00321511 -0.286077 5.56301 0.0222506 
-0.0125167 -0.287196 5.55472 0.021672 
-0.0870101 -0.275304 5.51684 0.0231575 
-0.0743278 -0.297996 5.52085 0.0137538 
-0.0606047 -0.320378 5.5219 0.010222 
-0.0843887 -0.328154 5.50566 0.00893557 
-0.098439 -0.31259 5.50211 0.0123181 
-0.0994251 -0.285622 5.50779 0.0200962 
-0.111753 -0.296088 5.49757 0.0155685 
-0.112096 -0.269754 5.50176 0.0287133 
-0.100416 -0.259246 5.5119 0.0332064 
-0.113136 -0.243614 5.50599 0.0488275 
-0.12452 -0.280167 5.49171 0.0245868 
-0.124655 -0.253879 5.49525 0.0447838 
-0.136406 -0.264187 5.48472 0.0395212 
-0.10194 -0.233072 5.51675 0.0559567 
-0.0391427 -0.363694 5.53162 0.00830398 
-0.0284165 -0.386373 5.53367 0.00847943 
-0.0514212 -0.391818 5.51719 0.00852659 
-0.0632211 -0.371131 5.51394 0.00804183 
-0.0623613 -0.346198 5.51923 0.00796987 
-0.0858296 -0.404129 5.48845 0.00648057 
-0.0893397 -0.38192 5.4929 0.00684421 
-0.100861 -0.363659 5.48773 0.00623595 
-0.103013 -0.338544 5.48986 0.00796686 
-0.120868 -0.349409 5.47293 0.00762187 
-0.0826911 -0.353119 5.50375 0.00724845 
-0.0687152 -0.396884 5.50373 0.00774651 
-0.135266 -0.335522 5.46911 0.00875819 
-0.139892 -0.313966 5.47296 0.0128918 
-0.153908 -0.300361 5.46688 0.0192609 
-0.15675 -0.278609 5.46825 0.032561 
-0.176833 -0.293118 5.44906 0.0335048 
-0.11695 -0.322846 5.48634 0.0105183 
0.0419629 -0.177185 5.62255 0.0879937 
0.022363 -0.181846 5.60997 0.0864082 
0.0144524 -0.158635 5.62276 0.0938962 
0.0033098 -0.18582 5.59816 0.0848657 
-0.00435882 -0.163463 5.60997 0.0910539 
-0.0224278 -0.167744 5.59815 0.0860274 
-0.0147941 -0.189107 5.58657 0.0781813 
-0.0125378 -0.142182 5.62369 0.0953137 
-0.030696 -0.147044 5.61079 0.0930615 
-0.0390808 -0.126646 5.62515 0.0999814 
-0.0204668 -0.122645 5.63691 0.105216 
0.0066985 -0.137661 5.63501 0.0999436 
-0.00165694 -0.118264 5.64875 0.104665 
0.0264464 -0.132927 5.64668 0.108037 
0.0344224 -0.153908 5.6337 0.102463 
0.0177794 -0.113485 5.66046 0.117815 
-0.0347065 -0.191214 5.57944 0.0692193 
-0.0552485 -0.194761 5.56665 0.0661505 
-0.0614334 -0.172466 5.5822 0.0677725 
-0.0755668 -0.197783 5.55346 0.0686218 
-0.0813657 -0.176295 5.56824 0.0704612 
-0.100766 -0.178999 5.5541 0.0738622 
-0.0954003 -0.200247 5.53954 0.0748016 
-0.0879928 -0.15469 5.58544 0.0691213 
-0.107431 -0.158315 5.57027 0.0759864 
-0.114269 -0.137375 5.58864 0.073461 
-0.0961886 -0.135443 5.59786 0.0784384 
-0.0692661 -0.152517 5.59392 0.0752584 
-0.0777804 -0.132986 5.60681 0.0831918 
-0.0502865 -0.149909 5.60212 0.0838935 
-0.0420934 -0.170352 5.58987 0.0768383 
-0.0587576 -0.130022 5.6158 0.0898149 
-0.150705 -0.082595 5.67814 0.0255477 
-0.133114 -0.0815128 5.68709 0.026102 
-0.123232 -0.092077 5.66395 0.0408782 
-0.105143 -0.0902946 5.67262 0.0434938 
-0.115229 -0.0799991 5.69585 0.0278995 
-0.0955422 -0.102434 5.65028 0.0587019 
-0.0865371 -0.0882812 5.68123 0.0460324 
-0.0765203 -0.0996568 5.6585 0.0647272 
-0.0571729 -0.0966531 5.66676 0.0716782 
-0.0972633 -0.0786151 5.7047 0.0287517 
-0.0680096 -0.085699 5.68974 0.0521131 
-0.0790333 -0.0770181 5.71361 0.0311622 
-0.0670283 -0.113698 5.63728 0.0792669 
-0.0476868 -0.110483 5.64508 0.0878191 
-0.0862354 -0.116587 5.62742 0.0724236 
-0.104785 -0.119252 5.61763 0.0670174 
-0.113846 -0.104853 5.63998 0.0546595 
-0.132024 -0.106498 5.62936 0.0515174 
-0.122894 -0.121343 5.60769 0.0646538 
-0.141155 -0.093813 5.65323 0.0403699 
-0.061857 -0.0759663 5.72379 0.0293066 
-0.0509565 -0.0840033 5.70282 0.0464176 
-0.0325151 -0.082047 5.71279 0.0474966 
-0.0438694 -0.0747261 5.73428 0.0288965 
-0.0215805 -0.0912159 5.69219 0.0657214 
-0.013328 -0.0799831 5.72307 0.0486866 
-0.00224231 -0.0882858 5.70214 0.070741 
-0.0249183 -0.0732083 5.74523 0.0282247 
0.00808195 -0.0992268 5.68225 0.0947583 
-0.0111281 -0.103261 5.66969 0.089963 
-0.029616 -0.107054 5.65755 0.0872886 
-0.0397818 -0.0940636 5.67957 0.0684999 
-0.161391 -0.0756616 5.70139 0.01233 
-0.144001 -0.0750818 5.71012 0.0117623 
-0.154953 -0.0685101 5.73313 0.00512808 
-0.172387 -0.0690197 5.72438 0.00552702 
-0.137602 -0.0680609 5.74176 0.00545105 
-0.165703 -0.0616614 5.75538 0.0021282 
-0.148021 -0.0610887 5.76432 0.00218066 
-0.158585 -0.0522421 5.78658 0.0010705 
-0.183125 -0.0617776 5.74677 0.00242438 
-0.176112 -0.0528306 5.77737 0.00105273 
-0.19405 -0.0530423 5.76841 0.00117916 
-0.130536 -0.0602969 5.77326 0.00225005 
-0.140937 -0.0514728 5.79564 0.00107562 
-0.123322 -0.0505905 5.80495 0.00116651 
-0.112835 -0.0596151 5.78274 0.00241481 
-0.119933 -0.067383 5.75077 0.00498579 
-0.101955 -0.0667011 5.75984 0.00594235 
-0.108663 -0.0731573 5.7276 0.0135369 
-0.126461 -0.0740653 5.71884 0.0117843 
-0.0906998 -0.0721406 5.73656 0.0139376 
-0.205459 -0.0455934 5.78954 0.000638812 
-0.187541 -0.0449635 5.79922 0.000588307 
-0.199178 -0.03692 5.82105 0.000442271 
-0.217081 -0.0377328 5.81122 0.000459943 
-0.181639 -0.0358854 5.83061 0.000497829 
-0.210942 -0.0284435 5.84294 0.000413861 
-0.193146 -0.0272203 5.85259 0.000440965 
-0.229176 -0.029326 5.83319 0.000444432 
-0.175265 -0.0256065 5.86212 0.000568993 
-0.15706 -0.024126 5.87118 0.000784388 
-0.163582 -0.0348628 5.83961 0.000585686 
-0.145702 -0.0335874 5.8488 0.00070519 
-0.152135 -0.0435673 5.81749 0.00073144 
-0.169914 -0.0443508 5.8083 0.000645848 
-0.134376 -0.0425505 5.82675 0.000853026 
-0.102941 -0.0207396 5.90177 0.00124079 
-0.0918631 -0.0314153 5.88015 0.00121676 
-0.110173 -0.0324172 5.86922 0.000993892 
-0.0808897 -0.0413997 5.85864 0.00205898 
-0.0993382 -0.0419203 5.84772 0.00151972 
-0.0884094 -0.0501683 5.8258 0.0018358 
-0.069802 -0.0496108 5.83694 0.00245138 
-0.11698 -0.0423706 5.83687 0.00111885 
-0.106177 -0.0506451 5.81516 0.00142898 
-0.128345 -0.0329953 5.85888 0.000813678 
-0.139476 -0.0232495 5.88115 0.000847856 
-0.121555 -0.0219913 5.89144 0.00101293 
-0.0586392 -0.0581542 5.81415 0.00354636 
-0.0478909 -0.0646781 5.79182 0.00551117 
-0.0663 -0.0655444 5.77993 0.00565121 
-0.0368588 -0.0693445 5.7688 0.0112812 
-0.0553942 -0.0705465 5.75739 0.0112905 
-0.0731726 -0.0713224 5.74609 0.0133328 
-0.0844361 -0.0663545 5.76968 0.00521272 
-0.0953664 -0.0594234 5.79289 0.00273286 
-0.0774754 -0.058944 5.80319 0.0030127 
-0.161147 -0.0938397 5.64765 0.0343833 
-0.151807 -0.107232 5.62404 0.0447746 
-0.171637 -0.106957 5.61796 0.0432405 
-0.142882 -0.12173 5.60249 0.0538085 
-0.16259 -0.12138 5.59634 0.051103 
-0.154373 -0.136687 5.57641 0.0615316 
-0.134315 -0.137308 5.58298 0.0640148 
-0.183246 -0.120775 5.58903 0.0495713 
-0.175112 -0.135811 5.56889 0.0602221 
-0.196985 -0.134432 5.56059 0.0569939 
-0.203818 -0.121191 5.58054 0.0478885 
-0.190551 -0.107887 5.61061 0.0402899 
-0.211218 -0.108322 5.60206 0.0395474 
-0.198346 -0.0961857 5.6334 0.0306525 
-0.17942 -0.0951986 5.64081 0.031311 
-0.187461 -0.0852105 5.66486 0.0202144 
-0.218518 -0.0964712 5.62503 0.0300116 
-0.206335 -0.0858089 5.65776 0.0184379 
-0.226215 -0.0859962 5.64968 0.0187103 
-0.169009 -0.0839925 5.67154 0.0219008 
-0.131362 -0.151376 5.56605 0.0703015 
-0.125057 -0.17172 5.54945 0.0680539 
-0.149493 -0.164211 5.54411 0.0722983 
-0.119648 -0.192947 5.5345 0.0663322 
-0.143646 -0.184623 5.52882 0.072086 
-0.138782 -0.20595 5.51486 0.0647084 
-0.114922 -0.214321 5.52179 0.0612368 
-0.168659 -0.176439 5.52132 0.0765037 
-0.163489 -0.196845 5.50727 0.0724354 
-0.189321 -0.187656 5.49802 0.0833417 
-0.190579 -0.174225 5.51168 0.0782566 
-0.170241 -0.162909 5.53555 0.0713465 
-0.192364 -0.160835 5.52676 0.074444 
-0.172537 -0.149094 5.55172 0.0670261 
-0.151637 -0.150536 5.55934 0.0663199 
-0.194557 -0.147656 5.54317 0.0663094 
-0.291147 -0.173858 5.47056 0.108435 
-0.291935 -0.162425 5.48545 0.0944478 
-0.265479 -0.163486 5.49324 0.0870663 
-0.266459 -0.152941 5.50829 0.0751142 
-0.293334 -0.15181 5.5008 0.0826909 
-0.240991 -0.15449 5.51592 0.0715893 
-0.26735 -0.142497 5.52455 0.0660485 
-0.24225 -0.143546 5.53152 0.0636533 
-0.243309 -0.132865 5.54813 0.0554023 
-0.294164 -0.141616 5.51723 0.0698791 
-0.268601 -0.131682 5.54146 0.0558273 
-0.29587 -0.130857 5.53455 0.060493 
-0.218197 -0.14475 5.53821 0.0633451 
-0.219579 -0.133628 5.55456 0.0577932 
-0.216249 -0.157485 5.52176 0.0717532 
-0.214174 -0.17056 5.50599 0.0806911 
-0.239472 -0.166824 5.49978 0.0803389 
-0.238005 -0.179743 5.48391 0.0943963 
-0.21283 -0.183492 5.49113 0.086588 
-0.264002 -0.176542 5.47728 0.0991793 
-0.301896 -0.120049 5.55384 0.0494345 
-0.276505 -0.1186 5.56212 0.0463385 
-0.283082 -0.108089 5.58223 0.0356814 
-0.308345 -0.109764 5.57419 0.0392586 
-0.259017 -0.106832 5.5904 0.0355155 
-0.289266 -0.0982315 5.6036 0.0272042 
-0.264801 -0.0970998 5.61196 0.0263702 
-0.270172 -0.0881734 5.63405 0.0180855 
-0.314935 -0.0994868 5.59531 0.0306695 
-0.294707 -0.0890806 5.62564 0.0199741 
-0.320782 -0.0901508 5.61689 0.0241113 
-0.241859 -0.0958814 5.61966 0.0271274 
-0.247308 -0.0873777 5.64236 0.0178748 
-0.234328 -0.10759 5.5965 0.0365515 
-0.226783 -0.120474 5.57467 0.0475176 
-0.251088 -0.11959 5.56832 0.0449963 
-0.246839 -0.0307486 5.82556 0.00046454 
-0.234697 -0.0391579 5.80342 0.00046764 
-0.252769 -0.0401242 5.79542 0.000546976 
-0.222935 -0.0469957 5.78177 0.000573673 
-0.240854 -0.0479301 5.77414 0.000601714 
-0.229216 -0.0551145 5.75343 0.00123964 
-0.211475 -0.0543461 5.76097 0.00105217 
-0.259077 -0.0483893 5.76636 0.000802105 
-0.247274 -0.0555509 5.74572 0.00155245 
-0.266328 -0.0557433 5.73737 0.00213234 
-0.277662 -0.0489302 5.75744 0.00132036 
-0.270692 -0.0411178 5.78683 0.000647542 
-0.289218 -0.0417312 5.77785 0.00103142 
-0.282562 -0.0332668 5.80806 0.000647536 
-0.264332 -0.0321999 5.81694 0.000553715 
-0.301388 -0.0340155 5.79885 0.00104068 
-0.20159 -0.0622108 5.74013 0.00221367 
-0.190739 -0.0697848 5.71765 0.00526896 
-0.209142 -0.0702354 5.71074 0.00503894 
-0.179938 -0.0768581 5.69469 0.0111441 
-0.198216 -0.0777825 5.68805 0.0102185 
-0.217061 -0.0779504 5.68067 0.00997797 
-0.235853 -0.078652 5.67192 0.0103807 
-0.226929 -0.0709909 5.70282 0.00503885 
-0.245734 -0.0712901 5.69415 0.00550065 
-0.237024 -0.0636408 5.72444 0.00260971 
-0.21916 -0.0631294 5.73242 0.00233035 
-0.255799 -0.0638596 5.71601 0.00312719 
-0.329046 -0.0827635 5.63753 0.0176384 
-0.304606 -0.0809365 5.64738 0.0138209 
-0.312844 -0.0738691 5.66877 0.00952959 
-0.337051 -0.0753769 5.6587 0.013368 
-0.289633 -0.0726749 5.67837 0.00712488 
-0.321425 -0.0666497 5.6902 0.00674698 
-0.298395 -0.0655247 5.69984 0.00474936 
-0.306969 -0.058166 5.7206 0.00355064 
-0.345279 -0.0680241 5.68015 0.0101023 
-0.329683 -0.0592893 5.71148 0.00528747 
-0.353402 -0.060426 5.70166 0.00845964 
-0.276885 -0.0642455 5.70895 0.00369085 
-0.285608 -0.0569977 5.72968 0.00244384 
-0.266755 -0.0720837 5.68669 0.00585739 
-0.257071 -0.0796715 5.66447 0.0102922 
-0.280058 -0.0801798 5.65589 0.0117217 
-0.363242 -0.0538799 5.7219 0.00686473 
-0.340838 -0.0522988 5.73209 0.0043673 
-0.350801 -0.0456587 5.75205 0.00378208 
-0.373227 -0.0472214 5.74168 0.00591106 
-0.329483 -0.0440322 5.76194 0.00242848 
-0.361044 -0.0385523 5.77198 0.0035715 
-0.340139 -0.0369358 5.78181 0.00235871 
-0.382863 -0.0402135 5.76147 0.00551245 
-0.320574 -0.0352735 5.79127 0.0015264 
-0.308865 -0.0429342 5.77035 0.00153935 
-0.297152 -0.050115 5.74991 0.0018191 
-0.318311 -0.0512482 5.74128 0.00268409 
-0.344409 -0.0932183 5.60985 0.0247505 
-0.35245 -0.0862409 5.62889 0.0194329 
-0.37567 -0.0895295 5.62247 0.0211872 
-0.367997 -0.0965136 5.60339 0.027239 
-0.383558 -0.0825014 5.6411 0.0181577 
-0.399075 -0.0933823 5.6152 0.0249271 
-0.40602 -0.0862533 5.63469 0.0206578 
-0.428851 -0.0903736 5.62733 0.0253649 
-0.390961 -0.10071 5.59702 0.0293115 
-0.421607 -0.0977138 5.60897 0.0285324 
-0.414007 -0.105078 5.59056 0.0343042 
-0.413558 -0.0788988 5.65354 0.0178916 
-0.436387 -0.0830343 5.64666 0.0213679 
-0.443859 -0.0755443 5.66603 0.0189378 
-0.421222 -0.0708898 5.67462 0.0162565 
-0.391343 -0.0748273 5.66189 0.0156229 
-0.398902 -0.0669783 5.6831 0.0134519 
-0.368272 -0.0711421 5.67096 0.0126023 
-0.360572 -0.0787392 5.64936 0.015476 
-0.375711 -0.063361 5.69266 0.0105754 
-0.435852 -0.111722 5.58578 0.0330272 
-0.442793 -0.104745 5.60277 0.0281342 
-0.464254 -0.111714 5.59818 0.0289585 
-0.457257 -0.118953 5.58146 0.0325832 
-0.471379 -0.104559 5.61541 0.026067 
-0.485626 -0.119206 5.59448 0.0277477 
-0.492477 -0.111758 5.61125 0.0255083 
-0.51391 -0.119474 5.60776 0.0247874 
-0.478261 -0.126621 5.57772 0.0306435 
-0.506059 -0.126911 5.59129 0.0259965 
-0.49873 -0.134558 5.5749 0.0280353 
-0.500244 -0.104382 5.62872 0.0226067 
-0.521147 -0.111787 5.62477 0.0224449 
-0.528568 -0.104157 5.64235 0.0209129 
-0.508116 -0.0962348 5.64764 0.020707 
-0.479135 -0.0968632 5.63389 0.0231012 
-0.48709 -0.0890887 5.6529 0.0206506 
-0.458036 -0.0898122 5.63966 0.0221854 
-0.450286 -0.0972986 5.62104 0.0254266 
-0.465695 -0.0822405 5.65882 0.0196728 
-0.535839 -0.0773049 5.70102 0.0143133 
-0.514818 -0.0696498 5.7082 0.0142088 
-0.505239 -0.0764351 5.68933 0.0158503 
-0.493479 -0.0626413 5.71562 0.0135235 
-0.484094 -0.0691667 5.69725 0.0149523 
-0.46292 -0.0626506 5.70465 0.0140035 
-0.471544 -0.0559895 5.72369 0.0125565 
-0.475114 -0.0758666 5.67745 0.0178581 
-0.453289 -0.069084 5.6857 0.015916 
-0.496137 -0.0825995 5.67127 0.0186407 
-0.517627 -0.0899327 5.66563 0.0179376 
-0.526782 -0.0835302 5.68341 0.0163066 
-0.54732 -0.0910535 5.67812 0.015631 
-0.538025 -0.097428 5.66041 0.0174926 
-0.555697 -0.084312 5.69565 0.0143706 
-0.448986 -0.0516037 5.73216 0.0106623 
-0.426414 -0.047456 5.74163 0.00853987 
-0.41714 -0.054293 5.7223 0.00938979 
-0.404574 -0.0435412 5.75182 0.00684532 
-0.394909 -0.0505668 5.73215 0.00734987 
-0.385085 -0.0571597 5.7124 0.00850144 
-0.407975 -0.0606377 5.70312 0.0108416 
-0.430648 -0.0646197 5.69427 0.0133682 
-0.439756 -0.0582253 5.71337 0.0117432 
-0.00253664 -0.670507 5.06021 0.343814 
0.0205049 -0.672349 5.05452 0.404168 
0.0346814 -0.682628 5.04295 0.407817 
0.0573469 -0.684988 5.03819 0.451275 
0.0414987 -0.703318 5.02485 0.437454 
0.0176481 -0.70029 5.02993 0.379501 
0.00312881 -0.689396 5.04139 0.353582 
-0.0211685 -0.687647 5.04579 0.322132 
-0.0360608 -0.678677 5.05729 0.2999 
-0.0543304 -0.694297 5.04522 0.261076 
0.0886455 -0.679354 5.0383 0.500965 
0.111741 -0.682786 5.03071 0.551635 
0.0963821 -0.701902 5.01656 0.537736 
0.0728096 -0.69778 5.0239 0.483469 
0.0862976 -0.758615 4.98325 0.54494 
0.0680377 -0.743864 4.99619 0.497435 
0.0436592 -0.740326 5.00392 0.415555 
0.0268462 -0.725077 5.01608 0.377564 
0.0123563 -0.74654 5.007 0.347541 
0.058492 -0.717671 5.01341 0.46909 
0.0822875 -0.721771 5.00513 0.530065 
-0.0124157 -0.742665 5.01434 0.282337 
-0.0290072 -0.729286 5.02423 0.269539 
-0.0540806 -0.726384 5.02941 0.226973 
-0.0708013 -0.713784 5.03807 0.218291 
-0.0871918 -0.733168 5.03066 0.191528 
-0.0376495 -0.706818 5.03606 0.27426 
-0.0134475 -0.709109 5.0312 0.317034 
0.00289673 -0.722002 5.02181 0.340794 
0.0870994 -0.804697 4.9663 0.513029 
0.0777178 -0.825866 4.96559 0.501174 
0.0685284 -0.846604 4.96433 0.440836 
0.0501989 -0.9263 4.97594 0.437113 
0.0194026 -0.924749 4.9841 0.394519 
-0.00724094 -0.913053 4.99037 0.329961 
-0.0356499 -0.911435 4.99743 0.275139 
-0.0615136 -0.898993 5.00271 0.20591 
-0.0663887 -0.919802 5.00596 0.23226 
-0.0308107 -0.890895 4.99456 0.262965 
-0.0567252 -0.878256 4.99999 0.204291 
-0.0029434 -0.893527 4.98686 0.313222 
0.025162 -0.89619 4.97915 0.377776 
0.0528593 -0.907693 4.9723 0.442778 
0.0559154 -0.888802 4.96825 0.434774 
-0.0945273 -0.917105 5.01161 0.188243 
-0.119405 -0.902645 5.01666 0.143004 
-0.147712 -0.899044 5.02262 0.12057 
-0.172821 -0.882928 5.02775 0.100307 
-0.181311 -0.9058 5.0291 0.119152 
-0.141027 -0.876411 5.02103 0.103625 
-0.165681 -0.860704 5.02581 0.0873358 
-0.113504 -0.8807 5.0145 0.126291 
-0.0865258 -0.885007 5.00788 0.159346 
-0.144264 -0.814971 5.0242 0.0906046 
-0.118262 -0.820213 5.01767 0.103035 
-0.096792 -0.836275 5.01182 0.123269 
-0.070426 -0.841062 5.00468 0.155225 
-0.0480523 -0.856101 4.99863 0.198512 
-0.0392115 -0.833214 4.99665 0.213709 
-0.0788287 -0.863291 5.00616 0.154316 
-0.106161 -0.858748 5.01287 0.116793 
-0.133017 -0.854199 5.01947 0.0985503 
-0.154805 -0.837771 5.02566 0.0852768 
-0.0124529 -0.836957 4.98881 0.264235 
0.0112166 -0.851194 4.98174 0.321183 
0.0381828 -0.854548 4.97363 0.389299 
0.0624923 -0.868133 4.96638 0.46331 
0.0314475 -0.875737 4.97608 0.386322 
0.00316222 -0.87301 4.98384 0.320836 
-0.0248626 -0.870221 4.99161 0.25539 
-0.112728 -0.729467 5.03478 0.176758 
-0.129068 -0.716862 5.04163 0.19063 
-0.155728 -0.713394 5.04559 0.191092 
-0.172428 -0.701082 5.0542 0.206494 
-0.190195 -0.717229 5.04906 0.182297 
-0.13698 -0.695669 5.05274 0.211318 
-0.154468 -0.684099 5.0618 0.223392 
-0.111773 -0.699005 5.04864 0.216599 
-0.0867089 -0.70146 5.0452 0.224185 
-0.210639 -0.713006 5.05276 0.181631 
-0.221059 -0.701942 5.05929 0.18679 
-0.241374 -0.699798 5.06305 0.176829 
-0.222613 -0.684877 5.07293 0.187035 
-0.20307 -0.686137 5.06734 0.210643 
-0.183462 -0.689442 5.06293 0.21619 
-0.174394 -0.666434 5.08471 0.222639 
-0.154916 -0.668267 5.07881 0.221239 
-0.135067 -0.670147 5.07377 0.227356 
-0.204559 -0.67211 5.08537 0.194039 
-0.0995065 -0.66395 5.07574 0.246572 
-0.0754204 -0.66664 5.07062 0.275416 
-0.0598949 -0.676894 5.0608 0.273729 
-0.0935591 -0.681431 5.0583 0.240336 
-0.119134 -0.679113 5.06263 0.234793 
-0.170425 -0.809478 5.02946 0.093251 
-0.190075 -0.792805 5.03603 0.0915306 
-0.216783 -0.786488 5.03952 0.103308 
-0.235242 -0.771664 5.04296 0.11259 
-0.249505 -0.790688 5.04087 0.0958204 
-0.202337 -0.766958 5.03994 0.122802 
-0.221209 -0.752191 5.04279 0.137271 
-0.176054 -0.773652 5.03563 0.11787 
-0.150576 -0.779279 5.03 0.112546 
-0.131314 -0.794318 5.02502 0.0997125 
-0.118064 -0.772982 5.0249 0.122958 
-0.270031 -0.785799 5.04131 0.112577 
-0.282559 -0.771995 5.04352 0.116954 
-0.303117 -0.767386 5.04455 0.123845 
-0.317238 -0.753716 5.04749 0.125236 
-0.33196 -0.772146 5.04439 0.117411 
-0.28899 -0.749653 5.04763 0.132625 
-0.302928 -0.736271 5.05017 0.150492 
-0.26888 -0.753665 5.0461 0.132171 
-0.248971 -0.757764 5.0452 0.125196 
-0.258195 -0.715111 5.05645 0.165043 
-0.238525 -0.718684 5.05365 0.170313 
-0.225787 -0.730459 5.04884 0.159056 
-0.205384 -0.735006 5.0461 0.160414 
-0.253947 -0.735661 5.049 0.149165 
-0.274145 -0.73197 5.05082 0.153584 
-0.286582 -0.720391 5.05624 0.153725 
-0.171974 -0.731055 5.04226 0.165382 
-0.146223 -0.73599 5.03774 0.161446 
-0.128046 -0.749723 5.0323 0.141258 
-0.102801 -0.75359 5.02833 0.150798 
-0.161343 -0.754531 5.03554 0.140571 
-0.187429 -0.748828 5.04064 0.148258 
-0.069676 -0.746741 5.02467 0.188479 
-0.0444043 -0.750219 5.01855 0.22225 
-0.0265265 -0.764669 5.0104 0.240282 
-0.00114089 -0.767351 5.00342 0.288318 
-0.0149092 -0.788969 4.99884 0.260011 
-0.0410375 -0.785684 5.006 0.215282 
-0.05934 -0.771127 5.01459 0.187016 
-0.0848972 -0.767517 5.02089 0.155618 
0.0305554 -0.76118 4.99793 0.389059 
0.0553084 -0.765 4.98981 0.444144 
0.0742048 -0.779539 4.97957 0.488748 
0.0617214 -0.800892 4.97442 0.467084 
0.0429614 -0.785938 4.9849 0.407678 
0.0171049 -0.781974 4.9934 0.323374 
0.0470148 -0.833007 4.97313 0.397974 
0.0204515 -0.829434 4.98103 0.349938 
-0.000481773 -0.815629 4.99013 0.292521 
-0.0269478 -0.811685 4.99774 0.23352 
0.0314149 -0.807931 4.98255 0.354242 
-0.0594005 -0.818355 5.00456 0.161755 
-0.0861811 -0.814285 5.01152 0.127255 
-0.105409 -0.799121 5.01856 0.110958 
-0.0732912 -0.792438 5.01255 0.153894 
-0.528083 -0.694041 5.08902 0.121753 
-0.551783 -0.699841 5.09322 0.116815 
-0.553302 -0.716062 5.08721 0.121823 
-0.575209 -0.705798 5.09674 0.119949 
-0.577137 -0.722348 5.09103 0.129609 
-0.601034 -0.728745 5.09386 0.145996 
-0.578717 -0.739219 5.08548 0.138136 
-0.598857 -0.711387 5.09946 0.133104 
-0.622088 -0.717701 5.10217 0.157311 
-0.59471 -0.693157 5.10519 0.124574 
-0.570455 -0.688054 5.10233 0.117081 
-0.547372 -0.682348 5.09865 0.115373 
-0.565829 -0.670909 5.10895 0.110161 
-0.600133 -0.749196 5.09176 0.13749 
-0.595784 -0.768267 5.08899 0.134147 
-0.620602 -0.759234 5.09781 0.138829 
-0.616708 -0.778209 5.09531 0.136333 
-0.636939 -0.788665 5.1016 0.154137 
-0.612485 -0.797633 5.09335 0.135636 
-0.641023 -0.769446 5.10384 0.153666 
-0.660573 -0.780049 5.10968 0.178891 
-0.642713 -0.748546 5.10492 0.158087 
-0.621994 -0.738592 5.09965 0.151149 
-0.70443 -0.76024 5.12828 0.225393 
-0.695401 -0.743396 5.12664 0.20674 
-0.675294 -0.732799 5.12051 0.183091 
-0.664876 -0.716348 5.11915 0.170472 
-0.642378 -0.70609 5.11303 0.156857 
-0.662606 -0.693877 5.12325 0.170092 
-0.64412 -0.728138 5.10878 0.16005 
-0.663335 -0.759297 5.11225 0.171968 
-0.683294 -0.770525 5.1193 0.194592 
-0.647015 -0.681086 5.12573 0.147585 
-0.623007 -0.67503 5.12222 0.129361 
-0.607754 -0.663383 5.12489 0.111747 
-0.583892 -0.65797 5.12125 0.103532 
-0.601006 -0.644816 5.13287 0.102257 
-0.590311 -0.676031 5.11302 0.11459 
-0.618601 -0.699502 5.10927 0.140966 
-0.583627 -0.636233 5.13833 0.080662 
-0.559233 -0.634797 5.13748 0.0660275 
-0.542443 -0.626662 5.14294 0.0564618 
-0.517981 -0.624906 5.14132 0.0547255 
-0.533349 -0.611938 5.15467 0.0460048 
-0.52639 -0.63978 5.12937 0.0664191 
-0.502398 -0.637921 5.12757 0.0684919 
-0.533442 -0.653876 5.11786 0.0820063 
-0.558759 -0.655893 5.11973 0.0896031 
-0.51616 -0.606186 5.16191 0.036824 
-0.491822 -0.607554 5.16236 0.0355027 
-0.475684 -0.602095 5.1698 0.0318728 
-0.462157 -0.615184 5.15556 0.0388488 
-0.470376 -0.626792 5.14139 0.0478553 
-0.494135 -0.626286 5.14208 0.0479559 
-0.431424 -0.638779 5.1302 0.0567882 
-0.43723 -0.649594 5.11719 0.0720636 
-0.4544 -0.638659 5.12964 0.0564856 
-0.461108 -0.64993 5.11649 0.0746735 
-0.485299 -0.649645 5.11602 0.0783163 
-0.468079 -0.660864 5.10453 0.0911426 
-0.478412 -0.638295 5.12876 0.0593495 
-0.447022 -0.62737 5.14256 0.0457006 
-0.492889 -0.663443 5.10668 0.0870008 
-0.49773 -0.676933 5.09638 0.10253 
-0.516489 -0.665794 5.10733 0.0923225 
-0.522478 -0.679792 5.09784 0.104947 
-0.541482 -0.668248 5.1082 0.0965803 
-0.508955 -0.651492 5.11688 0.0802246 
-0.351993 -0.697345 5.07245 0.125421 
-0.346694 -0.712082 5.0622 0.139471 
-0.366709 -0.71482 5.06109 0.135016 
-0.373417 -0.699175 5.07112 0.120501 
-0.396225 -0.70127 5.07004 0.131063 
-0.309453 -0.712602 5.06083 0.14625 
-0.328801 -0.727915 5.05364 0.144412 
-0.352478 -0.754541 5.04893 0.122322 
-0.375713 -0.736673 5.05503 0.127509 
-0.377938 -0.758538 5.04848 0.122394 
-0.350242 -0.732456 5.05461 0.137998 
-0.406629 -0.749345 5.05242 0.123588 
-0.395018 -0.7272 5.05945 0.125762 
-0.418861 -0.731212 5.05948 0.124053 
-0.444318 -0.734575 5.05949 0.129319 
-0.503923 -0.690749 5.08844 0.111918 
-0.473839 -0.674183 5.09549 0.10338 
-0.441684 -0.67673 5.0898 0.111098 
-0.446597 -0.689489 5.08154 0.119206 
-0.469626 -0.692742 5.08308 0.118726 
-0.473926 -0.70596 5.07562 0.127857 
-0.498667 -0.70944 5.07672 0.128276 
-0.444597 -0.660397 5.10588 0.085329 
-0.41506 -0.649158 5.1177 0.0713597 
-0.391606 -0.663855 5.10223 0.0866612 
-0.413071 -0.66488 5.10099 0.0894099 
-0.418545 -0.675434 5.0903 0.108219 
-0.368199 -0.678314 5.08894 0.106614 
-0.388652 -0.679133 5.08736 0.104376 
-0.418083 -0.704426 5.07067 0.118482 
-0.440632 -0.707799 5.07118 0.119296 
-0.46575 -0.72484 5.06607 0.132157 
-0.499258 -0.520929 5.23899 0.0293111 
-0.477781 -0.516695 5.24563 0.0286778 
-0.456216 -0.520799 5.24674 0.0277718 
-0.435495 -0.516514 5.25339 0.0284313 
-0.414313 -0.521459 5.25419 0.0293659 
-0.415558 -0.501258 5.26334 0.0294653 
-0.433537 -0.535231 5.24271 0.0295495 
-0.4126 -0.540045 5.2434 0.0317957 
-0.451863 -0.539845 5.23509 0.032711 
-0.470286 -0.544398 5.22773 0.0305684 
-0.492402 -0.539895 5.22669 0.0315239 
-0.485531 -0.557714 5.21268 0.0286883 
-0.394258 -0.500044 5.27134 0.0279447 
-0.37483 -0.50781 5.27526 0.0309878 
-0.35438 -0.50703 5.28284 0.0330187 
-0.357017 -0.526398 5.2752 0.037876 
-0.376163 -0.528183 5.26739 0.0361845 
-0.394393 -0.529504 5.25811 0.0335931 
-0.373687 -0.555902 5.25186 0.0486958 
-0.39049 -0.556982 5.24258 0.0481903 
-0.407223 -0.557499 5.23231 0.0409619 
-0.356807 -0.545836 5.26621 0.0477552 
-0.421634 -0.569688 5.21753 0.0368522 
-0.437779 -0.574667 5.20958 0.0324044 
-0.459015 -0.570043 5.20765 0.0290773 
-0.476371 -0.574284 5.19975 0.0280717 
-0.445776 -0.557354 5.22277 0.0320754 
-0.427409 -0.553735 5.23088 0.036514 
-0.488421 -0.587871 5.18499 0.026701 
-0.505716 -0.593444 5.17729 0.0288287 
-0.529769 -0.59125 5.17764 0.0397452 
-0.547367 -0.597316 5.17061 0.0476475 
-0.559658 -0.581607 5.18577 0.0478046 
-0.541194 -0.575916 5.19226 0.0390915 
-0.517475 -0.577966 5.19199 0.0357994 
-0.499152 -0.571897 5.19919 0.0345339 
-0.557793 -0.612901 5.15754 0.0558452 
-0.574714 -0.621307 5.15206 0.0656565 
-0.599668 -0.622072 5.15407 0.0780222 
-0.616837 -0.630744 5.14868 0.10134 
-0.631257 -0.616095 5.16398 0.0921447 
-0.612922 -0.607732 5.16976 0.0680862 
-0.58877 -0.606658 5.16733 0.063506 
-0.570898 -0.598071 5.17304 0.051601 
-0.660802 -0.585525 5.19991 0.0899268 
-0.641291 -0.57617 5.20492 0.0690353 
-0.617286 -0.575457 5.20209 0.0531563 
-0.59685 -0.567017 5.20664 0.0442162 
-0.571854 -0.565827 5.20261 0.0452993 
-0.583613 -0.548789 5.21845 0.0436741 
-0.585624 -0.58247 5.19001 0.0512026 
-0.603121 -0.59133 5.18471 0.0614958 
-0.628809 -0.592339 5.18842 0.0638905 
-0.646744 -0.600823 5.18188 0.090136 
-0.562197 -0.541863 5.2234 0.0385097 
-0.537967 -0.543913 5.22211 0.0321566 
-0.516821 -0.537376 5.22756 0.033081 
-0.510333 -0.555252 5.21427 0.0370256 
-0.529143 -0.561412 5.20787 0.0382263 
-0.553319 -0.559066 5.20865 0.0409836 
-0.219601 -0.507285 5.34845 0.0277602 
-0.250382 -0.488135 5.32894 0.0288726 
-0.231258 -0.489718 5.34166 0.0248132 
-0.200659 -0.509627 5.35923 0.0300498 
-0.288609 -0.482891 5.31508 0.0268438 
-0.30577 -0.471196 5.31022 0.02641 
-0.324735 -0.468682 5.30245 0.0288908 
-0.265863 -0.478326 5.32533 0.0274998 
-0.309845 -0.426874 5.32088 0.0406407 
-0.288436 -0.432302 5.32978 0.0332421 
-0.271767 -0.443857 5.33322 0.0317732 
-0.251203 -0.448257 5.34033 0.0320626 
-0.235165 -0.459155 5.34274 0.0335724 
-0.31592 -0.443065 5.31296 0.0357431 
-0.212016 -0.457171 5.36148 0.025326 
-0.200759 -0.474 5.36727 0.0165887 
-0.185043 -0.484019 5.37437 0.0173177 
-0.172773 -0.314441 5.44987 0.0178771 
-0.158728 -0.328431 5.45676 0.0114555 
-0.15289 -0.348762 5.45458 0.00734621 
-0.13782 -0.361749 5.45917 0.00624551 
-0.154337 -0.374527 5.44309 0.00652385 
-0.170929 -0.36465 5.43817 0.0071984 
-0.177337 -0.344451 5.44037 0.00997688 
-0.19331 -0.333217 5.43291 0.0141219 
-0.198783 -0.312377 5.4335 0.0232758 
-0.220139 -0.331675 5.41664 0.0189564 
-0.117254 -0.371753 5.47344 0.00573705 
-0.105367 -0.390049 5.47848 0.00574803 
-0.10037 -0.410251 5.47612 0.00576762 
-0.0869317 -0.426799 5.47818 0.00498693 
-0.100363 -0.432955 5.4636 0.0041002 
-0.114836 -0.419413 5.46099 0.0045073 
-0.120706 -0.399134 5.46477 0.0052011 
-0.134061 -0.384125 5.45904 0.00508926 
-0.139449 -0.437703 5.43131 0.00432844 
-0.147496 -0.419491 5.43425 0.00420834 
-0.162773 -0.406423 5.42752 0.00542113 
-0.16933 -0.386966 5.42785 0.0072774 
-0.184744 -0.399796 5.41092 0.00958837 
-0.148248 -0.39383 5.44427 0.00461928 
-0.135006 -0.408918 5.45004 0.0043322 
-0.126598 -0.427284 5.44727 0.00363575 
-0.111753 -0.440486 5.44978 0.00398956 
-0.202916 -0.392873 5.4057 0.00933589 
-0.212172 -0.375832 5.40764 0.0100705 
-0.23068 -0.368064 5.40082 0.0120751 
-0.240244 -0.350309 5.40125 0.0160109 
-0.259619 -0.369581 5.38525 0.0160051 
-0.211697 -0.349483 5.4165 0.0138109 
-0.19516 -0.360506 5.42354 0.0101444 
-0.186203 -0.377242 5.42208 0.00831049 
-0.269966 -0.185817 5.4641 0.108874 
-0.243421 -0.188982 5.47197 0.0990267 
-0.249685 -0.198209 5.45942 0.105556 
-0.21857 -0.192613 5.47946 0.095021 
-0.224288 -0.20215 5.46774 0.0948528 
-0.200442 -0.206487 5.4756 0.087826 
-0.194762 -0.197068 5.48634 0.0869775 
-0.230007 -0.212041 5.45593 0.10089 
-0.205883 -0.216182 5.46478 0.0912503 
-0.211995 -0.225878 5.45375 0.0943534 
-0.260308 -0.218197 5.43822 0.109733 
-0.28031 -0.205328 5.44178 0.115561 
-0.301441 -0.19293 5.44688 0.11888 
-0.312087 -0.212464 5.42655 0.125536 
-0.174721 -0.206282 5.49351 0.0728677 
-0.149562 -0.215735 5.50276 0.0618379 
-0.161169 -0.225466 5.48992 0.061242 
-0.125634 -0.224631 5.51014 0.0582397 
-0.137098 -0.234814 5.49915 0.0499784 
-0.148799 -0.244962 5.48759 0.0481524 
-0.154622 -0.254755 5.47872 0.0445962 
-0.166866 -0.235376 5.48079 0.0572808 
-0.172827 -0.245311 5.47085 0.0567558 
-0.185886 -0.225464 5.47286 0.0749523 
-0.180272 -0.215922 5.4833 0.0715393 
-0.191893 -0.235374 5.46268 0.0737478 
-0.195348 -0.285218 5.44205 0.0391966 
-0.204176 -0.268214 5.44336 0.0513276 
-0.223654 -0.259765 5.4345 0.0660948 
-0.233403 -0.243192 5.43506 0.0857871 
-0.254935 -0.26076 5.41632 0.0826025 
-0.1751 -0.268746 5.46084 0.0422085 
-0.278112 -0.257563 5.40985 0.088258 
-0.292277 -0.245349 5.41216 0.0974574 
-0.316621 -0.243413 5.40673 0.104606 
-0.331536 -0.232084 5.41051 0.11526 
-0.350937 -0.252605 5.39549 0.105554 
-0.296973 -0.223816 5.42238 0.117928 
-0.246184 -0.230496 5.4359 0.101286 
-0.351125 -0.486728 5.29016 0.0270764 
-0.372213 -0.48862 5.28327 0.027518 
-0.391841 -0.480244 5.28045 0.0283211 
-0.413295 -0.481376 5.27228 0.0316194 
-0.410173 -0.461762 5.28078 0.0379656 
-0.387718 -0.461868 5.28806 0.0321098 
-0.368152 -0.470147 5.29094 0.0271509 
-0.344075 -0.461068 5.30009 0.0281417 
-0.43782 -0.495649 5.2634 0.0301367 
-0.45877 -0.500646 5.25748 0.0304405 
-0.482238 -0.494872 5.25742 0.0320464 
-0.503569 -0.500343 5.25111 0.0352327 
-0.506215 -0.479579 5.26218 0.0426331 
-0.48219 -0.475332 5.26723 0.0372861 
-0.45934 -0.479603 5.26703 0.032727 
-0.435831 -0.475493 5.27229 0.0340005 
-0.50274 -0.437034 5.28536 0.0600309 
-0.477511 -0.433368 5.289 0.0545342 
-0.454436 -0.438539 5.28774 0.0474582 
-0.428703 -0.435318 5.29141 0.0440683 
-0.405764 -0.442066 5.29022 0.0414935 
-0.401305 -0.422647 5.2999 0.0507842 
-0.433315 -0.454553 5.28145 0.0393836 
-0.457558 -0.459078 5.27685 0.0411031 
-0.480778 -0.453347 5.27859 0.0460726 
-0.504519 -0.458669 5.27413 0.0510614 
-0.377987 -0.423801 5.30608 0.0408543 
-0.358253 -0.432808 5.30732 0.0362882 
-0.335798 -0.434183 5.31244 0.0338404 
-0.363519 -0.450868 5.29873 0.0319264 
-0.383563 -0.441088 5.29681 0.0370766 
-0.33918 -0.265131 5.39261 0.0885175 
-0.314683 -0.266618 5.39642 0.0856163 
-0.327695 -0.278193 5.39014 0.0733714 
-0.291125 -0.268898 5.40275 0.0754799 
-0.303813 -0.280505 5.39558 0.0660821 
-0.280767 -0.283011 5.40185 0.0600735 
-0.267744 -0.271598 5.40896 0.0725895 
-0.316794 -0.291433 5.38824 0.0596111 
-0.293172 -0.294518 5.3943 0.0546203 
-0.305579 -0.3052 5.38632 0.0507801 
-0.329501 -0.303615 5.38125 0.052463 
-0.340728 -0.290657 5.38362 0.0647282 
-0.353854 -0.30264 5.37694 0.0569066 
-0.364801 -0.289996 5.38005 0.0663434 
-0.352028 -0.277687 5.38623 0.0761108 
-0.376291 -0.27784 5.38328 0.0805724 
-0.377162 -0.302243 5.37354 0.0587349 
-0.388272 -0.29008 5.37726 0.0715198 
-0.400093 -0.302268 5.37012 0.0667324 
-0.36389 -0.265186 5.38942 0.0890665 
-0.246727 -0.27851 5.41797 0.0552314 
-0.226495 -0.286694 5.42694 0.0405833 
-0.21841 -0.304373 5.42676 0.027835 
-0.240744 -0.325395 5.41004 0.0213912 
-0.249986 -0.307338 5.41056 0.031737 
-0.261579 -0.318798 5.40265 0.0258233 
-0.271438 -0.30087 5.40274 0.0391651 
-0.259257 -0.289801 5.41065 0.0446713 
-0.283314 -0.311717 5.39443 0.0369293 
-0.282186 -0.364944 5.37902 0.0178853 
-0.294232 -0.348718 5.37964 0.0232227 
-0.317385 -0.34382 5.3721 0.0305129 
-0.329431 -0.327792 5.37262 0.0406675 
-0.350766 -0.350808 5.35709 0.0397851 
-0.260891 -0.344104 5.39462 0.0193492 
-0.374796 -0.350391 5.35318 0.0416648 
-0.363422 -0.33767 5.35991 0.0454931 
-0.386955 -0.337504 5.35618 0.0484461 
-0.398156 -0.349919 5.34858 0.0478599 
-0.375437 -0.325151 5.3629 0.0514538 
-0.410853 -0.337997 5.35221 0.0551466 
-0.399466 -0.325423 5.35954 0.057774 
-0.422659 -0.326687 5.35655 0.0624556 
-0.421679 -0.350276 5.34538 0.0526063 
-0.433933 -0.338741 5.34921 0.0599997 
-0.445726 -0.350743 5.34148 0.0623143 
-0.411833 -0.314407 5.36399 0.0651634 
-0.647557 -0.205456 5.57507 0.00790985 
-0.637352 -0.189036 5.58876 0.00859841 
-0.658623 -0.18998 5.59878 0.00944281 
-0.626888 -0.1728 5.60243 0.00938981 
-0.648365 -0.174289 5.61287 0.00928485 
-0.637605 -0.158553 5.62722 0.00985203 
-0.6693 -0.175266 5.62279 0.0105016 
-0.616242 -0.156911 5.61607 0.0109949 
-0.604828 -0.140478 5.63055 0.0130984 
-0.591969 -0.156179 5.60111 0.012984 
-0.602735 -0.172787 5.58804 0.0103272 
-0.61347 -0.189568 5.57508 0.00827909 
-0.578596 -0.172264 5.57318 0.011704 
-0.66086 -0.160098 5.63952 0.00940769 
-0.68169 -0.162692 5.64808 0.00987338 
-0.652716 -0.145351 5.65627 0.00857004 
-0.672978 -0.148114 5.66544 0.00804131 
-0.636891 -0.136726 5.65866 0.00920622 
-0.620309 -0.127598 5.66084 0.0104601 
-0.567338 -0.100073 5.67417 0.0135159 
-0.585924 -0.108874 5.67064 0.0116912 
-0.557881 -0.106508 5.65676 0.0162485 
-0.577377 -0.115824 5.65331 0.0127782 
-0.568017 -0.122495 5.63609 0.0150826 
-0.54917 -0.11357 5.63901 0.0172073 
-0.595784 -0.124771 5.65008 0.011816 
-0.586668 -0.131546 5.63355 0.0127835 
-0.610944 -0.112192 5.68094 0.00918677 
-0.535359 -0.128559 5.60674 0.0201875 
-0.555488 -0.137253 5.60605 0.0168526 
-0.527576 -0.136224 5.59051 0.0218497 
-0.547771 -0.145446 5.58996 0.0172774 
-0.540094 -0.153563 5.57424 0.0170452 
-0.519318 -0.143862 5.57478 0.0221268 
-0.56746 -0.154585 5.58921 0.0142974 
-0.559595 -0.162974 5.57384 0.0138977 
-0.473072 -0.136085 5.56042 0.0327986 
-0.452132 -0.128158 5.56346 0.0360116 
-0.447238 -0.137772 5.54583 0.0390406 
-0.43123 -0.120713 5.56769 0.0374924 
-0.425886 -0.130193 5.54921 0.04166 
-0.40395 -0.123055 5.55331 0.0442488 
-0.409104 -0.114063 5.57158 0.0385652 
-0.420486 -0.13973 5.53151 0.047672 
-0.398593 -0.132482 5.53529 0.0515169 
-0.393432 -0.142051 5.51768 0.0601379 
-0.415884 -0.148618 5.5159 0.0531155 
-0.442579 -0.146663 5.53035 0.0421076 
-0.438025 -0.15558 5.51513 0.0465189 
-0.464672 -0.153956 5.52979 0.0363081 
-0.469057 -0.144901 5.54509 0.0342669 
-0.489479 -0.152171 5.54488 0.0301737 
-0.459515 -0.163146 5.51493 0.0396189 
-0.484764 -0.161251 5.53006 0.0312413 
-0.479605 -0.17046 5.51531 0.0326457 
-0.494195 -0.143265 5.55993 0.0295632 
-0.385125 -0.110643 5.57569 0.0346372 
-0.361669 -0.106341 5.58195 0.0320709 
-0.355078 -0.116598 5.561 0.0394667 
-0.338016 -0.102703 5.58834 0.0308978 
-0.332107 -0.112918 5.5673 0.0386587 
-0.325431 -0.12348 5.54708 0.0489103 
-0.320258 -0.132844 5.5297 0.0587023 
-0.349655 -0.125943 5.54267 0.0486346 
-0.34422 -0.135245 5.52513 0.0579764 
-0.374432 -0.128899 5.53879 0.0495632 
-0.379805 -0.119527 5.55704 0.0412478 
-0.369281 -0.138385 5.52104 0.0583578 
-0.315654 -0.17463 5.46683 0.10264 
-0.315548 -0.164361 5.48028 0.0918474 
-0.34075 -0.166101 5.47719 0.0895331 
-0.340432 -0.176305 5.46367 0.0990672 
-0.341285 -0.156386 5.49125 0.0796773 
-0.365655 -0.16844 5.47497 0.0869252 
-0.366202 -0.158617 5.48906 0.0765796 
-0.391203 -0.16175 5.48777 0.0743031 
-0.364935 -0.178729 5.46167 0.0939606 
-0.390462 -0.171617 5.47398 0.0816844 
-0.389333 -0.181606 5.46057 0.0893245 
-0.367584 -0.14931 5.50363 0.0673438 
-0.39242 -0.152134 5.50239 0.0659207 
-0.342454 -0.145963 5.50763 0.0677216 
-0.318383 -0.143439 5.51218 0.0683392 
-0.316919 -0.153829 5.49579 0.0806526 
-0.412344 -0.187974 5.46155 0.0756052 
-0.434559 -0.185184 5.47454 0.0578251 
-0.455754 -0.192463 5.47691 0.0456652 
-0.477282 -0.190391 5.49113 0.0329203 
-0.475522 -0.209266 5.46794 0.037221 
-0.457366 -0.173452 5.50021 0.0416415 
-0.436713 -0.165824 5.50056 0.0494399 
-0.414815 -0.158831 5.50096 0.0581307 
-0.414177 -0.168769 5.4865 0.0636292 
-0.45893 -0.212081 5.45654 0.0477822 
-0.438051 -0.20481 5.4542 0.0605072 
-0.420381 -0.208086 5.4431 0.0748902 
-0.398561 -0.202088 5.44115 0.0900965 
-0.407381 -0.222236 5.42346 0.0929789 
-0.429427 -0.22875 5.42625 0.0733124 
-0.446565 -0.225531 5.43727 0.057945 
-0.467557 -0.232903 5.44054 0.0446767 
-0.483893 -0.230288 5.45225 0.0328871 
-0.492068 -0.250596 5.43623 0.0313528 
-0.350149 -0.195837 5.44087 0.111474 
-0.325833 -0.194164 5.44353 0.113982 
-0.336095 -0.213892 5.42443 0.116038 
-0.360344 -0.215793 5.42316 0.110345 
-0.3794 -0.208557 5.43163 0.0990645 
-0.365079 -0.244108 5.40095 0.104251 
-0.388549 -0.24745 5.40192 0.0916581 
-0.411646 -0.251975 5.40299 0.0778233 
-0.425308 -0.24515 5.41073 0.0764871 
-0.442019 -0.267473 5.39796 0.0660316 
-0.392988 -0.229044 5.41551 0.0960223 
-0.463011 -0.274223 5.40127 0.0532434 
-0.483601 -0.281744 5.40507 0.03946 
-0.466884 -0.258424 5.4161 0.0492959 
-0.487192 -0.266388 5.42042 0.0336849 
-0.507286 -0.274689 5.42512 0.022701 
-0.503821 -0.289342 5.40871 0.0285409 
-0.523575 -0.297658 5.41237 0.0215032 
-0.446411 -0.251688 5.41326 0.0618474 
-0.528823 -0.456652 5.27738 0.0512416 
-0.554461 -0.475064 5.26905 0.0505067 
-0.530387 -0.477387 5.26579 0.0430149 
-0.556168 -0.494826 5.25706 0.0507973 
-0.57974 -0.493759 5.26121 0.0545484 
-0.603816 -0.511363 5.25143 0.0572602 
-0.606041 -0.491753 5.26771 0.0586429 
-0.581715 -0.473404 5.27649 0.0575811 
-0.55657 -0.45381 5.28376 0.0537046 
-0.607131 -0.47273 5.28426 0.05622 
-0.526143 -0.498314 5.25302 0.0431469 
-0.545249 -0.516003 5.24202 0.039241 
-0.522282 -0.517703 5.2402 0.037349 
-0.570539 -0.522905 5.23846 0.0439081 
-0.594999 -0.529792 5.23501 0.0520701 
-0.653184 -0.560512 5.22513 0.0668808 
-0.674055 -0.570966 5.22283 0.0791669 
-0.632036 -0.550241 5.22817 0.0573921 
-0.644942 -0.534877 5.2489 0.0549941 
-0.664432 -0.546358 5.24728 0.0566979 
-0.684124 -0.558251 5.24532 0.0645086 
-0.617837 -0.531444 5.24042 0.0547869 
-0.608487 -0.549071 5.22301 0.0483094 
-0.68861 -0.550929 5.25881 0.0502572 
-0.669362 -0.530199 5.26946 0.0445802 
-0.693218 -0.543688 5.27209 0.0429623 
-0.645028 -0.517457 5.26701 0.0482627 
-0.673533 -0.522736 5.28246 0.0359277 
-0.65048 -0.509006 5.27887 0.044887 
-0.655499 -0.50126 5.2915 0.0370459 
-0.697015 -0.537347 5.28668 0.0312501 
-0.678193 -0.515834 5.29604 0.0289749 
-0.701015 -0.531832 5.30214 0.0227267 
-0.626585 -0.495796 5.27593 0.051461 
-0.632332 -0.486963 5.28772 0.0474389 
-0.625075 -0.513964 5.25914 0.0539183 
-0.506743 -0.308497 5.39246 0.0340559 
-0.486442 -0.30083 5.38961 0.0418872 
-0.465479 -0.293718 5.38681 0.0518957 
-0.489666 -0.319961 5.37334 0.0474366 
-0.5101 -0.32793 5.3765 0.0380105 
-0.530706 -0.336378 5.37938 0.0309469 
-0.526742 -0.317166 5.39621 0.0239113 
-0.546594 -0.326397 5.40014 0.0174155 
-0.550412 -0.345521 5.38251 0.0220851 
-0.569818 -0.354727 5.38623 0.0154005 
-0.409858 -0.271015 5.38936 0.0763429 
-0.42125 -0.283475 5.38334 0.0701391 
-0.43274 -0.29659 5.37777 0.0609971 
-0.444654 -0.309946 5.37135 0.0567608 
-0.467103 -0.314724 5.37224 0.052 
-0.469476 -0.35606 5.3416 0.0581663 
-0.493539 -0.362036 5.34159 0.0534494 
-0.467467 -0.334591 5.35605 0.0565529 
-0.491314 -0.340887 5.35758 0.0513382 
-0.514455 -0.348104 5.35881 0.0463696 
-0.517179 -0.3687 5.34248 0.050177 
-0.540641 -0.375539 5.34337 0.0466642 
-0.560938 -0.384676 5.34692 0.0347028 
-0.580664 -0.39417 5.35069 0.0265962 
-0.555532 -0.364228 5.36411 0.0302171 
-0.575003 -0.374198 5.36855 0.0209879 
-0.594184 -0.383984 5.37311 0.0134824 
-0.599856 -0.403868 5.35481 0.0194399 
-0.618781 -0.413573 5.35895 0.0131451 
-0.535475 -0.355558 5.36125 0.0388027 
-0.626118 -0.207082 5.56315 0.00663217 
-0.604731 -0.208376 5.5512 0.00592861 
-0.591753 -0.190255 5.56211 0.00840488 
-0.56963 -0.190306 5.54863 0.00905129 
-0.58288 -0.208693 5.53795 0.0061434 
-0.56084 -0.208321 5.5247 0.00735889 
-0.597607 -0.22618 5.53036 0.00392677 
-0.619309 -0.225257 5.54282 0.004091 
-0.640947 -0.223389 5.5538 0.00550112 
-0.633938 -0.241646 5.53348 0.00357809 
-0.554651 -0.172829 5.55943 0.0129082 
-0.535522 -0.163072 5.55943 0.0167085 
-0.530294 -0.172254 5.54532 0.0162416 
-0.51526 -0.153261 5.55952 0.0228032 
-0.51033 -0.162386 5.54509 0.0226054 
-0.505506 -0.171744 5.53037 0.0226413 
-0.521949 -0.190056 5.51981 0.0156555 
-0.546301 -0.190639 5.53488 0.0106323 
-0.496791 -0.219196 5.47233 0.0232632 
-0.517972 -0.220167 5.48641 0.0129878 
-0.537944 -0.229095 5.49067 0.00780442 
-0.558362 -0.228302 5.50453 0.00483115 
-0.557011 -0.247599 5.48473 0.00416475 
-0.540115 -0.209943 5.51053 0.00932612 
-0.499754 -0.190421 5.50556 0.0221697 
-0.576289 -0.256949 5.48945 0.00257142 
-0.595331 -0.256205 5.50161 0.00237065 
-0.614121 -0.264213 5.50467 0.00224033 
-0.632854 -0.262203 5.51585 0.00225 
-0.632757 -0.281661 5.49794 0.0020124 
-0.61476 -0.244828 5.52231 0.00291613 
-0.578468 -0.227401 5.51772 0.00412554 
-0.617857 -0.284534 5.48804 0.00218782 
-0.598815 -0.276353 5.48538 0.0022692 
-0.583965 -0.277962 5.47457 0.0022282 
-0.564578 -0.269131 5.47025 0.00325193 
-0.572328 -0.289779 5.45486 0.00311673 
-0.591452 -0.298683 5.45953 0.00263053 
-0.606108 -0.297384 5.4702 0.00240772 
-0.625158 -0.305637 5.47333 0.00253562 
-0.640177 -0.302973 5.48338 0.0022945 
-0.647943 -0.32394 5.46776 0.0024693 
-0.540401 -0.249356 5.47217 0.00666143 
-0.52078 -0.23969 5.4683 0.0126157 
-0.504317 -0.239873 5.45622 0.0203185 
-0.512247 -0.260592 5.44118 0.0191166 
-0.5285 -0.260301 5.45311 0.0114628 
-0.54845 -0.270147 5.45811 0.00555917 
-0.543612 -0.307794 5.41666 0.0124432 
-0.563476 -0.317968 5.4206 0.00772991 
-0.54787 -0.293959 5.43362 0.00837749 
-0.567645 -0.304028 5.43815 0.00476177 
-0.586765 -0.313208 5.44195 0.00345051 
-0.5828 -0.327259 5.42488 0.00484477 
-0.601708 -0.336548 5.42816 0.00360355 
-0.527526 -0.284343 5.42956 0.0140396 
-0.619279 -0.345537 5.43177 0.00310919 
-0.637114 -0.353634 5.43536 0.00328841 
-0.624448 -0.331428 5.44876 0.00290321 
-0.641917 -0.339627 5.45173 0.003238 
-0.659719 -0.347218 5.45422 0.00324434 
-0.654416 -0.361986 5.43816 0.00359896 
-0.672864 -0.370032 5.44081 0.0037144 
-0.605797 -0.322675 5.4457 0.00300793 
-0.885075 -0.913024 5.83211 0.0189649 
-0.864613 -0.914213 5.84537 0.0191622 
-0.858325 -0.926576 5.82432 0.0218517 
-0.878826 -0.923101 5.81041 0.0223034 
-0.837909 -0.93036 5.83757 0.0223749 
-0.852798 -0.937559 5.80316 0.0268927 
-0.832613 -0.943064 5.81722 0.0289123 
-0.827889 -0.954079 5.79673 0.0361897 
-0.873033 -0.932281 5.78857 0.0253702 
-0.847445 -0.946771 5.7823 0.0296835 
-0.867219 -0.939305 5.76714 0.0245818 
-0.812919 -0.948533 5.83024 0.0302702 
-0.808572 -0.961209 5.8109 0.043393 
-0.789347 -0.967713 5.82408 0.0512901 
-0.793899 -0.951157 5.84492 0.0309951 
-0.818104 -0.93169 5.85169 0.0219345 
-0.798725 -0.933845 5.86571 0.0215007 
-0.824404 -0.915031 5.87435 0.0213931 
-0.844745 -0.914818 5.86038 0.0197086 
-0.804854 -0.916628 5.8877 0.0231538 
-0.863551 -0.94364 5.74253 0.022444 
-0.843602 -0.953873 5.7573 0.0307619 
-0.839653 -0.95818 5.73321 0.0272315 
-0.860412 -0.946188 5.71764 0.0181837 
-0.819801 -0.970061 5.74725 0.0409519 
-0.835309 -0.961508 5.70908 0.0226124 
-0.814913 -0.973803 5.72284 0.034163 
-0.809709 -0.97732 5.69866 0.0299827 
-0.857017 -0.948245 5.69257 0.0139723 
-0.830864 -0.964495 5.6844 0.0181605 
-0.853951 -0.950513 5.66758 0.011013 
-0.795588 -0.985489 5.73542 0.0501963 
-0.790307 -0.988893 5.7109 0.0429722 
-0.771803 -0.999213 5.72202 0.0572977 
-0.777549 -0.994748 5.74821 0.0663509 
-0.801029 -0.979856 5.76131 0.0561407 
-0.782606 -0.988667 5.77459 0.0721317 
-0.805358 -0.972012 5.78672 0.0546666 
-0.824334 -0.96324 5.7723 0.0413243 
-0.786676 -0.979884 5.80005 0.0671313 
-0.712223 -1.01974 5.79341 0.12694 
-0.716667 -1.01009 5.81959 0.120162 
-0.739191 -1.00512 5.80467 0.110525 
-0.719886 -0.995581 5.84356 0.0883879 
-0.742684 -0.991917 5.82936 0.0863361 
-0.745023 -0.975335 5.85251 0.053001 
-0.722105 -0.977767 5.86582 0.0514361 
-0.764679 -0.987251 5.81484 0.0810905 
-0.767435 -0.971655 5.83858 0.0528715 
-0.761208 -0.997453 5.78966 0.0918524 
-0.756678 -1.00408 5.76313 0.0860586 
-0.734811 -1.01246 5.77846 0.107851 
-0.729524 -1.01689 5.75159 0.0919446 
-0.751115 -1.00825 5.73657 0.0735698 
-0.706676 -1.02459 5.76691 0.111327 
-0.725645 -0.958431 5.8846 0.0322622 
-0.730702 -0.936703 5.90527 0.0263609 
-0.752722 -0.936965 5.89172 0.0266345 
-0.73644 -0.915213 5.92611 0.0433686 
-0.758744 -0.916221 5.91353 0.0368906 
-0.781161 -0.917079 5.89998 0.0327133 
-0.77603 -0.935714 5.87878 0.0204751 
-0.771481 -0.954264 5.85888 0.0302795 
-0.748898 -0.957108 5.87225 0.0277779 
-0.654665 -0.380504 5.42182 0.00406588 
-0.63758 -0.372005 5.41864 0.00372391 
-0.619942 -0.363369 5.41542 0.00377053 
-0.638279 -0.389901 5.4016 0.00423561 
-0.653538 -0.397813 5.40541 0.00455151 
-0.669353 -0.405556 5.40922 0.00552157 
-0.670764 -0.3882 5.42534 0.00478622 
-0.68821 -0.396107 5.4286 0.00544117 
-0.686678 -0.413733 5.413 0.00642109 
-0.70584 -0.422847 5.41634 0.00713719 
-0.585692 -0.345784 5.40756 0.00712223 
-0.566476 -0.336428 5.40396 0.0107078 
-0.587687 -0.363371 5.39052 0.00975602 
-0.604559 -0.372531 5.39438 0.00656987 
-0.602886 -0.354832 5.41154 0.00447853 
-0.621576 -0.381454 5.39824 0.00507588 
-0.633566 -0.421677 5.36338 0.00953217 
-0.647459 -0.429663 5.36782 0.00698192 
-0.628365 -0.402019 5.38029 0.00686371 
-0.642441 -0.409875 5.38454 0.00541281 
-0.657527 -0.418029 5.38908 0.0055725 
-0.661991 -0.437983 5.37214 0.00688332 
-0.677468 -0.446137 5.37682 0.00705181 
-0.611269 -0.393048 5.37679 0.00916321 
-0.69931 -0.447793 5.39237 0.00881722 
-0.725544 -0.449956 5.40608 0.00979539 
-0.727213 -0.468925 5.39274 0.0115663 
-0.673173 -0.426104 5.393 0.0063407 
-0.316249 -0.787381 5.04283 0.108595 
-0.295703 -0.791513 5.04245 0.103731 
-0.281792 -0.807349 5.04205 0.0961161 
-0.261686 -0.812106 5.04169 0.0908425 
-0.274248 -0.834125 5.04014 0.0889606 
-0.294483 -0.82933 5.04037 0.0968683 
-0.308238 -0.813369 5.04158 0.103558 
-0.328925 -0.808293 5.04158 0.109346 
-0.344714 -0.792633 5.04337 0.113588 
-0.358445 -0.813824 5.04245 0.114452 
-0.229654 -0.806781 5.0401 0.0903569 
-0.203233 -0.81293 5.03628 0.0840513 
-0.181263 -0.831614 5.03141 0.0820236 
-0.193563 -0.853264 5.03138 0.0849083 
-0.215774 -0.83474 5.03696 0.0783446 
-0.242643 -0.828535 5.03972 0.0847195 
-0.21137 -0.898756 5.03426 0.105457 
-0.235985 -0.880357 5.03796 0.0922896 
-0.262707 -0.874945 5.04006 0.0951046 
-0.283203 -0.857544 5.04147 0.0943642 
-0.292116 -0.881342 5.04168 0.111675 
-0.253567 -0.850997 5.03966 0.0902076 
