ply
format ascii 1.0
comment VCGLIB generated
element vertex 1001
property float x
property float y
property float z
property uchar red
property uchar green
property uchar blue
property float quality
end_header
-0.091182 -0.058782 0.918701 220 255 28 0.298215
-0.090613 -0.055956 0.917148 223 255 24 0.306207
-0.090293 -0.052810 0.915293 216 255 31 0.291919
-0.090545 -0.049145 0.913161 211 255 37 0.280538
-0.091046 -0.044740 0.911026 213 255 35 0.283784
-0.093632 -0.040562 0.908273 227 255 21 0.314006
-0.097931 -0.033984 0.904587 231 255 17 0.321530
-0.095846 -0.036939 0.905980 245 249 3 0.352087
-0.091484 -0.045829 0.909844 209 255 39 0.274866
-0.090718 -0.050067 0.911950 209 255 39 0.276655
-0.097035 -0.034958 0.902741 239 255 8 0.342166
-0.106264 -0.064587 0.940542 143 255 104 0.132380
-0.104665 -0.064922 0.937873 133 255 115 0.108983
-0.105406 -0.066003 0.935770 129 255 119 0.100373
-0.103186 -0.066171 0.932979 134 255 113 0.111454
-0.108309 -0.067658 0.933809 126 255 122 0.093683
-0.099773 -0.064650 0.934576 147 255 101 0.140577
-0.097102 -0.064669 0.932124 161 255 87 0.170154
-0.099231 -0.063819 0.936283 151 255 97 0.146607
-0.098635 -0.062776 0.938004 152 255 95 0.152107
-0.105680 -0.067804 0.929436 133 255 115 0.106646
-0.108021 -0.068809 0.929242 127 255 120 0.095388
-0.103083 -0.066949 0.929558 138 255 110 0.117472
-0.103295 -0.067694 0.925674 145 255 103 0.132972
-0.105881 -0.068813 0.925325 134 255 113 0.111937
-0.108342 -0.069956 0.925068 131 255 117 0.104072
-0.100603 -0.066705 0.925888 152 255 95 0.150975
-0.097826 -0.065705 0.926033 163 255 85 0.174647
-0.097453 -0.065316 0.929067 161 255 87 0.169620
-0.090397 -0.059275 0.925289 186 255 62 0.223816
-0.092428 -0.061299 0.927526 183 255 65 0.215224
-0.089609 -0.058603 0.927787 183 255 65 0.218486
-0.091650 -0.060703 0.930053 175 255 72 0.199613
-0.094658 -0.063117 0.929775 168 255 79 0.184067
-0.095239 -0.063622 0.926970 167 255 81 0.180102
-0.093291 -0.061845 0.924849 184 255 63 0.220339
-0.088600 -0.057242 0.930631 188 255 60 0.229473
-0.090619 -0.059123 0.933101 181 255 67 0.214182
-0.088016 -0.056086 0.933471 190 255 58 0.231796
-0.093222 -0.060346 0.935903 172 255 76 0.192213
-0.093430 -0.061416 0.934315 174 255 74 0.195939
-0.093875 -0.062247 0.932688 174 255 74 0.195712
-0.091145 -0.059958 0.931668 177 255 71 0.205993
-0.106142 -0.069474 0.923035 142 255 106 0.126568
-0.108746 -0.070832 0.922585 131 255 117 0.104411
-0.103971 -0.069007 0.921133 158 255 90 0.160431
-0.106689 -0.070355 0.920593 143 255 104 0.132537
-0.109347 -0.071879 0.920072 133 255 115 0.107480
-0.101029 -0.067213 0.922828 161 255 87 0.169421
-0.098361 -0.066132 0.923154 174 255 74 0.196411
-0.104655 -0.070251 0.918261 158 255 90 0.163207
-0.109711 -0.073184 0.917837 134 255 113 0.111414
-0.101806 -0.068749 0.918984 167 255 81 0.181863
-0.099109 -0.067249 0.919588 183 255 65 0.216354
-0.092848 -0.060807 0.919773 209 255 39 0.275211
-0.094719 -0.062661 0.920610 202 255 46 0.259248
-0.096659 -0.064527 0.921384 188 255 60 0.228060
-0.091953 -0.060109 0.921855 200 255 47 0.257214
-0.095849 -0.063886 0.924706 179 255 69 0.209658
-0.094054 -0.062201 0.922487 186 255 62 0.226178
-0.092858 -0.062308 0.916583 223 255 24 0.305820
-0.095197 -0.063889 0.917615 213 255 35 0.284575
-0.097245 -0.066142 0.917569 199 255 49 0.251387
-0.099192 -0.068468 0.917453 183 255 65 0.218291
-0.107488 -0.073231 0.915681 145 255 103 0.135954
-0.109980 -0.075142 0.915207 129 255 119 0.100808
-0.101989 -0.070114 0.916638 170 255 78 0.188730
-0.129436 -0.079517 0.912870 0 29 255 0.029546
-0.133243 -0.078019 0.913509 0 29 255 0.030249
-0.131081 -0.077306 0.914917 0 51 255 0.032422
-0.128926 -0.076552 0.916240 0 74 255 0.036483
-0.136969 -0.076706 0.914319 0 74 255 0.035642
-0.137226 -0.078488 0.912405 0 51 255 0.033793
-0.133516 -0.079932 0.911732 0 29 255 0.027545
-0.137579 -0.080411 0.910511 0 29 255 0.031235
-0.130464 -0.074803 0.918517 0 118 255 0.043202
-0.131901 -0.073123 0.920812 0 141 255 0.047844
-0.128156 -0.074068 0.920259 0 118 255 0.045288
-0.134197 -0.073806 0.919042 0 118 255 0.044641
-0.136411 -0.074768 0.917131 0 118 255 0.044917
-0.132708 -0.075646 0.916616 0 74 255 0.037854
-0.141778 -0.073432 0.915812 0 118 255 0.043374
-0.140652 -0.076039 0.913355 0 74 255 0.037572
-0.139696 -0.072859 0.917716 0 141 255 0.047994
-0.137693 -0.072424 0.919615 0 185 255 0.055335
-0.141004 -0.077876 0.911363 0 51 255 0.033163
-0.143082 -0.078652 0.909606 0 51 255 0.034293
-0.112555 -0.078373 0.912356 72 255 175 0.080697
-0.115215 -0.078931 0.912208 18 252 229 0.067545
-0.117781 -0.079532 0.912104 0 163 255 0.054636
-0.120256 -0.080078 0.912143 0 118 255 0.043270
-0.112726 -0.076097 0.914437 108 255 139 0.088577
-0.115300 -0.075596 0.915741 54 255 193 0.074362
-0.117791 -0.077057 0.914595 0 208 255 0.060842
-0.120216 -0.078208 0.914157 0 141 255 0.049059
-0.124926 -0.079725 0.912427 0 51 255 0.034436
-0.127306 -0.081211 0.911048 0 7 255 0.026818
-0.129634 -0.081964 0.910417 0 7 255 0.024595
-0.122629 -0.078594 0.913639 0 118 255 0.043581
-0.127308 -0.083587 0.909034 0 0 255 0.022992
-0.124884 -0.082754 0.909787 0 7 255 0.026090
-0.122462 -0.082777 0.909880 0 29 255 0.029889
-0.131081 -0.093267 0.901200 0 74 255 0.036362
-0.133296 -0.094601 0.899037 0 96 255 0.041092
-0.135869 -0.095085 0.897460 0 118 255 0.043233
-0.138147 -0.096398 0.894995 0 141 255 0.049305
-0.134842 -0.097241 0.895339 0 118 255 0.044183
-0.132241 -0.096716 0.897235 0 118 255 0.043740
-0.130031 -0.095513 0.899546 0 96 255 0.042127
-0.141279 -0.094868 0.894885 0 141 255 0.047621
-0.143561 -0.095582 0.892264 0 118 255 0.046654
-0.146031 -0.095594 0.890635 0 141 255 0.050574
-0.148264 -0.096306 0.888061 0 163 255 0.053851
-0.147808 -0.097792 0.885919 0 141 255 0.049346
-0.145234 -0.097730 0.887800 0 118 255 0.043706
-0.142642 -0.097689 0.889670 0 96 255 0.041043
-0.140406 -0.096983 0.892341 0 96 255 0.042240
-0.145902 -0.101239 0.880691 0 51 255 0.034143
-0.143169 -0.101133 0.882844 0 29 255 0.028516
-0.141093 -0.100216 0.885966 0 29 255 0.028340
-0.138347 -0.100243 0.888098 0 29 255 0.030153
-0.136238 -0.099516 0.891358 0 96 255 0.039381
-0.134912 -0.101116 0.889269 0 51 255 0.032016
-0.139628 -0.098523 0.890227 0 74 255 0.036318
-0.144294 -0.099386 0.885234 0 51 255 0.033930
-0.146886 -0.099519 0.883321 0 96 255 0.040757
-0.132230 -0.100599 0.891441 0 51 255 0.033067
-0.130223 -0.099297 0.894522 0 74 255 0.038601
-0.127562 -0.098876 0.896608 0 118 255 0.045235
-0.133566 -0.098979 0.893332 0 74 255 0.038512
-0.123320 -0.064264 0.941366 134 255 113 0.110495
-0.122253 -0.065896 0.938666 131 255 117 0.101594
-0.122726 -0.067676 0.935122 108 255 139 0.089002
-0.121271 -0.068922 0.932334 36 255 211 0.074212
-0.125402 -0.069312 0.931338 54 255 193 0.076315
-0.118710 -0.067512 0.936064 90 255 157 0.085071
-0.116943 -0.068825 0.933102 54 255 193 0.074345
-0.118160 -0.066044 0.939038 127 255 120 0.096511
-0.117243 -0.064662 0.941787 133 255 115 0.106202
-0.126059 -0.070358 0.928811 18 252 229 0.069129
-0.126696 -0.071347 0.926343 0 208 255 0.059976
-0.122155 -0.070876 0.927140 0 185 255 0.057599
-0.122785 -0.071845 0.924691 0 163 255 0.051962
-0.123405 -0.072812 0.922327 0 141 255 0.048296
-0.127235 -0.072289 0.923922 0 163 255 0.053145
-0.118654 -0.072479 0.923220 0 185 255 0.055867
-0.118034 -0.071488 0.925526 0 185 255 0.057627
-0.117541 -0.070610 0.927933 0 208 255 0.059502
-0.121666 -0.069930 0.929657 1 230 247 0.065676
-0.117159 -0.069721 0.930465 1 230 247 0.062758
-0.112781 -0.069441 0.928723 18 252 229 0.068832
-0.112758 -0.068002 0.933499 36 255 211 0.073714
-0.113182 -0.070134 0.926337 36 255 211 0.071003
-0.113650 -0.071021 0.923967 36 255 211 0.071812
-0.109550 -0.065585 0.938874 129 255 119 0.097842
-0.113978 -0.065917 0.939146 127 255 120 0.096188
-0.125896 -0.073699 0.920669 0 118 255 0.045891
-0.126442 -0.075288 0.917934 0 96 255 0.041916
-0.124238 -0.074962 0.918386 0 118 255 0.046464
-0.121883 -0.074690 0.918822 0 163 255 0.051196
-0.119181 -0.073822 0.920528 0 185 255 0.055960
-0.124662 -0.076911 0.915432 0 96 255 0.042795
-0.127064 -0.078192 0.914164 0 51 255 0.034952
-0.122390 -0.076634 0.915893 0 141 255 0.047183
-0.119964 -0.076451 0.916379 0 163 255 0.051950
-0.112504 -0.074041 0.917172 126 255 122 0.090098
-0.117436 -0.074868 0.917602 1 230 247 0.064929
-0.114121 -0.072113 0.921468 54 255 193 0.075059
-0.116770 -0.072980 0.921008 1 230 247 0.064799
-0.137382 -0.061939 0.936579 143 255 104 0.131271
-0.136837 -0.064270 0.933871 143 255 104 0.130106
-0.137936 -0.065771 0.930844 134 255 113 0.112259
-0.137147 -0.067565 0.928568 129 255 119 0.100370
-0.140699 -0.066446 0.927623 134 255 113 0.110716
-0.134343 -0.066815 0.932030 136 255 112 0.114280
-0.133526 -0.068668 0.929561 127 255 120 0.094110
-0.133347 -0.065182 0.935200 138 255 110 0.120440
-0.132376 -0.062885 0.938960 142 255 106 0.125726
-0.141372 -0.067516 0.925391 131 255 117 0.102552
-0.141982 -0.068607 0.923086 72 255 175 0.078680
-0.138341 -0.069669 0.923967 54 255 193 0.077279
-0.140682 -0.070224 0.921138 18 252 229 0.066993
-0.137114 -0.071315 0.922012 1 230 247 0.065472
-0.134749 -0.070801 0.924748 54 255 193 0.074715
-0.137788 -0.068634 0.926292 127 255 120 0.094748
-0.134138 -0.069746 0.927120 108 255 139 0.086416
-0.130756 -0.071017 0.925505 1 230 247 0.066380
-0.130192 -0.070021 0.927935 36 255 211 0.072840
-0.129538 -0.068974 0.930398 90 255 157 0.085898
-0.131331 -0.072064 0.923136 0 185 255 0.057896
-0.126690 -0.067680 0.934219 126 255 122 0.092569
-0.126049 -0.065860 0.937702 133 255 115 0.106829
-0.127097 -0.063556 0.940777 134 255 113 0.113171
-0.129739 -0.065640 0.936533 134 255 113 0.112623
-0.130619 -0.067438 0.933079 129 255 119 0.098074
-0.133986 -0.085232 0.906769 0 0 255 0.022472
-0.131842 -0.084001 0.908252 0 0 255 0.021141
-0.138197 -0.084356 0.906749 0 29 255 0.030251
-0.136188 -0.085710 0.905890 0 7 255 0.026350
-0.138524 -0.087199 0.904075 0 51 255 0.033354
-0.132016 -0.086653 0.906042 0 0 255 0.021786
-0.137814 -0.082271 0.908608 0 29 255 0.030587
-0.143841 -0.081828 0.906474 0 51 255 0.034655
-0.142248 -0.084085 0.905138 0 51 255 0.034779
-0.146213 -0.082911 0.904555 0 96 255 0.040489
-0.141610 -0.080900 0.908220 0 51 255 0.032507
-0.146732 -0.085008 0.902369 0 118 255 0.045731
-0.142599 -0.086084 0.903289 0 74 255 0.036095
-0.145014 -0.087090 0.901237 0 118 255 0.043522
-0.147503 -0.088068 0.899116 0 163 255 0.053440
-0.140838 -0.088143 0.902227 0 74 255 0.037877
-0.145589 -0.089911 0.898159 0 163 255 0.051261
-0.147956 -0.089953 0.896880 0 185 255 0.058541
-0.143235 -0.089896 0.899424 0 118 255 0.046309
-0.143708 -0.091736 0.897263 0 141 255 0.050419
-0.146096 -0.091679 0.895937 0 163 255 0.054114
-0.148482 -0.091670 0.894608 1 230 247 0.062512
-0.141426 -0.091733 0.898522 0 118 255 0.045714
-0.139070 -0.091790 0.899908 0 118 255 0.046677
-0.148667 -0.093273 0.892330 0 208 255 0.062174
-0.146199 -0.094056 0.892843 0 185 255 0.055025
-0.143706 -0.094054 0.894436 0 141 255 0.049514
-0.138833 -0.094210 0.897410 0 141 255 0.049585
-0.133825 -0.092156 0.901243 0 51 255 0.035040
-0.131641 -0.090898 0.903020 0 29 255 0.029116
-0.136457 -0.091921 0.900555 0 96 255 0.040486
-0.134118 -0.088878 0.903925 0 29 255 0.027887
-0.136477 -0.089417 0.902752 0 51 255 0.032642
-0.141350 -0.103289 0.879459 0 0 229 0.019250
-0.144292 -0.103342 0.877163 0 7 255 0.024931
-0.138385 -0.103295 0.881802 0 0 229 0.018018
-0.136791 -0.105233 0.878283 0 0 179 0.011470
-0.139844 -0.105275 0.875998 0 0 204 0.014172
-0.142882 -0.105365 0.873792 0 0 255 0.020002
-0.134581 -0.104302 0.882390 0 0 204 0.014539
-0.130832 -0.105360 0.882894 0 0 204 0.012736
-0.132865 -0.103246 0.886096 0 0 255 0.020400
-0.136625 -0.102111 0.885510 0 0 255 0.021454
-0.141687 -0.106637 0.871979 0 0 229 0.018995
-0.138497 -0.106630 0.874292 0 0 204 0.013458
-0.137340 -0.107925 0.872386 0 0 204 0.013000
-0.140600 -0.107923 0.870143 0 0 229 0.019486
-0.134014 -0.107976 0.874733 0 0 179 0.010053
-0.136098 -0.109329 0.870573 0 0 204 0.015558
-0.132754 -0.109390 0.872830 0 0 179 0.011545
-0.139452 -0.109329 0.868397 0 0 255 0.022909
-0.129423 -0.109443 0.875106 0 0 179 0.009399
-0.126369 -0.109445 0.877251 0 0 179 0.008301
-0.130858 -0.107956 0.876893 0 0 179 0.007848
-0.127803 -0.107982 0.879089 0 0 153 0.007693
-0.132378 -0.106486 0.878682 0 0 179 0.008108
-0.135460 -0.106556 0.876464 0 0 179 0.010124
-0.129352 -0.106629 0.880957 0 0 179 0.009224
-0.114593 -0.107419 0.886843 0 0 179 0.011337
-0.117458 -0.107907 0.884436 0 0 179 0.007966
-0.119110 -0.106551 0.886359 0 0 179 0.011490
-0.116237 -0.106145 0.888857 0 0 229 0.017362
-0.121941 -0.107008 0.883912 0 0 179 0.008261
-0.120760 -0.105308 0.888341 0 0 229 0.017320
-0.123531 -0.105681 0.885815 0 0 179 0.011304
-0.125170 -0.104416 0.887765 0 0 229 0.017235
-0.117910 -0.104907 0.890829 0 7 255 0.026211
-0.122334 -0.104063 0.890281 0 7 255 0.025292
-0.119588 -0.103782 0.892796 0 74 255 0.037819
-0.126381 -0.106201 0.883466 0 0 179 0.010068
-0.127982 -0.104854 0.885300 0 0 204 0.013124
-0.124887 -0.107446 0.881466 0 0 153 0.006873
-0.123357 -0.108828 0.879571 0 0 153 0.005721
-0.120366 -0.108335 0.881950 0 0 153 0.005654
-0.124587 -0.101999 0.893275 0 74 255 0.038261
-0.121920 -0.101623 0.895475 0 118 255 0.046453
-0.127290 -0.102437 0.891044 0 29 255 0.030322
-0.130081 -0.102813 0.888563 0 7 255 0.023796
-0.085472 -0.033057 0.897139 220 255 28 0.299591
-0.086986 -0.030258 0.894548 206 255 42 0.266899
-0.089280 -0.027664 0.892483 183 255 65 0.215525
-0.090655 -0.024937 0.890484 163 255 85 0.172138
-0.092694 -0.022252 0.888839 143 255 104 0.132034
-0.093268 -0.025140 0.891048 168 255 79 0.184831
-0.091914 -0.027887 0.892943 188 255 60 0.228767
-0.089585 -0.030427 0.894806 206 255 42 0.268260
-0.088011 -0.033242 0.897241 223 255 24 0.305324
-0.092241 -0.019651 0.886687 127 255 120 0.094631
-0.094522 -0.017155 0.885256 1 230 247 0.064934
-0.095834 -0.014157 0.883756 0 96 255 0.041572
-0.098170 -0.011162 0.882483 0 51 255 0.032926
-0.098672 -0.014927 0.884378 0 118 255 0.044673
-0.097335 -0.017743 0.885902 18 252 229 0.069153
-0.095022 -0.020089 0.887306 126 255 122 0.092216
-0.096102 -0.022803 0.889850 151 255 97 0.145844
-0.101796 -0.012525 0.883416 0 118 255 0.043833
-0.020515 -0.123250 0.870831 0 163 255 0.052055
-0.022386 -0.121927 0.874383 0 163 255 0.051918
-0.025835 -0.121351 0.877452 0 96 255 0.039147
-0.027753 -0.121147 0.881365 0 7 255 0.024942
-0.031258 -0.121510 0.884749 0 0 229 0.017500
-0.028145 -0.121436 0.886259 0 0 229 0.018607
-0.030887 -0.121244 0.879910 0 7 255 0.023997
-0.034434 -0.121729 0.883265 0 0 229 0.016161
-0.028941 -0.121361 0.875877 0 96 255 0.042110
-0.026949 -0.121997 0.872057 0 185 255 0.056773
-0.023520 -0.123282 0.869218 0 185 255 0.054781
-0.026565 -0.123407 0.867564 0 185 255 0.056084
-0.029962 -0.121367 0.890283 0 29 255 0.029760
-0.033316 -0.121225 0.893569 0 141 255 0.049434
-0.035136 -0.120894 0.897558 90 255 157 0.085498
-0.038419 -0.119971 0.900487 131 255 117 0.105188
-0.035323 -0.120023 0.902119 136 255 112 0.117181
-0.038278 -0.120855 0.896002 54 255 193 0.077431
-0.041620 -0.120022 0.898832 129 255 119 0.099574
-0.036474 -0.121198 0.892017 0 141 255 0.049187
-0.034664 -0.121405 0.888047 0 7 255 0.025507
-0.048091 -0.120274 0.895362 126 255 122 0.092900
-0.046372 -0.121092 0.891677 54 255 193 0.075113
-0.042938 -0.121489 0.888757 0 141 255 0.047692
-0.041117 -0.121739 0.884826 0 7 255 0.025696
-0.037640 -0.121806 0.881634 0 0 229 0.015758
-0.040890 -0.122095 0.880018 0 0 229 0.016035
-0.037905 -0.121611 0.886511 0 7 255 0.025748
-0.039696 -0.121323 0.890440 0 141 255 0.048449
-0.041482 -0.120947 0.894317 36 255 211 0.074091
-0.044823 -0.120117 0.897092 126 255 122 0.093430
-0.038859 -0.121779 0.875876 0 0 255 0.022485
-0.035256 -0.121646 0.872673 0 96 255 0.042421
-0.033257 -0.122272 0.868734 0 185 255 0.058581
-0.029691 -0.123541 0.865852 0 185 255 0.057834
-0.032827 -0.123840 0.864174 0 185 255 0.055710
-0.030104 -0.122137 0.870462 0 185 255 0.057003
-0.032069 -0.121534 0.874311 0 96 255 0.042019
-0.034044 -0.121495 0.878333 0 0 255 0.022656
-0.036498 -0.122517 0.867072 0 185 255 0.057084
-0.038516 -0.121894 0.871002 0 96 255 0.041288
-0.042208 -0.122047 0.874203 0 0 255 0.021080
-0.044226 -0.122368 0.878324 0 0 229 0.016637
-0.047550 -0.122558 0.876524 0 0 229 0.016956
-0.045523 -0.122228 0.872430 0 0 255 0.021104
-0.041824 -0.122067 0.869250 0 96 255 0.041102
-0.039786 -0.122656 0.865237 0 185 255 0.058504
-0.036093 -0.123959 0.862364 0 185 255 0.057464
-0.039404 -0.124222 0.860615 0 185 255 0.056243
-0.044481 -0.122062 0.883195 0 29 255 0.027598
-0.046259 -0.121701 0.887042 0 141 255 0.049181
-0.049743 -0.121296 0.889932 54 255 193 0.077847
-0.051422 -0.120408 0.893551 126 255 122 0.092784
-0.054760 -0.120578 0.891707 126 255 122 0.091963
-0.053050 -0.121550 0.888133 72 255 175 0.079773
-0.049615 -0.121934 0.885296 0 163 255 0.051248
-0.047778 -0.122326 0.881437 0 29 255 0.029613
-0.061124 -0.120955 0.888284 126 255 122 0.091998
-0.059354 -0.121922 0.884709 72 255 175 0.081993
-0.056040 -0.122333 0.881864 0 185 255 0.055083
-0.054129 -0.122651 0.877918 0 29 255 0.030691
-0.050690 -0.122703 0.874802 0 0 229 0.017440
-0.053835 -0.122852 0.873027 0 0 229 0.017781
-0.051021 -0.122469 0.879691 0 29 255 0.030146
-0.052849 -0.122194 0.883586 0 163 255 0.053940
-0.056224 -0.121811 0.886468 90 255 157 0.082977
-0.057936 -0.120770 0.889975 126 255 122 0.093500
-0.051862 -0.122600 0.868969 0 0 255 0.021234
-0.048241 -0.122490 0.865793 0 96 255 0.040115
-0.046185 -0.122970 0.861792 0 208 255 0.059057
-0.042572 -0.124416 0.858918 0 185 255 0.056309
-0.045776 -0.124638 0.857172 0 185 255 0.055893
-0.043026 -0.122850 0.863543 0 185 255 0.057768
-0.045060 -0.122316 0.867531 0 96 255 0.039649
-0.048718 -0.122430 0.870739 0 0 255 0.020822
-0.049193 -0.123182 0.860161 0 208 255 0.059069
-0.051194 -0.122619 0.864124 0 96 255 0.040702
-0.054616 -0.122674 0.867437 0 0 255 0.022144
-0.056600 -0.122918 0.871461 0 0 229 0.017798
-0.059363 -0.123074 0.869872 0 0 229 0.018342
-0.057364 -0.122722 0.865801 0 0 255 0.022843
-0.053953 -0.122722 0.862575 0 96 255 0.041246
-0.051952 -0.123306 0.858594 0 208 255 0.059561
-0.048569 -0.124746 0.855611 0 185 255 0.057705
-0.051366 -0.124875 0.854062 0 185 255 0.058394
-0.057108 -0.122792 0.876278 0 29 255 0.030954
-0.058971 -0.122428 0.880243 0 163 255 0.054409
-0.062132 -0.122036 0.883235 72 255 175 0.080224
-0.063857 -0.121049 0.886779 126 255 122 0.090627
-0.066575 -0.121047 0.885238 90 255 157 0.084435
-0.064904 -0.122104 0.881688 36 255 211 0.072285
-0.061742 -0.122535 0.878702 0 163 255 0.052505
-0.059873 -0.122773 0.874677 0 29 255 0.028783
-0.071542 -0.121140 0.882440 54 255 193 0.077486
-0.069866 -0.122201 0.878832 18 252 229 0.066798
-0.066856 -0.122899 0.875779 0 163 255 0.053937
-0.065002 -0.122994 0.871771 0 29 255 0.028580
-0.061871 -0.123127 0.868428 0 0 229 0.018570
-0.064380 -0.123148 0.866983 0 0 229 0.018526
-0.062521 -0.122874 0.873214 0 29 255 0.028308
-0.064366 -0.122665 0.877199 0 163 255 0.051557
-0.067396 -0.122199 0.880320 36 255 211 0.072460
-0.069048 -0.121070 0.883824 72 255 175 0.079750
-0.062378 -0.122798 0.862883 0 7 255 0.024885
-0.059125 -0.122787 0.859588 0 118 255 0.044780
-0.057083 -0.123373 0.855586 1 230 247 0.063696
-0.053913 -0.125027 0.852651 0 185 255 0.057594
-0.056402 -0.125034 0.851181 0 208 255 0.059896
-0.054599 -0.123414 0.857098 0 208 255 0.059785
-0.056585 -0.122781 0.861032 0 96 255 0.042684
-0.059881 -0.122774 0.864368 0 7 255 0.023708
-0.119350 -0.100700 0.897675 0 163 255 0.050990
-0.116776 -0.099766 0.899768 0 185 255 0.055394
-0.114396 -0.102020 0.897343 0 141 255 0.048989
-0.117000 -0.102862 0.895114 0 96 255 0.042776
-0.112949 -0.100014 0.900718 0 208 255 0.059842
-0.109203 -0.100399 0.901821 18 252 229 0.068348
-0.111584 -0.097997 0.903476 1 230 247 0.064544
-0.115338 -0.097516 0.902372 0 163 255 0.052203
-0.115387 -0.104159 0.893303 0 51 255 0.033161
-0.113720 -0.105318 0.891312 0 0 255 0.023194
-0.111190 -0.104562 0.893801 0 29 255 0.030401
-0.112044 -0.106533 0.889323 0 0 229 0.016206
-0.109504 -0.105716 0.891781 0 0 255 0.020596
-0.107800 -0.106954 0.889745 0 0 204 0.014008
-0.110353 -0.107810 0.887255 0 0 179 0.010472
-0.107031 -0.105013 0.894261 0 7 255 0.026936
-0.105274 -0.106189 0.892221 0 0 229 0.018554
-0.102744 -0.105499 0.894717 0 7 255 0.026390
-0.104397 -0.104231 0.896622 0 51 255 0.034792
-0.108606 -0.103718 0.896138 0 74 255 0.037169
-0.106036 -0.102970 0.898460 0 118 255 0.045871
-0.110175 -0.102509 0.897936 0 141 255 0.048195
-0.112805 -0.103276 0.895627 0 74 255 0.038692
-0.107619 -0.101646 0.900210 0 185 255 0.054818
-0.093366 -0.100076 0.905949 18 252 229 0.069057
-0.095151 -0.098639 0.907150 54 255 193 0.077253
-0.097374 -0.100040 0.904853 1 230 247 0.064338
-0.099120 -0.098531 0.905844 18 252 229 0.066420
-0.096953 -0.096991 0.908023 36 255 211 0.073775
-0.101358 -0.100170 0.903759 1 230 247 0.064823
-0.100926 -0.097049 0.906744 18 252 229 0.068550
-0.103104 -0.098606 0.904683 1 230 247 0.064615
-0.104829 -0.096940 0.905502 0 208 255 0.059331
-0.098698 -0.095377 0.908808 36 255 211 0.072104
-0.102602 -0.095241 0.907300 0 208 255 0.060063
-0.100411 -0.093622 0.909370 0 208 255 0.061549
-0.105338 -0.100138 0.902723 1 230 247 0.063818
-0.107031 -0.098651 0.903692 0 208 255 0.060736
-0.103710 -0.101551 0.901133 0 163 255 0.053597
-0.102056 -0.102859 0.899366 0 96 255 0.042829
-0.099726 -0.101441 0.902073 0 163 255 0.052215
-0.098066 -0.102697 0.900205 0 96 255 0.039538
-0.100408 -0.104110 0.897485 0 51 255 0.032029
-0.095717 -0.101372 0.903086 0 163 255 0.051975
-0.104942 -0.092715 0.908212 0 163 255 0.051300
-0.102640 -0.091147 0.909671 0 163 255 0.052803
-0.107192 -0.094262 0.906808 0 163 255 0.050971
-0.109344 -0.096176 0.905097 0 163 255 0.054642
-0.062288 -0.027031 0.913015 181 255 67 0.212173
-0.060954 -0.023850 0.912057 168 255 79 0.183652
-0.058985 -0.026674 0.915543 177 255 71 0.203725
-0.059554 -0.020820 0.910821 156 255 92 0.157754
-0.057714 -0.023591 0.914526 167 255 81 0.183579
-0.056325 -0.020672 0.913130 158 255 90 0.162375
-0.055777 -0.026597 0.917702 174 255 74 0.195431
-0.058072 -0.017848 0.909249 140 255 108 0.124916
-0.056602 -0.014924 0.907576 140 255 108 0.122023
-0.060144 -0.014716 0.904988 133 255 115 0.105651
-0.061660 -0.017816 0.906487 136 255 112 0.114372
-0.063191 -0.020838 0.908009 151 255 97 0.148143
-0.063726 -0.014848 0.902058 72 255 175 0.078514
-0.054164 -0.023858 0.916719 161 255 87 0.170746
-0.052422 -0.026757 0.919649 167 255 81 0.180303
-0.052512 -0.021224 0.915472 149 255 99 0.142419
-0.050808 -0.024291 0.918382 149 255 99 0.143717
-0.049133 -0.021805 0.916889 140 255 108 0.123588
-0.049124 -0.027271 0.921076 149 255 99 0.142774
-0.050804 -0.018920 0.913634 136 255 112 0.116044
-0.048949 -0.016316 0.911685 127 255 120 0.096362
-0.052774 -0.015496 0.909807 136 255 112 0.116034
-0.054627 -0.018032 0.911740 147 255 101 0.137280
-0.047130 -0.006403 0.898356 0 74 255 0.038959
-0.049366 -0.005995 0.897271 0 118 255 0.046379
-0.049627 -0.008683 0.900824 0 141 255 0.049910
-0.051803 -0.008239 0.899665 0 185 255 0.056464
-0.051631 -0.005613 0.896148 0 163 255 0.052134
-0.052015 -0.010847 0.903240 18 252 229 0.069077
-0.053971 -0.007815 0.898424 1 230 247 0.063154
-0.054144 -0.010365 0.901954 54 255 193 0.074254
-0.056331 -0.009992 0.900596 72 255 175 0.078833
-0.053819 -0.005273 0.894973 0 185 255 0.057456
-0.056190 -0.007511 0.897167 18 252 229 0.068344
-0.056048 -0.005054 0.893726 0 208 255 0.061874
-0.054304 -0.012911 0.905466 126 255 122 0.090822
-0.056474 -0.012528 0.904118 127 255 120 0.095228
-0.050513 -0.013566 0.907572 72 255 175 0.081757
-0.048130 -0.011430 0.905128 0 185 255 0.057498
-0.058079 -0.004852 0.892560 1 230 247 0.062624
-0.060051 -0.007299 0.894833 1 230 247 0.066280
-0.060113 -0.004734 0.891356 0 208 255 0.060120
-0.059937 -0.009883 0.898284 36 255 211 0.071553
-0.061997 -0.007393 0.893362 0 185 255 0.056281
-0.061896 -0.009894 0.896773 1 230 247 0.063559
-0.063999 -0.009915 0.895304 0 185 255 0.056233
-0.062092 -0.004841 0.890073 0 185 255 0.054849
-0.064035 -0.007449 0.892074 0 163 255 0.052210
-0.064110 -0.005005 0.888879 0 163 255 0.053223
-0.061805 -0.012421 0.900242 54 255 193 0.074296
-0.063888 -0.012432 0.898700 1 230 247 0.064899
-0.072744 -0.029582 0.903056 177 255 71 0.204040
-0.071919 -0.026382 0.901885 156 255 92 0.158404
-0.070549 -0.028819 0.905380 167 255 81 0.183202
-0.071270 -0.023176 0.900513 133 255 115 0.108137
-0.069637 -0.025579 0.904236 152 255 95 0.150135
-0.068992 -0.022258 0.902689 134 255 113 0.111680
-0.068189 -0.028217 0.907628 168 255 79 0.185095
-0.070533 -0.019823 0.898765 72 255 175 0.080058
-0.069684 -0.016273 0.897040 0 118 255 0.045223
-0.072194 -0.017139 0.895109 0 118 255 0.045380
-0.073046 -0.020641 0.896794 72 255 175 0.081324
-0.073740 -0.023972 0.898295 140 255 108 0.121998
-0.074785 -0.017989 0.893293 0 163 255 0.051958
-0.067040 -0.024901 0.906806 156 255 92 0.156487
-0.065253 -0.027571 0.910345 175 255 72 0.201061
-0.066115 -0.021551 0.905441 142 255 106 0.127373
-0.064197 -0.024146 0.909421 163 255 85 0.172728
-0.064930 -0.018218 0.903820 131 255 117 0.103942
-0.066707 -0.015471 0.899510 0 185 255 0.056209
-0.067967 -0.018882 0.901194 108 255 139 0.086586
-0.067200 -0.008175 0.890072 0 96 255 0.040308
-0.067387 -0.005583 0.887029 0 96 255 0.041566
-0.066920 -0.010766 0.893067 0 74 255 0.038641
-0.070253 -0.011370 0.890974 0 51 255 0.031589
-0.070506 -0.008803 0.888145 0 51 255 0.032884
-0.070784 -0.006068 0.885419 0 74 255 0.037512
-0.068344 -0.013481 0.895127 0 74 255 0.035341
-0.073214 -0.009601 0.886666 0 29 255 0.029144
-0.073675 -0.006818 0.884203 0 51 255 0.031960
-0.072815 -0.012197 0.889317 0 29 255 0.027652
-0.075736 -0.013033 0.887902 0 29 255 0.028486
-0.076136 -0.010297 0.885469 0 29 255 0.028208
-0.076576 -0.007502 0.883085 0 29 255 0.029175
-0.073789 -0.015114 0.891244 0 29 255 0.027524
-0.071227 -0.014220 0.892993 0 29 255 0.027690
-0.086368 -0.027330 0.892316 183 255 65 0.215533
-0.084149 -0.029761 0.894754 200 255 47 0.254323
-0.082796 -0.032476 0.897377 213 255 35 0.284936
-0.086737 -0.024511 0.890245 159 255 88 0.167523
-0.086912 -0.021439 0.888388 138 255 110 0.118920
-0.089877 -0.021900 0.888394 140 255 108 0.124928
-0.081415 -0.029261 0.895347 191 255 56 0.236072
-0.080238 -0.031834 0.898055 206 255 42 0.267169
-0.082557 -0.026721 0.892947 175 255 72 0.200358
-0.082715 -0.023797 0.890960 154 255 94 0.154587
-0.082903 -0.020442 0.889176 129 255 119 0.099147
-0.087045 -0.009753 0.881254 0 0 255 0.021630
-0.087004 -0.013065 0.883027 0 51 255 0.032461
-0.089430 -0.010004 0.881250 0 0 255 0.020187
-0.086994 -0.016135 0.884806 0 208 255 0.061336
-0.089387 -0.013377 0.882989 0 51 255 0.032459
-0.089351 -0.016356 0.884652 0 208 255 0.060104
-0.091852 -0.010115 0.881404 0 0 255 0.020544
-0.086963 -0.018904 0.886565 127 255 120 0.096400
-0.083913 -0.018123 0.887042 54 255 193 0.074520
-0.092673 -0.013728 0.883242 0 51 255 0.033231
-0.095167 -0.010501 0.881846 0 7 255 0.024720
-0.071956 -0.097506 0.916451 140 255 108 0.123081
-0.072201 -0.094081 0.918938 149 255 99 0.140734
-0.073422 -0.090768 0.920689 149 255 99 0.142016
-0.073312 -0.087100 0.922398 147 255 101 0.140413
-0.073989 -0.083404 0.923087 147 255 101 0.137568
-0.071843 -0.082841 0.924073 147 255 101 0.138894
-0.075447 -0.087578 0.921277 143 255 104 0.131543
-0.076214 -0.083995 0.921912 142 255 106 0.126470
-0.075735 -0.091256 0.919432 145 255 103 0.133641
-0.075768 -0.094648 0.917018 143 255 104 0.129994
-0.074438 -0.097866 0.915021 134 255 113 0.110570
-0.077009 -0.098225 0.913635 131 255 117 0.104562
-0.070905 -0.078343 0.923630 140 255 108 0.121235
-0.070627 -0.073848 0.922462 136 255 112 0.116521
-0.069282 -0.068641 0.921463 145 255 103 0.135340
-0.068810 -0.063546 0.920155 161 255 87 0.169637
-0.072119 -0.069501 0.920905 151 255 97 0.145301
-0.073833 -0.074666 0.921670 142 255 106 0.128664
-0.074012 -0.079245 0.922423 142 255 106 0.125589
-0.073157 -0.065084 0.919052 167 255 81 0.183497
-0.075166 -0.070356 0.920112 158 255 90 0.161303
-0.076250 -0.075278 0.920925 147 255 101 0.140104
-0.077796 -0.080289 0.920700 138 255 110 0.118754
-0.078884 -0.084692 0.920398 136 255 112 0.114665
-0.080571 -0.088594 0.918185 133 255 115 0.105811
-0.079868 -0.091973 0.916865 133 255 115 0.106663
-0.080217 -0.095323 0.914486 131 255 117 0.105361
-0.079251 -0.098515 0.912344 127 255 120 0.095319
-0.081563 -0.098780 0.911120 108 255 139 0.088648
-0.077951 -0.094958 0.915819 136 255 112 0.116517
-0.077665 -0.087985 0.919972 140 255 108 0.121947
-0.072217 -0.100354 0.912017 36 255 211 0.072612
-0.072448 -0.103444 0.907666 0 141 255 0.048097
-0.074732 -0.100688 0.910733 36 255 211 0.071207
-0.075052 -0.103668 0.906425 0 118 255 0.045079
-0.072770 -0.106836 0.903498 0 51 255 0.034975
-0.072989 -0.110432 0.899378 0 51 255 0.033370
-0.070248 -0.110371 0.900758 0 74 255 0.036898
-0.070017 -0.106631 0.904823 0 74 255 0.036550
-0.069786 -0.103206 0.909090 0 141 255 0.050311
-0.067503 -0.110269 0.902165 0 96 255 0.039571
-0.077211 -0.100951 0.909316 18 252 229 0.066994
-0.077469 -0.103882 0.905050 0 96 255 0.040646
-0.079469 -0.101255 0.908148 0 208 255 0.059267
-0.079717 -0.104085 0.903855 0 74 255 0.035870
-0.077724 -0.107039 0.900872 0 29 255 0.028035
-0.077898 -0.110501 0.896780 0 7 255 0.025141
-0.075451 -0.110487 0.898098 0 29 255 0.028987
-0.075293 -0.106973 0.902254 0 51 255 0.031923
-0.071856 -0.118899 0.886433 1 230 247 0.063524
-0.072222 -0.116317 0.890528 0 118 255 0.046540
-0.069343 -0.118796 0.887791 18 252 229 0.067053
-0.069749 -0.116334 0.891989 0 163 255 0.051299
-0.072595 -0.113424 0.894833 0 51 255 0.034993
-0.075057 -0.113505 0.893590 0 51 255 0.031706
-0.074654 -0.116412 0.889302 0 118 255 0.044064
-0.066753 -0.118856 0.889245 36 255 211 0.072511
-0.066944 -0.116224 0.893293 0 163 255 0.054075
-0.063987 -0.118769 0.890735 54 255 193 0.074868
-0.064212 -0.116203 0.894853 0 208 255 0.059321
-0.067218 -0.113376 0.897640 0 96 255 0.042421
-0.069953 -0.113401 0.896252 0 74 255 0.038538
-0.083489 -0.119677 0.879811 0 185 255 0.058497
-0.086939 -0.117571 0.881551 0 96 255 0.039473
-0.088548 -0.114778 0.884987 0 0 255 0.022670
-0.091996 -0.112505 0.886880 0 0 204 0.015294
-0.088332 -0.111451 0.890190 0 0 229 0.016185
-0.092279 -0.116003 0.881806 0 7 255 0.026489
-0.095812 -0.113708 0.883676 0 0 204 0.014899
-0.090468 -0.118357 0.878843 0 96 255 0.042250
-0.088563 -0.120537 0.875927 1 230 247 0.063251
-0.089528 -0.108003 0.893999 0 0 229 0.016315
-0.091798 -0.109734 0.891244 0 0 204 0.014428
-0.093016 -0.106535 0.895081 0 0 229 0.017698
-0.090746 -0.105129 0.898005 0 0 255 0.021984
-0.095329 -0.108149 0.892320 0 0 204 0.015324
-0.094308 -0.103809 0.899066 0 29 255 0.031068
-0.096649 -0.105262 0.896270 0 7 255 0.024034
-0.092040 -0.102480 0.902008 0 96 255 0.040249
-0.099018 -0.106738 0.893458 0 0 229 0.018969
-0.099080 -0.109188 0.888929 0 0 179 0.010977
-0.095520 -0.110823 0.887911 0 0 179 0.011171
-0.108610 -0.109830 0.884483 0 0 179 0.007918
-0.106610 -0.111627 0.882082 0 0 179 0.009398
-0.104216 -0.110978 0.884093 0 0 179 0.008542
-0.104713 -0.113544 0.879900 0 0 204 0.013716
-0.102336 -0.112895 0.881855 0 0 204 0.012241
-0.100453 -0.114931 0.879638 0 0 229 0.018902
-0.102789 -0.115544 0.877774 0 0 255 0.022333
-0.099987 -0.112303 0.883812 0 0 179 0.010898
-0.098154 -0.114294 0.881619 0 0 229 0.016415
-0.101636 -0.110028 0.886479 0 0 179 0.009206
-0.103384 -0.107972 0.889303 0 0 179 0.011293
-0.105985 -0.108840 0.886848 0 0 179 0.009573
-0.100950 -0.118136 0.874795 0 96 255 0.041784
-0.098854 -0.120041 0.872239 0 185 255 0.055962
-0.096744 -0.119811 0.873777 0 185 255 0.055296
-0.096717 -0.121707 0.869599 36 255 211 0.072858
-0.094628 -0.121425 0.871131 18 252 229 0.069777
-0.092543 -0.121278 0.872747 18 252 229 0.069526
-0.094399 -0.119164 0.875734 0 141 255 0.048058
-0.096274 -0.116781 0.878647 0 29 255 0.027682
-0.098610 -0.117420 0.876667 0 51 255 0.032028
-0.058992 -0.095652 0.922267 138 255 110 0.118884
-0.059470 -0.099015 0.917976 72 255 175 0.081883
-0.062366 -0.096088 0.920862 143 255 104 0.129477
-0.059958 -0.102541 0.913750 0 208 255 0.059765
-0.062874 -0.099301 0.916562 90 255 157 0.085051
-0.063387 -0.102752 0.912290 0 185 255 0.057094
-0.065739 -0.096523 0.919382 142 255 106 0.127016
-0.060426 -0.106243 0.909500 0 118 255 0.046395
-0.060898 -0.109968 0.905342 0 96 255 0.040687
-0.057438 -0.109843 0.907056 0 118 255 0.045377
-0.056970 -0.106082 0.911177 0 141 255 0.049374
-0.056554 -0.102325 0.915484 18 252 229 0.066472
-0.053985 -0.109769 0.908722 0 141 255 0.047146
-0.066156 -0.099643 0.914963 54 255 193 0.078093
-0.068823 -0.096999 0.917974 142 255 106 0.126725
-0.066547 -0.102956 0.910563 0 163 255 0.052244
-0.069334 -0.100006 0.913520 72 255 175 0.078713
-0.067041 -0.106545 0.906278 0 96 255 0.039135
-0.064200 -0.110166 0.903775 0 96 255 0.041111
-0.063796 -0.106388 0.907956 0 96 255 0.042496
-0.060937 -0.118673 0.892255 54 255 193 0.076820
-0.060850 -0.116065 0.896383 1 230 247 0.062665
-0.057813 -0.118600 0.894067 72 255 175 0.080697
-0.057724 -0.115988 0.898212 1 230 247 0.065170
-0.060825 -0.113100 0.900692 0 118 255 0.045966
-0.064160 -0.113253 0.899184 0 118 255 0.046064
-0.054479 -0.118480 0.895791 90 255 157 0.082238
-0.054204 -0.115881 0.899876 1 230 247 0.065949
-0.051174 -0.118314 0.897657 72 255 175 0.081541
-0.050928 -0.115802 0.901843 36 255 211 0.070437
-0.054041 -0.112972 0.904207 0 185 255 0.055874
-0.057520 -0.113013 0.902497 0 163 255 0.051725
-0.063111 -0.030953 0.913251 184 255 63 0.219062
-0.063896 -0.034915 0.913552 184 255 63 0.220291
-0.066172 -0.031428 0.910622 183 255 65 0.214850
-0.066998 -0.035260 0.910936 190 255 58 0.233925
-0.064462 -0.038951 0.914128 195 255 53 0.244999
-0.065045 -0.042908 0.914878 200 255 47 0.256288
-0.062262 -0.042598 0.917039 186 255 62 0.225723
-0.061650 -0.038368 0.916390 186 255 62 0.222762
-0.060932 -0.034225 0.916000 184 255 63 0.220779
-0.059442 -0.041870 0.919331 175 255 72 0.202874
-0.068814 -0.031989 0.908243 188 255 60 0.227656
-0.069337 -0.035618 0.908888 202 255 46 0.259454
-0.071249 -0.032425 0.905945 186 255 62 0.225968
-0.071443 -0.035923 0.906877 207 255 40 0.270222
-0.069355 -0.039256 0.910069 209 255 39 0.275501
-0.069163 -0.043285 0.911624 222 255 26 0.301994
-0.067183 -0.042965 0.913175 211 255 37 0.278556
-0.067251 -0.039065 0.911894 207 255 40 0.270320
-0.066165 -0.062799 0.920747 161 255 87 0.168293
-0.065690 -0.057650 0.918543 183 255 65 0.215489
-0.064935 -0.052290 0.916926 191 255 56 0.237320
-0.063666 -0.057328 0.919327 172 255 76 0.192467
-0.062892 -0.051908 0.918225 181 255 67 0.213968
-0.064026 -0.062367 0.921296 156 255 92 0.158982
-0.064884 -0.047444 0.915752 202 255 46 0.259111
-0.066840 -0.047487 0.914243 211 255 37 0.279905
-0.066863 -0.052425 0.915730 200 255 47 0.255826
-0.061695 -0.061870 0.922270 145 255 103 0.135378
-0.061399 -0.056975 0.920472 159 255 88 0.167060
-0.060480 -0.051617 0.919869 168 255 79 0.184088
-0.058926 -0.056325 0.921756 152 255 95 0.148963
-0.058116 -0.051030 0.921364 159 255 88 0.166520
-0.059191 -0.061234 0.923331 138 255 110 0.117909
-0.059870 -0.046522 0.919576 172 255 76 0.193174
-0.062479 -0.047051 0.917575 186 255 62 0.224121
-0.087208 -0.040001 0.902132 247 247 2 0.357220
-0.086165 -0.043884 0.904927 239 255 8 0.342256
-0.083616 -0.048304 0.907922 245 249 3 0.351836
-0.083966 -0.043852 0.904864 250 243 0 0.365874
-0.088162 -0.036480 0.899513 250 243 0 0.366985
-0.082780 -0.057156 0.912419 243 251 5 0.349335
-0.083489 -0.061013 0.914248 225 255 23 0.312374
-0.084634 -0.064703 0.915771 209 255 39 0.275898
-0.082088 -0.052854 0.910209 248 245 0 0.361840
-0.079310 -0.066193 0.917306 183 255 65 0.218548
-0.078261 -0.061665 0.915215 211 255 37 0.277530
-0.078498 -0.057192 0.912863 231 255 17 0.320634
-0.078713 -0.052511 0.910400 243 251 5 0.351196
-0.080355 -0.048026 0.908037 255 237 0 0.377131
-0.081015 -0.061485 0.914702 218 255 30 0.296580
-0.082110 -0.065603 0.916502 195 255 53 0.242340
-0.080782 -0.043317 0.905003 254 239 0 0.374833
-0.083294 -0.039618 0.902050 248 245 0 0.359712
-0.084884 -0.036213 0.899463 239 255 8 0.339888
-0.076037 -0.056288 0.912897 229 255 19 0.317311
-0.075732 -0.061122 0.915609 202 255 46 0.258299
-0.076872 -0.066031 0.918028 177 255 71 0.205684
-0.075752 -0.051245 0.910603 245 249 3 0.353137
-0.076169 -0.046371 0.908414 248 245 0 0.361146
-0.078193 -0.047341 0.908176 252 241 0 0.367428
-0.073421 -0.060364 0.916057 199 255 49 0.252933
-0.073127 -0.055086 0.913356 225 255 23 0.311387
-0.073140 -0.049820 0.911102 234 255 14 0.332015
-0.073761 -0.044979 0.908962 239 255 8 0.342231
-0.078372 -0.034398 0.900660 215 255 33 0.287507
-0.077933 -0.037837 0.902924 234 255 14 0.330282
-0.080706 -0.035211 0.899965 225 255 23 0.312102
-0.077223 -0.041800 0.905483 241 253 7 0.345347
-0.075349 -0.040900 0.906141 234 255 14 0.330061
-0.080903 -0.038918 0.902184 243 251 5 0.351026
-0.082590 -0.070284 0.917393 172 255 76 0.192848
-0.085958 -0.074253 0.916934 156 255 92 0.156900
-0.085350 -0.069516 0.916407 183 255 65 0.215762
-0.089269 -0.078087 0.915995 138 255 110 0.118884
-0.092330 -0.081655 0.914917 108 255 139 0.088663
-0.090235 -0.083345 0.915387 90 255 157 0.082134
-0.087362 -0.079678 0.916398 133 255 115 0.107097
-0.084247 -0.075774 0.917405 151 255 97 0.146068
-0.088066 -0.084840 0.915690 72 255 175 0.081058
-0.089063 -0.071808 0.915802 174 255 74 0.198039
-0.093979 -0.079684 0.914665 131 255 117 0.104484
-0.100844 -0.088109 0.910910 0 163 255 0.051390
-0.098797 -0.085046 0.912145 0 208 255 0.059570
-0.096802 -0.087857 0.911810 0 185 255 0.056828
-0.098708 -0.090767 0.910496 0 163 255 0.053517
-0.095614 -0.083376 0.913501 36 255 211 0.074014
-0.095636 -0.093230 0.910144 1 230 247 0.062757
-0.094391 -0.089378 0.912161 0 208 255 0.062002
-0.093997 -0.094998 0.909674 18 252 229 0.067586
-0.092650 -0.091153 0.911728 1 230 247 0.063098
-0.090973 -0.092842 0.911262 1 230 247 0.064366
-0.092256 -0.096469 0.908743 18 252 229 0.067895
-0.091245 -0.087150 0.913780 36 255 211 0.070666
-0.089599 -0.089045 0.913494 1 230 247 0.064090
-0.093602 -0.085631 0.913497 18 252 229 0.068936
-0.067024 -0.068141 0.921728 142 255 106 0.128208
-0.068367 -0.073179 0.923072 136 255 112 0.114400
-0.068079 -0.077534 0.924567 140 255 108 0.121411
-0.069001 -0.082138 0.925171 149 255 99 0.141420
-0.066298 -0.081446 0.926095 147 255 101 0.139660
-0.065544 -0.076921 0.925291 134 255 113 0.112488
-0.065784 -0.072541 0.923778 133 255 115 0.108887
-0.064760 -0.067627 0.922431 140 255 108 0.122602
-0.070710 -0.086502 0.923745 154 255 94 0.155595
-0.070804 -0.090267 0.922019 156 255 92 0.156415
-0.069022 -0.093488 0.920461 152 255 95 0.149082
-0.066116 -0.092923 0.921776 151 255 97 0.147982
-0.067874 -0.089597 0.923336 159 255 88 0.165315
-0.067929 -0.085859 0.924911 156 255 92 0.157998
-0.059611 -0.091877 0.924510 147 255 101 0.139184
-0.061581 -0.088294 0.925777 158 255 90 0.162547
-0.061813 -0.084408 0.926974 156 255 92 0.157007
-0.063315 -0.080651 0.927086 151 255 97 0.146229
-0.060299 -0.079887 0.927969 147 255 101 0.138197
-0.064907 -0.085099 0.926060 158 255 90 0.162729
-0.064778 -0.088951 0.924583 159 255 88 0.166496
-0.062819 -0.092364 0.923259 151 255 97 0.144982
-0.059638 -0.075393 0.926991 127 255 120 0.096763
-0.060229 -0.071070 0.925358 90 255 157 0.083236
-0.059557 -0.066273 0.924212 108 255 139 0.089504
-0.062125 -0.066960 0.923258 134 255 113 0.109885
-0.063050 -0.071865 0.924519 127 255 120 0.096882
-0.062536 -0.076111 0.926171 131 255 117 0.104666
0.002171 0.001574 0.892505 0 0 153 0.007149
0.004917 0.001573 0.893684 0 0 153 0.007566
0.003187 0.000087 0.896783 0 0 153 0.005293
0.000417 0.000223 0.895605 0 0 153 0.005222
0.005994 -0.000003 0.897959 0 0 153 0.005628
0.001418 -0.001064 0.899991 0 0 153 0.004198
0.004200 -0.001247 0.901186 0 0 153 0.004377
0.002409 -0.002301 0.904461 0 0 153 0.004032
-0.001400 -0.000861 0.898840 0 0 153 0.004879
-0.000426 -0.002005 0.903350 0 0 153 0.005444
-0.003220 -0.001841 0.902157 0 0 153 0.006867
0.007023 -0.001455 0.902315 0 0 153 0.004790
0.005194 -0.002478 0.905644 0 0 128 0.003755
0.008043 -0.002741 0.906783 0 0 128 0.003719
0.010091 -0.001809 0.903537 0 0 153 0.006439
0.009014 -0.000116 0.899244 0 0 153 0.006296
0.012038 -0.000236 0.900545 0 0 153 0.007165
0.010956 0.001583 0.896352 0 0 179 0.009491
0.007935 0.001544 0.894980 0 0 179 0.008595
0.013993 0.001684 0.897787 0 0 179 0.010287
-0.005048 -0.003387 0.905324 0 0 179 0.009934
-0.002518 -0.003441 0.906505 0 0 179 0.009599
-0.004367 -0.004787 0.909688 0 0 229 0.017248
-0.006902 -0.004728 0.908465 0 0 229 0.018406
-0.001805 -0.005009 0.910781 0 0 204 0.014899
-0.006201 -0.005996 0.912711 0 51 255 0.031344
-0.003719 -0.006221 0.913839 0 29 255 0.028550
-0.005548 -0.007237 0.916878 0 141 255 0.049523
-0.008660 -0.006020 0.911475 0 51 255 0.031951
-0.008002 -0.007317 0.915556 0 141 255 0.047327
-0.010435 -0.007357 0.914341 0 141 255 0.047175
-0.001169 -0.006339 0.915052 0 7 255 0.026345
-0.003041 -0.007457 0.918110 0 141 255 0.047027
-0.000508 -0.007680 0.919328 0 96 255 0.041376
0.001610 -0.006648 0.916317 0 0 255 0.021507
0.000970 -0.005132 0.912089 0 0 204 0.013528
0.003754 -0.005437 0.913230 0 0 179 0.010159
0.003148 -0.003879 0.908868 0 0 153 0.005265
0.000293 -0.003647 0.907687 0 0 153 0.007086
0.005926 -0.004033 0.910044 0 0 153 0.004394
0.009468 -0.007189 0.920119 0 0 204 0.013258
0.011969 -0.005836 0.916977 0 0 153 0.005304
0.009053 -0.005631 0.915738 0 0 153 0.006740
0.014521 -0.004597 0.913691 0 0 153 0.004207
0.011563 -0.004344 0.912463 0 0 128 0.003710
0.013950 -0.003108 0.909223 0 0 153 0.005214
0.016947 -0.003325 0.910370 0 0 153 0.006962
0.008621 -0.004137 0.911240 0 0 128 0.003778
0.010997 -0.002943 0.907999 0 0 153 0.004340
0.006408 -0.005579 0.914450 0 0 179 0.007832
0.004239 -0.006842 0.917579 0 0 229 0.018224
0.006891 -0.007023 0.918848 0 0 229 0.016041
0.004698 -0.008221 0.921930 0 51 255 0.033841
0.002112 -0.007890 0.920642 0 74 255 0.037884
0.007300 -0.008567 0.923164 0 7 255 0.026501
0.019006 -0.001755 0.907435 0 0 179 0.007961
0.021178 0.000241 0.904902 0 0 179 0.009040
0.017998 0.000041 0.903344 0 0 179 0.008229
0.023219 0.002418 0.902628 0 0 229 0.017852
0.020100 0.002170 0.900937 0 0 204 0.014064
0.016946 0.001938 0.899283 0 0 204 0.011985
0.015008 -0.000124 0.901928 0 0 153 0.007582
0.013037 -0.001786 0.904853 0 0 153 0.006704
0.016019 -0.001782 0.906136 0 0 153 0.007394
0.029021 0.000197 0.845846 0 0 153 0.007064
0.027724 0.001510 0.848204 0 0 179 0.011414
0.031037 0.001532 0.849785 0 0 204 0.011990
0.029705 0.002681 0.852173 0 0 229 0.017406
0.026349 0.002643 0.850608 0 0 229 0.016151
0.032955 0.002604 0.853762 0 0 229 0.016937
0.028249 0.003596 0.854686 0 0 255 0.020609
0.031550 0.003570 0.856209 0 0 255 0.021489
0.030017 0.004369 0.858763 0 7 255 0.023858
0.024879 0.003547 0.853131 0 0 229 0.019004
0.026713 0.004362 0.857279 0 0 255 0.022159
0.023337 0.004277 0.855758 0 0 255 0.019691
0.034792 0.003480 0.857775 0 0 255 0.020751
0.033322 0.004350 0.860323 0 7 255 0.023812
0.036620 0.004289 0.861920 0 7 255 0.023642
0.038093 0.003391 0.859461 0 0 255 0.020131
0.036183 0.002485 0.855403 0 0 229 0.016017
0.039449 0.002336 0.857104 0 0 204 0.014990
0.037472 0.001362 0.853102 0 0 179 0.011182
0.034260 0.001480 0.851446 0 0 204 0.011804
0.035508 0.000189 0.849199 0 0 153 0.007719
0.040739 0.001165 0.854833 0 0 179 0.010087
0.038728 0.000059 0.850873 0 0 153 0.007623
0.041990 -0.000111 0.852597 0 0 153 0.007520
0.032293 0.000220 0.847506 0 0 153 0.007554
0.021716 0.004580 0.858581 0 0 229 0.015683
0.024986 0.004683 0.859988 0 0 229 0.018093
0.023349 0.004975 0.862838 0 0 229 0.015656
0.020111 0.004888 0.861439 0 0 204 0.013905
0.026595 0.005056 0.864221 0 0 229 0.017925
0.021743 0.005328 0.865662 0 0 204 0.015452
0.024966 0.005393 0.867093 0 0 229 0.016882
0.018580 0.005279 0.864238 0 0 204 0.013987
0.028234 0.005433 0.868567 0 0 229 0.018461
0.031542 0.005441 0.870140 0 0 255 0.019778
0.029933 0.005086 0.865780 0 0 229 0.019245
0.033228 0.005083 0.867388 0 0 255 0.019853
0.031628 0.004753 0.863030 0 0 255 0.021159
0.028303 0.004730 0.861476 0 0 255 0.020113
0.034950 0.004728 0.864626 0 0 255 0.021720
0.041847 0.005504 0.875409 0 7 255 0.024626
0.043713 0.005100 0.872633 0 7 255 0.024972
0.040120 0.005157 0.870757 0 7 255 0.023851
0.045553 0.004611 0.869906 0 7 255 0.025851
0.041944 0.004721 0.868069 0 7 255 0.024926
0.043743 0.004163 0.865447 0 7 255 0.025893
0.047309 0.003992 0.867310 0 7 255 0.025642
0.038390 0.004758 0.866278 0 7 255 0.023732
0.040173 0.004269 0.863672 0 7 255 0.025316
0.036665 0.005148 0.869043 0 0 255 0.021886
0.034984 0.005503 0.871831 0 0 255 0.021170
0.038399 0.005522 0.873608 0 0 255 0.022556
0.048731 0.002911 0.864911 0 0 229 0.018755
0.050133 0.001690 0.862690 0 0 204 0.012329
0.046553 0.001970 0.860749 0 0 204 0.013593
0.051483 0.000401 0.860516 0 0 179 0.008720
0.047916 0.000695 0.858585 0 0 179 0.009135
0.049207 -0.000525 0.856437 0 0 179 0.008615
0.052811 -0.000856 0.858334 0 0 179 0.009414
0.044312 0.000945 0.856670 0 0 179 0.009529
0.045601 -0.000298 0.854497 0 0 179 0.008058
0.043007 0.002198 0.858910 0 0 204 0.014661
0.041622 0.003318 0.861231 0 0 255 0.020398
0.045187 0.003140 0.863049 0 0 255 0.019672
-0.008115 -0.122887 0.877231 0 118 255 0.043529
-0.009952 -0.121581 0.880560 0 118 255 0.043830
-0.013411 -0.121035 0.883466 0 96 255 0.040156
-0.015281 -0.120922 0.887330 0 7 255 0.027137
-0.018775 -0.121286 0.890648 0 29 255 0.028665
-0.015625 -0.121081 0.892050 0 29 255 0.030500
-0.018457 -0.121063 0.885945 0 29 255 0.030064
-0.021941 -0.121359 0.889172 0 7 255 0.024133
-0.016557 -0.121119 0.881956 0 96 255 0.041639
-0.014649 -0.121806 0.878295 0 163 255 0.050995
-0.011227 -0.123046 0.875642 0 141 255 0.048810
-0.014374 -0.123079 0.874014 0 163 255 0.051980
-0.017428 -0.121083 0.896055 0 141 255 0.048487
-0.020872 -0.121088 0.899460 54 255 193 0.074864
-0.022637 -0.120720 0.903494 138 255 110 0.117879
-0.026038 -0.119961 0.906704 154 255 94 0.153040
-0.022978 -0.119840 0.908219 158 255 90 0.162184
-0.025727 -0.120726 0.902046 133 255 115 0.106646
-0.029115 -0.119957 0.905127 147 255 101 0.136939
-0.023986 -0.121131 0.897997 1 230 247 0.066024
-0.022173 -0.121277 0.893974 0 74 255 0.037145
-0.032027 -0.120829 0.899124 126 255 122 0.090573
-0.030181 -0.121176 0.895091 0 163 255 0.053071
-0.026815 -0.121246 0.891773 0 29 255 0.029336
-0.025035 -0.121416 0.887692 0 0 255 0.021098
-0.027047 -0.121113 0.896547 0 185 255 0.058054
-0.028859 -0.120737 0.900520 127 255 120 0.096167
-0.032205 -0.120027 0.903658 142 255 106 0.126905
-0.024692 -0.121116 0.882952 0 7 255 0.024979
-0.022760 -0.121246 0.878982 0 74 255 0.038923
-0.019288 -0.121789 0.875995 0 185 255 0.054994
-0.017449 -0.123163 0.872426 0 163 255 0.054128
-0.019666 -0.121139 0.880463 0 118 255 0.043200
-0.021563 -0.121097 0.884401 0 29 255 0.030275
0.014904 -0.113534 0.891306 161 255 87 0.169560
0.011202 -0.113919 0.894099 142 255 106 0.126521
0.010997 -0.113842 0.898868 127 255 120 0.097466
0.007259 -0.114867 0.902058 0 208 255 0.061045
0.007496 -0.114780 0.897119 54 255 193 0.074650
0.003764 -0.115850 0.900416 0 118 255 0.045118
0.007680 -0.115163 0.892343 127 255 120 0.095510
0.011335 -0.114734 0.889549 145 255 103 0.135598
0.014926 -0.114747 0.886997 159 255 88 0.166451
0.011377 -0.116418 0.885487 136 255 112 0.116040
0.006867 -0.114678 0.907149 0 208 255 0.061145
0.003137 -0.115030 0.910714 1 230 247 0.064658
0.001136 -0.114576 0.914961 54 255 193 0.076797
-0.000844 -0.113792 0.919148 127 255 120 0.096862
-0.004169 -0.114858 0.917744 131 255 117 0.104864
-0.002187 -0.115594 0.913459 54 255 193 0.077489
-0.000175 -0.116024 0.909088 0 185 255 0.057704
0.003490 -0.115588 0.905530 0 141 255 0.049599
-0.010547 -0.117366 0.914939 147 255 101 0.139599
-0.008585 -0.118035 0.910514 127 255 120 0.095866
-0.005022 -0.117806 0.906924 0 208 255 0.061236
-0.003079 -0.117849 0.902513 0 74 255 0.036585
0.000461 -0.117162 0.898973 0 51 255 0.032272
