ply
format ascii 1.0
comment VCGLIB generated
element vertex 1059
property float x
property float y
property float z
property uchar red
property uchar green
property uchar blue
property float quality
end_header
0.004209 -0.133900 0.785383 0 141 255 0.048108
0.004833 -0.130553 0.781973 0 7 255 0.025208
0.013169 -0.119549 0.781099 0 0 179 0.011616
0.012337 -0.123771 0.783453 0 0 179 0.008525
0.014459 -0.122792 0.785270 0 0 153 0.007364
0.015282 -0.118653 0.782977 0 0 204 0.011957
0.012349 -0.127329 0.786888 0 0 255 0.022583
0.012164 -0.130541 0.790466 0 163 255 0.053752
0.009520 -0.131724 0.788615 0 141 255 0.050065
0.009772 -0.128507 0.785011 0 7 255 0.026091
0.003749 -0.137455 0.800247 0 0 153 0.007428
0.004864 -0.136174 0.795765 0 0 153 0.004101
0.000615 -0.138482 0.798348 0 0 153 0.007474
0.001695 -0.137281 0.793901 0 0 128 0.002369
0.005844 -0.134688 0.791266 0 0 229 0.018790
0.008683 -0.133622 0.793036 0 7 255 0.024199
0.007634 -0.135156 0.797555 0 0 153 0.004318
-0.002200 -0.139472 0.796563 0 0 179 0.007877
-0.000820 -0.138291 0.792298 0 0 128 0.003392
-0.005126 -0.140541 0.794716 0 0 179 0.009913
0.000498 -0.136771 0.788041 0 0 255 0.020259
0.003034 -0.135774 0.789559 0 0 229 0.018961
0.052869 -0.020534 0.802102 0 0 153 0.004278
0.055549 -0.020173 0.803580 0 0 153 0.004629
0.055949 -0.024038 0.802097 0 0 128 0.001167
0.058241 -0.019848 0.805067 0 0 153 0.006726
0.058635 -0.023726 0.803628 0 0 128 0.000554
0.061318 -0.023415 0.805186 0 0 128 0.000486
0.060952 -0.019489 0.806574 0 0 153 0.006396
0.058966 -0.027734 0.802205 0 0 128 0.002419
0.061671 -0.027413 0.803783 0 0 128 0.001191
0.061930 -0.031489 0.802361 0 0 153 0.005585
0.059368 -0.031829 0.800937 0 0 153 0.007519
0.056427 -0.028058 0.800785 0 0 128 0.003469
0.056789 -0.032179 0.799565 0 0 179 0.008111
0.053875 -0.028441 0.799417 0 0 128 0.003729
0.053427 -0.024402 0.800713 0 0 128 0.001415
0.050902 -0.024808 0.799360 0 0 128 0.001417
0.054152 -0.032617 0.798226 0 0 153 0.006896
0.051294 -0.028837 0.798085 0 0 128 0.003283
0.051507 -0.033070 0.796954 0 0 153 0.004603
0.050346 -0.020949 0.800752 0 0 128 0.003685
0.063657 -0.019114 0.807896 0 0 179 0.008132
0.066550 -0.018743 0.809354 0 0 179 0.011029
0.066704 -0.022699 0.807913 0 0 128 0.000889
0.069429 -0.018375 0.810808 0 0 179 0.011230
0.069560 -0.022379 0.809437 0 0 128 0.000944
0.069683 -0.026400 0.808044 0 0 128 0.000891
0.069972 -0.030538 0.806688 0 0 128 0.002715
0.067014 -0.026736 0.806615 0 0 128 0.000884
0.067324 -0.030822 0.805189 0 0 153 0.004719
0.064344 -0.027074 0.805183 0 0 128 0.001040
0.064010 -0.023055 0.806540 0 0 128 0.000533
0.064639 -0.031132 0.803739 0 0 153 0.006082
0.068881 -0.047924 0.802683 0 0 153 0.004476
0.069064 -0.043933 0.803493 0 0 128 0.001518
0.066482 -0.044183 0.802282 0 0 128 0.001170
0.066312 -0.048170 0.801530 0 0 153 0.004581
0.066735 -0.039893 0.802996 0 0 128 0.001021
0.063923 -0.044405 0.801076 0 0 128 0.001149
0.064149 -0.040190 0.801821 0 0 128 0.000396
0.061558 -0.040495 0.800673 0 0 128 0.000366
0.063720 -0.048502 0.800380 0 0 153 0.004186
0.061312 -0.044773 0.799940 0 0 128 0.000949
0.061086 -0.048891 0.799281 0 0 128 0.002536
0.064372 -0.035736 0.802618 0 0 128 0.003161
0.061784 -0.036086 0.801444 0 0 128 0.001813
0.067126 -0.035400 0.804005 0 0 128 0.003274
0.069813 -0.035080 0.805460 0 0 128 0.002373
0.069533 -0.039495 0.804335 0 0 128 0.001679
0.058672 -0.049177 0.798040 0 0 128 0.003641
0.058667 -0.045171 0.798617 0 0 128 0.000896
0.056244 -0.045500 0.797376 0 0 128 0.001060
0.056249 -0.049557 0.796822 0 0 153 0.004466
0.056290 -0.041265 0.798003 0 0 128 0.000074
0.053813 -0.045833 0.796133 0 0 128 0.001448
0.053813 -0.041687 0.796809 0 0 128 0.000031
0.051379 -0.042051 0.795592 0 0 128 0.000031
0.053789 -0.049948 0.795664 0 0 128 0.003712
0.051335 -0.046313 0.795007 0 0 128 0.000817
0.051382 -0.050303 0.794466 0 0 153 0.004144
0.053914 -0.037256 0.797436 0 0 128 0.001288
0.051428 -0.037721 0.796289 0 0 128 0.000728
0.056569 -0.036845 0.798732 0 0 128 0.001773
0.059188 -0.036434 0.800070 0 0 128 0.001978
0.058927 -0.040886 0.799328 0 0 128 0.000160
0.032310 -0.001259 0.843073 0 0 128 0.000731
0.035449 -0.001255 0.844735 0 0 128 0.000778
0.036666 -0.002545 0.842485 0 0 128 0.003267
0.038591 -0.001291 0.846391 0 0 128 0.000752
0.039788 -0.002567 0.844159 0 0 128 0.003380
0.042945 -0.002635 0.845846 0 0 153 0.003969
0.041735 -0.001421 0.848088 0 0 128 0.001158
0.041033 -0.003657 0.841802 0 0 153 0.005944
0.044181 -0.003702 0.843480 0 0 153 0.006621
0.045487 -0.004507 0.841009 0 0 153 0.007516
0.042405 -0.004518 0.839284 0 0 153 0.006902
0.037981 -0.003683 0.840100 0 0 153 0.005818
0.039349 -0.004549 0.837605 0 0 153 0.006654
0.034918 -0.003772 0.838419 0 0 153 0.006621
0.033591 -0.002611 0.840804 0 0 128 0.003734
0.030467 -0.002661 0.839126 0 0 128 0.003828
0.036280 -0.004660 0.835908 0 0 153 0.007367
0.031787 -0.003849 0.836744 0 0 153 0.007090
0.033167 -0.004762 0.834229 0 0 153 0.005718
0.029187 -0.001298 0.841390 0 0 128 0.000669
0.045094 -0.001489 0.849888 0 0 128 0.001060
0.048506 -0.001637 0.851741 0 0 128 0.001290
0.049660 -0.002821 0.849458 0 0 153 0.004211
0.051924 -0.001900 0.853578 0 0 128 0.001729
0.053086 -0.003036 0.851298 0 0 153 0.005197
0.054308 -0.003948 0.848887 0 0 179 0.008049
0.055641 -0.004593 0.846365 0 0 179 0.008538
0.050919 -0.003807 0.847088 0 0 153 0.007063
0.052247 -0.004523 0.844580 0 0 179 0.008049
0.047548 -0.003720 0.845287 0 0 153 0.006543
0.046282 -0.002697 0.847640 0 0 128 0.003835
0.048864 -0.004493 0.842790 0 0 153 0.007528
0.059444 -0.005308 0.837818 0 0 153 0.004849
0.056161 -0.005453 0.836177 0 0 153 0.004798
0.054704 -0.005495 0.839099 0 0 204 0.012249
0.052883 -0.005617 0.834513 0 0 153 0.005358
0.051445 -0.005591 0.837404 0 0 204 0.012666
0.048174 -0.005724 0.835717 0 0 204 0.012351
0.049645 -0.005756 0.832822 0 0 153 0.005370
0.050048 -0.005229 0.840151 0 0 204 0.013144
0.046786 -0.005311 0.838446 0 0 204 0.014187
0.053441 -0.005191 0.841928 0 0 204 0.013024
0.056831 -0.005204 0.843692 0 0 204 0.013736
0.058089 -0.005430 0.840839 0 0 204 0.012178
0.046532 -0.005855 0.831149 0 0 153 0.004818
0.043562 -0.005967 0.829473 0 0 153 0.004354
0.042000 -0.005883 0.832352 0 0 179 0.011176
0.040583 -0.006097 0.827800 0 0 153 0.004029
0.039040 -0.006003 0.830665 0 0 179 0.011010
0.036030 -0.006178 0.828995 0 0 204 0.012160
0.037572 -0.006336 0.826150 0 0 153 0.005104
0.037570 -0.005517 0.833353 0 0 179 0.010538
0.034563 -0.005661 0.831682 0 0 179 0.011280
0.040634 -0.005402 0.835055 0 0 179 0.010078
0.043699 -0.005333 0.836741 0 0 204 0.013022
0.045063 -0.005787 0.834057 0 0 204 0.011737
-0.007771 -0.124467 0.870925 0 0 153 0.007688
-0.007429 -0.126353 0.866870 0 0 153 0.005326
-0.011003 -0.124801 0.869301 0 0 153 0.006552
-0.010702 -0.126632 0.865225 0 0 153 0.006440
-0.007138 -0.128541 0.862898 0 0 128 0.002390
-0.006815 -0.131150 0.859062 0 0 153 0.004799
-0.003644 -0.130575 0.860795 0 0 153 0.004013
-0.003995 -0.127971 0.864659 0 0 128 0.002689
-0.004341 -0.125839 0.868634 0 0 153 0.005364
-0.000517 -0.129914 0.862483 0 0 128 0.003359
-0.014133 -0.125057 0.867552 0 0 179 0.008405
-0.013713 -0.127017 0.863450 0 0 153 0.006417
-0.017313 -0.125204 0.865921 0 0 179 0.010320
-0.013340 -0.129328 0.859466 0 0 128 0.002137
-0.009881 -0.131538 0.857309 0 0 128 0.003505
-0.010282 -0.128975 0.861238 0 0 128 0.002026
-0.004963 -0.137081 0.846568 0 0 204 0.011882
-0.001289 -0.138204 0.844056 0 0 255 0.019538
-0.005560 -0.135401 0.850866 0 0 153 0.007716
-0.001894 -0.136641 0.848431 0 0 204 0.011808
-0.002554 -0.134833 0.852708 0 0 153 0.005140
0.001790 -0.137817 0.845908 0 0 255 0.021763
-0.006203 -0.133250 0.855000 0 0 153 0.004187
-0.009300 -0.133769 0.853286 0 0 153 0.006020
0.001224 -0.136228 0.850205 0 0 204 0.013385
0.004832 -0.137285 0.847741 0 0 255 0.021448
0.000637 -0.134257 0.854378 0 0 153 0.005132
0.004266 -0.135568 0.852010 0 0 179 0.010948
0.003666 -0.133618 0.856154 0 0 128 0.003806
0.007912 -0.136766 0.849527 0 0 255 0.022806
0.000059 -0.132203 0.858457 0 0 153 0.004254
-0.003124 -0.132757 0.856756 0 0 153 0.003965
0.017698 -0.116000 0.882273 0 118 255 0.046720
0.019467 -0.117201 0.879123 0 118 255 0.045110
0.015885 -0.118753 0.877644 0 0 255 0.020846
0.014059 -0.117429 0.880730 0 0 255 0.023267
0.019438 -0.119687 0.875371 0 0 204 0.013053
0.019469 -0.122623 0.871693 0 0 128 0.001628
0.022977 -0.120852 0.873228 0 0 179 0.009830
0.022979 -0.118006 0.876936 0 96 255 0.042708
0.010671 -0.119138 0.879370 0 0 204 0.012237
0.012528 -0.120599 0.876254 0 0 179 0.008563
0.009105 -0.122129 0.874915 0 0 179 0.008557
0.007198 -0.120624 0.878007 0 0 204 0.012133
0.012722 -0.123304 0.872614 0 0 153 0.005813
0.012918 -0.126323 0.868922 0 0 229 0.017267
0.016192 -0.124610 0.870338 0 0 153 0.006574
0.015989 -0.121454 0.873951 0 0 153 0.004664
0.020850 -0.133547 0.855942 0 118 255 0.045535
0.020426 -0.130959 0.860015 0 0 229 0.017183
0.024032 -0.131969 0.857468 0 51 255 0.034351
0.020033 -0.128219 0.863973 0 0 153 0.004356
0.023573 -0.129272 0.861527 0 0 204 0.011851
0.023176 -0.126287 0.865431 0 0 128 0.002167
0.027160 -0.130084 0.858953 0 0 255 0.020787
0.019725 -0.125403 0.867859 0 0 128 0.001500
0.016452 -0.127215 0.866462 0 0 153 0.006826
0.016754 -0.129778 0.862507 0 0 153 0.007005
0.026802 -0.127261 0.862945 0 0 179 0.009118
0.030445 -0.128116 0.860538 0 0 229 0.017793
0.026649 -0.124441 0.866928 0 0 179 0.010063
0.030181 -0.125357 0.864610 0 0 229 0.018453
0.024783 -0.122635 0.870109 0 0 179 0.008354
0.003828 -0.121903 0.876534 0 0 179 0.011047
0.005754 -0.123448 0.873414 0 0 179 0.008709
0.002297 -0.124425 0.871889 0 0 153 0.007415
0.000405 -0.122803 0.875009 0 0 179 0.010715
0.005954 -0.125898 0.869587 0 0 153 0.006852
0.006143 -0.128406 0.865750 0 0 153 0.005825
0.009559 -0.127486 0.867370 0 0 204 0.012168
0.009335 -0.124806 0.871142 0 0 179 0.008947
-0.002860 -0.123575 0.873424 0 0 179 0.010003
-0.000976 -0.125275 0.870244 0 0 153 0.005986
-0.000739 -0.127483 0.866326 0 0 128 0.003400
0.002816 -0.129220 0.864160 0 0 128 0.003902
0.002546 -0.126725 0.867999 0 0 153 0.004206
0.007478 -0.135008 0.853697 0 0 179 0.011022
0.011164 -0.136207 0.851200 0 7 255 0.026988
0.007037 -0.132940 0.857764 0 0 153 0.005307
0.010667 -0.134177 0.855371 0 0 179 0.009462
0.010256 -0.132088 0.859438 0 0 153 0.005550
0.014343 -0.135474 0.852839 0 29 255 0.031227
0.006587 -0.130696 0.861786 0 0 153 0.004094
0.003236 -0.131481 0.860165 0 0 128 0.003578
0.014003 -0.133467 0.856965 0 0 229 0.018423
0.017605 -0.134637 0.854436 0 74 255 0.037154
0.013588 -0.131055 0.860974 0 0 153 0.007251
0.017216 -0.132442 0.858526 0 0 255 0.022565
0.013259 -0.128711 0.864961 0 0 179 0.009491
0.009882 -0.129721 0.863409 0 0 153 0.005676
0.022985 -0.134317 0.852377 0 29 255 0.030802
0.026751 -0.134325 0.849621 0 74 255 0.035522
0.028870 -0.134578 0.845977 0 96 255 0.040243
0.032606 -0.133966 0.843209 18 252 229 0.066544
0.029492 -0.135181 0.841373 0 208 255 0.061662
0.031940 -0.133117 0.847679 0 118 255 0.043392
0.035546 -0.131994 0.844893 0 74 255 0.038042
0.029827 -0.132715 0.851172 0 7 255 0.023503
0.027734 -0.132130 0.854716 0 29 255 0.027907
0.031404 -0.134000 0.837741 0 29 255 0.028417
0.034961 -0.132175 0.835206 0 29 255 0.027696
0.036958 -0.130575 0.831752 0 29 255 0.030359
0.040002 -0.129107 0.833806 0 29 255 0.030001
0.038080 -0.130676 0.837151 0 7 255 0.026963
0.036145 -0.131963 0.840571 0 74 255 0.036245
0.045873 -0.125520 0.837889 0 0 204 0.014265
0.043996 -0.126930 0.841124 0 0 204 0.014297
0.040568 -0.129069 0.843411 0 0 229 0.017382
0.038650 -0.130046 0.846764 0 7 255 0.026158
0.041027 -0.128781 0.839100 0 0 229 0.015633
0.042985 -0.127291 0.835835 0 0 229 0.019374
0.038129 -0.129015 0.851133 0 0 255 0.019898
0.036088 -0.128645 0.854546 0 0 204 0.014519
0.032449 -0.129115 0.857118 0 0 229 0.017575
0.032900 -0.130697 0.852791 0 0 229 0.016160
0.035011 -0.131059 0.849293 0 7 255 0.025164
0.023050 -0.076978 0.782041 0 0 153 0.004912
0.022495 -0.074019 0.781285 0 0 128 0.003769
0.023733 -0.070835 0.781721 0 0 128 0.002646
0.023237 -0.067526 0.780933 0 0 153 0.005118
0.026894 -0.067306 0.783231 0 0 128 0.003143
0.027176 -0.070533 0.783931 0 0 128 0.001872
0.025864 -0.073760 0.783516 0 0 128 0.003511
0.026220 -0.076683 0.784176 0 0 153 0.004103
0.025067 -0.079742 0.783659 0 0 153 0.006977
0.028130 -0.079407 0.785919 0 0 153 0.006678
0.020670 -0.064471 0.779718 0 0 128 0.002291
0.019923 -0.061110 0.779261 0 0 128 0.001817
0.022014 -0.061037 0.780606 0 0 153 0.004740
0.019226 -0.057654 0.778709 0 0 128 0.001078
0.021382 -0.057529 0.780007 0 0 128 0.001577
0.020756 -0.053930 0.779257 0 0 128 0.003313
0.018558 -0.054017 0.778099 0 0 128 0.002683
0.023507 -0.057468 0.781204 0 0 128 0.001992
0.022936 -0.053802 0.780460 0 0 128 0.002903
0.025074 -0.053699 0.781570 0 0 128 0.002651
0.025904 -0.060734 0.782674 0 0 128 0.003167
0.024463 -0.064232 0.781969 0 0 128 0.002284
0.033632 -0.052886 0.785645 0 0 153 0.005647
0.033814 -0.056593 0.786112 0 0 128 0.001435
0.032004 -0.060339 0.785717 0 0 128 0.001454
0.032219 -0.063686 0.786086 0 0 128 0.001667
0.030610 -0.067061 0.785239 0 0 128 0.003232
0.034321 -0.066762 0.787366 0 0 128 0.001766
0.028368 -0.064063 0.784110 0 0 128 0.001847
0.028003 -0.060641 0.783691 0 0 128 0.001550
0.027669 -0.057140 0.783131 0 0 128 0.001073
0.029795 -0.056976 0.784169 0 0 128 0.001174
0.029434 -0.053373 0.783538 0 0 153 0.005856
0.027307 -0.053517 0.782535 0 0 153 0.005195
0.031573 -0.053121 0.784573 0 0 153 0.006714
0.034349 -0.070031 0.788045 0 0 128 0.001227
0.032769 -0.073382 0.787558 0 0 128 0.003168
0.032914 -0.076322 0.788208 0 0 153 0.005623
0.031406 -0.079230 0.787940 0 0 179 0.008286
0.034733 -0.079079 0.789864 0 0 179 0.008742
0.029579 -0.076488 0.786332 0 0 153 0.005197
0.029320 -0.073561 0.785564 0 0 128 0.003539
0.030823 -0.070340 0.786018 0 0 128 0.001611
0.053530 -0.054078 0.795511 0 0 128 0.002382
0.055932 -0.053753 0.796672 0 0 128 0.002262
0.055653 -0.057766 0.796675 0 0 128 0.000973
0.058335 -0.053444 0.797931 0 0 128 0.001296
0.058032 -0.057494 0.797844 0 0 128 0.000608
0.060410 -0.057292 0.799097 0 0 128 0.000697
0.060727 -0.053151 0.799124 0 0 128 0.001169
0.057791 -0.061355 0.797939 0 0 128 0.002209
0.060189 -0.061177 0.799118 0 0 128 0.001772
0.059974 -0.064955 0.799272 0 0 153 0.004166
0.057721 -0.065037 0.798267 0 0 153 0.004216
0.055530 -0.061573 0.796938 0 0 128 0.001963
0.055454 -0.065159 0.797174 0 0 153 0.006039
0.053275 -0.061731 0.795903 0 0 128 0.002023
0.053393 -0.057991 0.795671 0 0 128 0.000490
0.051101 -0.058287 0.794640 0 0 128 0.000432
0.053170 -0.065272 0.796213 0 0 153 0.004650
0.051002 -0.061983 0.794990 0 0 128 0.001276
0.050883 -0.065412 0.795204 0 0 153 0.004315
0.051245 -0.054375 0.794468 0 0 128 0.001912
0.063161 -0.052907 0.800165 0 0 128 0.001242
0.065723 -0.052579 0.801304 0 0 128 0.001214
0.065239 -0.056814 0.801127 0 0 128 0.000385
0.068308 -0.052286 0.802418 0 0 128 0.001120
0.067810 -0.056524 0.802209 0 0 128 0.000435
0.067373 -0.060648 0.801987 0 0 128 0.002563
0.067158 -0.064532 0.802014 0 0 153 0.005415
0.064956 -0.060852 0.801073 0 0 128 0.002059
0.064779 -0.064656 0.801092 0 0 153 0.005944
0.062569 -0.061012 0.800065 0 0 128 0.002124
0.062837 -0.057060 0.800096 0 0 128 0.000467
0.062383 -0.064782 0.800193 0 0 153 0.005112
0.065694 -0.075931 0.803820 0 0 128 0.002258
0.063061 -0.079111 0.803453 0 0 128 0.003232
0.063762 -0.072340 0.802405 0 0 128 0.001056
0.061096 -0.075699 0.802173 0 0 128 0.001445
0.059191 -0.072150 0.800730 0 0 128 0.001668
0.058453 -0.078857 0.801777 0 0 128 0.001644
0.061821 -0.068690 0.800942 0 0 128 0.001765
0.064231 -0.068612 0.801870 0 0 128 0.001897
0.066629 -0.068584 0.802719 0 0 128 0.002514
0.066160 -0.072358 0.803293 0 0 128 0.002363
0.056500 -0.075555 0.800345 0 0 128 0.001301
0.054115 -0.078717 0.799796 0 0 128 0.002814
0.054542 -0.072089 0.798806 0 0 128 0.001770
0.052085 -0.075482 0.798460 0 0 128 0.001652
0.050181 -0.072183 0.796928 0 0 128 0.003594
0.049801 -0.078618 0.797778 0 0 153 0.003983
0.052670 -0.068747 0.797053 0 0 128 0.001322
0.054996 -0.068700 0.798021 0 0 128 0.001014
0.057306 -0.068689 0.798987 0 0 128 0.001162
0.056870 -0.072123 0.799768 0 0 128 0.002074
0.047766 -0.075449 0.796313 0 0 128 0.001788
0.045790 -0.078602 0.795709 0 0 153 0.007252
0.045867 -0.072340 0.794759 0 0 128 0.002505
0.043813 -0.075619 0.794242 0 0 128 0.002268
0.041946 -0.072621 0.792796 0 0 128 0.002392
0.041883 -0.078695 0.793749 0 0 153 0.006984
0.044005 -0.069220 0.793054 0 0 128 0.001567
0.042296 -0.066017 0.791353 0 0 128 0.001827
0.046569 -0.065634 0.793201 0 0 153 0.004564
0.048319 -0.068980 0.795146 0 0 128 0.001638
0.039928 -0.075770 0.792108 0 0 153 0.004097
0.038242 -0.078856 0.791773 0 0 179 0.009434
0.038056 -0.072834 0.790526 0 0 128 0.001754
0.036345 -0.076045 0.790164 0 0 153 0.004497
0.038117 -0.069710 0.789986 0 0 128 0.000863
0.038280 -0.066399 0.789292 0 0 128 0.002436
0.035830 -0.052594 0.786590 0 0 153 0.007757
0.038012 -0.056073 0.787914 0 0 153 0.004158
0.037986 -0.052325 0.787669 0 0 153 0.006848
0.037975 -0.059652 0.788365 0 0 128 0.001343
0.040169 -0.055836 0.788987 0 0 153 0.003996
0.040145 -0.059473 0.789391 0 0 128 0.001027
0.042323 -0.059237 0.790512 0 0 128 0.000840
0.040116 -0.052010 0.788745 0 0 153 0.006760
0.042311 -0.055533 0.790081 0 0 128 0.002956
0.042255 -0.051714 0.789915 0 0 153 0.005220
0.040116 -0.062894 0.789809 0 0 128 0.001712
0.042271 -0.062787 0.790971 0 0 128 0.001357
0.036085 -0.063301 0.787938 0 0 128 0.000913
0.044511 -0.051349 0.790928 0 0 153 0.006664
0.046699 -0.054915 0.792094 0 0 153 0.004176
0.046787 -0.051006 0.792058 0 0 153 0.006462
0.046562 -0.058722 0.792325 0 0 128 0.001252
0.048964 -0.054688 0.793284 0 0 128 0.002537
0.048824 -0.058482 0.793481 0 0 128 0.000853
0.049075 -0.050678 0.793261 0 0 153 0.004677
0.048681 -0.062158 0.793811 0 0 128 0.002316
0.051463 -0.081918 0.799659 0 0 128 0.002411
0.053122 -0.085084 0.801464 0 0 153 0.003967
0.055716 -0.082068 0.801643 0 0 128 0.001202
0.057370 -0.085363 0.803320 0 0 128 0.003362
0.054797 -0.088302 0.802972 0 0 179 0.008541
0.056441 -0.091450 0.804505 0 0 229 0.019116
0.052495 -0.091169 0.802819 0 0 255 0.021156
0.050813 -0.088012 0.801175 0 0 179 0.009521
0.049129 -0.084792 0.799559 0 0 153 0.004416
0.048504 -0.090815 0.801341 0 0 179 0.010119
0.060022 -0.082237 0.803554 0 0 128 0.002218
0.061550 -0.085729 0.805180 0 0 153 0.005319
0.064575 -0.082616 0.805244 0 0 128 0.003365
0.063181 -0.089081 0.806446 0 0 153 0.005470
0.060579 -0.091874 0.806113 0 0 229 0.018124
0.058973 -0.088627 0.804810 0 0 153 0.006200
0.057830 -0.100498 0.810385 0 0 153 0.006775
0.058657 -0.097566 0.808809 0 0 153 0.004961
0.054814 -0.097186 0.807445 0 0 128 0.003296
0.054064 -0.100177 0.809021 0 0 153 0.006511
0.057560 -0.094488 0.806726 0 0 153 0.006923
0.061712 -0.094988 0.808083 0 0 179 0.009990
0.050392 -0.099994 0.807734 0 0 153 0.007251
0.050983 -0.096949 0.806073 0 0 128 0.003212
0.047299 -0.096729 0.804763 0 0 153 0.007537
0.046807 -0.099926 0.806367 0 0 204 0.013951
0.049713 -0.093852 0.803822 0 0 128 0.003224
0.053649 -0.094159 0.805210 0 0 153 0.005524
0.025853 -0.133037 0.819283 0 74 255 0.037046
0.023784 -0.134473 0.822981 0 0 204 0.012787
0.020135 -0.136071 0.825855 0 0 153 0.004253
0.017904 -0.137187 0.829712 0 0 179 0.008043
0.014123 -0.138405 0.832645 0 0 229 0.018685
0.017089 -0.137937 0.834466 0 0 255 0.019874
0.014920 -0.137597 0.827912 0 0 153 0.006089
0.011072 -0.138691 0.830864 0 0 229 0.016238
0.017238 -0.136565 0.824018 0 0 128 0.003032
0.019516 -0.135395 0.820206 0 0 179 0.009231
0.023122 -0.133725 0.817348 0 74 255 0.035316
0.020270 -0.134404 0.815489 0 51 255 0.033615
0.014757 -0.137998 0.838374 0 0 179 0.009923
0.010896 -0.138052 0.841343 0 0 153 0.007722
0.008656 -0.137623 0.845052 0 0 204 0.013744
0.005582 -0.138039 0.843267 0 0 204 0.012124
0.007850 -0.138458 0.839534 0 0 153 0.005733
0.010225 -0.138507 0.835709 0 0 179 0.007841
-0.002119 -0.139003 0.838533 0 0 153 0.005972
0.001718 -0.139062 0.835812 0 0 128 0.003019
0.004038 -0.139158 0.832029 0 0 153 0.004690
0.007979 -0.138957 0.829060 0 0 179 0.009861
0.004912 -0.139283 0.827215 0 0 179 0.010494
0.007132 -0.138866 0.833891 0 0 153 0.006024
0.004784 -0.138744 0.837715 0 0 153 0.003921
0.002518 -0.138456 0.841395 0 0 179 0.011251
0.007299 -0.138402 0.823425 0 0 128 0.002230
0.011240 -0.137393 0.820437 0 0 128 0.001760
0.013620 -0.136425 0.816584 0 0 153 0.007638
0.017449 -0.135085 0.813585 0 29 255 0.029191
0.014517 -0.135701 0.811793 0 7 255 0.025318
0.016576 -0.135909 0.818399 0 0 179 0.008417
0.014252 -0.136995 0.822240 0 0 128 0.002263
0.011871 -0.137962 0.826116 0 0 153 0.004613
-0.005279 -0.139308 0.836604 0 0 179 0.007835
-0.002963 -0.139614 0.832919 0 0 153 0.004343
-0.006197 -0.139844 0.831046 0 0 153 0.005005
-0.008483 -0.139607 0.834692 0 0 153 0.007753
-0.002203 -0.139819 0.828234 0 0 153 0.006151
-0.001407 -0.139988 0.823574 0 0 179 0.009716
0.001754 -0.139661 0.825394 0 0 179 0.010280
0.000943 -0.139497 0.830128 0 0 153 0.004409
-0.011692 -0.139942 0.832724 0 0 153 0.007427
-0.009372 -0.140257 0.829067 0 0 128 0.003554
-0.007036 -0.140311 0.825404 0 0 128 0.003696
-0.004612 -0.140390 0.821674 0 0 179 0.008660
0.003051 -0.138411 0.810378 0 0 153 0.006515
0.005669 -0.137848 0.806540 0 0 229 0.018444
0.000475 -0.138981 0.814213 0 0 128 0.002528
0.003543 -0.138373 0.816079 0 0 128 0.002792
0.006101 -0.137739 0.812200 0 0 153 0.006584
0.008648 -0.137070 0.808320 0 0 229 0.017612
-0.000510 -0.139393 0.818902 0 0 128 0.003467
-0.003730 -0.139866 0.817082 0 0 128 0.003497
0.009185 -0.137209 0.813870 0 0 153 0.006970
0.011607 -0.136384 0.810014 0 7 255 0.024169
0.006686 -0.137929 0.817787 0 0 128 0.001903
0.004225 -0.138780 0.821609 0 0 128 0.002040
0.016763 -0.109452 0.780596 0 0 153 0.004171
0.016569 -0.104975 0.779192 0 0 128 0.000484
0.017384 -0.100306 0.779010 0 0 128 0.002067
0.017111 -0.096161 0.777572 0 0 179 0.008911
0.019180 -0.095434 0.780042 0 0 153 0.006074
0.019387 -0.099459 0.781404 0 0 128 0.001341
0.018699 -0.104183 0.781505 0 0 128 0.000578
0.018844 -0.108542 0.782817 0 0 128 0.003843
0.018001 -0.113459 0.782997 0 0 229 0.018814
0.020049 -0.112474 0.785266 0 0 229 0.017127
0.015174 -0.092487 0.775580 0 0 128 0.001420
0.014185 -0.088546 0.774653 0 0 128 0.001847
0.014537 -0.084661 0.774985 0 0 128 0.003738
0.016918 -0.084158 0.777445 0 0 153 0.005465
0.016506 -0.088045 0.777195 0 0 128 0.003330
0.017302 -0.091818 0.778000 0 0 128 0.001717
0.022227 -0.083220 0.782525 0 0 153 0.007499
0.021358 -0.086918 0.782359 0 0 179 0.008331
0.021826 -0.090492 0.783221 0 0 153 0.005898
0.021376 -0.094632 0.782648 0 0 153 0.004375
0.023603 -0.093822 0.785220 0 0 153 0.004016
0.019585 -0.091198 0.780710 0 0 128 0.003190
0.018831 -0.087470 0.779795 0 0 153 0.006238
0.019545 -0.083774 0.780125 0 0 153 0.006513
0.023773 -0.097624 0.786533 0 0 128 0.002949
0.022957 -0.102304 0.786500 0 0 128 0.000739
0.023133 -0.106555 0.787672 0 0 128 0.003580
0.022244 -0.111510 0.787623 0 0 229 0.018271
0.024324 -0.110398 0.790065 0 0 204 0.014287
0.021014 -0.107574 0.785292 0 0 128 0.003547
0.020850 -0.103273 0.783950 0 0 128 0.000348
0.021580 -0.098596 0.784016 0 0 128 0.001805
0.026656 -0.133838 0.824853 0 0 255 0.021183
0.028626 -0.132261 0.821285 0 74 255 0.038991
0.024605 -0.135172 0.828528 0 0 153 0.007505
0.027466 -0.134488 0.830359 0 0 179 0.010743
0.029479 -0.133019 0.826772 0 0 255 0.022352
0.031400 -0.131407 0.823284 0 74 255 0.037531
0.023925 -0.136074 0.833209 0 0 204 0.015595
0.023204 -0.136855 0.837909 0 51 255 0.033094
0.020192 -0.137450 0.836189 0 7 255 0.027279
0.020865 -0.136709 0.831479 0 0 179 0.009832
0.032378 -0.132139 0.828741 0 7 255 0.024568
0.034275 -0.130514 0.825317 0 118 255 0.044805
0.030481 -0.133671 0.832201 0 0 229 0.017200
0.028429 -0.135026 0.835911 0 7 255 0.023807
0.026361 -0.136146 0.839633 0 141 255 0.047631
0.019857 -0.135388 0.850828 0 7 255 0.026524
0.022025 -0.135902 0.847120 0 0 255 0.022428
0.018788 -0.136733 0.845532 0 0 229 0.017561
0.016557 -0.136197 0.849231 0 0 255 0.020404
0.022617 -0.136548 0.842550 0 7 255 0.025805
0.025780 -0.135726 0.844253 0 74 255 0.037179
0.013421 -0.136888 0.847578 0 0 229 0.016319
0.015677 -0.137335 0.843818 0 0 204 0.012247
0.017924 -0.137514 0.840028 0 0 204 0.014811
0.047557 -0.081772 0.797678 0 0 153 0.004720
0.045329 -0.084735 0.797747 0 0 153 0.004337
0.046892 -0.087765 0.799554 0 0 153 0.005864
0.044760 -0.090671 0.799811 0 0 153 0.007309
0.043108 -0.087637 0.797930 0 0 128 0.003758
0.041039 -0.090599 0.798254 0 0 153 0.004409
0.041338 -0.084640 0.795986 0 0 128 0.002662
0.043570 -0.081719 0.795725 0 0 153 0.004845
0.046064 -0.093670 0.802396 0 0 128 0.003804
0.043812 -0.096811 0.803277 0 0 204 0.012260
0.043471 -0.100160 0.804740 0 0 204 0.012866
0.043213 -0.103739 0.806074 0 0 204 0.012159
0.039976 -0.104234 0.804227 0 0 204 0.012054
0.040101 -0.100450 0.802966 0 0 229 0.017214
0.040247 -0.096903 0.801640 0 0 255 0.022940
0.042422 -0.093638 0.800817 0 0 153 0.007650
0.034019 -0.105811 0.799901 0 0 204 0.012293
0.033995 -0.101758 0.798797 0 0 204 0.012533
0.035501 -0.097665 0.798709 0 29 255 0.028609
0.035597 -0.094127 0.797307 0 0 255 0.023311
0.037612 -0.090767 0.796545 0 0 179 0.008084
0.034314 -0.091053 0.794698 0 0 204 0.014368
0.038940 -0.093798 0.799197 0 0 229 0.016549
0.037029 -0.101070 0.801005 0 0 204 0.012291
0.036960 -0.104984 0.802162 0 0 204 0.012434
0.034237 -0.087867 0.793669 0 0 204 0.015318
0.036075 -0.084786 0.793366 0 0 153 0.006169
0.036243 -0.081872 0.792082 0 0 128 0.003107
0.039837 -0.081776 0.793912 0 0 128 0.003513
0.039373 -0.087582 0.796347 0 0 153 0.005126
0.025378 -0.105507 0.790253 0 0 128 0.003578
0.025165 -0.101283 0.789088 0 0 128 0.002546
0.026154 -0.096786 0.789144 0 0 153 0.005292
0.026047 -0.093054 0.787754 0 0 153 0.005755
0.028553 -0.092307 0.790173 0 0 179 0.008488
0.028537 -0.095885 0.791558 0 0 179 0.009980
0.027490 -0.100269 0.791596 0 0 153 0.005998
0.027612 -0.104336 0.792739 0 0 153 0.003974
0.026513 -0.109203 0.792588 0 0 179 0.010704
0.028819 -0.108008 0.795061 0 0 179 0.010131
0.024352 -0.089835 0.785856 0 0 179 0.009373
0.023965 -0.086341 0.784875 0 0 179 0.011342
0.025148 -0.082838 0.784967 0 0 153 0.007811
0.028054 -0.082445 0.787142 0 0 153 0.006340
0.026699 -0.085814 0.787286 0 0 204 0.013648
0.026914 -0.089157 0.788217 0 0 204 0.013757
0.032915 -0.082058 0.790329 0 0 153 0.004344
0.032766 -0.084995 0.791566 0 0 204 0.011897
0.031174 -0.088274 0.791711 0 0 229 0.017547
0.031306 -0.091625 0.792543 0 0 179 0.011445
0.029615 -0.085337 0.789505 0 0 229 0.017184
0.032602 -0.094739 0.795256 0 0 255 0.021567
0.032579 -0.098403 0.796509 0 0 255 0.022869
0.031285 -0.102739 0.796510 0 0 179 0.011504
0.031354 -0.106883 0.797537 0 0 204 0.011815
0.029930 -0.099279 0.794098 0 0 204 0.013224
0.015222 -0.133948 0.807319 0 0 179 0.011564
0.015896 -0.132161 0.802906 0 0 153 0.007604
0.012381 -0.134777 0.805543 0 0 179 0.010946
0.013146 -0.133131 0.801092 0 0 153 0.006505
0.016547 -0.130356 0.798540 0 7 255 0.023856
0.017101 -0.128296 0.794301 0 163 255 0.051702
0.019508 -0.127203 0.796296 0 163 255 0.051055
0.019031 -0.129331 0.800502 0 0 255 0.023366
0.018508 -0.131289 0.804808 0 0 179 0.008627
0.021790 -0.126071 0.798442 0 96 255 0.042898
0.009555 -0.135598 0.803796 0 0 179 0.010123
0.010547 -0.134101 0.799283 0 0 153 0.005231
0.006620 -0.136510 0.802025 0 0 153 0.007227
0.011452 -0.132482 0.794839 0 0 255 0.021969
0.014697 -0.129430 0.792365 0 141 255 0.048951
0.013990 -0.131423 0.796668 0 7 255 0.024256
0.017422 -0.117652 0.785111 0 0 179 0.009937
0.016764 -0.121674 0.787326 0 0 153 0.005701
0.018921 -0.120747 0.789430 0 0 153 0.007213
0.019538 -0.116708 0.787263 0 0 179 0.009996
0.017005 -0.125082 0.790747 0 0 255 0.020808
0.014675 -0.126248 0.788728 0 0 255 0.020028
0.021672 -0.115542 0.789608 0 0 153 0.007106
0.021095 -0.119583 0.791647 0 0 153 0.005093
0.023228 -0.118505 0.794059 0 0 128 0.002352
0.023763 -0.114431 0.792067 0 0 153 0.004291
0.021470 -0.122915 0.794991 0 0 229 0.016801
0.019238 -0.124071 0.792848 0 0 229 0.019445
0.026154 -0.130786 0.815098 0 0 204 0.014373
0.026371 -0.128549 0.810950 0 0 153 0.007403
0.023468 -0.131659 0.813072 0 0 229 0.016524
0.023739 -0.129488 0.808867 0 0 179 0.008550
0.026458 -0.126266 0.806946 0 0 229 0.016220
0.026463 -0.123850 0.803002 0 29 255 0.028153
0.028910 -0.122700 0.805384 0 0 255 0.020402
0.028976 -0.125238 0.809206 0 0 179 0.011373
0.028949 -0.127627 0.813148 0 0 179 0.009519
0.031456 -0.121499 0.807730 0 0 229 0.017678
0.020766 -0.132435 0.811046 0 0 229 0.017648
0.021166 -0.130374 0.806769 0 0 179 0.009229
0.017991 -0.133205 0.809154 0 0 204 0.012480
0.021509 -0.128274 0.802548 0 0 255 0.021608
0.024140 -0.124976 0.800643 0 74 255 0.038142
0.023970 -0.127268 0.804739 0 0 229 0.019144
0.025947 -0.113196 0.794542 0 0 128 0.003857
0.025422 -0.117195 0.796452 0 0 128 0.000967
0.027709 -0.116025 0.798970 0 0 128 0.002081
0.028264 -0.112068 0.797044 0 0 153 0.005531
0.025935 -0.120517 0.799705 0 0 153 0.007761
0.023692 -0.121778 0.797322 0 0 204 0.012256
0.030789 -0.110840 0.799501 0 0 179 0.009655
0.030180 -0.114759 0.801427 0 0 153 0.005321
0.032865 -0.113696 0.803841 0 0 153 0.006747
0.033482 -0.109718 0.801900 0 0 204 0.011917
0.030841 -0.118129 0.804587 0 0 179 0.007966
0.028324 -0.119354 0.802191 0 0 179 0.008596
0.044117 -0.106936 0.809141 0 0 204 0.011905
0.043323 -0.110378 0.811319 0 0 179 0.010983
0.040935 -0.114501 0.812405 0 0 179 0.008317
0.040085 -0.118356 0.814390 0 0 229 0.017214
0.037045 -0.119357 0.812272 0 0 204 0.014546
0.037842 -0.115456 0.810326 0 0 179 0.009057
0.040195 -0.111187 0.809415 0 0 179 0.010438
0.040979 -0.107559 0.807247 0 0 179 0.011475
0.040205 -0.121029 0.818095 0 0 179 0.009243
0.038776 -0.124065 0.820822 0 0 128 0.002804
0.035852 -0.127660 0.822468 0 0 179 0.010772
0.032937 -0.128611 0.820332 0 0 179 0.010241
0.035797 -0.125113 0.818682 0 0 128 0.001341
0.037211 -0.122018 0.815978 0 0 179 0.009018
0.028811 -0.130030 0.817235 0 0 204 0.013707
0.031622 -0.126772 0.815401 0 0 179 0.011247
0.031575 -0.124216 0.811524 0 0 179 0.009050
0.034213 -0.120418 0.810054 0 0 229 0.019333
0.034308 -0.123119 0.813808 0 0 179 0.010393
0.033584 -0.117133 0.807019 0 0 179 0.009112
0.035770 -0.112775 0.806185 0 0 153 0.006679
0.036357 -0.108771 0.804227 0 0 204 0.013162
0.029276 -0.020781 0.790679 0 0 229 0.015862
0.030074 -0.024787 0.789570 0 0 153 0.004839
0.027663 -0.025374 0.788189 0 0 153 0.005076
0.028339 -0.029464 0.787268 0 0 128 0.000377
0.030732 -0.028907 0.788608 0 0 128 0.000377
0.025886 -0.030018 0.785948 0 0 128 0.000218
0.028885 -0.033536 0.786487 0 0 128 0.000793
0.026500 -0.033986 0.785148 0 0 128 0.000792
0.027140 -0.037774 0.784351 0 0 128 0.003129
0.031259 -0.033039 0.787800 0 0 128 0.000893
0.029519 -0.037363 0.785645 0 0 128 0.002706
0.031834 -0.037001 0.787003 0 0 128 0.001376
0.024085 -0.034368 0.783838 0 0 128 0.000785
0.024756 -0.038086 0.783041 0 0 128 0.003808
0.022336 -0.038395 0.781779 0 0 128 0.003255
0.021533 -0.034658 0.782525 0 0 128 0.000757
0.023341 -0.030447 0.784578 0 0 128 0.000140
0.020775 -0.030838 0.783210 0 0 128 0.000168
0.022528 -0.026383 0.785358 0 0 153 0.004138
0.025109 -0.025885 0.786767 0 0 153 0.004519
0.024224 -0.021796 0.787767 0 0 229 0.018266
0.019943 -0.026838 0.783967 0 0 128 0.003660
0.021636 -0.022329 0.786320 0 0 229 0.017175
0.019036 -0.022857 0.784874 0 0 229 0.015811
0.026779 -0.021261 0.789222 0 0 229 0.017902
0.032261 -0.041194 0.786550 0 0 128 0.000644
0.030106 -0.041616 0.785389 0 0 128 0.000679
0.030627 -0.045639 0.785000 0 0 128 0.000240
0.032760 -0.045249 0.786170 0 0 128 0.000168
0.028495 -0.045954 0.783863 0 0 128 0.000391
0.031107 -0.049522 0.784680 0 0 128 0.002453
0.028998 -0.049780 0.783622 0 0 128 0.003153
0.033225 -0.049159 0.785776 0 0 128 0.002005
0.026804 -0.050080 0.782578 0 0 128 0.002315
0.024471 -0.050156 0.781486 0 0 128 0.001696
0.026146 -0.046214 0.782616 0 0 128 0.000679
0.023768 -0.046396 0.781482 0 0 128 0.000299
0.025425 -0.042214 0.782843 0 0 128 0.001028
0.027794 -0.041914 0.784097 0 0 128 0.000927
0.023044 -0.042439 0.781588 0 0 128 0.001101
0.015469 -0.050584 0.776784 0 0 128 0.000743
0.017872 -0.050559 0.778099 0 0 128 0.000961
0.016976 -0.046904 0.777870 0 0 128 0.000173
0.014562 -0.046979 0.776608 0 0 128 0.000122
0.019364 -0.046803 0.779219 0 0 128 0.000201
0.016004 -0.043109 0.777784 0 0 128 0.001378
0.018396 -0.042917 0.779118 0 0 128 0.001293
0.017469 -0.038982 0.779069 0 0 153 0.004122
0.013603 -0.043305 0.776416 0 0 128 0.001622
0.015039 -0.039279 0.777734 0 0 128 0.003537
0.012623 -0.039485 0.776378 0 0 128 0.003378
0.020819 -0.042753 0.780428 0 0 128 0.001151
0.019893 -0.038679 0.780422 0 0 128 0.003861
0.021572 -0.046647 0.780323 0 0 128 0.000270
0.022291 -0.050341 0.780347 0 0 128 0.001590
0.020076 -0.050491 0.779198 0 0 128 0.001372
0.011621 -0.036033 0.776905 0 0 128 0.000818
0.014169 -0.035774 0.778386 0 0 128 0.000805
0.013230 -0.032102 0.778863 0 0 128 0.000106
0.010655 -0.032392 0.777484 0 0 128 0.000274
0.015823 -0.031787 0.780325 0 0 128 0.000114
0.012263 -0.028356 0.779470 0 0 128 0.003814
0.014867 -0.027927 0.780951 0 0 153 0.004034
0.013792 -0.024024 0.781725 0 0 229 0.017651
0.009682 -0.028725 0.778034 0 0 128 0.003895
0.011222 -0.024516 0.780159 0 0 229 0.019057
0.008648 -0.024956 0.778602 0 0 255 0.020814
0.017453 -0.027462 0.782492 0 0 128 0.003696
0.016399 -0.023473 0.783301 0 0 229 0.016914
0.018308 -0.031324 0.781752 0 0 128 0.000114
0.019077 -0.035054 0.781086 0 0 128 0.000879
0.016617 -0.035447 0.779748 0 0 128 0.000840
0.047952 -0.021378 0.799320 0 0 153 0.004885
0.048469 -0.025263 0.797952 0 0 128 0.002190
0.045992 -0.025716 0.796599 0 0 128 0.001935
0.048785 -0.029338 0.796733 0 0 128 0.003305
0.046265 -0.029824 0.795404 0 0 128 0.002984
0.046449 -0.033978 0.794300 0 0 153 0.005018
0.048978 -0.033542 0.795619 0 0 153 0.004841
0.043742 -0.030326 0.794110 0 0 128 0.002439
0.043934 -0.034459 0.793042 0 0 153 0.004304
0.041415 -0.034978 0.791848 0 0 128 0.002655
0.041073 -0.030843 0.792803 0 0 128 0.001413
0.043342 -0.026169 0.795181 0 0 128 0.001999
0.040686 -0.026706 0.793833 0 0 128 0.001157
0.042785 -0.022197 0.796407 0 0 153 0.006714
0.045380 -0.021753 0.797858 0 0 153 0.006148
0.044589 -0.017993 0.799230 0 0 204 0.015209
0.040160 -0.022690 0.795012 0 0 153 0.005902
0.042018 -0.018435 0.797775 0 0 204 0.015199
0.039401 -0.018884 0.796346 0 0 204 0.014253
0.047148 -0.017592 0.800724 0 0 204 0.013539
0.049043 -0.038135 0.795067 0 0 128 0.000615
0.049008 -0.042522 0.794385 0 0 128 0.000039
0.046661 -0.042965 0.793194 0 0 128 0.000038
0.048985 -0.046767 0.793825 0 0 128 0.000790
0.046659 -0.047160 0.792637 0 0 128 0.000970
0.044378 -0.047507 0.791477 0 0 128 0.000982
0.041959 -0.047859 0.790272 0 0 128 0.001044
0.044182 -0.043386 0.791963 0 0 128 0.000037
0.041724 -0.043757 0.790741 0 0 128 0.000051
0.044027 -0.039006 0.792482 0 0 128 0.000700
0.046516 -0.038585 0.793748 0 0 128 0.000682
0.041543 -0.039465 0.791306 0 0 128 0.000479
0.035515 -0.048925 0.786919 0 0 128 0.001885
0.035080 -0.044942 0.787291 0 0 128 0.000114
0.037399 -0.044618 0.788533 0 0 128 0.000076
0.034658 -0.040781 0.787721 0 0 128 0.000601
0.037012 -0.040360 0.788925 0 0 128 0.000562
0.036679 -0.035989 0.789355 0 0 128 0.003163
0.034268 -0.036495 0.788167 0 0 128 0.002323
0.039349 -0.039905 0.790119 0 0 128 0.000543
0.039044 -0.035494 0.790588 0 0 128 0.003029
0.039577 -0.044178 0.789607 0 0 128 0.000027
0.039802 -0.048275 0.789134 0 0 128 0.001199
0.037652 -0.048610 0.788002 0 0 128 0.001938
0.033846 -0.032514 0.789045 0 0 128 0.000948
0.033324 -0.028376 0.789893 0 0 128 0.000782
0.035864 -0.027884 0.791221 0 0 128 0.000854
0.032687 -0.024249 0.790902 0 0 153 0.006058
0.035240 -0.023721 0.792256 0 0 153 0.006720
0.034419 -0.019764 0.793432 0 0 229 0.019381
0.031882 -0.020261 0.792040 0 0 229 0.018589
0.037760 -0.023228 0.793645 0 0 153 0.006298
0.036919 -0.019300 0.794864 0 0 229 0.017760
0.038289 -0.027272 0.792494 0 0 128 0.001333
0.038686 -0.031381 0.791504 0 0 128 0.001691
0.036279 -0.031955 0.790254 0 0 128 0.001387
0.026311 -0.001300 0.839777 0 0 128 0.000649
0.027598 -0.002673 0.837513 0 0 128 0.002867
0.024733 -0.002719 0.835900 0 0 128 0.002364
0.028922 -0.003864 0.835138 0 0 153 0.005742
0.026056 -0.003924 0.833536 0 0 153 0.004045
0.027434 -0.004871 0.831040 0 0 153 0.004694
0.030298 -0.004795 0.832630 0 0 153 0.006626
0.023135 -0.004018 0.831943 0 0 153 0.003974
0.024521 -0.005000 0.829452 0 0 153 0.004861
0.021577 -0.005156 0.827847 0 0 153 0.004782
0.020201 -0.004146 0.830397 0 0 153 0.004510
0.021796 -0.002779 0.834374 0 0 128 0.001850
0.018851 -0.002893 0.832847 0 0 128 0.002365
0.020479 -0.001376 0.836723 0 0 128 0.000547
0.023411 -0.001330 0.838237 0 0 128 0.000642
0.017527 -0.001467 0.835186 0 0 128 0.000552
0.031736 -0.005740 0.830045 0 0 179 0.010299
0.033213 -0.006283 0.827348 0 0 179 0.011178
0.030370 -0.006420 0.825722 0 0 179 0.008992
0.034762 -0.006452 0.824492 0 0 153 0.004066
0.031918 -0.006610 0.822854 0 0 128 0.003835
0.033528 -0.006538 0.819866 0 0 128 0.001153
0.036366 -0.006363 0.821512 0 0 128 0.001085
0.029038 -0.006826 0.821217 0 0 128 0.003635
0.030653 -0.006789 0.818236 0 0 128 0.000739
0.027744 -0.007049 0.816612 0 0 128 0.000484
0.026095 -0.007035 0.819628 0 0 153 0.004026
0.027459 -0.006593 0.824142 0 0 179 0.009667
0.024511 -0.006820 0.822537 0 0 179 0.011609
0.025949 -0.005988 0.826879 0 0 153 0.007257
0.028870 -0.005833 0.828465 0 0 179 0.009717
0.023007 -0.006183 0.825274 0 0 179 0.008863
0.017072 -0.007834 0.810202 0 0 128 0.001088
0.015441 -0.007743 0.813225 0 0 128 0.002741
0.018143 -0.007554 0.814710 0 0 128 0.002529
0.016554 -0.007258 0.817643 0 0 153 0.007453
0.013865 -0.007423 0.816117 0 0 179 0.008143
0.019230 -0.007091 0.819181 0 0 153 0.007026
0.015049 -0.006582 0.820459 0 0 153 0.006030
0.017711 -0.006431 0.822035 0 0 153 0.005642
0.016258 -0.005339 0.824722 0 0 128 0.001717
0.012370 -0.006722 0.818892 0 0 153 0.006279
0.013594 -0.005493 0.823142 0 0 128 0.001978
0.010949 -0.005639 0.821549 0 0 128 0.002070
0.020373 -0.006288 0.823591 0 0 153 0.006546
0.018936 -0.005234 0.826281 0 0 153 0.004069
0.021893 -0.006902 0.820845 0 0 179 0.008045
0.023464 -0.007192 0.817989 0 0 128 0.003646
0.020817 -0.007374 0.816331 0 0 128 0.002550
0.022448 -0.007398 0.813393 0 0 128 0.001021
0.025109 -0.007206 0.814989 0 0 128 0.000817
0.019781 -0.007616 0.811782 0 0 128 0.000978
0.009541 -0.004544 0.824232 0 0 128 0.002001
0.012200 -0.004452 0.825715 0 0 128 0.001927
0.010847 -0.003116 0.828280 0 0 128 0.000887
0.008196 -0.003241 0.826807 0 0 128 0.001193
0.013518 -0.003032 0.829733 0 0 128 0.001176
0.009559 -0.001685 0.830748 0 0 128 0.000521
0.012219 -0.001596 0.832190 0 0 128 0.000582
0.006910 -0.001819 0.829295 0 0 128 0.000491
0.014881 -0.001548 0.833640 0 0 128 0.000532
0.016195 -0.002940 0.831297 0 0 128 0.001545
0.017544 -0.004215 0.828851 0 0 128 0.003415
0.014864 -0.004312 0.827284 0 0 128 0.002592
0.025698 -0.018039 0.790970 0 0 204 0.012644
0.023155 -0.018519 0.789491 0 0 229 0.017137
0.021916 -0.015710 0.791396 0 0 204 0.012989
0.020581 -0.019051 0.788009 0 0 229 0.016036
0.019371 -0.016188 0.789899 0 0 204 0.012586
0.016789 -0.016710 0.788395 0 0 179 0.011512
0.017979 -0.019598 0.786540 0 0 204 0.014462
0.017994 -0.013782 0.791971 0 0 204 0.014830
0.015466 -0.014249 0.790422 0 0 204 0.014765
0.014035 -0.012181 0.792653 0 0 255 0.022505
0.016518 -0.011767 0.794164 0 0 255 0.022718
0.020496 -0.013369 0.793446 0 0 204 0.014634
0.018984 -0.011394 0.795694 0 0 255 0.021311
0.022976 -0.012954 0.794922 0 0 204 0.014265
0.024405 -0.015300 0.792835 0 0 179 0.007841
0.026851 -0.014906 0.794291 0 0 153 0.006692
0.021444 -0.011019 0.797208 0 0 255 0.020251
0.025406 -0.012587 0.796427 0 0 204 0.012454
0.023876 -0.010659 0.798728 0 0 229 0.018737
0.028154 -0.017655 0.792389 0 0 179 0.011018
0.015388 -0.020147 0.785079 0 0 204 0.012471
0.012785 -0.020756 0.783456 0 0 179 0.010741
0.011639 -0.017800 0.785422 0 0 179 0.007962
0.010197 -0.021336 0.781847 0 0 179 0.010930
0.009051 -0.018422 0.783776 0 0 153 0.007072
0.006525 -0.018930 0.782080 0 0 179 0.008739
0.007634 -0.021868 0.780259 0 0 179 0.011435
0.007867 -0.015750 0.785823 0 0 204 0.014116
0.005340 -0.016301 0.784117 0 0 229 0.015970
0.004085 -0.013965 0.786285 0 7 255 0.026093
0.006554 -0.013531 0.787875 0 7 255 0.023524
0.010397 -0.015259 0.787373 0 0 204 0.011994
0.009053 -0.013071 0.789477 0 0 255 0.022702
0.012938 -0.014752 0.788899 0 0 204 0.013557
0.014208 -0.017259 0.786905 0 0 179 0.010030
0.011550 -0.012634 0.791064 0 0 255 0.022499
-0.001631 -0.009327 0.797967 0 0 128 0.003195
0.000679 -0.009155 0.799503 0 0 128 0.002317
0.002216 -0.009977 0.796704 0 0 128 0.002064
0.004591 -0.009734 0.798211 0 0 128 0.001771
0.003014 -0.008973 0.801049 0 0 128 0.001802
0.006161 -0.010588 0.795370 0 0 128 0.002006
0.006970 -0.009495 0.799703 0 0 128 0.001780
0.008556 -0.010296 0.796830 0 0 128 0.002014
0.010937 -0.009984 0.798262 0 0 128 0.002241
0.005381 -0.008754 0.802559 0 0 128 0.002093
0.009325 -0.009219 0.801170 0 0 128 0.002068
0.007702 -0.008587 0.804090 0 0 128 0.001627
0.010097 -0.011302 0.794042 0 0 179 0.008396
0.012490 -0.010946 0.795437 0 0 179 0.008989
0.007647 -0.011660 0.792368 0 0 179 0.009617
0.005178 -0.012063 0.790722 0 0 179 0.010572
0.003725 -0.010906 0.793659 0 0 128 0.002771
0.001327 -0.011205 0.791942 0 0 153 0.006456
0.002732 -0.012433 0.789070 0 0 204 0.012875
-0.000156 -0.010212 0.794933 0 0 128 0.003378
0.010041 -0.008364 0.805582 0 0 128 0.001930
0.011698 -0.008968 0.802805 0 0 128 0.001919
0.014079 -0.008716 0.804287 0 0 128 0.002100
0.012388 -0.008165 0.807097 0 0 128 0.001967
0.015769 -0.009368 0.801441 0 0 128 0.002124
0.016456 -0.008479 0.805788 0 0 128 0.002018
0.018174 -0.009061 0.802887 0 0 128 0.002432
0.020564 -0.008761 0.804335 0 0 128 0.002737
0.014738 -0.008004 0.808654 0 0 128 0.001446
0.018821 -0.008238 0.807292 0 0 128 0.001947
0.019843 -0.009897 0.800074 0 0 179 0.008205
0.022237 -0.009570 0.801488 0 0 179 0.008363
0.017396 -0.010240 0.798523 0 0 179 0.008482
0.014948 -0.010583 0.796974 0 0 179 0.008865
0.013346 -0.009667 0.799844 0 0 128 0.002239
-0.009537 -0.002581 0.819820 0 0 128 0.000382
-0.007182 -0.002486 0.821128 0 0 128 0.000374
-0.005835 -0.003827 0.818452 0 0 128 0.000955
-0.004823 -0.002366 0.822450 0 0 128 0.000417
-0.003481 -0.003744 0.819781 0 0 128 0.000877
-0.001090 -0.003652 0.821119 0 0 128 0.000779
-0.002439 -0.002228 0.823782 0 0 128 0.000539
-0.002106 -0.005004 0.817095 0 0 128 0.001238
0.000274 -0.004935 0.818415 0 0 128 0.001086
0.001704 -0.005970 0.815634 0 0 128 0.000656
-0.000624 -0.006060 0.814199 0 0 128 0.000608
-0.004405 -0.005091 0.815648 0 0 128 0.001027
-0.002944 -0.006143 0.812773 0 0 128 0.000568
-0.006677 -0.005178 0.814196 0 0 128 0.000765
-0.008109 -0.003934 0.817012 0 0 128 0.000710
-0.010351 -0.004022 0.815570 0 0 128 0.000468
-0.005227 -0.006200 0.811338 0 0 128 0.000366
-0.008912 -0.005239 0.812754 0 0 128 0.000413
-0.007465 -0.006241 0.809905 0 0 128 0.000310
-0.011777 -0.002706 0.818370 0 0 128 0.000542
-0.000155 -0.002059 0.825272 0 0 128 0.000494
0.002199 -0.001967 0.826627 0 0 128 0.000381
0.003488 -0.003366 0.824123 0 0 128 0.000884
0.004565 -0.001878 0.827970 0 0 128 0.000580
0.005845 -0.003301 0.825469 0 0 128 0.000988
0.007181 -0.004603 0.822907 0 0 128 0.001600
0.008630 -0.005740 0.820058 0 0 128 0.001300
0.004869 -0.004726 0.821399 0 0 128 0.001465
0.006302 -0.005809 0.818571 0 0 128 0.000957
0.002578 -0.004823 0.819910 0 0 128 0.001192
0.001191 -0.003506 0.822618 0 0 128 0.000847
0.003991 -0.005889 0.817124 0 0 128 0.000855
0.013105 -0.007841 0.811827 0 0 128 0.001328
0.010760 -0.007976 0.810238 0 0 128 0.001059
0.009197 -0.007566 0.813249 0 0 153 0.004452
0.008434 -0.008121 0.808678 0 0 128 0.000972
0.006890 -0.007670 0.811638 0 0 128 0.003580
0.004596 -0.007773 0.810034 0 0 128 0.003069
0.006122 -0.008265 0.807126 0 0 128 0.000833
0.005405 -0.006940 0.814524 0 0 128 0.003127
0.003115 -0.007031 0.812879 0 0 128 0.002291
0.007726 -0.006871 0.815970 0 0 128 0.003612
0.010046 -0.006793 0.817428 0 0 153 0.004271
0.011533 -0.007490 0.814688 0 0 153 0.005377
0.003755 -0.008418 0.805785 0 0 128 0.000969
0.001432 -0.008546 0.804237 0 0 128 0.000755
-0.000105 -0.007992 0.807296 0 0 128 0.003238
-0.000870 -0.008685 0.802676 0 0 128 0.000619
-0.002388 -0.008081 0.805731 0 0 128 0.002423
-0.004622 -0.008162 0.804135 0 0 128 0.001532
-0.003145 -0.008798 0.801087 0 0 128 0.000609
-0.003858 -0.007269 0.808675 0 0 128 0.001943
-0.006063 -0.007333 0.807081 0 0 128 0.001068
-0.001556 -0.007221 0.810085 0 0 128 0.002622
0.000786 -0.007127 0.811479 0 0 128 0.002424
0.002247 -0.007887 0.808668 0 0 128 0.003048
0.038031 -0.006585 0.818506 0 0 128 0.001623
0.039577 -0.006822 0.815475 0 0 153 0.007115
0.036857 -0.007019 0.813808 0 0 179 0.008516
0.041095 -0.007230 0.812453 0 0 255 0.022307
0.038371 -0.007489 0.810830 0 0 255 0.019830
0.039820 -0.008363 0.808003 0 7 255 0.026054
0.042551 -0.008085 0.809587 0 29 255 0.029308
0.035639 -0.007800 0.809237 0 0 229 0.018890
0.037090 -0.008708 0.806435 0 7 255 0.024620
0.034324 -0.009116 0.804883 0 0 255 0.021211
0.032758 -0.008174 0.807682 0 0 179 0.010790
0.033992 -0.007326 0.812235 0 0 153 0.005512
0.031112 -0.007631 0.810662 0 0 153 0.005167
0.032320 -0.007075 0.815285 0 0 128 0.000833
0.035174 -0.006825 0.816900 0 0 128 0.001591
0.029431 -0.007308 0.813667 0 0 128 0.001040
0.043942 -0.009853 0.807098 0 0 255 0.021648
0.045125 -0.012020 0.804728 0 0 204 0.015353
0.042556 -0.012418 0.803220 0 0 204 0.014972
0.046187 -0.014645 0.802629 0 0 179 0.010593
0.043633 -0.015031 0.801133 0 0 179 0.011231
0.041044 -0.015451 0.799665 0 0 179 0.010521
0.038297 -0.015864 0.798177 0 0 179 0.009554
0.039823 -0.012759 0.801704 0 0 204 0.014625
0.037073 -0.013191 0.800179 0 0 179 0.007962
0.038499 -0.010537 0.803967 0 0 255 0.021986
0.041231 -0.010170 0.805522 0 0 255 0.022545
0.035739 -0.010952 0.802432 0 0 204 0.013459
0.030826 -0.017211 0.793777 0 0 204 0.012514
0.029530 -0.014460 0.795715 0 0 179 0.008215
0.032141 -0.014043 0.797159 0 0 179 0.010114
0.028081 -0.012151 0.797863 0 0 204 0.014532
0.030697 -0.011748 0.799351 0 0 204 0.015207
0.029158 -0.009819 0.801745 0 0 255 0.023233
0.026534 -0.010219 0.800222 0 0 255 0.021496
0.033274 -0.011361 0.800852 0 0 204 0.014761
0.031763 -0.009441 0.803291 0 0 255 0.023431
0.034614 -0.013599 0.798655 0 0 179 0.009400
0.035837 -0.016291 0.796667 0 0 179 0.011569
0.033350 -0.016729 0.795202 0 0 204 0.012963
0.024950 -0.009177 0.802934 0 0 179 0.010366
0.023271 -0.008408 0.805832 0 0 128 0.003731
0.025940 -0.008124 0.807372 0 0 128 0.003773
0.021519 -0.007944 0.808837 0 0 128 0.002269
0.024202 -0.007706 0.810398 0 0 128 0.002055
0.026852 -0.007479 0.811965 0 0 128 0.002508
0.028558 -0.007833 0.808979 0 0 128 0.003525
0.030188 -0.008463 0.806084 0 0 204 0.011754
0.027571 -0.008818 0.804526 0 0 179 0.011043
0.007165 -0.029136 0.776406 0 0 153 0.005555
0.008148 -0.032739 0.775894 0 0 128 0.000158
0.005631 -0.033068 0.774327 0 0 128 0.000635
0.009115 -0.036301 0.775392 0 0 128 0.000954
0.006609 -0.036583 0.773891 0 0 128 0.001400
0.007599 -0.039953 0.773373 0 0 153 0.006779
0.010113 -0.039768 0.774866 0 0 153 0.005105
0.004101 -0.036823 0.772444 0 0 128 0.001769
0.005094 -0.040142 0.771966 0 0 153 0.006801
0.002580 -0.040300 0.770673 0 0 153 0.004820
0.001393 -0.037119 0.771028 0 0 128 0.001320
0.002907 -0.033429 0.772853 0 0 128 0.000164
0.000219 -0.033784 0.771394 0 0 128 0.000117
0.001709 -0.030040 0.773252 0 0 153 0.005365
0.004420 -0.029615 0.774815 0 0 153 0.004920
0.003133 -0.026198 0.775331 0 0 229 0.017011
-0.000974 -0.030434 0.771795 0 0 153 0.004435
0.000458 -0.026689 0.773754 0 0 229 0.017568
-0.002163 -0.027165 0.772231 0 0 255 0.020746
0.005856 -0.025607 0.776958 0 0 229 0.017852
0.011382 -0.043422 0.775104 0 0 128 0.002161
0.012348 -0.047117 0.775256 0 0 128 0.000364
0.010096 -0.047151 0.774094 0 0 128 0.000176
0.013260 -0.050594 0.775551 0 0 128 0.000688
0.011014 -0.050670 0.774298 0 0 128 0.000562
