ply
format ascii 1.0
comment VCGLIB generated
element vertex 995
property float x
property float y
property float z
property uchar red
property uchar green
property uchar blue
property float quality
end_header
-0.087929 -0.054228 0.921281 204 255 44 0.263125
-0.086919 -0.049747 0.920129 202 255 46 0.260789
-0.087254 -0.045375 0.917604 204 255 44 0.263384
-0.087704 -0.040417 0.916756 200 255 47 0.257720
-0.088918 -0.041895 0.914122 209 255 39 0.275678
-0.086771 -0.053051 0.923699 193 255 55 0.241476
-0.087881 -0.056598 0.925752 190 255 58 0.233843
-0.091609 -0.037374 0.911874 215 255 33 0.288022
-0.093512 -0.032658 0.911914 191 255 56 0.234385
-0.096254 -0.028965 0.911340 170 255 78 0.189365
-0.097824 -0.025120 0.912898 147 255 101 0.138266
-0.099570 -0.026773 0.909647 159 255 88 0.167937
-0.089953 -0.036307 0.914723 202 255 46 0.259879
-0.116187 -0.016245 0.909722 72 255 175 0.080728
-0.114089 -0.018229 0.908610 127 255 120 0.094048
-0.111934 -0.019092 0.908902 129 255 119 0.099549
-0.109676 -0.020906 0.907758 134 255 113 0.111594
-0.109673 -0.018762 0.910659 90 255 157 0.084913
-0.112125 -0.021186 0.906166 140 255 108 0.123195
-0.109866 -0.022801 0.905202 152 255 95 0.151606
-0.114342 -0.020258 0.905524 138 255 110 0.118187
-0.116509 -0.019208 0.904754 131 255 117 0.102171
-0.107324 -0.020434 0.910496 129 255 119 0.100113
-0.104761 -0.023216 0.908963 143 255 104 0.130083
-0.102294 -0.025194 0.908742 154 255 94 0.153453
-0.100074 -0.028903 0.906987 181 255 67 0.212805
-0.102734 -0.027549 0.905942 177 255 71 0.203545
-0.105158 -0.025728 0.905828 168 255 79 0.183726
-0.107484 -0.023378 0.906791 151 255 97 0.146537
-0.100080 -0.031170 0.904401 207 255 40 0.271526
-0.104879 -0.027215 0.903521 183 255 65 0.217750
-0.107375 -0.025412 0.903739 172 255 76 0.191988
-0.109471 -0.024151 0.902363 167 255 81 0.181247
-0.111757 -0.023254 0.901637 161 255 87 0.169210
-0.114106 -0.022024 0.901606 151 255 97 0.145349
-0.116237 -0.020848 0.900613 143 255 104 0.132382
-0.108340 -0.007853 0.928605 188 255 60 0.227591
-0.107650 -0.009728 0.925590 165 255 83 0.178451
-0.103977 -0.010105 0.927409 175 255 72 0.199956
-0.103124 -0.012108 0.924202 154 255 94 0.154261
-0.106779 -0.011801 0.922427 143 255 104 0.129358
-0.105809 -0.013937 0.919181 129 255 119 0.099923
-0.108193 -0.012607 0.919851 133 255 115 0.105567
-0.109194 -0.010465 0.923141 151 255 97 0.147829
-0.110689 -0.011440 0.920258 140 255 108 0.121904
-0.111532 -0.009438 0.923459 158 255 90 0.163643
-0.110068 -0.008548 0.926333 177 255 71 0.203223
-0.112967 -0.010453 0.920656 145 255 103 0.132939
-0.099153 -0.014039 0.925122 156 255 92 0.158905
-0.096796 -0.016797 0.923788 147 255 101 0.137880
-0.097974 -0.017485 0.921736 136 255 112 0.114973
-0.094397 -0.019609 0.922453 154 255 94 0.155431
-0.095570 -0.020153 0.920648 145 255 103 0.133957
-0.096920 -0.020884 0.918796 134 255 113 0.113238
-0.098406 -0.021253 0.916874 129 255 119 0.098128
-0.099450 -0.017962 0.919822 127 255 120 0.094584
-0.100851 -0.018603 0.917750 108 255 139 0.086658
-0.101920 -0.015297 0.920777 133 255 115 0.107086
-0.100608 -0.014649 0.923065 143 255 104 0.128974
-0.103299 -0.016238 0.918477 90 255 157 0.083454
-0.101233 -0.023499 0.911665 138 255 110 0.117266
-0.103803 -0.021111 0.912166 126 255 122 0.093554
-0.105402 -0.017939 0.914660 54 255 193 0.076478
-0.107945 -0.015800 0.915155 54 255 193 0.077880
-0.111327 -0.016088 0.913233 90 255 157 0.082696
-0.113634 -0.014981 0.913247 72 255 175 0.078389
-0.112700 -0.013725 0.915745 90 255 157 0.084307
-0.115849 -0.014001 0.913075 108 255 139 0.087014
-0.115072 -0.012640 0.915774 127 255 120 0.095985
-0.108377 -0.024938 0.899820 174 255 74 0.197806
-0.110635 -0.024026 0.898881 170 255 78 0.189847
-0.113075 -0.022776 0.898621 159 255 88 0.167283
-0.115179 -0.021550 0.897510 152 255 95 0.149768
-0.102227 -0.029322 0.903380 199 255 49 0.250011
-0.106496 -0.026399 0.901230 184 255 63 0.221059
-0.103024 -0.028624 0.899896 200 255 47 0.257683
-0.097490 -0.030298 0.909075 188 255 60 0.227401
-0.094814 -0.033790 0.909726 207 255 40 0.271167
-0.092631 -0.039046 0.910071 225 255 23 0.310289
-0.089952 -0.043483 0.912403 216 255 31 0.290781
-0.095776 -0.035385 0.907750 229 255 19 0.318461
-0.098151 -0.032228 0.906763 207 255 40 0.272905
-0.088264 -0.046743 0.915893 209 255 39 0.276645
-0.088040 -0.050897 0.918356 207 255 40 0.272558
-0.088942 -0.055100 0.919324 216 255 31 0.289402
-0.089639 -0.058163 0.921206 202 255 46 0.260448
-0.089229 -0.052074 0.916698 215 255 33 0.288300
-0.089545 -0.048197 0.914347 213 255 35 0.282925
-0.090860 -0.059043 0.918977 213 255 35 0.282507
-0.090331 -0.056254 0.917445 223 255 24 0.308255
-0.090046 -0.053153 0.915602 218 255 30 0.293691
-0.090376 -0.049496 0.913452 209 255 39 0.275603
-0.090940 -0.045055 0.911252 213 255 35 0.283157
-0.093647 -0.040778 0.908460 225 255 23 0.310979
-0.097989 -0.034049 0.904812 231 255 17 0.323022
-0.095912 -0.037048 0.906173 247 247 2 0.355563
-0.091346 -0.046152 0.910108 209 255 39 0.275267
-0.090508 -0.050429 0.912263 209 255 39 0.274037
-0.097031 -0.035025 0.902994 241 253 7 0.344367
-0.106693 -0.064618 0.940913 142 255 106 0.127900
-0.105054 -0.064973 0.938197 133 255 115 0.106441
-0.105756 -0.066058 0.936064 127 255 120 0.096535
-0.103426 -0.066265 0.933201 134 255 113 0.112862
-0.108617 -0.067675 0.934094 108 255 139 0.088051
-0.100018 -0.064811 0.934807 145 255 103 0.136116
-0.097206 -0.064872 0.932313 161 255 87 0.168553
-0.099532 -0.063973 0.936545 147 255 101 0.139486
-0.098983 -0.062929 0.938290 152 255 95 0.150087
-0.105821 -0.067823 0.929617 129 255 119 0.101540
-0.108170 -0.068807 0.929452 126 255 122 0.090228
-0.103204 -0.067020 0.929736 136 255 112 0.113361
-0.103249 -0.067723 0.925823 143 255 104 0.131116
-0.105861 -0.068811 0.925478 134 255 113 0.110140
-0.108348 -0.069938 0.925244 131 255 117 0.102565
-0.100540 -0.066778 0.926038 152 255 95 0.151779
-0.097752 -0.065835 0.926193 163 255 85 0.175710
-0.097462 -0.065478 0.929234 161 255 87 0.168317
-0.090261 -0.059536 0.925547 186 255 62 0.223988
-0.092346 -0.061540 0.927746 183 255 65 0.215615
-0.089518 -0.058884 0.928050 184 255 63 0.221107
-0.091625 -0.060985 0.930280 177 255 71 0.204174
-0.094666 -0.063342 0.929971 168 255 79 0.184344
-0.095160 -0.063817 0.927148 168 255 79 0.184744
-0.093139 -0.062063 0.925061 184 255 63 0.220035
-0.088579 -0.057544 0.930912 190 255 58 0.231745
-0.090701 -0.059432 0.933353 183 255 65 0.216811
-0.088056 -0.056419 0.933751 193 255 55 0.239398
-0.093429 -0.060622 0.936170 172 255 76 0.193683
-0.093568 -0.061701 0.934552 174 255 74 0.198103
-0.093956 -0.062520 0.932895 174 255 74 0.197662
-0.091166 -0.060257 0.931908 177 255 71 0.205929
-0.106055 -0.069467 0.923189 140 255 108 0.124246
-0.108681 -0.070811 0.922757 133 255 115 0.108019
-0.103783 -0.069030 0.921260 156 255 92 0.156452
-0.106548 -0.070355 0.920743 143 255 104 0.132385
-0.109235 -0.071875 0.920244 133 255 115 0.108673
-0.100855 -0.067262 0.922976 159 255 88 0.166344
-0.098169 -0.066228 0.923318 172 255 76 0.192086
-0.104411 -0.070286 0.918398 161 255 87 0.169410
-0.109553 -0.073205 0.918015 136 255 112 0.115143
-0.101534 -0.068785 0.919142 172 255 76 0.192245
-0.098804 -0.067325 0.919750 184 255 63 0.222568
-0.092553 -0.061021 0.920023 209 255 39 0.274943
-0.094437 -0.062818 0.920830 202 255 46 0.259819
-0.096400 -0.064654 0.921566 188 255 60 0.227182
-0.091723 -0.060337 0.922099 200 255 47 0.255697
-0.095717 -0.064038 0.924890 179 255 69 0.207591
-0.093846 -0.062387 0.922695 190 255 58 0.233369
-0.092403 -0.062520 0.916856 223 255 24 0.308184
-0.094809 -0.064034 0.917840 215 255 33 0.287123
-0.096859 -0.066272 0.917753 200 255 47 0.254607
-0.098832 -0.068550 0.917624 184 255 63 0.220202
-0.107256 -0.073279 0.915834 147 255 101 0.137934
-0.109796 -0.075193 0.915398 131 255 117 0.104992
-0.101670 -0.070179 0.916788 172 255 76 0.193760
-0.129311 -0.079538 0.913290 0 29 255 0.030091
-0.133133 -0.078024 0.913966 0 29 255 0.030834
-0.130988 -0.077315 0.915366 0 51 255 0.033823
-0.128864 -0.076565 0.916679 0 74 255 0.036916
-0.136863 -0.076701 0.914820 0 74 255 0.037836
-0.137103 -0.078496 0.912890 0 51 255 0.034041
-0.133385 -0.079953 0.912177 0 29 255 0.028029
-0.137444 -0.080441 0.910978 0 29 255 0.031207
-0.130423 -0.074805 0.918974 0 96 255 0.042840
-0.131881 -0.073130 0.921310 0 141 255 0.050256
-0.128150 -0.074070 0.920703 0 118 255 0.046404
-0.134153 -0.073808 0.919554 0 118 255 0.046655
-0.136332 -0.074765 0.917653 0 118 255 0.044604
-0.132639 -0.075651 0.917082 0 74 255 0.038417
-0.141668 -0.073406 0.916386 0 118 255 0.043546
-0.140535 -0.076042 0.913889 0 96 255 0.039641
-0.139612 -0.072834 0.918290 0 141 255 0.048417
-0.137641 -0.072411 0.920186 0 185 255 0.056097
-0.140876 -0.077888 0.911869 0 51 255 0.034895
-0.142942 -0.078680 0.910095 0 51 255 0.034828
-0.112367 -0.078462 0.912600 90 255 157 0.082721
-0.115050 -0.079016 0.912477 18 252 229 0.069400
-0.117631 -0.079609 0.912397 0 185 255 0.056724
-0.120111 -0.080134 0.912471 0 118 255 0.044517
-0.112565 -0.076157 0.914665 108 255 139 0.089247
-0.115193 -0.075640 0.916000 54 255 193 0.077111
-0.117677 -0.077107 0.914879 0 208 255 0.061951
-0.120113 -0.078255 0.914486 0 141 255 0.050469
-0.124800 -0.079764 0.912789 0 74 255 0.035704
-0.127156 -0.081255 0.911445 0 29 255 0.027818
-0.129479 -0.082013 0.910822 0 7 255 0.025377
-0.122527 -0.078632 0.913993 0 118 255 0.044659
-0.127127 -0.083657 0.909423 0 7 255 0.023697
-0.124705 -0.082820 0.910160 0 7 255 0.027089
-0.122281 -0.082848 0.910245 0 29 255 0.031043
-0.130903 -0.093441 0.901634 0 74 255 0.037435
-0.133132 -0.094783 0.899463 0 96 255 0.042394
-0.135716 -0.095255 0.897883 0 118 255 0.044555
-0.138001 -0.096572 0.895393 0 141 255 0.050124
-0.134679 -0.097429 0.895755 0 118 255 0.045486
-0.132071 -0.096913 0.897671 0 118 255 0.045525
-0.129853 -0.095717 0.899989 0 118 255 0.043844
-0.141148 -0.095033 0.895278 0 141 255 0.048353
-0.143445 -0.095746 0.892644 0 141 255 0.046988
-0.145930 -0.095762 0.891001 0 141 255 0.050494
-0.148162 -0.096473 0.888417 0 163 255 0.053918
-0.147704 -0.097958 0.886251 0 141 255 0.049191
-0.145124 -0.097892 0.888145 0 118 255 0.043666
-0.142519 -0.097852 0.890025 0 96 255 0.041066
-0.140271 -0.097147 0.892718 0 96 255 0.042566
-0.145782 -0.101406 0.880962 0 51 255 0.033531
-0.143040 -0.101295 0.883128 0 29 255 0.027941
-0.140965 -0.100377 0.886280 0 29 255 0.028105
-0.138210 -0.100413 0.888428 0 29 255 0.030215
-0.136086 -0.099691 0.891734 0 96 255 0.040025
-0.134750 -0.101293 0.889619 0 51 255 0.032665
-0.139491 -0.098691 0.890582 0 74 255 0.036528
-0.144173 -0.099544 0.885551 0 51 255 0.033535
-0.146774 -0.099687 0.883619 0 96 255 0.040282
-0.132058 -0.100791 0.891820 0 51 255 0.033998
-0.130039 -0.099501 0.894949 0 96 255 0.040350
-0.127368 -0.099094 0.897049 0 141 255 0.047967
-0.133402 -0.099167 0.893732 0 96 255 0.039628
-0.123581 -0.064208 0.941960 134 255 113 0.110806
-0.122515 -0.065888 0.939217 133 255 115 0.105793
-0.122951 -0.067711 0.935645 126 255 122 0.092695
-0.121482 -0.068954 0.932805 36 255 211 0.072308
-0.125550 -0.069361 0.931851 72 255 175 0.080029
-0.118995 -0.067525 0.936540 108 255 139 0.088018
-0.117202 -0.068829 0.933507 36 255 211 0.072474
-0.118476 -0.066035 0.939542 129 255 119 0.099222
-0.117574 -0.064629 0.942327 133 255 115 0.106234
-0.126180 -0.070403 0.929307 36 255 211 0.070897
-0.126784 -0.071368 0.926819 0 208 255 0.062088
-0.122272 -0.070890 0.927546 0 185 255 0.057673
-0.122851 -0.071851 0.925079 0 163 255 0.052721
-0.123449 -0.072806 0.922711 0 141 255 0.049098
-0.127281 -0.072305 0.924381 0 163 255 0.053820
-0.118706 -0.072469 0.923527 0 185 255 0.054919
-0.118130 -0.071469 0.925845 0 185 255 0.057096
-0.117685 -0.070592 0.928265 0 208 255 0.058807
-0.121839 -0.069955 0.930094 1 230 247 0.063790
-0.117356 -0.069713 0.930830 1 230 247 0.064398
-0.112941 -0.069408 0.928984 1 230 247 0.065593
-0.113061 -0.067984 0.933849 18 252 229 0.069297
-0.113277 -0.070100 0.926573 18 252 229 0.067083
-0.113690 -0.070992 0.924192 36 255 211 0.071066
-0.109951 -0.065595 0.939255 126 255 122 0.092882
-0.114342 -0.065908 0.939596 127 255 120 0.094583
-0.125900 -0.073702 0.921072 0 118 255 0.045500
-0.126402 -0.075290 0.918337 0 96 255 0.042144
-0.124216 -0.074962 0.918767 0 118 255 0.045713
-0.121869 -0.074689 0.919157 0 163 255 0.051874
-0.119182 -0.073822 0.920838 0 163 255 0.054091
-0.124593 -0.076927 0.915807 0 118 255 0.043769
-0.126963 -0.078207 0.914568 0 74 255 0.035985
-0.122318 -0.076654 0.916242 0 141 255 0.047504
-0.119898 -0.076482 0.916690 0 163 255 0.053281
-0.112380 -0.074071 0.917379 126 255 122 0.092394
-0.117366 -0.074904 0.917871 1 230 247 0.065629
-0.114102 -0.072108 0.921698 54 255 193 0.077486
-0.116767 -0.072985 0.921269 1 230 247 0.065027
-0.137452 -0.061875 0.937197 147 255 101 0.137308
-0.136919 -0.064250 0.934500 145 255 103 0.133087
-0.138004 -0.065758 0.931490 138 255 110 0.118323
-0.137195 -0.067560 0.929213 131 255 117 0.103182
-0.140721 -0.066403 0.928294 134 255 113 0.111935
-0.134440 -0.066835 0.932650 138 255 110 0.117301
-0.133609 -0.068699 0.930183 129 255 119 0.099336
-0.133464 -0.065192 0.935806 142 255 106 0.125018
-0.132501 -0.062828 0.939577 145 255 103 0.133984
-0.141377 -0.067469 0.926077 131 255 117 0.102117
-0.141963 -0.068558 0.923763 72 255 175 0.079538
-0.138334 -0.069652 0.924603 72 255 175 0.081044
-0.140644 -0.070185 0.921777 18 252 229 0.067798
-0.137089 -0.071305 0.922607 18 252 229 0.067481
-0.134762 -0.070817 0.925338 72 255 175 0.078615
-0.137823 -0.068631 0.926931 129 255 119 0.098754
-0.134186 -0.069770 0.927728 108 255 139 0.088766
-0.130808 -0.071048 0.926025 1 230 247 0.065945
-0.130283 -0.070054 0.928487 54 255 193 0.074467
-0.129658 -0.069022 0.930963 108 255 139 0.086775
-0.131346 -0.072090 0.923645 0 185 255 0.057082
-0.126873 -0.067720 0.934778 127 255 120 0.095346
-0.126267 -0.065868 0.938276 136 255 112 0.113300
-0.127301 -0.063493 0.941389 136 255 112 0.116074
-0.129902 -0.065653 0.937133 136 255 112 0.115309
-0.130754 -0.067480 0.933670 131 255 117 0.102106
-0.133812 -0.085310 0.907170 0 0 255 0.022650
-0.131664 -0.084067 0.908659 0 0 255 0.021476
-0.138039 -0.084427 0.907163 0 29 255 0.029796
-0.136015 -0.085794 0.906290 0 7 255 0.026790
-0.138361 -0.087306 0.904472 0 51 255 0.033634
-0.131829 -0.086755 0.906438 0 0 255 0.022022
-0.137659 -0.082317 0.909049 0 29 255 0.029849
-0.143708 -0.081892 0.906928 0 51 255 0.034064
-0.142107 -0.084172 0.905559 0 51 255 0.034286
-0.146086 -0.083006 0.904994 0 96 255 0.039926
-0.141474 -0.080944 0.908684 0 51 255 0.032293
-0.146609 -0.085127 0.902789 0 118 255 0.045380
-0.142459 -0.086192 0.903695 0 74 255 0.037163
-0.144889 -0.087223 0.901642 0 118 255 0.044161
-0.147389 -0.088212 0.899529 0 163 255 0.054123
-0.140689 -0.088267 0.902623 0 74 255 0.038531
-0.145468 -0.090065 0.898561 0 163 255 0.051370
-0.147848 -0.090114 0.897290 0 208 255 0.059233
-0.143101 -0.090041 0.899819 0 118 255 0.046051
-0.143584 -0.091896 0.897668 0 163 255 0.050798
-0.145990 -0.091842 0.896337 0 163 255 0.054537
-0.148387 -0.091836 0.895018 1 230 247 0.063538
-0.141297 -0.091888 0.898922 0 118 255 0.046209
-0.138919 -0.091943 0.900322 0 141 255 0.047450
-0.148579 -0.093441 0.892723 1 230 247 0.062600
-0.146097 -0.094223 0.893234 0 185 255 0.055814
-0.143590 -0.094218 0.894831 0 141 255 0.050714
-0.138688 -0.094379 0.897820 0 141 255 0.050713
-0.133654 -0.092316 0.901662 0 74 255 0.036878
-0.131464 -0.091051 0.903435 0 29 255 0.030432
-0.136301 -0.092073 0.900968 0 96 255 0.040749
-0.133943 -0.089006 0.904328 0 29 255 0.028027
-0.136312 -0.089550 0.903155 0 51 255 0.032763
-0.141219 -0.103434 0.879714 0 0 229 0.018883
-0.144175 -0.103495 0.877401 0 7 255 0.024188
-0.138241 -0.103438 0.882075 0 0 229 0.017442
-0.136654 -0.105353 0.878537 0 0 179 0.010981
-0.139727 -0.105393 0.876241 0 0 204 0.013581
-0.142780 -0.105492 0.874019 0 0 255 0.019572
-0.134420 -0.104439 0.882670 0 0 204 0.014066
-0.130662 -0.105495 0.883175 0 0 204 0.012365
-0.132695 -0.103404 0.886413 0 0 255 0.020284
-0.136472 -0.102267 0.885819 0 0 255 0.021200
-0.141585 -0.106751 0.872216 0 0 229 0.018177
-0.138380 -0.106735 0.874535 0 0 204 0.012702
-0.137231 -0.108023 0.872628 0 0 204 0.012296
-0.140512 -0.108030 0.870380 0 0 229 0.018633
-0.133872 -0.108073 0.874986 0 0 179 0.009328
-0.135993 -0.109427 0.870823 0 0 204 0.014810
-0.132609 -0.109487 0.873088 0 0 179 0.010913
-0.139376 -0.109428 0.868647 0 0 255 0.022058
-0.129250 -0.109541 0.875366 0 0 179 0.008876
-0.126178 -0.109543 0.877510 0 0 153 0.007789
-0.130684 -0.108060 0.877151 0 0 153 0.007284
-0.127611 -0.108085 0.879358 0 0 153 0.007156
-0.132221 -0.106588 0.878947 0 0 153 0.007705
-0.135326 -0.106660 0.876711 0 0 179 0.009510
-0.129173 -0.106745 0.881232 0 0 179 0.008707
-0.114342 -0.107508 0.887182 0 0 179 0.011245
-0.117220 -0.108002 0.884746 0 0 153 0.007545
-0.118880 -0.106665 0.886697 0 0 179 0.011267
-0.115991 -0.106262 0.889225 0 0 229 0.017900
-0.121719 -0.107121 0.884212 0 0 179 0.007840
-0.120544 -0.105450 0.888706 0 0 229 0.017485
-0.123325 -0.105815 0.886141 0 0 179 0.011189
-0.124969 -0.104573 0.888113 0 0 229 0.017434
-0.117676 -0.105052 0.891217 0 7 255 0.026641
-0.122121 -0.104237 0.890666 0 7 255 0.026144
-0.119368 -0.103958 0.893212 0 96 255 0.039108
-0.126187 -0.106330 0.883765 0 0 179 0.009758
-0.127798 -0.105001 0.885614 0 0 204 0.013767
-0.124685 -0.107551 0.881747 0 0 153 0.006460
-0.123151 -0.108921 0.879842 0 0 153 0.005420
-0.120135 -0.108433 0.882232 0 0 153 0.005257
-0.124377 -0.102206 0.893690 0 96 255 0.040014
-0.121706 -0.101832 0.895916 0 141 255 0.049592
-0.127101 -0.102631 0.891428 0 51 255 0.031896
-0.129901 -0.102991 0.888919 0 7 255 0.024182
-0.085251 -0.033244 0.897569 220 255 28 0.297797
-0.086702 -0.030446 0.894996 206 255 42 0.265716
-0.088967 -0.027842 0.892954 183 255 65 0.217819
-0.090352 -0.025125 0.890968 167 255 81 0.180120
-0.092375 -0.022431 0.889341 145 255 103 0.134897
-0.092967 -0.025276 0.891526 167 255 81 0.181985
-0.091612 -0.028025 0.893399 188 255 60 0.227983
-0.089331 -0.030579 0.895234 200 255 47 0.257659
-0.087813 -0.033398 0.897636 222 255 26 0.302303
-0.091925 -0.019849 0.887207 127 255 120 0.095295
-0.094223 -0.017342 0.885801 18 252 229 0.066430
-0.095554 -0.014341 0.884327 0 96 255 0.042285
-0.097922 -0.011331 0.883077 0 51 255 0.032437
-0.098388 -0.015080 0.884961 0 118 255 0.045975
-0.097035 -0.017892 0.886463 36 255 211 0.071480
-0.094706 -0.020248 0.887837 126 255 122 0.093254
-0.095790 -0.022924 0.890360 151 255 97 0.145287
-0.101548 -0.012658 0.884029 0 118 255 0.044448
-0.020409 -0.123094 0.871246 0 208 255 0.060154
-0.022286 -0.121778 0.874800 0 208 255 0.060515
-0.025725 -0.121235 0.877884 0 96 255 0.042594
-0.027644 -0.121084 0.881814 0 7 255 0.026366
-0.031145 -0.121514 0.885231 0 0 229 0.018135
-0.028050 -0.121434 0.886717 0 0 229 0.019078
-0.030761 -0.121189 0.880383 0 7 255 0.026008
-0.034310 -0.121740 0.883761 0 0 229 0.016823
-0.028815 -0.121235 0.876327 0 118 255 0.046014
-0.026814 -0.121839 0.872501 0 208 255 0.061509
-0.023390 -0.123114 0.869647 0 208 255 0.059719
-0.026422 -0.123242 0.868004 0 208 255 0.060493
-0.029876 -0.121420 0.890755 0 29 255 0.030843
-0.033220 -0.121330 0.894054 0 163 255 0.050876
-0.035039 -0.121029 0.898044 108 255 139 0.088051
-0.038293 -0.120119 0.900941 133 255 115 0.109199
-0.035217 -0.120167 0.902562 138 255 110 0.119517
-0.038162 -0.120999 0.896506 72 255 175 0.081490
-0.041478 -0.120184 0.899304 131 255 117 0.103133
-0.036362 -0.121310 0.892525 0 163 255 0.050792
-0.034552 -0.121458 0.888549 0 7 255 0.027145
-0.047933 -0.120477 0.895865 127 255 120 0.096575
-0.046238 -0.121282 0.892210 72 255 175 0.079892
-0.042811 -0.121628 0.889291 0 141 255 0.050741
-0.040993 -0.121832 0.885357 0 7 255 0.027256
-0.037511 -0.121823 0.882143 0 0 229 0.016458
-0.040762 -0.122136 0.880534 0 0 229 0.017001
-0.037784 -0.121678 0.887025 0 7 255 0.027163
-0.039574 -0.121448 0.890963 0 141 255 0.050386
-0.041356 -0.121110 0.894832 72 255 175 0.078697
-0.044667 -0.120303 0.897583 129 255 119 0.098725
-0.038727 -0.121756 0.876371 0 7 255 0.023544
-0.035115 -0.121547 0.873149 0 118 255 0.045891
-0.033112 -0.122135 0.869192 1 230 247 0.063572
-0.029543 -0.123394 0.866295 1 230 247 0.062561
-0.032671 -0.123702 0.864619 0 208 255 0.060813
-0.029959 -0.121982 0.870916 0 208 255 0.062159
-0.031931 -0.121419 0.874775 0 118 255 0.044527
-0.033913 -0.121450 0.878819 0 7 255 0.024358
-0.036349 -0.122390 0.867532 0 208 255 0.061823
-0.038378 -0.121814 0.871483 0 118 255 0.043913
-0.042077 -0.122054 0.874709 0 0 255 0.022350
-0.044100 -0.122430 0.878848 0 0 229 0.017702
-0.047421 -0.122647 0.877043 0 0 229 0.018134
-0.045387 -0.122237 0.872932 0 0 255 0.021998
-0.041684 -0.122001 0.869733 0 118 255 0.043374
-0.039632 -0.122551 0.865695 1 230 247 0.062871
-0.035934 -0.123846 0.862806 0 208 255 0.061471
-0.039234 -0.124124 0.861057 0 208 255 0.060270
-0.044358 -0.122169 0.883729 0 29 255 0.029494
-0.046131 -0.121860 0.887584 0 163 255 0.052764
-0.049603 -0.121498 0.890465 90 255 157 0.083593
-0.051255 -0.120624 0.894055 129 255 119 0.098482
-0.054576 -0.120808 0.892204 127 255 120 0.097044
-0.052899 -0.121767 0.888661 90 255 157 0.085781
-0.049484 -0.122112 0.885840 0 185 255 0.055504
-0.047650 -0.122453 0.881976 0 51 255 0.031836
-0.060917 -0.121200 0.888769 129 255 119 0.098911
-0.059164 -0.122145 0.885219 108 255 139 0.086209
-0.055885 -0.122516 0.882397 0 208 255 0.059130
-0.053971 -0.122791 0.878440 0 51 255 0.032970
-0.050548 -0.122790 0.875318 0 0 229 0.018524
-0.053677 -0.122939 0.873533 0 0 229 0.019013
-0.050879 -0.122609 0.880225 0 51 255 0.032318
-0.052705 -0.122380 0.884122 0 185 255 0.057969
-0.056055 -0.122036 0.886988 108 255 139 0.087957
-0.057739 -0.121009 0.890461 129 255 119 0.098612
-0.051706 -0.122628 0.869468 0 0 255 0.022426
-0.048086 -0.122450 0.866278 0 96 255 0.042624
-0.046018 -0.122884 0.862256 1 230 247 0.063152
-0.042396 -0.124331 0.859367 0 208 255 0.060274
-0.045592 -0.124571 0.857621 0 208 255 0.059563
-0.042865 -0.122756 0.864005 0 208 255 0.061376
-0.044910 -0.122272 0.868018 0 96 255 0.041556
-0.048574 -0.122452 0.871239 0 0 255 0.021644
-0.049014 -0.123100 0.860621 1 230 247 0.062878
-0.051026 -0.122579 0.864603 0 118 255 0.043352
-0.054448 -0.122703 0.867928 0 0 255 0.023058
-0.056429 -0.123010 0.871962 0 0 229 0.018968
-0.059182 -0.123159 0.870363 0 0 229 0.019493
-0.057184 -0.122749 0.866286 0 7 255 0.024177
-0.053770 -0.122681 0.863049 0 118 255 0.043956
-0.051763 -0.123233 0.859053 1 230 247 0.063236
-0.048377 -0.124686 0.856065 0 208 255 0.061302
-0.051168 -0.124824 0.854517 0 208 255 0.061582
-0.056939 -0.122929 0.876792 0 51 255 0.032892
-0.058796 -0.122608 0.880769 0 185 255 0.057110
-0.061934 -0.122261 0.883739 72 255 175 0.080997
-0.063640 -0.121293 0.887261 127 255 120 0.095222
-0.066336 -0.121272 0.885709 108 255 139 0.089360
-0.064695 -0.122318 0.882184 54 255 193 0.077056
-0.061556 -0.122713 0.879216 0 185 255 0.056172
-0.059690 -0.122907 0.875180 0 29 255 0.030092
-0.071280 -0.121348 0.882895 72 255 175 0.081020
-0.069628 -0.122405 0.879312 36 255 211 0.070820
-0.066643 -0.123085 0.876275 0 185 255 0.057847
-0.064796 -0.123128 0.872263 0 29 255 0.030418
-0.061679 -0.123220 0.868912 0 0 255 0.019726
-0.064171 -0.123236 0.867460 0 0 255 0.019638
-0.062331 -0.123004 0.873711 0 29 255 0.030741
-0.064164 -0.122845 0.877707 0 185 255 0.055173
-0.067177 -0.122407 0.880815 54 255 193 0.077000
-0.068797 -0.121282 0.884288 90 255 157 0.084082
-0.062171 -0.122821 0.863352 0 7 255 0.026319
-0.058923 -0.122746 0.860051 0 141 255 0.046998
-0.056871 -0.123304 0.856032 18 252 229 0.067723
-0.053711 -0.124983 0.853105 0 208 255 0.060758
-0.056190 -0.124993 0.851630 1 230 247 0.062696
-0.054402 -0.123340 0.857552 1 230 247 0.063758
-0.056392 -0.122746 0.861503 0 118 255 0.045373
-0.059686 -0.122799 0.864844 0 7 255 0.025091
-0.119120 -0.100919 0.898134 0 163 255 0.054361
-0.116530 -0.099985 0.900241 0 185 255 0.058573
-0.114143 -0.102213 0.897802 0 163 255 0.051387
-0.116765 -0.103049 0.895554 0 118 255 0.044638
-0.112684 -0.100216 0.901190 1 230 247 0.062798
-0.108922 -0.100591 0.902300 36 255 211 0.071189
-0.111318 -0.098211 0.903954 18 252 229 0.069758
-0.115089 -0.097728 0.902839 0 185 255 0.056162
-0.115139 -0.104310 0.893726 0 51 255 0.034992
-0.113465 -0.105440 0.891707 0 7 255 0.024025
-0.110928 -0.104679 0.894226 0 51 255 0.031261
-0.111781 -0.106617 0.889690 0 0 229 0.015797
-0.109235 -0.105803 0.892175 0 0 255 0.020911
-0.107513 -0.107009 0.890107 0 0 204 0.014231
-0.110080 -0.107870 0.887588 0 0 179 0.010457
-0.106745 -0.105100 0.894674 0 29 255 0.027718
-0.104971 -0.106235 0.892601 0 0 229 0.017939
-0.102420 -0.105558 0.895123 0 7 255 0.025888
-0.104090 -0.104324 0.897050 0 74 255 0.035425
-0.108329 -0.103840 0.896587 0 96 255 0.039302
-0.105741 -0.103095 0.898912 0 118 255 0.046861
-0.109903 -0.102665 0.898400 0 141 255 0.049976
-0.112549 -0.103426 0.896077 0 96 255 0.041268
-0.107327 -0.101806 0.900686 0 185 255 0.057788
-0.092983 -0.100216 0.906438 18 252 229 0.069539
-0.094791 -0.098808 0.907657 72 255 175 0.079515
-0.097025 -0.100191 0.905343 18 252 229 0.066868
-0.098786 -0.098720 0.906326 18 252 229 0.068740
-0.096616 -0.097197 0.908527 54 255 193 0.076583
-0.101038 -0.100334 0.904244 18 252 229 0.066883
-0.100616 -0.097261 0.907235 36 255 211 0.071548
-0.102801 -0.098796 0.905167 18 252 229 0.067740
-0.104541 -0.097147 0.905985 1 230 247 0.063149
-0.098379 -0.095607 0.909310 54 255 193 0.075931
-0.102302 -0.095470 0.907769 1 230 247 0.062790
-0.100106 -0.093865 0.909848 1 230 247 0.064177
-0.105042 -0.100311 0.903201 1 230 247 0.066243
-0.106746 -0.098852 0.904179 1 230 247 0.063983
-0.103405 -0.101696 0.901602 0 185 255 0.055158
-0.101738 -0.102970 0.899817 0 118 255 0.043707
-0.099390 -0.101566 0.902544 0 163 255 0.054541
-0.097716 -0.102791 0.900654 0 96 255 0.040831
-0.100073 -0.104183 0.897919 0 51 255 0.031585
-0.095351 -0.101481 0.903552 0 163 255 0.052431
-0.104670 -0.092966 0.908659 0 163 255 0.053663
-0.102365 -0.091413 0.910097 0 163 255 0.054591
-0.106918 -0.094476 0.907277 0 163 255 0.053598
-0.109069 -0.096397 0.905567 0 185 255 0.057688
-0.062055 -0.027129 0.913889 181 255 67 0.212238
-0.060719 -0.023949 0.913064 167 255 81 0.182570
-0.058702 -0.026773 0.916544 179 255 69 0.208256
-0.059368 -0.020981 0.911834 156 255 92 0.156894
-0.057492 -0.023737 0.915546 170 255 78 0.189166
-0.056163 -0.020897 0.914164 158 255 90 0.163663
-0.055525 -0.026732 0.918699 175 255 72 0.200349
-0.057934 -0.018076 0.910270 143 255 104 0.131671
-0.056506 -0.015219 0.908562 142 255 106 0.128743
-0.060019 -0.014926 0.905955 134 255 113 0.112076
-0.061496 -0.017973 0.907465 138 255 110 0.119259
-0.062995 -0.020949 0.908996 156 255 92 0.156781
-0.063589 -0.015007 0.902961 72 255 175 0.081858
-0.053975 -0.024070 0.917732 165 255 83 0.176083
-0.052204 -0.026953 0.920607 170 255 78 0.187628
-0.052382 -0.021522 0.916483 152 255 95 0.151078
-0.050651 -0.024576 0.919354 152 255 95 0.150290
-0.049049 -0.022174 0.917860 142 255 106 0.128751
-0.048955 -0.027535 0.921994 151 255 97 0.145670
-0.050737 -0.019304 0.914621 138 255 110 0.120927
-0.048924 -0.016773 0.912636 127 255 120 0.096835
-0.052724 -0.015881 0.910786 138 255 110 0.119656
-0.054514 -0.018322 0.912762 151 255 97 0.144821
-0.047221 -0.006784 0.899218 0 74 255 0.038121
-0.049441 -0.006340 0.898131 0 118 255 0.044790
-0.049672 -0.009070 0.901703 0 141 255 0.048521
-0.051835 -0.008593 0.900546 0 185 255 0.056743
-0.051674 -0.005929 0.897008 0 163 255 0.052580
-0.052009 -0.011221 0.904157 18 252 229 0.069449
-0.053966 -0.008125 0.899308 1 230 247 0.062652
-0.054121 -0.010709 0.902869 36 255 211 0.074036
-0.056283 -0.010286 0.901509 72 255 175 0.079882
-0.053850 -0.005558 0.895843 0 185 255 0.057471
-0.056174 -0.007788 0.898051 18 252 229 0.069418
-0.056054 -0.005296 0.894584 1 230 247 0.062853
-0.054258 -0.013263 0.906419 126 255 122 0.092878
-0.056401 -0.012836 0.905070 127 255 120 0.097204
-0.050501 -0.013995 0.908508 90 255 157 0.082433
-0.048165 -0.011888 0.906026 0 185 255 0.056168
-0.058080 -0.005063 0.893410 1 230 247 0.064555
-0.060004 -0.007504 0.895690 18 252 229 0.068985
-0.060106 -0.004914 0.892193 1 230 247 0.062820
-0.059870 -0.010115 0.899173 54 255 193 0.074229
-0.061940 -0.007564 0.894195 0 208 255 0.059429
-0.061807 -0.010085 0.897626 1 230 247 0.065885
-0.063915 -0.010079 0.896143 0 208 255 0.058611
-0.062073 -0.005005 0.890901 0 185 255 0.056615
-0.063977 -0.007609 0.892890 0 185 255 0.054693
-0.064075 -0.005162 0.889690 0 163 255 0.054339
-0.061696 -0.012616 0.901139 72 255 175 0.078245
-0.063773 -0.012596 0.899566 18 252 229 0.067207
-0.072592 -0.029748 0.903709 177 255 71 0.205543
-0.071648 -0.026507 0.902655 154 255 94 0.154192
-0.070411 -0.028948 0.906039 168 255 79 0.186140
-0.071038 -0.023304 0.901306 136 255 112 0.116092
-0.069394 -0.025666 0.905076 152 255 95 0.150476
-0.068786 -0.022357 0.903545 136 255 112 0.114875
-0.068018 -0.028318 0.908348 172 255 76 0.191999
-0.070347 -0.019945 0.899562 90 255 157 0.084247
-0.069517 -0.016403 0.897830 0 118 255 0.045952
-0.072011 -0.017276 0.895848 0 118 255 0.045211
-0.072827 -0.020795 0.897544 72 255 175 0.080167
-0.073470 -0.024133 0.899028 138 255 110 0.120973
-0.074575 -0.018160 0.893993 0 163 255 0.052773
-0.066811 -0.024975 0.907714 158 255 90 0.162966
-0.065057 -0.027653 0.911141 175 255 72 0.202050
-0.065935 -0.021642 0.906368 145 255 103 0.133211
-0.063960 -0.024219 0.910394 165 255 83 0.179254
-0.064769 -0.018338 0.904750 133 255 115 0.107414
-0.066552 -0.015596 0.900352 0 208 255 0.061047
-0.067801 -0.018992 0.902050 108 255 139 0.088555
-0.067113 -0.008324 0.890845 0 96 255 0.041056
-0.067327 -0.005736 0.887805 0 118 255 0.043292
-0.066813 -0.010914 0.893854 0 96 255 0.039838
-0.070121 -0.011523 0.891703 0 51 255 0.031933
-0.070387 -0.008954 0.888872 0 51 255 0.033498
-0.070697 -0.006231 0.886155 0 74 255 0.038238
-0.068204 -0.013618 0.895914 0 74 255 0.036845
-0.073087 -0.009771 0.887355 0 29 255 0.028900
-0.073564 -0.007006 0.884881 0 51 255 0.032797
-0.072657 -0.012354 0.889996 0 29 255 0.027921
-0.075572 -0.013213 0.888561 0 29 255 0.029043
-0.075988 -0.010486 0.886109 0 29 255 0.028714
-0.076447 -0.007705 0.883721 0 29 255 0.030060
-0.073607 -0.015272 0.891938 0 29 255 0.028008
-0.071061 -0.014362 0.893713 0 29 255 0.028061
-0.086042 -0.027543 0.892804 184 255 63 0.220622
-0.083857 -0.029981 0.895236 199 255 49 0.252209
-0.082550 -0.032692 0.897836 215 255 33 0.286913
-0.086426 -0.024738 0.890750 161 255 87 0.168649
-0.086610 -0.021685 0.888915 140 255 108 0.123974
-0.089558 -0.022121 0.888903 143 255 104 0.130896
-0.081127 -0.029498 0.895865 190 255 58 0.234354
-0.079975 -0.032065 0.898563 207 255 40 0.271168
-0.082243 -0.026968 0.893479 175 255 72 0.202503
-0.082415 -0.024037 0.891513 156 255 92 0.157058
-0.082630 -0.020688 0.889748 131 255 117 0.103594
-0.086822 -0.010023 0.881810 0 0 255 0.022717
-0.086764 -0.013320 0.883579 0 74 255 0.035338
-0.089196 -0.010258 0.881797 0 0 255 0.020787
-0.086732 -0.016390 0.885357 1 230 247 0.063801
-0.089132 -0.013633 0.883538 0 51 255 0.034303
-0.089072 -0.016601 0.885194 0 208 255 0.060656
-0.091610 -0.010351 0.881958 0 0 255 0.020874
-0.086666 -0.019157 0.887111 126 255 122 0.093339
-0.083640 -0.018373 0.887612 72 255 175 0.079563
-0.092399 -0.013950 0.883797 0 51 255 0.034271
-0.094924 -0.010702 0.882422 0 7 255 0.024375
-0.071580 -0.097537 0.917067 140 255 108 0.122512
-0.071800 -0.094190 0.919621 151 255 97 0.145776
-0.073019 -0.090958 0.921422 154 255 94 0.152688
-0.072893 -0.087350 0.923183 151 255 97 0.147135
-0.073533 -0.083703 0.923870 149 255 99 0.144081
-0.071370 -0.083118 0.924861 149 255 99 0.144425
-0.075021 -0.087848 0.922037 147 255 101 0.137732
-0.075766 -0.084330 0.922657 143 255 104 0.130174
-0.075328 -0.091466 0.920152 147 255 101 0.140221
-0.075357 -0.094782 0.917682 143 255 104 0.132301
-0.074045 -0.097917 0.915616 136 255 112 0.113688
-0.076605 -0.098297 0.914222 133 255 115 0.107232
-0.070423 -0.078650 0.924403 142 255 106 0.127571
-0.070054 -0.074194 0.923169 134 255 113 0.111072
-0.068620 -0.068954 0.922112 142 255 106 0.127030
-0.068079 -0.063761 0.920792 159 255 88 0.165252
-0.071484 -0.069794 0.921620 147 255 101 0.139527
-0.073287 -0.075025 0.922405 142 255 106 0.128272
-0.073510 -0.079599 0.923179 138 255 110 0.119823
-0.072479 -0.065310 0.919746 165 255 83 0.178234
-0.074587 -0.070658 0.920841 154 255 94 0.155710
-0.075757 -0.075639 0.921670 147 255 101 0.137370
-0.077318 -0.080688 0.921415 138 255 110 0.118232
-0.078440 -0.085051 0.921103 138 255 110 0.118336
-0.080144 -0.088904 0.918863 134 255 113 0.110209
-0.079451 -0.092214 0.917532 134 255 113 0.112150
-0.079801 -0.095489 0.915101 133 255 115 0.108402
-0.078842 -0.098597 0.912912 127 255 120 0.094790
-0.081161 -0.098876 0.911677 108 255 139 0.089369
-0.077533 -0.095095 0.916457 140 255 108 0.122879
-0.077234 -0.088273 0.920692 142 255 106 0.128124
-0.071859 -0.100318 0.912557 36 255 211 0.070715
-0.072098 -0.103384 0.908144 0 118 255 0.045031
-0.074360 -0.100671 0.911262 36 255 211 0.070844
-0.074701 -0.103614 0.906891 0 96 255 0.042120
-0.072447 -0.106806 0.903936 0 51 255 0.031983
-0.072671 -0.110452 0.899773 0 29 255 0.030778
-0.069939 -0.110395 0.901157 0 51 255 0.034118
-0.069699 -0.106590 0.905252 0 51 255 0.034051
-0.069442 -0.103130 0.909555 0 118 255 0.046784
-0.067199 -0.110291 0.902562 0 74 255 0.036435
-0.076835 -0.100951 0.909834 1 230 247 0.065287
-0.077112 -0.103851 0.905521 0 74 255 0.038687
-0.079082 -0.101277 0.908657 0 185 255 0.058375
-0.079362 -0.104071 0.904315 0 51 255 0.033886
-0.077396 -0.107012 0.901304 0 7 255 0.026219
-0.077577 -0.110525 0.897175 0 7 255 0.023991
-0.075139 -0.110513 0.898500 0 29 255 0.028062
-0.074968 -0.106941 0.902690 0 29 255 0.030470
-0.071581 -0.119099 0.886856 1 230 247 0.066193
-0.071927 -0.116477 0.890916 0 141 255 0.048111
-0.069075 -0.119000 0.888214 18 252 229 0.069270
-0.069466 -0.116496 0.892378 0 163 255 0.052311
-0.072295 -0.113521 0.895213 0 51 255 0.034020
-0.074752 -0.113599 0.893972 0 29 255 0.030726
-0.074346 -0.116563 0.889684 0 118 255 0.044935
-0.066498 -0.119073 0.889683 54 255 193 0.074959
-0.066667 -0.116398 0.893690 0 185 255 0.055753
-0.063736 -0.118977 0.891166 72 255 175 0.078695
-0.063941 -0.116376 0.895249 0 208 255 0.061060
-0.066928 -0.113473 0.898026 0 96 255 0.041205
-0.069654 -0.113493 0.896632 0 74 255 0.037335
-0.083183 -0.119867 0.880217 0 208 255 0.060657
-0.086624 -0.117712 0.881914 0 96 255 0.039881
-0.088221 -0.114868 0.885333 0 0 255 0.022093
-0.091660 -0.112554 0.887218 0 0 204 0.014447
-0.087987 -0.111482 0.890550 0 0 204 0.015518
-0.091970 -0.116116 0.882137 0 7 255 0.026339
-0.095499 -0.113774 0.883986 0 0 204 0.015262
-0.090171 -0.118505 0.879198 0 118 255 0.043328
-0.088273 -0.120726 0.876313 1 230 247 0.065234
-0.089167 -0.108006 0.894395 0 0 229 0.015817
-0.091450 -0.109748 0.891612 0 0 204 0.013422
-0.092651 -0.106540 0.895476 0 0 229 0.016897
-0.090375 -0.105147 0.898431 0 0 255 0.022635
-0.094973 -0.108161 0.892690 0 0 204 0.014388
-0.093933 -0.103857 0.899490 0 29 255 0.030562
-0.096289 -0.105297 0.896678 0 7 255 0.024335
-0.091657 -0.102545 0.902460 0 96 255 0.041635
-0.098677 -0.106765 0.893839 0 0 229 0.018900
-0.098735 -0.109209 0.889261 0 0 179 0.010307
-0.095186 -0.110855 0.888243 0 0 179 0.010407
-0.108336 -0.109879 0.884774 0 0 153 0.007768
-0.106322 -0.111686 0.882351 0 0 179 0.008953
-0.103913 -0.111022 0.884377 0 0 179 0.007968
-0.104429 -0.113616 0.880175 0 0 204 0.013288
-0.102036 -0.112957 0.882139 0 0 179 0.011632
-0.100158 -0.115021 0.879928 0 0 229 0.018894
-0.102505 -0.115641 0.878064 0 0 255 0.022356
-0.099681 -0.112355 0.884106 0 0 179 0.010873
-0.097856 -0.114373 0.881919 0 0 229 0.015625
-0.101319 -0.110056 0.886790 0 0 179 0.008581
-0.103062 -0.108002 0.889642 0 0 179 0.010705
-0.105687 -0.108878 0.887162 0 0 179 0.009266
-0.100682 -0.118279 0.875100 0 96 255 0.042266
-0.098587 -0.120220 0.872562 0 208 255 0.058762
-0.096478 -0.119985 0.874116 0 185 255 0.056614
-0.096459 -0.121916 0.869947 54 255 193 0.075740
-0.094368 -0.121624 0.871488 36 255 211 0.072273
-0.092275 -0.121475 0.873114 36 255 211 0.072088
-0.094116 -0.119325 0.876078 0 141 255 0.048473
-0.095979 -0.116902 0.878965 0 29 255 0.027515
-0.098329 -0.117552 0.876971 0 51 255 0.033507
-0.058699 -0.095568 0.922838 136 255 112 0.113314
-0.059179 -0.098884 0.918479 72 255 175 0.079978
-0.062049 -0.096027 0.921454 142 255 106 0.125957
-0.059664 -0.102409 0.914196 0 185 255 0.055745
-0.062566 -0.099195 0.917085 72 255 175 0.081495
-0.063074 -0.102639 0.912757 0 163 255 0.053322
-0.065406 -0.096492 0.919989 142 255 106 0.126355
-0.060134 -0.106163 0.909915 0 96 255 0.041499
-0.060603 -0.109966 0.905722 0 74 255 0.038606
-0.057150 -0.109828 0.907420 0 118 255 0.043191
-0.056681 -0.105988 0.911565 0 118 255 0.045221
-0.056269 -0.102172 0.915911 0 208 255 0.061781
-0.053697 -0.109739 0.909064 0 141 255 0.047118
-0.065824 -0.099563 0.915505 54 255 193 0.077080
-0.068468 -0.096998 0.918588 142 255 106 0.128092
-0.066217 -0.102863 0.911039 0 141 255 0.049119
-0.068983 -0.099952 0.914060 54 255 193 0.074721
-0.066729 -0.106498 0.906702 0 74 255 0.036256
-0.063903 -0.110179 0.904167 0 74 255 0.038140
-0.063497 -0.106325 0.908392 0 96 255 0.039761
-0.060703 -0.118888 0.892697 72 255 175 0.079948
-0.060590 -0.116234 0.896785 1 230 247 0.063030
-0.057594 -0.118816 0.894520 90 255 157 0.085072
-0.057472 -0.116154 0.898611 18 252 229 0.067223
-0.060550 -0.113189 0.901072 0 118 255 0.044881
-0.063879 -0.113348 0.899572 0 118 255 0.045623
-0.054274 -0.118691 0.896254 90 255 157 0.085841
-0.053964 -0.116038 0.900281 18 252 229 0.066431
-0.050978 -0.118510 0.898112 90 255 157 0.085760
-0.050700 -0.115941 0.902247 36 255 211 0.071107
-0.053772 -0.113045 0.904572 0 185 255 0.054860
-0.057244 -0.113100 0.902868 0 141 255 0.049359
-0.062868 -0.031048 0.914028 183 255 65 0.216131
-0.063628 -0.035025 0.914232 184 255 63 0.221465
-0.065992 -0.031534 0.911315 184 255 63 0.221966
-0.066818 -0.035374 0.911556 195 255 53 0.243547
-0.064131 -0.039050 0.914776 193 255 55 0.242042
-0.064635 -0.042980 0.915477 199 255 49 0.250625
-0.061797 -0.042680 0.917696 183 255 65 0.217188
-0.061247 -0.038447 0.917103 184 255 63 0.220274
-0.060559 -0.034276 0.916804 181 255 67 0.212588
-0.058918 -0.041887 0.920087 174 255 74 0.195505
-0.068705 -0.032115 0.908870 188 255 60 0.227146
-0.069240 -0.035712 0.909448 202 255 46 0.260930
-0.071153 -0.032562 0.906541 190 255 58 0.232171
-0.071326 -0.036037 0.907418 207 255 40 0.271191
-0.069166 -0.039296 0.910618 209 255 39 0.276424
-0.068877 -0.043287 0.912163 220 255 28 0.297724
-0.066845 -0.042979 0.913727 211 255 37 0.279868
-0.067023 -0.039140 0.912474 204 255 44 0.264390
-0.065420 -0.063063 0.921303 158 255 90 0.161274
-0.064925 -0.057828 0.919081 179 255 69 0.207459
-0.064207 -0.052358 0.917489 188 255 60 0.230278
-0.062914 -0.057517 0.919858 165 255 83 0.177805
-0.062192 -0.051991 0.918819 177 255 71 0.204969
-0.063299 -0.062625 0.921841 151 255 97 0.147180
-0.064323 -0.047484 0.916358 200 255 47 0.256876
-0.066334 -0.047462 0.914798 209 255 39 0.276440
-0.066183 -0.052415 0.916280 199 255 49 0.251899
-0.061005 -0.062118 0.922799 142 255 106 0.127148
-0.060681 -0.057158 0.921009 156 255 92 0.158625
-0.059821 -0.051704 0.920491 167 255 81 0.180082
-0.058241 -0.056499 0.922295 145 255 103 0.134859
-0.057493 -0.051118 0.922004 156 255 92 0.157188
-0.058540 -0.061463 0.923844 134 255 113 0.110240
-0.059262 -0.046561 0.920263 168 255 79 0.187353
-0.061855 -0.047077 0.918233 181 255 67 0.211535
-0.087004 -0.040187 0.902461 250 243 0 0.366678
-0.085876 -0.044108 0.905264 239 255 8 0.340603
-0.083177 -0.048559 0.908304 247 247 2 0.355983
-0.083641 -0.044065 0.905227 250 243 0 0.366698
-0.088000 -0.036644 0.899873 250 243 0 0.365343
-0.082139 -0.057400 0.912876 243 251 5 0.350553
-0.082860 -0.061237 0.914734 229 255 19 0.318574
-0.084077 -0.064912 0.916279 206 255 42 0.269002
-0.081496 -0.053106 0.910639 248 245 0 0.362584
-0.078723 -0.066414 0.917957 183 255 65 0.215312
-0.077606 -0.061850 0.915807 207 255 40 0.270208
-0.077815 -0.057369 0.913390 229 255 19 0.319333
-0.078095 -0.052692 0.910864 247 247 2 0.358575
-0.079903 -0.048215 0.908451 254 239 0 0.371593
-0.080374 -0.061692 0.915248 216 255 31 0.292627
-0.081536 -0.065818 0.917085 191 255 56 0.238015
-0.080473 -0.043499 0.905395 252 241 0 0.369490
-0.083070 -0.039810 0.902424 245 249 3 0.353773
-0.084691 -0.036396 0.899858 238 255 10 0.338900
-0.075344 -0.056410 0.913424 225 255 23 0.309957
-0.075048 -0.061288 0.916228 200 255 47 0.256826
-0.076255 -0.066249 0.918712 174 255 74 0.198535
-0.075169 -0.051346 0.911097 243 251 5 0.348812
-0.075776 -0.046490 0.908873 247 247 2 0.356457
-0.077743 -0.047492 0.908606 250 243 0 0.363810
-0.072708 -0.060520 0.916668 197 255 51 0.247925
-0.072422 -0.055151 0.913896 223 255 24 0.306902
-0.072602 -0.049857 0.911608 234 255 14 0.328317
-0.073420 -0.045053 0.909450 236 255 12 0.335871
-0.078169 -0.034588 0.901144 218 255 30 0.295877
-0.077762 -0.038001 0.903366 234 255 14 0.330709
-0.080491 -0.035410 0.900409 225 255 23 0.312375
-0.076980 -0.041949 0.905926 247 247 2 0.357203
-0.075127 -0.041026 0.906620 236 255 12 0.332876
-0.080686 -0.039098 0.902592 243 251 5 0.348656
-0.082079 -0.070532 0.918033 168 255 79 0.185081
-0.085512 -0.074527 0.917507 154 255 94 0.155607
-0.084842 -0.069735 0.916940 181 255 67 0.211184
-0.088892 -0.078389 0.916502 136 255 112 0.116133
-0.091999 -0.081953 0.915362 108 255 139 0.089019
-0.089882 -0.083693 0.915881 72 255 175 0.081270
-0.086983 -0.080008 0.916934 131 255 117 0.104994
-0.083806 -0.076092 0.918037 147 255 101 0.140219
-0.087700 -0.085214 0.916218 72 255 175 0.081820
-0.088594 -0.072037 0.916265 174 255 74 0.195552
-0.093651 -0.079944 0.915070 131 255 117 0.104201
-0.100578 -0.088367 0.911326 0 163 255 0.052530
-0.098517 -0.085305 0.912545 0 185 255 0.058153
-0.096494 -0.088157 0.912243 0 185 255 0.057533
-0.098416 -0.091047 0.910954 0 185 255 0.055344
-0.095314 -0.083660 0.913920 54 255 193 0.074484
-0.095292 -0.093494 0.910639 1 230 247 0.065904
-0.094054 -0.089697 0.912644 1 230 247 0.062973
-0.093638 -0.095244 0.910191 18 252 229 0.070300
-0.092286 -0.091451 0.912228 1 230 247 0.065047
-0.090590 -0.093122 0.911797 18 252 229 0.066963
-0.091879 -0.096675 0.909257 36 255 211 0.070843
-0.090883 -0.087496 0.914270 36 255 211 0.071513
-0.089216 -0.089377 0.914017 1 230 247 0.065800
-0.093276 -0.085951 0.913945 18 252 229 0.069744
-0.066360 -0.068456 0.922332 138 255 110 0.120429
-0.067804 -0.073498 0.923765 136 255 112 0.113958
-0.067597 -0.077809 0.925316 140 255 108 0.122265
-0.068540 -0.082388 0.925946 151 255 97 0.145627
-0.065850 -0.081678 0.926847 151 255 97 0.145467
-0.065070 -0.077179 0.926003 134 255 113 0.112856
-0.065231 -0.072840 0.924435 131 255 117 0.104714
-0.064100 -0.067924 0.923014 134 255 113 0.111834
-0.070304 -0.086727 0.924546 156 255 92 0.158052
-0.070416 -0.090432 0.922777 159 255 88 0.164634
-0.068647 -0.093556 0.921149 152 255 95 0.151528
-0.065764 -0.092970 0.922468 152 255 95 0.150789
-0.067485 -0.089746 0.924077 163 255 85 0.173488
-0.067541 -0.086056 0.925706 159 255 88 0.166985
-0.059299 -0.091878 0.925158 147 255 101 0.140031
-0.061241 -0.088379 0.926485 159 255 88 0.165497
-0.061462 -0.084554 0.927706 158 255 90 0.161895
-0.062896 -0.080854 0.927810 151 255 97 0.147292
-0.059908 -0.080069 0.928648 147 255 101 0.140578
-0.064534 -0.085278 0.926832 161 255 87 0.168044
-0.064422 -0.089060 0.925319 161 255 87 0.171399
-0.062485 -0.092389 0.923933 151 255 97 0.146193
-0.059190 -0.075606 0.927627 127 255 120 0.095869
-0.059685 -0.071318 0.925948 90 255 157 0.082549
-0.058938 -0.066524 0.924750 108 255 139 0.087250
-0.061484 -0.067237 0.923815 127 255 120 0.097248
-0.062491 -0.072144 0.925141 126 255 122 0.093612
-0.062074 -0.076347 0.926841 131 255 117 0.103075
0.002072 0.001362 0.893359 0 0 153 0.006986
0.004842 0.001342 0.894522 0 0 153 0.007439
0.003105 -0.000138 0.897664 0 0 153 0.005358
0.000318 0.000014 0.896496 0 0 153 0.005238
0.005930 -0.000252 0.898829 0 0 153 0.005711
0.001336 -0.001276 0.900911 0 0 153 0.004310
0.004137 -0.001486 0.902095 0 0 153 0.004454
0.002342 -0.002521 0.905405 0 0 153 0.004604
-0.001510 -0.001055 0.899766 0 0 153 0.004945
-0.000524 -0.002214 0.904303 0 0 153 0.005843
-0.003344 -0.002040 0.903112 0 0 179 0.007881
0.006984 -0.001709 0.903215 0 0 153 0.005075
0.005148 -0.002709 0.906581 0 0 153 0.003955
0.008027 -0.002988 0.907705 0 0 153 0.003964
0.010080 -0.002092 0.904422 0 0 153 0.007129
0.008979 -0.000377 0.900099 0 0 153 0.006559
0.012034 -0.000519 0.901390 0 0 153 0.007510
0.010927 0.001331 0.897176 0 0 179 0.009031
0.007882 0.001299 0.895809 0 0 179 0.008336
0.013992 0.001442 0.898618 0 0 179 0.009807
-0.005168 -0.003591 0.906294 0 0 204 0.012059
-0.002620 -0.003656 0.907475 0 0 179 0.011098
-0.004460 -0.004975 0.910659 0 0 255 0.020643
-0.007009 -0.004918 0.909423 0 0 255 0.021341
-0.001880 -0.005233 0.911738 0 0 229 0.016439
-0.006281 -0.006169 0.913655 0 51 255 0.034696
-0.003791 -0.006394 0.914797 0 51 255 0.031901
-0.005613 -0.007367 0.917831 0 185 255 0.054778
-0.008754 -0.006175 0.912424 0 74 255 0.035658
-0.008077 -0.007450 0.916497 0 163 255 0.053593
-0.010524 -0.007500 0.915281 0 163 255 0.052004
-0.001222 -0.006526 0.916008 0 29 255 0.028991
-0.003091 -0.007595 0.919071 0 163 255 0.052063
-0.000543 -0.007814 0.920305 0 118 255 0.045916
0.001579 -0.006831 0.917287 0 7 255 0.023895
0.000918 -0.005353 0.913058 0 0 204 0.014954
0.003728 -0.005657 0.914203 0 0 179 0.011153
0.003103 -0.004113 0.909827 0 0 153 0.006189
0.000219 -0.003869 0.908655 0 0 179 0.008759
0.005898 -0.004253 0.911004 0 0 153 0.004802
0.009485 -0.007411 0.921103 0 0 204 0.014404
0.012012 -0.006044 0.917958 0 0 153 0.005789
0.009069 -0.005855 0.916709 0 0 153 0.007429
0.014594 -0.004828 0.914635 0 0 153 0.004467
0.011599 -0.004571 0.913410 0 0 153 0.003999
0.014003 -0.003402 0.910115 0 0 153 0.005924
0.017037 -0.003643 0.911241 0 0 179 0.008015
0.008627 -0.004366 0.912192 0 0 153 0.004115
0.011015 -0.003212 0.908909 0 0 153 0.004741
0.006400 -0.005813 0.915416 0 0 179 0.009437
0.004229 -0.007055 0.918542 0 0 255 0.020989
0.006892 -0.007222 0.919830 0 0 229 0.017684
0.004695 -0.008402 0.922908 0 74 255 0.037032
0.002101 -0.008057 0.921612 0 96 255 0.042422
0.007310 -0.008785 0.924135 0 29 255 0.030360
0.019107 -0.002082 0.908283 0 0 179 0.009039
0.021297 -0.000031 0.905754 0 0 179 0.008894
0.018065 -0.000256 0.904186 0 0 179 0.008275
0.023343 0.002238 0.903512 0 0 229 0.017334
0.020177 0.001959 0.901802 0 0 204 0.013712
0.016980 0.001708 0.900123 0 0 204 0.011773
0.015036 -0.000418 0.902769 0 0 179 0.008105
0.013055 -0.002078 0.905728 0 0 153 0.007488
0.016082 -0.002092 0.906995 0 0 179 0.008365
0.029371 0.000218 0.846276 0 0 153 0.007666
0.028058 0.001561 0.848646 0 0 204 0.012513
0.031392 0.001582 0.850224 0 0 204 0.013162
0.030039 0.002749 0.852625 0 0 229 0.018571
0.026656 0.002708 0.851061 0 0 229 0.017307
0.033307 0.002667 0.854209 0 0 229 0.018503
0.028549 0.003658 0.855170 0 0 255 0.021699
0.031874 0.003625 0.856683 0 0 255 0.023022
0.030300 0.004407 0.859272 0 7 255 0.024303
0.025146 0.003606 0.853616 0 0 255 0.020333
0.026968 0.004403 0.857799 0 0 255 0.023253
0.023563 0.004314 0.856286 0 0 255 0.020262
0.035140 0.003531 0.858244 0 0 255 0.022028
0.033635 0.004385 0.860825 0 7 255 0.025066
0.036971 0.004325 0.862427 0 7 255 0.024982
0.038475 0.003439 0.859934 0 0 255 0.021266
0.036558 0.002539 0.855853 0 0 229 0.017469
0.039854 0.002382 0.857563 0 0 229 0.016335
0.037860 0.001400 0.853540 0 0 204 0.012115
0.034630 0.001526 0.851881 0 0 204 0.012935
0.035890 0.000196 0.849630 0 0 179 0.008415
0.041158 0.001191 0.855281 0 0 179 0.010967
0.039129 0.000059 0.851309 0 0 179 0.008263
0.042416 -0.000121 0.853048 0 0 179 0.008130
0.032659 0.000234 0.847939 0 0 179 0.008122
0.021896 0.004595 0.859157 0 0 229 0.016149
0.025186 0.004699 0.860555 0 0 229 0.018674
