ply
format ascii 1.0
comment VCGLIB generated
element vertex 1042
property float x
property float y
property float z
property uchar red
property uchar green
property uchar blue
property float quality
end_header
-0.155046 -0.037175 0.830737 0 0 128 0.001353
-0.152151 -0.034145 0.830807 0 0 128 0.001806
-0.151590 -0.032331 0.832473 0 0 128 0.002328
-0.155580 -0.039121 0.829025 0 0 128 0.002049
-0.152661 -0.035979 0.829173 0 0 128 0.001217
-0.160002 -0.043604 0.829021 0 0 128 0.003611
-0.170928 -0.062333 0.821874 0 0 153 0.007176
-0.172572 -0.064217 0.823860 0 0 179 0.009368
-0.173766 -0.066737 0.824103 0 0 204 0.013431
-0.175133 -0.068774 0.826245 0 0 255 0.021070
-0.174544 -0.069882 0.822664 0 0 204 0.013960
-0.174366 -0.065612 0.827616 0 0 204 0.012582
-0.175594 -0.067717 0.829760 0 0 204 0.015536
-0.173104 -0.062751 0.827107 0 0 179 0.010559
-0.171667 -0.060125 0.826735 0 0 179 0.009733
-0.175288 -0.072048 0.825141 0 0 179 0.010297
-0.175285 -0.074920 0.823636 0 0 179 0.009538
-0.175749 -0.074266 0.827691 0 0 153 0.007312
-0.175653 -0.077163 0.826236 0 0 153 0.007766
-0.175851 -0.079441 0.828770 0 0 179 0.009668
-0.175462 -0.080025 0.824776 0 0 179 0.008419
-0.175991 -0.076517 0.830190 0 0 153 0.006311
-0.176120 -0.078784 0.832688 0 0 153 0.007102
-0.176115 -0.073204 0.831197 0 0 153 0.005942
-0.175751 -0.070970 0.828716 0 0 179 0.011396
-0.177171 -0.074399 0.837993 0 0 179 0.008771
-0.177208 -0.071395 0.837035 0 0 179 0.008673
-0.176741 -0.069149 0.834308 0 0 204 0.013632
-0.176493 -0.066197 0.833377 0 0 255 0.023397
-0.176562 -0.075434 0.833943 0 0 153 0.004882
-0.176843 -0.077705 0.836713 0 0 204 0.012044
-0.175969 -0.062522 0.834549 0 0 255 0.019551
-0.174707 -0.059490 0.833832 0 0 204 0.014137
-0.172839 -0.057574 0.831644 0 0 179 0.011112
-0.173798 -0.061197 0.830418 0 0 204 0.013946
-0.175006 -0.064043 0.830944 0 0 204 0.014139
-0.176673 -0.079524 0.839401 0 0 179 0.010187
-0.175873 -0.082419 0.838117 0 0 153 0.007317
-0.176046 -0.080599 0.835405 0 0 153 0.006617
-0.175148 -0.083506 0.834156 0 0 153 0.004106
-0.174956 -0.085340 0.836866 0 0 153 0.007554
-0.173994 -0.088160 0.835534 0 0 204 0.012539
-0.174458 -0.087430 0.839944 0 0 255 0.019546
-0.175282 -0.084524 0.841211 0 0 179 0.010177
-0.175602 -0.081343 0.831255 0 0 153 0.006399
-0.174964 -0.083905 0.829803 0 0 153 0.004772
-0.175244 -0.081977 0.827287 0 0 153 0.006566
-0.174560 -0.084473 0.825798 0 0 179 0.008248
-0.174312 -0.086405 0.828286 0 0 153 0.007295
-0.173432 -0.088937 0.826851 0 0 179 0.007835
-0.173863 -0.088563 0.831204 0 0 204 0.014240
-0.174538 -0.086035 0.832674 0 0 179 0.008339
-0.168930 -0.097072 0.827254 0 0 179 0.007998
-0.170426 -0.094859 0.829350 0 0 179 0.008444
-0.168947 -0.096995 0.831722 0 0 204 0.015230
-0.171776 -0.092635 0.831408 0 0 179 0.009201
-0.170312 -0.094760 0.833786 0 0 179 0.011374
-0.171570 -0.092512 0.835797 0 0 179 0.009053
-0.168771 -0.096918 0.836129 0 0 229 0.016939
-0.172979 -0.090398 0.833486 0 0 204 0.012017
-0.172633 -0.090795 0.829145 0 0 153 0.006530
-0.171210 -0.093068 0.827074 0 0 153 0.006551
-0.168458 -0.097025 0.839055 0 0 229 0.016838
-0.170546 -0.094392 0.838179 0 0 229 0.016383
-0.170083 -0.094510 0.841118 0 0 179 0.010890
-0.168018 -0.097164 0.841895 0 0 229 0.018817
-0.172063 -0.091861 0.840269 0 0 204 0.013460
-0.169359 -0.094711 0.843977 0 0 153 0.007266
-0.171376 -0.092005 0.843132 0 0 153 0.005065
-0.167382 -0.097417 0.844780 0 7 255 0.023742
-0.173354 -0.089311 0.842288 0 0 229 0.015765
-0.173087 -0.089979 0.837890 0 0 204 0.012602
-0.166520 -0.099374 0.828625 0 0 128 0.003271
-0.165143 -0.101219 0.825931 0 0 128 0.003292
-0.164138 -0.101636 0.829894 0 0 128 0.002266
-0.162761 -0.103428 0.827187 0 0 128 0.003262
-0.160422 -0.105597 0.828383 0 0 153 0.007684
-0.161320 -0.105228 0.824416 0 0 153 0.004935
-0.161754 -0.103864 0.831143 0 0 128 0.003100
-0.159398 -0.106074 0.832336 0 0 179 0.010770
-0.164248 -0.101563 0.834308 0 0 153 0.005951
-0.166663 -0.099249 0.833018 0 0 179 0.008264
-0.159198 -0.107014 0.823047 0 0 128 0.003593
-0.155933 -0.109193 0.823175 0 0 128 0.002626
-0.153925 -0.110862 0.821647 0 0 128 0.002485
-0.150802 -0.112860 0.821604 0 0 153 0.003946
-0.153132 -0.112123 0.818492 0 0 128 0.003750
-0.151594 -0.111652 0.824794 0 0 128 0.001534
-0.148523 -0.113589 0.824737 0 0 128 0.003018
-0.154335 -0.109744 0.826767 0 0 128 0.002058
-0.157094 -0.107810 0.828627 0 0 153 0.004225
-0.146303 -0.113305 0.832131 0 0 128 0.002469
-0.149478 -0.111576 0.834474 0 0 128 0.000931
-0.150586 -0.111037 0.832426 0 0 128 0.001360
-0.152658 -0.109734 0.836657 0 0 128 0.002571
-0.153795 -0.109156 0.834596 0 0 128 0.002301
-0.156997 -0.107163 0.836633 0 0 153 0.006354
-0.155784 -0.107761 0.838711 0 0 153 0.006736
-0.154995 -0.108616 0.832487 0 0 128 0.002294
-0.158260 -0.106581 0.834496 0 0 179 0.009407
-0.152191 -0.110507 0.830598 0 0 128 0.001298
-0.149495 -0.112302 0.828631 0 0 128 0.001533
-0.147879 -0.112775 0.830416 0 0 128 0.001736
-0.145301 -0.114467 0.828336 0 0 128 0.003032
-0.146917 -0.114038 0.826569 0 0 128 0.003006
-0.143729 -0.114917 0.830017 0 0 153 0.005163
-0.157995 -0.105629 0.839796 0 0 128 0.001806
-0.161340 -0.102959 0.841506 0 0 128 0.001954
-0.161632 -0.102722 0.838682 0 0 128 0.002087
-0.164477 -0.100206 0.843177 0 0 179 0.008963
-0.164931 -0.099973 0.840327 0 0 128 0.003612
-0.165291 -0.099798 0.837416 0 0 128 0.002923
-0.162983 -0.102127 0.836480 0 0 128 0.001590
-0.160643 -0.104392 0.835520 0 0 128 0.003747
-0.159304 -0.104996 0.837697 0 0 128 0.002197
-0.141444 -0.116011 0.827759 0 0 128 0.003238
-0.143044 -0.115645 0.826105 0 0 128 0.002476
-0.140829 -0.116861 0.823789 0 0 128 0.003199
-0.144646 -0.115314 0.824340 0 0 128 0.002206
-0.142474 -0.116549 0.822048 0 0 128 0.002265
-0.144084 -0.116141 0.820266 0 0 128 0.001439
-0.146268 -0.114867 0.822534 0 0 128 0.001473
-0.140365 -0.117803 0.819682 0 0 128 0.002151
-0.142006 -0.117466 0.817900 0 0 128 0.001705
-0.139997 -0.118778 0.815447 0 0 128 0.002007
-0.137996 -0.119175 0.816927 0 0 128 0.002311
-0.138368 -0.118144 0.821131 0 0 128 0.002461
-0.135997 -0.119527 0.818398 0 0 128 0.003832
-0.136365 -0.118412 0.822518 0 0 128 0.002684
-0.138875 -0.117195 0.825185 0 0 128 0.002664
-0.134023 -0.119713 0.819860 0 0 153 0.004396
-0.148985 -0.114036 0.819696 0 0 128 0.001827
-0.147223 -0.115244 0.817695 0 0 128 0.001278
-0.149554 -0.114627 0.814575 0 0 128 0.001186
-0.151296 -0.113405 0.816573 0 0 128 0.001916
-0.146697 -0.116188 0.814066 0 0 128 0.001332
-0.146253 -0.117125 0.810338 0 0 128 0.001732
-0.143109 -0.117943 0.812891 0 0 128 0.001252
-0.140913 -0.120656 0.800457 0 0 128 0.002145
-0.140560 -0.120321 0.804222 0 0 128 0.000962
-0.137322 -0.121801 0.802592 0 0 128 0.001288
-0.140295 -0.119907 0.808028 0 0 128 0.001074
-0.137028 -0.121383 0.806344 0 0 128 0.000894
-0.136793 -0.120932 0.810107 0 0 128 0.001913
-0.133796 -0.122911 0.804691 0 0 128 0.001267
-0.140144 -0.119387 0.811737 0 0 128 0.001668
-0.143249 -0.118506 0.809206 0 0 128 0.000925
-0.143483 -0.119029 0.805414 0 0 128 0.001255
-0.131528 -0.123455 0.806000 0 0 128 0.001089
-0.133242 -0.122371 0.808967 0 0 128 0.002023
-0.131033 -0.122807 0.810247 0 0 153 0.004142
-0.129324 -0.123937 0.807257 0 0 128 0.002519
-0.132756 -0.121640 0.813167 0 0 153 0.003955
-0.128856 -0.123144 0.811519 0 0 153 0.004538
-0.130577 -0.121950 0.814441 0 0 153 0.004300
-0.127184 -0.124362 0.808617 0 0 128 0.003473
-0.132376 -0.120729 0.817372 0 0 153 0.004040
-0.134344 -0.120583 0.815815 0 0 153 0.004900
-0.136355 -0.120259 0.814304 0 0 128 0.001970
-0.134780 -0.121331 0.811658 0 0 128 0.002785
-0.097714 -0.020656 0.786538 0 0 128 0.000727
-0.098594 -0.022298 0.784596 0 0 128 0.000714
-0.100404 -0.021321 0.787545 0 0 128 0.000526
-0.101364 -0.022974 0.785577 0 0 128 0.000618
-0.104151 -0.023673 0.786547 0 0 128 0.001451
-0.102331 -0.024663 0.783596 0 0 128 0.001335
-0.103157 -0.022040 0.788552 0 0 128 0.000771
-0.105921 -0.022782 0.789633 0 0 128 0.001084
-0.102407 -0.020140 0.791231 0 0 128 0.000493
-0.099729 -0.019415 0.790152 0 0 128 0.000617
-0.104820 -0.025428 0.784390 0 0 128 0.001362
-0.107307 -0.026186 0.785179 0 0 128 0.002009
-0.110583 -0.028580 0.784416 0 0 128 0.002433
-0.107376 -0.028084 0.782356 0 0 128 0.002441
-0.112140 -0.027893 0.786914 0 0 128 0.002115
-0.109102 -0.025291 0.788231 0 0 128 0.001736
-0.106641 -0.024475 0.787391 0 0 128 0.001409
-0.116011 -0.027490 0.791771 0 0 128 0.001021
-0.113526 -0.026233 0.791140 0 0 128 0.001165
-0.113104 -0.024650 0.793581 0 0 128 0.000845
-0.111012 -0.025049 0.790577 0 0 128 0.001362
-0.110545 -0.023461 0.793052 0 0 128 0.000746
-0.108031 -0.022308 0.792534 0 0 128 0.000909
-0.110125 -0.021863 0.795490 0 0 128 0.000961
-0.108421 -0.020406 0.796622 0 0 128 0.000320
-0.105652 -0.019252 0.795893 0 0 128 0.000359
-0.104044 -0.017760 0.796969 0 0 128 0.000680
-0.101775 -0.018545 0.793473 0 0 128 0.000421
-0.105211 -0.021220 0.791863 0 0 128 0.000611
-0.121547 -0.039456 0.779168 0 0 128 0.002561
-0.121282 -0.037411 0.781649 0 0 128 0.002009
-0.121041 -0.035476 0.784154 0 0 128 0.002238
-0.124029 -0.038087 0.783290 0 0 128 0.002169
-0.118031 -0.033090 0.785013 0 0 128 0.000995
-0.118213 -0.034855 0.782421 0 0 128 0.001910
-0.118381 -0.036816 0.779836 0 0 128 0.003653
-0.115928 -0.034026 0.781704 0 0 128 0.001846
-0.124230 -0.036575 0.785848 0 0 128 0.002174
-0.124439 -0.035252 0.788381 0 0 128 0.001533
-0.127228 -0.037729 0.787420 0 0 128 0.001829
-0.121577 -0.032856 0.789442 0 0 128 0.000659
-0.121330 -0.034134 0.786758 0 0 128 0.001048
-0.115555 -0.028840 0.788807 0 0 128 0.002103
-0.115094 -0.030355 0.785893 0 0 128 0.002654
-0.118433 -0.031519 0.787739 0 0 128 0.001211
-0.118833 -0.030049 0.790505 0 0 128 0.001175
-0.113720 -0.030957 0.783712 0 0 128 0.002902
-0.112148 -0.031722 0.781230 0 0 128 0.003733
-0.136584 -0.034656 0.806446 0 0 128 0.000904
-0.138709 -0.035453 0.808787 0 0 128 0.000309
-0.140833 -0.036178 0.811087 0 0 128 0.000174
-0.140910 -0.037879 0.808097 0 0 128 0.000421
-0.138539 -0.033766 0.811793 0 0 128 0.000351
-0.135925 -0.031078 0.812437 0 0 128 0.000923
-0.136314 -0.032862 0.809454 0 0 128 0.001107
-0.133712 -0.030196 0.810039 0 0 128 0.003297
-0.143707 -0.040032 0.809021 0 0 128 0.001066
-0.143741 -0.038548 0.812002 0 0 128 0.000616
-0.145785 -0.040926 0.811050 0 0 128 0.000990
-0.147826 -0.043273 0.810088 0 0 128 0.001551
-0.145835 -0.039418 0.813964 0 0 128 0.000577
-0.143683 -0.037034 0.814859 0 0 128 0.000822
-0.140688 -0.034643 0.813979 0 0 128 0.000340
-0.140566 -0.032828 0.817179 0 0 128 0.000683
-0.137500 -0.029784 0.818061 0 0 128 0.000654
-0.138149 -0.031770 0.814902 0 0 128 0.000671
-0.143674 -0.035210 0.817978 0 0 128 0.000555
-0.133512 -0.027804 0.815134 0 0 128 0.000634
-0.129866 -0.025405 0.813946 0 0 128 0.001300
-0.125252 -0.029003 0.800424 0 0 128 0.001229
-0.126848 -0.028586 0.803349 0 0 128 0.001093
-0.128372 -0.028146 0.806200 0 0 128 0.001630
-0.129419 -0.030752 0.802980 0 0 128 0.000798
-0.125766 -0.026156 0.806649 0 0 128 0.000570
-0.122949 -0.024058 0.807038 0 0 128 0.000286
-0.124096 -0.026489 0.803742 0 0 128 0.000530
-0.121283 -0.024393 0.804142 0 0 128 0.000235
-0.132250 -0.032155 0.804452 0 0 128 0.000860
-0.131754 -0.030041 0.807554 0 0 128 0.001693
-0.134224 -0.032346 0.807012 0 0 128 0.001371
-0.130855 -0.027803 0.810611 0 0 128 0.001696
-0.127534 -0.026048 0.809360 0 0 128 0.000638
-0.125253 -0.022138 0.814090 0 0 128 0.000334
-0.126632 -0.023770 0.812731 0 0 128 0.000444
-0.123167 -0.021988 0.811485 0 0 128 0.000248
-0.121819 -0.020391 0.812883 0 0 128 0.000103
-0.124546 -0.023562 0.810099 0 0 128 0.000525
-0.118727 -0.019257 0.811290 0 0 128 0.000183
-0.120206 -0.020881 0.809894 0 0 128 0.000115
-0.117002 -0.019682 0.808264 0 0 128 0.000153
-0.115563 -0.018045 0.809649 0 0 128 0.000150
-0.120087 -0.021899 0.807653 0 0 128 0.000137
-0.115746 -0.026020 0.794015 0 0 128 0.000893
-0.118151 -0.027627 0.794083 0 0 128 0.000618
-0.115439 -0.024640 0.796324 0 0 128 0.000489
-0.117877 -0.026173 0.796345 0 0 128 0.000486
-0.117555 -0.024778 0.798632 0 0 128 0.000399
-0.120346 -0.027795 0.796388 0 0 128 0.000719
-0.115085 -0.023266 0.798650 0 0 128 0.000205
-0.114730 -0.021856 0.800922 0 0 128 0.000244
-0.112463 -0.021843 0.798196 0 0 128 0.000426
-0.112770 -0.023252 0.795902 0 0 128 0.000536
-0.120273 -0.026583 0.798679 0 0 128 0.000296
-0.122772 -0.028392 0.798412 0 0 128 0.000681
-0.120188 -0.025352 0.800918 0 0 128 0.000258
-0.122724 -0.027119 0.800639 0 0 128 0.000986
-0.118672 -0.022645 0.804289 0 0 128 0.000171
-0.117451 -0.023610 0.800953 0 0 128 0.000109
-0.112897 -0.017550 0.807301 0 0 128 0.000124
-0.114420 -0.019179 0.806060 0 0 128 0.000180
-0.111601 -0.018695 0.803514 0 0 128 0.000173
-0.110079 -0.017093 0.804784 0 0 128 0.000233
-0.114566 -0.020569 0.803546 0 0 128 0.000195
-0.117177 -0.021050 0.805753 0 0 128 0.000098
-0.107662 -0.017180 0.801888 0 0 128 0.000349
-0.109300 -0.018719 0.800874 0 0 128 0.000242
-0.110868 -0.020288 0.799537 0 0 128 0.000246
-0.127708 -0.036672 0.789886 0 0 128 0.001550
-0.128215 -0.035755 0.792410 0 0 128 0.001231
-0.129859 -0.038079 0.790359 0 0 128 0.002150
-0.126046 -0.034421 0.792018 0 0 128 0.000890
-0.123597 -0.033102 0.791511 0 0 128 0.000561
-0.131720 -0.038489 0.792187 0 0 128 0.002745
-0.130403 -0.036353 0.794270 0 0 128 0.001281
-0.132341 -0.036911 0.795911 0 0 128 0.000976
-0.133651 -0.039034 0.793846 0 0 128 0.002077
-0.129981 -0.034620 0.797228 0 0 128 0.000980
-0.127821 -0.033992 0.795465 0 0 128 0.000607
-0.125496 -0.031149 0.797018 0 0 128 0.000434
-0.123027 -0.030482 0.794960 0 0 128 0.000695
-0.127702 -0.031788 0.798840 0 0 128 0.000368
-0.121020 -0.030208 0.792829 0 0 128 0.001160
-0.134701 -0.034281 0.804178 0 0 128 0.000974
-0.132828 -0.033930 0.801937 0 0 128 0.000832
-0.135263 -0.036122 0.801693 0 0 128 0.000608
-0.137396 -0.038101 0.801337 0 0 128 0.001203
-0.137014 -0.036357 0.803860 0 0 128 0.000968
-0.139152 -0.038326 0.803485 0 0 128 0.001153
-0.130439 -0.032948 0.800496 0 0 128 0.000298
-0.132388 -0.035606 0.798699 0 0 128 0.000830
-0.135669 -0.039782 0.795309 0 0 128 0.002145
-0.134726 -0.037924 0.797391 0 0 128 0.000831
-0.136838 -0.038828 0.798621 0 0 128 0.001235
-0.137759 -0.040669 0.796554 0 0 128 0.003145
-0.139943 -0.041747 0.797651 0 0 128 0.003384
-0.139397 -0.040315 0.799811 0 0 128 0.001429
-0.141702 -0.041573 0.800826 0 0 128 0.001646
-0.142254 -0.043007 0.798628 0 0 128 0.002389
-0.144699 -0.044530 0.799604 0 0 128 0.003466
-0.146525 -0.045323 0.801328 0 0 128 0.001635
-0.148622 -0.047126 0.800853 0 0 128 0.002433
-0.144905 -0.043489 0.803175 0 0 128 0.001619
-0.142652 -0.041520 0.803540 0 0 128 0.001908
-0.150395 -0.048130 0.802433 0 0 128 0.003213
-0.152221 -0.049113 0.803949 0 0 128 0.002429
-0.153702 -0.050847 0.802032 0 0 128 0.002956
-0.150693 -0.047442 0.805810 0 0 128 0.002914
-0.148833 -0.046391 0.804301 0 0 128 0.002873
-0.146705 -0.044474 0.804841 0 0 128 0.003270
-0.145851 -0.042238 0.808367 0 0 128 0.001265
-0.143896 -0.041150 0.806573 0 0 128 0.000653
-0.148627 -0.045419 0.806607 0 0 128 0.002478
-0.141166 -0.039226 0.805574 0 0 128 0.000745
-0.138894 -0.036964 0.806017 0 0 128 0.000550
-0.157898 -0.051667 0.811086 0 0 128 0.001535
-0.160556 -0.053893 0.812336 0 0 128 0.001628
-0.163266 -0.056067 0.813562 0 0 128 0.002230
-0.162371 -0.056164 0.810896 0 0 128 0.002339
-0.161365 -0.053866 0.814997 0 0 128 0.001807
-0.159305 -0.051097 0.816362 0 0 128 0.001819
-0.158537 -0.051379 0.813787 0 0 128 0.001386
-0.156498 -0.048558 0.815158 0 0 128 0.001086
-0.165515 -0.059408 0.810550 0 0 128 0.002568
-0.166659 -0.060114 0.813178 0 0 153 0.004546
-0.168515 -0.062352 0.811588 0 0 153 0.005800
-0.170293 -0.064607 0.809983 0 0 179 0.011508
-0.169696 -0.063074 0.814299 0 0 153 0.006649
-0.167708 -0.060531 0.815826 0 0 153 0.006485
-0.164261 -0.056540 0.816128 0 0 128 0.003487
-0.167747 -0.058654 0.820377 0 0 153 0.005212
-0.165815 -0.056363 0.820453 0 0 153 0.004533
-0.164077 -0.055000 0.819082 0 0 128 0.003121
-0.162263 -0.052739 0.819176 0 0 128 0.001737
-0.165980 -0.057885 0.817460 0 0 153 0.005124
-0.169485 -0.061266 0.818794 0 0 153 0.007651
-0.158612 -0.048159 0.820627 0 0 128 0.002465
-0.155374 -0.045176 0.819258 0 0 128 0.001335
-0.157512 -0.048434 0.817877 0 0 128 0.001730
-0.162428 -0.057961 0.802277 0 0 128 0.002190
-0.164072 -0.059227 0.804069 0 0 128 0.001991
-0.166524 -0.060991 0.804755 0 0 179 0.010349
-0.162824 -0.057778 0.806287 0 0 128 0.001817
-0.161149 -0.056510 0.804442 0 0 128 0.001941
-0.159889 -0.055133 0.806517 0 0 128 0.002866
-0.167545 -0.061844 0.809154 0 0 153 0.005601
-0.165482 -0.059677 0.807076 0 0 153 0.006200
-0.168487 -0.063054 0.806647 0 0 179 0.010228
-0.171409 -0.065556 0.807366 0 29 255 0.027602
-0.159839 -0.054061 0.809911 0 0 128 0.002793
-0.172797 -0.068110 0.811130 0 7 255 0.026730
-0.175096 -0.071810 0.812616 0 163 255 0.052130
-0.174364 -0.070341 0.809424 0 141 255 0.047720
-0.173594 -0.069528 0.814164 0 0 255 0.020456
-0.172130 -0.066840 0.815620 0 0 204 0.013018
-0.171321 -0.065663 0.812749 0 0 179 0.010224
-0.175915 -0.074261 0.811245 0 163 255 0.054336
-0.176980 -0.078398 0.811474 0 163 255 0.053547
-0.176162 -0.078306 0.814988 0 51 255 0.032605
-0.175584 -0.075793 0.816291 0 0 255 0.020899
-0.175537 -0.077730 0.822505 0 0 153 0.007373
-0.175388 -0.075539 0.820197 0 0 179 0.010796
-0.175068 -0.072682 0.821405 0 0 204 0.013244
-0.174632 -0.070565 0.819270 0 0 229 0.017191
-0.175062 -0.073417 0.817996 0 0 204 0.015292
-0.175794 -0.077972 0.818539 0 0 229 0.015710
-0.175839 -0.080258 0.820885 0 0 179 0.011438
-0.173535 -0.067921 0.820841 0 0 179 0.011431
-0.172133 -0.065439 0.820600 0 0 179 0.009480
-0.170914 -0.063621 0.818874 0 0 179 0.008349
-0.173475 -0.068667 0.817410 0 0 229 0.018763
-0.170412 -0.098364 0.813226 0 0 179 0.010061
-0.168372 -0.100319 0.814545 0 0 153 0.005066
-0.167873 -0.101638 0.812756 0 0 153 0.007047
-0.166093 -0.103437 0.813856 0 0 179 0.008618
-0.167805 -0.102728 0.810665 0 0 179 0.011259
-0.166287 -0.102255 0.815879 0 0 128 0.002805
-0.164198 -0.104153 0.817071 0 0 128 0.003620
-0.167074 -0.100647 0.818115 0 0 128 0.003509
-0.169323 -0.098589 0.816699 0 0 153 0.004365
-0.171515 -0.096578 0.815228 0 0 229 0.016289
-0.170189 -0.096939 0.818885 0 0 153 0.007513
-0.165069 -0.104820 0.811479 0 0 153 0.004479
-0.164917 -0.105643 0.809316 0 0 153 0.005304
-0.162651 -0.106682 0.811996 0 0 128 0.002607
-0.162382 -0.107671 0.809814 0 0 128 0.003887
-0.160091 -0.109478 0.810168 0 0 153 0.005184
-0.162247 -0.108602 0.807636 0 0 153 0.006798
-0.157818 -0.110411 0.812698 0 0 153 0.004844
-0.160917 -0.107268 0.815037 0 0 128 0.001746
-0.163372 -0.105450 0.814557 0 0 128 0.002807
-0.155875 -0.110216 0.818252 0 0 128 0.002330
-0.157866 -0.108507 0.819763 0 0 128 0.002525
-0.160596 -0.106527 0.819395 0 0 128 0.002682
-0.162735 -0.104723 0.820758 0 0 153 0.004539
-0.158211 -0.109309 0.815329 0 0 128 0.002284
-0.155511 -0.111285 0.815583 0 0 153 0.003953
-0.163531 -0.103215 0.823135 0 0 128 0.002981
-0.165779 -0.101163 0.821797 0 0 128 0.002326
-0.167420 -0.099100 0.824534 0 0 153 0.005138
-0.169662 -0.096978 0.823085 0 0 179 0.011505
-0.167995 -0.099077 0.820366 0 0 128 0.003355
-0.165007 -0.102637 0.819400 0 0 128 0.002977
-0.175364 -0.082246 0.823191 0 0 179 0.008675
-0.175173 -0.084523 0.821578 0 0 204 0.013230
-0.175725 -0.082409 0.819233 0 0 204 0.012716
-0.175382 -0.084723 0.817666 0 0 204 0.013043
-0.174787 -0.086772 0.819996 0 0 204 0.012225
-0.174325 -0.089063 0.818454 0 0 179 0.010019
-0.173937 -0.089016 0.822733 0 0 204 0.012150
-0.174318 -0.086771 0.824264 0 0 179 0.008639
-0.176340 -0.082441 0.815347 0 29 255 0.029238
-0.176431 -0.084518 0.813838 0 96 255 0.040870
-0.175421 -0.088835 0.814689 0 51 255 0.034341
-0.175435 -0.086785 0.816197 0 0 255 0.021125
-0.173103 -0.094506 0.813358 0 29 255 0.027625
-0.173740 -0.092561 0.814902 0 7 255 0.025522
-0.172017 -0.094725 0.816932 0 0 229 0.016028
-0.172321 -0.093054 0.818683 0 0 179 0.008348
-0.171176 -0.094963 0.820857 0 0 179 0.009797
-0.172072 -0.092898 0.822857 0 0 179 0.008391
-0.170409 -0.095075 0.825119 0 0 153 0.006203
-0.172782 -0.090923 0.824875 0 0 179 0.009490
-0.173190 -0.091022 0.820706 0 0 179 0.009837
-0.152409 -0.113695 0.812219 0 0 128 0.001101
-0.155103 -0.112082 0.812471 0 0 128 0.002183
-0.154724 -0.112901 0.809366 0 0 128 0.001033
-0.152070 -0.114462 0.809010 0 0 128 0.001144
-0.151858 -0.115214 0.805742 0 0 128 0.001312
-0.149107 -0.116178 0.808028 0 0 128 0.001439
-0.149304 -0.115405 0.811335 0 0 128 0.001075
-0.157531 -0.111167 0.810013 0 0 128 0.003790
-0.157187 -0.111939 0.807341 0 0 128 0.003416
-0.159731 -0.110283 0.807523 0 0 153 0.004246
-0.159286 -0.111128 0.804894 0 0 128 0.003740
-0.156951 -0.112719 0.804542 0 0 128 0.002638
-0.156736 -0.113400 0.801697 0 0 128 0.002912
-0.154357 -0.114377 0.803770 0 0 128 0.003010
-0.154457 -0.113668 0.806564 0 0 128 0.001304
-0.152649 -0.116229 0.793319 0 0 128 0.003103
-0.152298 -0.116238 0.796575 0 0 153 0.004141
-0.149983 -0.117297 0.795044 0 0 128 0.002600
-0.152060 -0.116083 0.799681 0 0 128 0.003303
-0.149647 -0.117254 0.798185 0 0 128 0.001932
-0.149378 -0.117044 0.801286 0 0 128 0.001664
-0.147135 -0.118325 0.796706 0 0 128 0.001154
-0.151944 -0.115736 0.802760 0 0 128 0.002892
-0.154380 -0.114776 0.800759 0 0 128 0.003295
-0.154468 -0.115083 0.797657 0 0 128 0.003512
-0.146790 -0.118331 0.800224 0 0 128 0.002151
-0.144011 -0.119534 0.798577 0 0 128 0.001551
-0.146547 -0.118001 0.803586 0 0 128 0.001701
-0.143704 -0.119395 0.802014 0 0 128 0.001875
-0.146370 -0.117551 0.806959 0 0 128 0.001267
-0.149233 -0.116666 0.804682 0 0 128 0.001859
-0.154785 -0.115248 0.794735 0 0 153 0.005991
-0.156827 -0.113803 0.798940 0 0 153 0.003931
-0.159229 -0.111857 0.802342 0 0 153 0.006137
-0.134513 -0.046831 0.775416 0 0 204 0.014914
-0.133864 -0.045424 0.777668 0 0 179 0.008387
-0.133327 -0.044014 0.779989 0 0 153 0.007332
-0.136318 -0.045749 0.778812 0 0 153 0.007370
-0.130354 -0.042332 0.781210 0 0 128 0.003409
-0.130753 -0.043834 0.778806 0 0 128 0.003683
-0.131335 -0.045237 0.776401 0 0 179 0.008816
-0.128096 -0.043648 0.777445 0 0 153 0.004603
-0.136111 -0.044676 0.781239 0 0 153 0.004604
-0.135925 -0.043681 0.783628 0 0 153 0.003926
-0.138761 -0.045359 0.782324 0 0 153 0.006956
-0.133051 -0.041954 0.785029 0 0 128 0.002456
-0.133217 -0.043021 0.782522 0 0 153 0.004286
-0.127190 -0.038925 0.784829 0 0 128 0.002638
-0.127211 -0.040218 0.782269 0 0 153 0.003963
-0.130243 -0.041043 0.783690 0 0 128 0.003668
-0.130179 -0.039814 0.786165 0 0 128 0.003347
-0.124442 -0.039798 0.780764 0 0 128 0.003444
-0.124883 -0.041550 0.778262 0 0 153 0.005302
-0.127673 -0.041955 0.779813 0 0 128 0.002685
-0.140112 -0.046504 0.779319 0 0 229 0.017794
-0.142508 -0.046949 0.780267 0 0 255 0.022762
-0.138103 -0.047302 0.776087 0 0 255 0.019875
-0.144549 -0.046774 0.788796 0 0 128 0.002760
-0.143910 -0.045869 0.791455 0 0 128 0.002728
-0.147040 -0.047803 0.790381 0 0 128 0.002910
-0.143258 -0.044983 0.794084 0 0 128 0.003904
-0.140448 -0.043900 0.792490 0 0 153 0.005186
-0.148656 -0.048364 0.792503 0 0 128 0.003511
-0.151612 -0.050003 0.792512 0 0 153 0.005576
-0.147469 -0.047422 0.794527 0 0 128 0.002618
-0.143343 -0.044342 0.796576 0 0 128 0.002506
-0.141047 -0.043026 0.795631 0 0 128 0.002926
-0.146395 -0.046271 0.796612 0 0 128 0.003270
-0.138160 -0.041829 0.793885 0 0 128 0.002651
-0.138774 -0.044727 0.784772 0 0 128 0.003753
-0.138851 -0.044076 0.787249 0 0 128 0.003467
-0.141475 -0.045775 0.785783 0 0 128 0.003393
-0.136162 -0.042409 0.788670 0 0 128 0.002142
-0.136038 -0.043010 0.786182 0 0 153 0.004127
-0.141313 -0.044863 0.789569 0 0 128 0.002534
-0.135410 -0.040827 0.791657 0 0 128 0.001893
-0.133513 -0.040257 0.789977 0 0 128 0.001972
-0.133268 -0.041095 0.787485 0 0 128 0.002706
-0.145425 -0.047320 0.785764 0 0 179 0.007842
-0.141359 -0.046097 0.783370 0 0 179 0.008686
-0.144476 -0.047279 0.782692 0 0 204 0.015440
-0.151801 -0.050163 0.794794 0 0 128 0.002617
-0.154022 -0.051592 0.795415 0 0 128 0.003335
-0.152115 -0.050277 0.797256 0 0 128 0.002066
-0.149679 -0.048729 0.796551 0 0 128 0.002713
-0.156749 -0.053557 0.796871 0 0 128 0.002823
-0.152874 -0.050574 0.799625 0 0 128 0.002130
-0.150376 -0.048672 0.799065 0 0 128 0.001835
-0.155308 -0.052295 0.800031 0 0 128 0.001612
-0.149976 -0.049153 0.790477 0 0 153 0.006746
-0.148573 -0.048555 0.788226 0 0 179 0.008440
-0.073117 -0.121318 0.875006 0 0 179 0.009383
-0.074908 -0.120182 0.878665 0 0 229 0.017011
-0.071259 -0.122079 0.871133 0 0 128 0.002935
-0.073734 -0.122362 0.869891 0 0 153 0.006156
-0.075588 -0.121546 0.873730 0 0 204 0.011950
-0.077390 -0.120415 0.877410 0 0 255 0.021551
-0.070603 -0.122721 0.866541 0 0 128 0.003411
-0.069921 -0.123058 0.861896 0 0 128 0.001960
-0.067489 -0.122875 0.863230 0 0 128 0.000935
-0.068180 -0.122530 0.867915 0 0 128 0.002230
-0.078190 -0.121647 0.872124 0 0 179 0.011110
-0.080072 -0.120610 0.875777 0 0 255 0.021543
-0.076266 -0.122442 0.868333 0 0 153 0.005313
-0.075657 -0.122878 0.863592 0 0 128 0.002942
-0.072444 -0.123129 0.860367 0 0 128 0.002349
-0.073110 -0.122826 0.865138 0 0 128 0.003632
-0.067584 -0.124016 0.847696 0 0 204 0.013380
-0.064419 -0.125397 0.844699 0 0 204 0.011740
-0.068344 -0.123275 0.852348 0 0 179 0.009999
-0.065091 -0.123985 0.849173 0 0 204 0.012983
-0.065852 -0.123226 0.853829 0 0 179 0.010111
-0.061906 -0.125404 0.846156 0 0 179 0.009170
-0.069097 -0.122944 0.857090 0 0 128 0.002512
-0.071638 -0.123045 0.855582 0 0 128 0.002003
-0.062615 -0.123868 0.850525 0 0 229 0.015735
-0.059489 -0.125335 0.847528 0 0 179 0.009047
-0.063405 -0.123103 0.855139 0 0 204 0.011950
-0.060207 -0.123780 0.851915 0 0 229 0.016661
-0.065444 -0.122870 0.859177 0 0 128 0.001877
-0.078951 -0.030499 0.896630 0 0 255 0.019786
-0.079874 -0.027864 0.894003 0 7 255 0.023648
-0.079965 -0.025000 0.891898 0 29 255 0.027719
-0.077692 -0.027202 0.895133 0 0 229 0.017956
-0.076845 -0.029937 0.897742 0 0 204 0.014976
-0.079953 -0.021924 0.889917 0 0 204 0.014771
-0.079909 -0.018507 0.888023 0 0 153 0.005783
-0.074994 -0.026536 0.897048 0 0 153 0.005846
-0.075973 -0.020807 0.892139 0 0 153 0.004876
-0.077718 -0.017983 0.889154 0 0 153 0.004952
-0.077394 -0.024312 0.893275 0 0 204 0.013646
-0.079199 -0.010186 0.881739 0 0 153 0.006600
-0.078525 -0.012839 0.884110 0 0 153 0.007545
-0.081295 -0.013578 0.883242 0 0 179 0.011190
-0.082002 -0.010851 0.881081 0 0 153 0.006728
-0.079235 -0.015759 0.886072 0 0 153 0.006910
-0.077043 -0.015153 0.887087 0 0 153 0.005104
-0.084315 -0.011352 0.880797 0 0 153 0.006838
-0.084628 -0.014394 0.882604 0 0 179 0.010075
-0.082587 -0.016712 0.884966 0 0 179 0.011516
-0.080864 -0.074521 0.916313 0 0 153 0.005449
-0.079625 -0.069720 0.915970 0 0 179 0.009265
-0.083210 -0.079462 0.915579 0 0 204 0.012502
-0.085237 -0.084042 0.914556 0 0 255 0.020445
-0.082016 -0.069867 0.915169 0 0 204 0.011864
-0.085901 -0.079286 0.914470 0 0 204 0.013608
-0.083242 -0.074731 0.915396 0 0 153 0.007157
-0.090637 -0.095647 0.906992 0 0 229 0.016781
-0.091036 -0.099174 0.904699 0 96 255 0.040284
-0.088351 -0.091898 0.909935 0 0 153 0.004889
-0.087091 -0.095264 0.908414 0 0 204 0.014740
-0.087495 -0.098789 0.905957 0 7 255 0.024917
-0.087758 -0.088167 0.911960 0 0 179 0.009750
-0.085199 -0.098525 0.907077 0 7 255 0.025128
-0.084713 -0.091421 0.911635 0 0 128 0.003387
-0.083896 -0.094853 0.910130 0 0 204 0.013068
-0.085011 -0.087818 0.913269 0 0 179 0.010059
-0.083164 -0.101235 0.904138 0 0 153 0.004436
-0.083413 -0.104160 0.900000 0 0 128 0.003658
-0.085427 -0.101416 0.902977 0 0 153 0.005662
-0.085687 -0.104365 0.898923 0 0 128 0.003580
-0.083656 -0.107275 0.896008 0 0 128 0.001947
-0.083918 -0.110519 0.892067 0 0 153 0.006695
-0.081472 -0.110416 0.893289 0 0 153 0.006210
-0.081245 -0.107163 0.897325 0 0 128 0.001277
-0.087927 -0.101694 0.901350 0 0 179 0.008279
-0.088437 -0.104688 0.896826 0 0 204 0.012219
-0.087558 -0.107579 0.893300 0 0 179 0.007995
-0.086703 -0.110871 0.890086 0 0 153 0.004125
-0.081697 -0.118392 0.879287 0 0 153 0.005898
-0.083351 -0.115956 0.882879 0 0 128 0.000485
-0.080650 -0.115809 0.884572 0 0 128 0.000781
-0.078999 -0.118216 0.880939 0 0 153 0.006336
-0.083634 -0.113215 0.887407 0 0 128 0.001876
-0.086439 -0.113603 0.885486 0 0 128 0.001660
-0.076506 -0.118119 0.882197 0 0 153 0.006064
-0.078155 -0.115645 0.885727 0 0 128 0.000404
-0.078596 -0.113053 0.890138 0 0 128 0.002148
-0.081054 -0.113133 0.888897 0 0 128 0.002485
-0.073554 -0.058635 0.913906 0 0 179 0.009099
-0.073336 -0.053658 0.911566 0 0 179 0.011428
-0.073076 -0.048628 0.909543 0 0 204 0.014377
-0.073160 -0.043883 0.907665 0 0 204 0.012077
-0.071669 -0.057978 0.914542 0 0 153 0.005437
-0.071203 -0.048070 0.910448 0 0 204 0.013775
-0.071490 -0.053021 0.912321 0 0 179 0.011184
-0.074462 -0.032708 0.901144 0 0 153 0.007760
-0.074368 -0.036135 0.902961 0 0 229 0.016124
-0.073391 -0.039755 0.905469 0 0 204 0.012303
-0.076619 -0.033184 0.899726 0 0 229 0.017744
-0.076256 -0.036602 0.901908 0 0 229 0.016667
-0.101873 0.000502 0.864854 0 0 153 0.005184
-0.103959 0.001037 0.862676 0 0 179 0.009640
-0.099850 0.000053 0.867058 0 0 179 0.008303
-0.103237 -0.000662 0.867424 0 0 179 0.009087
-0.105251 -0.000263 0.865240 0 0 153 0.006737
-0.107345 0.000174 0.862988 0 0 204 0.014771
-0.101191 -0.001275 0.869507 0 0 229 0.017371
-0.099205 -0.001960 0.871508 0 29 255 0.031086
-0.097981 -0.000899 0.869112 0 0 179 0.009861
-0.096250 -0.001725 0.871140 0 0 255 0.019543
-0.107868 -0.000979 0.865639 0 0 179 0.009582
-0.110065 -0.000661 0.863483 0 0 255 0.022765
-0.105744 -0.001165 0.867692 0 0 179 0.011354
-0.103697 -0.001730 0.869846 0 7 255 0.023897
-0.101723 -0.002298 0.871900 0 118 255 0.043876
-0.096507 -0.007946 0.877090 0 0 153 0.003979
-0.098069 -0.006215 0.875316 0 0 128 0.003596
-0.098605 -0.004081 0.873440 0 0 179 0.010664
-0.092843 -0.007544 0.876675 0 0 128 0.003259
-0.092937 -0.005657 0.874754 0 0 128 0.003156
-0.090402 -0.007333 0.876531 0 0 153 0.004675
-0.093091 -0.003634 0.872878 0 0 153 0.004072
-0.096032 -0.003771 0.873151 0 0 153 0.006986
-0.117016 -0.003840 0.846104 0 0 128 0.002189
-0.120997 -0.006453 0.844266 0 0 128 0.003137
-0.116606 -0.003285 0.848625 0 0 128 0.002377
-0.120578 -0.005978 0.846699 0 0 128 0.001337
-0.120161 -0.005482 0.849212 0 0 128 0.001433
-0.124647 -0.008444 0.844929 0 0 153 0.004902
-0.116246 -0.002775 0.851156 0 0 128 0.003510
-0.115836 -0.002453 0.853670 0 0 153 0.005160
-0.112493 -0.000779 0.853252 0 0 153 0.007106
-0.112852 -0.001221 0.850718 0 0 128 0.002702
-0.123782 -0.007555 0.847428 0 0 128 0.002410
-0.127688 -0.009938 0.846100 0 0 153 0.005964
-0.122940 -0.006661 0.849985 0 0 128 0.002608
-0.126785 -0.009066 0.848633 0 0 128 0.003426
-0.122166 -0.005802 0.852628 0 0 153 0.006077
-0.118639 -0.003612 0.854459 0 0 204 0.012289
-0.119397 -0.004522 0.851843 0 0 128 0.002413
-0.112182 -0.001238 0.861164 0 0 179 0.011003
-0.114313 -0.001826 0.858759 0 0 179 0.007866
-0.111643 -0.000954 0.858344 0 0 128 0.003107
-0.109496 -0.000341 0.860688 0 0 153 0.006121
-0.115091 -0.002059 0.856227 0 0 153 0.006190
-0.117809 -0.003420 0.857009 0 0 153 0.007757
-0.106063 0.000907 0.860360 0 0 179 0.008174
-0.108210 0.000602 0.857930 0 0 153 0.006851
-0.110395 -0.000013 0.855589 0 0 153 0.005073
-0.134942 -0.019969 0.832368 0 0 128 0.000695
-0.136710 -0.022028 0.831004 0 0 128 0.000375
-0.133163 -0.017890 0.833789 0 0 128 0.002167
-0.137403 -0.020604 0.834531 0 0 128 0.000686
-0.138844 -0.023371 0.831370 0 0 128 0.000319
-0.141007 -0.024673 0.831752 0 0 128 0.000368
-0.135585 -0.018580 0.835972 0 0 128 0.001838
-0.133736 -0.016536 0.837515 0 0 128 0.002786
-0.131403 -0.016043 0.835297 0 0 128 0.001744
-0.129612 -0.014209 0.836775 0 0 128 0.001671
-0.143465 -0.026195 0.832380 0 0 128 0.000463
-0.141042 -0.023334 0.833772 0 0 128 0.001406
-0.143487 -0.024901 0.834446 0 0 128 0.000494
-0.145966 -0.027733 0.832975 0 0 128 0.001041
-0.141036 -0.022084 0.835881 0 0 128 0.002950
-0.145975 -0.026415 0.835033 0 0 128 0.000970
-0.143466 -0.023677 0.836511 0 0 128 0.000967
-0.148497 -0.029184 0.833587 0 0 128 0.001745
-0.140959 -0.020857 0.838070 0 0 153 0.004357
-0.137276 -0.018085 0.838917 0 0 153 0.004851
-0.129994 -0.011916 0.844154 0 0 153 0.004134
-0.132293 -0.013912 0.842239 0 0 128 0.003237
-0.129203 -0.012583 0.841069 0 0 128 0.001171
-0.126923 -0.010556 0.842946 0 0 128 0.002058
-0.133029 -0.015200 0.839875 0 0 128 0.002048
-0.136508 -0.016864 0.841237 0 0 128 0.002698
-0.123049 -0.008280 0.842313 0 0 128 0.001528
-0.125170 -0.010051 0.840435 0 0 128 0.002289
-0.125388 -0.010919 0.838233 0 0 128 0.002204
-0.129415 -0.013366 0.838932 0 0 128 0.000858
-0.143448 -0.033390 0.820964 0 0 128 0.001400
-0.143531 -0.031682 0.823802 0 0 128 0.001236
-0.145973 -0.034429 0.822720 0 0 128 0.001038
-0.148266 -0.037081 0.821622 0 0 128 0.000846
-0.146073 -0.032667 0.825528 0 0 128 0.001222
-0.143340 -0.029867 0.826536 0 0 128 0.000757
-0.139406 -0.027172 0.825863 0 0 128 0.001099
-0.151071 -0.038795 0.823194 0 0 128 0.001479
-0.149996 -0.036111 0.825919 0 0 128 0.001960
-0.148161 -0.030934 0.830472 0 0 128 0.002086
-0.145631 -0.029358 0.829963 0 0 128 0.000869
-0.143149 -0.027805 0.829385 0 0 128 0.000241
-0.148694 -0.032729 0.828847 0 0 128 0.001365
-0.139276 -0.025222 0.828672 0 0 128 0.000460
-0.137110 -0.023894 0.828304 0 0 128 0.000611
-0.149766 -0.044073 0.811855 0 0 128 0.000829
-0.151688 -0.044785 0.813555 0 0 128 0.000669
-0.151520 -0.046201 0.810724 0 0 128 0.001262
-0.149893 -0.042696 0.814657 0 0 128 0.000550
-0.147825 -0.040324 0.815722 0 0 128 0.000685
-0.147867 -0.041828 0.812912 0 0 128 0.000856
-0.154035 -0.048305 0.810969 0 0 128 0.001324
-0.154407 -0.047394 0.813712 0 0 128 0.001188
-0.156088 -0.049522 0.812472 0 0 128 0.001186
-0.154703 -0.046283 0.816377 0 0 128 0.001134
-0.151893 -0.043716 0.816240 0 0 128 0.000918
-0.151985 -0.041351 0.820448 0 0 128 0.001122
-0.149495 -0.039772 0.818851 0 0 128 0.000728
-0.145961 -0.036194 0.819836 0 0 128 0.000702
-0.145941 -0.037912 0.816868 0 0 128 0.000492
-0.156145 -0.052595 0.803446 0 0 128 0.003276
-0.154794 -0.051002 0.805414 0 0 128 0.003351
-0.159052 -0.055204 0.802433 0 0 128 0.001755
-0.157523 -0.053110 0.806544 0 0 128 0.002951
-0.155901 -0.050412 0.809956 0 0 128 0.001619
-0.151732 -0.047335 0.808374 0 0 128 0.001401
-0.153463 -0.049180 0.807459 0 0 128 0.002495
-0.160602 -0.056533 0.800350 0 0 128 0.002415
-0.157401 -0.053986 0.800308 0 0 128 0.001892
0.130222 -0.003980 0.891036 0 0 153 0.005237
0.124160 -0.003204 0.890368 0 0 128 0.002853
0.131548 -0.003462 0.888279 0 0 153 0.007602
0.125485 -0.002695 0.887666 0 0 153 0.005124
0.126740 -0.002253 0.884865 0 0 229 0.016236
0.122692 -0.003229 0.892771 0 0 128 0.003434
0.139185 -0.004501 0.878421 0 0 229 0.017199
0.133879 -0.003089 0.878547 0 0 229 0.019416
0.133001 -0.003183 0.881875 0 0 204 0.012964
0.128535 -0.002102 0.878691 0 0 229 0.016361
0.134551 -0.002994 0.874909 0 7 255 0.026461
0.129274 -0.002101 0.875394 0 0 204 0.013298
0.130189 -0.002077 0.871991 0 0 255 0.021527
0.132163 -0.003196 0.884909 0 0 204 0.015527
0.127622 -0.002124 0.881843 0 0 229 0.015976
0.090823 -0.004312 0.874447 0 0 229 0.018352
0.095452 -0.003923 0.877046 0 0 204 0.014940
0.096701 -0.003994 0.874476 0 0 204 0.013177
0.099816 -0.003570 0.879467 0 0 179 0.010496
0.101174 -0.003447 0.876891 0 0 179 0.008231
0.105621 -0.003007 0.879380 0 0 153 0.005289
0.104207 -0.003222 0.881908 0 0 153 0.007452
0.102606 -0.003190 0.874363 0 0 153 0.005712
0.107065 -0.002545 0.876729 0 0 128 0.002510
0.108517 -0.001930 0.873967 0 0 153 0.004348
0.104037 -0.002573 0.871680 0 0 128 0.001753
0.098089 -0.003679 0.871925 0 0 179 0.008755
0.099436 -0.003101 0.869215 0 0 153 0.003981
0.093319 -0.004298 0.869289 0 0 204 0.013156
0.092117 -0.004476 0.871954 0 0 255 0.020761
0.086634 -0.005068 0.868929 0 0 255 0.023104
0.094713 -0.003781 0.866623 0 0 153 0.007172
0.087812 -0.004960 0.866221 0 0 229 0.017841
0.088985 -0.004508 0.863349 0 0 179 0.009279
0.085411 -0.004828 0.871497 0 7 255 0.026449
0.108603 -0.003002 0.884377 0 0 153 0.005004
0.113082 -0.002974 0.886989 0 0 128 0.003132
0.114588 -0.002744 0.884498 0 0 128 0.002089
0.117834 -0.003008 0.889769 0 0 128 0.002842
0.119277 -0.002788 0.887296 0 0 128 0.002600
0.120570 -0.002347 0.884585 0 0 153 0.004928
0.121932 -0.001931 0.881868 0 0 179 0.009629
0.115984 -0.002224 0.881831 0 0 128 0.001939
0.117461 -0.001750 0.879149 0 0 153 0.004971
0.111491 -0.002323 0.879235 0 0 128 0.002006
0.110067 -0.002814 0.881897 0 0 128 0.003726
0.112897 -0.001784 0.876476 0 0 153 0.004368
0.125708 -0.001611 0.869041 0 0 204 0.013412
0.124718 -0.001592 0.872394 0 0 179 0.008875
0.120397 -0.001316 0.869682 0 0 153 0.006883
0.121238 -0.001187 0.866308 0 0 204 0.014230
0.119241 -0.001405 0.872832 0 0 153 0.004967
0.115927 -0.001110 0.867114 0 0 179 0.009910
0.114984 -0.001268 0.870325 0 0 153 0.006207
0.110637 -0.001283 0.867940 0 0 179 0.008330
0.117050 -0.000993 0.863786 0 0 204 0.015372
0.111698 -0.000969 0.864676 0 0 204 0.012735
0.112711 -0.000829 0.861459 0 0 229 0.016626
0.113909 -0.001469 0.873412 0 0 153 0.005161
0.109528 -0.001614 0.870994 0 0 153 0.004702
0.118356 -0.001453 0.875976 0 0 153 0.006207
0.122858 -0.001778 0.878760 0 0 153 0.007247
0.123784 -0.001641 0.875652 0 0 153 0.006943
0.108286 -0.000865 0.859162 0 0 229 0.019347
0.107187 -0.001185 0.862340 0 0 179 0.011165
0.102556 -0.001480 0.859993 0 0 179 0.010832
0.103702 -0.000950 0.856854 0 0 255 0.021469
0.101419 -0.002128 0.863119 0 0 128 0.003425
0.097457 -0.002082 0.857277 0 0 153 0.004953
0.096572 -0.002735 0.860529 0 0 128 0.001220
0.090674 -0.003521 0.857039 0 0 128 0.002721
0.098235 -0.001344 0.853823 0 0 229 0.015930
0.091570 -0.002606 0.853601 0 0 128 0.001761
0.092531 -0.001760 0.850226 0 0 179 0.010032
0.095627 -0.003343 0.863610 0 0 128 0.003187
0.089775 -0.004156 0.860233 0 0 179 0.008635
0.100423 -0.002663 0.866210 0 0 128 0.001702
0.105019 -0.002117 0.868621 0 0 128 0.001679
0.106070 -0.001654 0.865524 0 0 128 0.003691
0.098303 -0.000930 0.849686 0 29 255 0.027651
0.104209 -0.000791 0.853187 0 7 255 0.024981
0.104544 -0.000810 0.849335 0 96 255 0.040461
0.108930 -0.000975 0.855676 0 0 229 0.019406
0.109516 -0.001124 0.852043 0 29 255 0.029468
0.113961 -0.001526 0.854450 0 0 204 0.014453
0.113295 -0.001092 0.858006 0 0 204 0.015442
0.110044 -0.001533 0.848329 0 51 255 0.033322
0.114609 -0.002015 0.850887 0 0 255 0.022172
0.115127 -0.002672 0.847254 0 74 255 0.038813
0.110619 -0.002228 0.844669 0 141 255 0.047973
0.104911 -0.001056 0.845326 0 185 255 0.055268
0.105275 -0.001608 0.841244 90 255 157 0.083412
0.099117 -0.000791 0.841585 18 252 229 0.066916
0.098702 -0.000740 0.845656 0 96 255 0.041767
0.093885 -0.001157 0.842737 0 7 255 0.026924
0.099709 -0.001197 0.837676 134 255 113 0.111068
0.094721 -0.001170 0.838982 0 141 255 0.048718
0.095559 -0.001608 0.835422 72 255 175 0.080909
0.093144 -0.001404 0.846461 0 0 204 0.014520
0.117464 -0.001262 0.860242 0 0 204 0.013156
0.121764 -0.001663 0.862755 0 0 179 0.008242
0.122206 -0.002007 0.859061 0 0 204 0.013265
0.125962 -0.001871 0.865352 0 0 204 0.014562
0.126470 -0.002423 0.861734 0 0 204 0.012872
0.130668 -0.002877 0.864393 0 0 229 0.017065
0.130391 -0.002407 0.868243 0 0 229 0.019335
0.126809 -0.002973 0.857941 0 0 255 0.022078
0.131101 -0.003592 0.860605 0 0 255 0.020441
0.131285 -0.004340 0.856923 0 51 255 0.033070
0.127297 -0.003919 0.854373 0 29 255 0.027559
0.122730 -0.002652 0.855577 0 0 229 0.017785
0.123255 -0.003493 0.851892 0 29 255 0.029632
0.118682 -0.002298 0.853140 0 0 255 0.020276
0.118130 -0.001774 0.856794 0 0 204 0.012197
0.119189 -0.003143 0.849551 0 29 255 0.030711
0.129921 -0.011553 0.842282 0 74 255 0.036692
0.126173 -0.011278 0.840191 0 74 255 0.037424
0.126396 -0.008862 0.843313 0 51 255 0.034017
0.122649 -0.008545 0.841110 0 96 255 0.042378
0.122422 -0.010974 0.838051 0 141 255 0.047902
0.122835 -0.006530 0.844582 0 29 255 0.027554
0.118868 -0.008214 0.838963 0 118 255 0.044689
0.119058 -0.006148 0.842301 0 96 255 0.040345
0.115140 -0.005788 0.840128 0 96 255 0.041258
0.118673 -0.010781 0.835920 0 185 255 0.055944
0.114995 -0.007967 0.836671 0 118 255 0.044817
0.114621 -0.010517 0.833371 1 230 247 0.064598
0.119091 -0.004496 0.845820 0 29 255 0.030894
0.115127 -0.004101 0.843561 0 51 255 0.033681
0.123088 -0.004911 0.848121 0 29 255 0.027346
0.127051 -0.005359 0.850498 0 7 255 0.024722
0.126751 -0.006992 0.846926 0 0 255 0.022771
0.130727 -0.007485 0.849248 0 0 255 0.022394
0.131090 -0.005816 0.853083 0 0 255 0.022861
0.130393 -0.009321 0.845761 0 0 255 0.020256
0.109259 -0.010051 0.829529 136 255 112 0.114458
0.109638 -0.007347 0.832924 126 255 122 0.090579
0.104513 -0.006936 0.829379 140 255 108 0.121631
0.104474 -0.010012 0.826673 140 255 108 0.124215
0.104460 -0.004437 0.832688 138 255 110 0.117301
0.100527 -0.007173 0.827380 90 255 157 0.082807
0.100210 -0.004561 0.830331 133 255 115 0.108995
0.096711 -0.005089 0.828894 1 230 247 0.063297
0.100674 -0.010362 0.825025 108 255 139 0.086086
0.097137 -0.007702 0.826090 0 163 255 0.050816
0.097279 -0.010758 0.823857 18 252 229 0.067759
0.099806 -0.002550 0.833660 129 255 119 0.100923
0.096198 -0.003048 0.831953 36 255 211 0.070767
0.104779 -0.002705 0.836807 126 255 122 0.093585
0.110497 -0.003541 0.840865 0 96 255 0.042160
0.110242 -0.005240 0.836898 0 185 255 0.055418
0.134534 -0.003240 0.870951 0 7 255 0.023682
0.139085 -0.004624 0.874378 0 0 229 0.019259
0.138741 -0.004660 0.869714 0 7 255 0.026068
0.143398 -0.006426 0.873455 0 0 255 0.022930
0.143055 -0.006551 0.868998 0 29 255 0.029452
0.147333 -0.008760 0.868160 0 51 255 0.034097
0.143044 -0.007199 0.864858 0 29 255 0.031197
0.138821 -0.005239 0.865917 0 7 255 0.025159
0.139012 -0.005975 0.861954 0 51 255 0.033801
0.134965 -0.004345 0.863165 0 0 255 0.021085
0.134728 -0.003742 0.867060 0 0 229 0.016312
0.135140 -0.005113 0.859373 0 29 255 0.030847
0.153308 -0.017413 0.856104 0 29 255 0.030148
0.151161 -0.014681 0.858445 0 0 255 0.022192
0.150005 -0.016357 0.853974 0 0 255 0.020158
0.147805 -0.013459 0.856252 0 7 255 0.023636
0.148703 -0.011864 0.860576 0 7 255 0.027290
0.145579 -0.010917 0.858619 0 0 229 0.017935
0.146653 -0.015139 0.851787 0 51 255 0.033402
0.144417 -0.012310 0.854110 0 0 229 0.015864
0.143386 -0.014146 0.849878 0 7 255 0.026550
0.146487 -0.009711 0.863288 0 29 255 0.027620
0.140040 -0.013481 0.847968 0 7 255 0.023776
0.140652 -0.011453 0.851587 0 0 229 0.019044
0.137223 -0.010807 0.849574 0 0 229 0.017093
0.136679 -0.012883 0.846115 0 0 255 0.023162
0.137647 -0.008705 0.853275 0 0 255 0.020511
0.133754 -0.010062 0.847659 0 0 229 0.018306
0.134247 -0.008119 0.851323 0 0 229 0.017580
0.133254 -0.012080 0.844133 0 51 255 0.032881
0.134379 -0.006280 0.854975 0 29 255 0.028149
0.138402 -0.007206 0.857572 0 0 255 0.022561
0.142295 -0.008294 0.860004 0 0 255 0.021362
0.141616 -0.009810 0.855918 0 0 229 0.016147
0.082416 -0.144476 0.897783 0 0 204 0.013487
0.080917 -0.143542 0.900917 0 0 153 0.004395
0.079259 -0.142485 0.899499 0 0 128 0.002307
0.077746 -0.141561 0.902620 0 0 128 0.000444
0.079382 -0.142640 0.904010 0 0 128 0.001635
0.075996 -0.140546 0.901173 0 0 128 0.000580
0.076215 -0.140617 0.905678 0 0 128 0.000361
0.074504 -0.139594 0.904257 0 0 128 0.000829
0.072979 -0.138613 0.907293 0 0 128 0.001007
0.077824 -0.141710 0.907054 0 0 128 0.001875
0.074678 -0.139654 0.908718 0 0 128 0.000374
0.076271 -0.140789 0.910106 0 0 128 0.003009
0.072619 -0.138637 0.902734 0 0 128 0.001269
0.071127 -0.137642 0.905810 0 0 128 0.001765
0.069107 -0.136754 0.904255 0 0 128 0.001164
0.070611 -0.137567 0.901073 0 0 128 0.001204
0.074153 -0.139442 0.899592 0 0 128 0.001224
0.072125 -0.138337 0.897909 0 0 128 0.001193
0.075717 -0.140224 0.896424 0 0 128 0.001920
0.077553 -0.141332 0.898007 0 0 128 0.001414
0.079150 -0.142142 0.894847 0 0 128 0.003637
0.073665 -0.139062 0.894749 0 0 128 0.001628
0.077305 -0.140968 0.893260 0 0 128 0.002959
0.075255 -0.139748 0.891590 0 0 128 0.002457
0.080859 -0.143310 0.896343 0 0 153 0.006002
0.074697 -0.139619 0.912925 0 0 128 0.001742
0.073061 -0.138594 0.911670 0 0 128 0.000457
0.071516 -0.137419 0.914537 0 0 128 0.000310
0.073161 -0.138468 0.915794 0 0 128 0.001303
0.069768 -0.136431 0.913251 0 0 128 0.001071
0.069971 -0.136220 0.917460 0 0 128 0.000844
0.068219 -0.135203 0.916182 0 0 128 0.002244
0.071597 -0.137295 0.918703 0 0 128 0.001388
0.066358 -0.134295 0.914830 0 0 128 0.003006
0.064351 -0.133372 0.913271 0 0 153 0.004059
0.067959 -0.135441 0.911789 0 0 128 0.002655
0.065954 -0.134523 0.910204 0 0 128 0.003048
0.069558 -0.136567 0.908783 0 0 128 0.002365
0.071372 -0.137535 0.910260 0 0 128 0.001171
0.067520 -0.135641 0.907200 0 0 128 0.001956
0.054852 -0.130173 0.906736 0 0 128 0.003738
0.057314 -0.131311 0.908623 0 0 153 0.004358
0.058978 -0.132173 0.905377 0 0 153 0.003996
0.056560 -0.130912 0.903478 0 0 128 0.002966
0.061381 -0.133064 0.907163 0 0 128 0.002464
0.060665 -0.133034 0.902187 0 0 153 0.004070
0.063057 -0.134014 0.904007 0 0 128 0.002483
0.064697 -0.134925 0.900860 0 0 128 0.002964
0.058236 -0.131665 0.900274 0 0 128 0.002494
0.062304 -0.133883 0.899051 0 0 153 0.005218
0.059902 -0.132453 0.897144 0 0 128 0.002841
0.065335 -0.134874 0.905712 0 0 128 0.001079
0.066993 -0.135894 0.902622 0 0 128 0.001290
0.063771 -0.133805 0.908742 0 0 128 0.001197
0.062170 -0.132667 0.911812 0 0 128 0.001929
0.059795 -0.132005 0.910251 0 0 128 0.001769
0.061467 -0.132873 0.893880 0 0 128 0.001368
0.063775 -0.134513 0.895846 0 0 153 0.004951
0.065328 -0.134958 0.892605 0 0 128 0.002585
0.062998 -0.133322 0.890628 0 0 128 0.000825
0.067681 -0.136308 0.894519 0 0 128 0.002984
0.066870 -0.135434 0.889361 0 0 128 0.003011
0.069260 -0.136801 0.891280 0 0 128 0.002452
0.070854 -0.137295 0.888032 0 0 128 0.003869
0.064524 -0.133800 0.887411 0 0 128 0.001178
0.068437 -0.135949 0.886108 0 0 153 0.006410
0.066060 -0.134265 0.884176 0 0 128 0.003498
0.071503 -0.138051 0.893110 0 0 128 0.002246
0.073138 -0.138541 0.889866 0 0 128 0.002378
0.069985 -0.137371 0.896258 0 0 128 0.001118
0.068480 -0.136668 0.899432 0 0 128 0.001271
0.066184 -0.135643 0.897670 0 0 128 0.002903
0.062163 -0.132482 0.885735 0 0 128 0.003075
0.060659 -0.131977 0.888952 0 0 128 0.001207
0.058401 -0.130529 0.887281 0 0 128 0.001339
0.059116 -0.131639 0.892194 0 0 128 0.002593
0.056865 -0.130146 0.890490 0 0 128 0.001837
0.055284 -0.129738 0.893725 0 0 128 0.002632
0.057531 -0.131280 0.895449 0 0 153 0.005511
0.054638 -0.128453 0.888741 0 0 128 0.000414
0.053046 -0.128096 0.891970 0 0 128 0.000573
0.050796 -0.126448 0.890231 0 0 128 0.000334
0.052552 -0.126682 0.887007 0 0 128 0.002557
0.056311 -0.128836 0.885554 0 0 128 0.000607
0.054221 -0.127151 0.883849 0 0 128 0.003524
0.057930 -0.129354 0.882410 0 0 128 0.001096
0.060027 -0.130966 0.884082 0 0 128 0.002326
0.061650 -0.131404 0.880899 0 0 153 0.004437
0.055815 -0.127684 0.880710 0 0 128 0.002979
0.059541 -0.129757 0.879245 0 0 128 0.002225
0.057429 -0.128155 0.877560 0 0 128 0.003031
0.063798 -0.132888 0.882525 0 0 153 0.004930
0.055784 -0.130624 0.898656 0 0 153 0.005637
0.054087 -0.129913 0.901852 0 0 153 0.005211
0.051703 -0.128563 0.900184 0 0 128 0.003870
0.052344 -0.129294 0.905099 0 0 153 0.006468
0.049914 -0.127975 0.903444 0 0 153 0.004531
0.047511 -0.126609 0.901782 0 0 128 0.002940
0.045201 -0.124913 0.899973 0 0 128 0.001089
0.049405 -0.127108 0.898447 0 0 128 0.001748
0.047108 -0.125382 0.896648 0 0 128 0.000863
0.051259 -0.127471 0.895161 0 0 128 0.000697
0.053530 -0.129064 0.896910 0 0 128 0.002034
0.048970 -0.125774 0.893369 0 0 128 0.001066
0.036585 -0.118608 0.893693 0 0 179 0.008004
0.038594 -0.120326 0.895288 0 0 128 0.001564
0.040534 -0.120734 0.891954 0 0 128 0.002765
0.038489 -0.119123 0.890380 0 0 179 0.009993
0.042629 -0.122370 0.893545 0 0 128 0.001051
0.042441 -0.121478 0.888750 0 0 128 0.002726
0.044553 -0.122928 0.890300 0 0 128 0.001016
0.046454 -0.123588 0.887136 0 0 128 0.001326
0.040354 -0.119843 0.887180 0 0 179 0.010300
0.044303 -0.122177 0.885594 0 0 128 0.003593
0.042145 -0.120815 0.884073 0 0 179 0.007901
