ply
format ascii 1.0
comment Seamless Cloth Simulation with High Geometric Fidelity 
comment Thu Mar  7 14:50:34 2019
element vertex 1222
property float x
property float y
property float z
property float quality
end_header
-0.164769 -0.86049 6.54638 0.146648 
-0.185983 -0.867757 6.50186 0.0941376 
-0.210808 -0.862327 6.52429 0.126963 
-0.173187 -0.871571 6.47287 0.0586895 
-0.160023 -0.873643 6.44409 0.033173 
-0.232507 -0.869192 6.48052 0.0795468 
-0.219186 -0.872626 6.45148 0.0473422 
-0.194658 -0.874086 6.42785 0.0287891 
-0.181852 -0.87651 6.39881 0.0189093 
-0.196038 -0.87206 6.46225 0.0518835 
-0.209169 -0.868318 6.4908 0.0852463 
-0.233836 -0.863135 6.5136 0.117212 
-0.179717 -0.875662 6.36485 0.0204345 
-0.165842 -0.877627 6.33649 0.0307287 
-0.140619 -0.881988 6.31527 0.0444149 
-0.12735 -0.891904 6.28958 0.0428227 
-0.142991 -0.876395 6.34752 0.0350957 
-0.156651 -0.875146 6.37559 0.0255279 
0.112371 -0.822583 6.42982 0.14899 
0.0855364 -0.824598 6.44952 0.110682 
0.084434 -0.824144 6.48324 0.0847549 
0.0575271 -0.829825 6.50536 0.0562761 
0.0588309 -0.829541 6.47061 0.0686745 
0.0319664 -0.83598 6.49352 0.0414503 
0.0597846 -0.831989 6.4366 0.0867949 
0.0861786 -0.829571 6.41688 0.124088 
0.112418 -0.83012 6.39866 0.150189 
0.0863021 -0.840453 6.38713 0.108661 
0.0555117 -0.827784 6.54085 0.055553 
0.0289706 -0.828569 6.56486 0.0582745 
0.0149774 -0.824716 6.59396 0.068218 
0.00110159 -0.8189 6.62292 0.0883108 
-0.0234359 -0.82561 6.61282 0.091576 
-0.00958151 -0.831098 6.58315 0.0680517 
0.004398 -0.834781 6.55321 0.0529243 
0.0306599 -0.833318 6.52913 0.0456566 
-0.0711318 -0.841792 6.59301 0.119239 
-0.0573085 -0.84689 6.5624 0.0825746 
-0.0316372 -0.846281 6.53767 0.0534067 
-0.0179603 -0.847922 6.50724 0.0328744 
0.00766082 -0.844336 6.48294 0.0306795 
-0.0165246 -0.85246 6.4728 0.024526 
0.00608135 -0.839835 6.51796 0.0372443 
-0.0335405 -0.839366 6.5736 0.0736695 
-0.0472223 -0.833829 6.60309 0.103678 
-0.00318932 -0.850529 6.44406 0.0284881 
0.0226969 -0.846998 6.42182 0.0483583 
0.0362192 -0.850975 6.39656 0.0571751 
0.0619082 -0.852294 6.37772 0.0706679 
0.0373826 -0.863337 6.36823 0.0479234 
0.0605659 -0.839738 6.40613 0.0869196 
0.0337671 -0.837362 6.45902 0.0504243 
0.0118777 -0.860264 6.38747 0.0429481 
-0.00165758 -0.856067 6.41251 0.0344961 
-0.0271747 -0.858517 6.43466 0.0226134 
-0.0404239 -0.859667 6.46295 0.0231336 
-0.0646559 -0.864789 6.45203 0.0236338 
-0.0512788 -0.864053 6.42373 0.0222556 
-0.0257662 -0.862667 6.40229 0.0296957 
-0.0123145 -0.867138 6.37669 0.0364775 
0.0132765 -0.872213 6.35836 0.036947 
-0.0110336 -0.878528 6.3475 0.0344425 
-0.0416353 -0.855758 6.49745 0.0346157 
-0.0553588 -0.85397 6.5271 0.0588981 
-0.0806382 -0.854671 6.55192 0.0958735 
-0.0944621 -0.849711 6.58249 0.141764 
-0.118307 -0.854315 6.56997 0.14441 
-0.104327 -0.859891 6.53996 0.10026 
-0.0788629 -0.859974 6.51592 0.0648438 
-0.0655072 -0.861825 6.4866 0.0379159 
-0.13953 -0.86504 6.52368 0.106037 
-0.126181 -0.868418 6.49437 0.0682235 
-0.101095 -0.868109 6.47042 0.0415847 
-0.088255 -0.869268 6.44176 0.0255887 
-0.102462 -0.864958 6.50496 0.0701815 
-0.141417 -0.857968 6.5583 0.151005 
-0.0866884 -0.869738 6.40821 0.0228384 
-0.0731592 -0.871698 6.38093 0.0293618 
-0.047898 -0.874517 6.36084 0.0355661 
-0.03458 -0.883609 6.33655 0.034965 
-0.0494455 -0.867719 6.3919 0.0290037 
-0.0720756 -0.825226 6.62638 0.12928 
-0.0723749 -0.80573 6.65771 0.129361 
-0.0481057 -0.816825 6.6355 0.111334 
-0.0484577 -0.796687 6.66532 0.109751 
-0.0722957 -0.783229 6.68549 0.125277 
-0.0717545 -0.758348 6.71078 0.118879 
-0.0956012 -0.766365 6.70505 0.145554 
-0.0961931 -0.790688 6.67758 0.146755 
-0.0964424 -0.812436 6.64816 0.144727 
-0.120131 -0.772733 6.69663 0.162403 
-0.024024 -0.809072 6.64401 0.099798 
-0.0241393 -0.78969 6.67225 0.0953202 
0.000578719 -0.80217 6.65301 0.0916778 
-0.0233673 -0.76826 6.69748 0.0896745 
-0.0470389 -0.751273 6.71599 0.0973234 
-0.0480597 -0.775031 6.6919 0.106351 
-0.0704153 -0.671478 6.75944 0.0727362 
-0.0638409 -0.69946 6.74606 0.0742649 
-0.0883901 -0.704386 6.74144 0.0839403 
-0.0951809 -0.676013 6.75456 0.079433 
-0.068465 -0.729336 6.72908 0.0917101 
-0.0433535 -0.722679 6.73409 0.0771435 
-0.119889 -0.682359 6.7504 0.0952076 
-0.112814 -0.712233 6.73735 0.108602 
-0.137089 -0.716986 6.7314 0.126964 
-0.144597 -0.687555 6.74481 0.113793 
-0.116994 -0.743609 6.71935 0.137245 
-0.0927589 -0.735876 6.72465 0.111979 
-0.342597 -0.175015 6.6208 0.10099 
-0.332181 -0.196259 6.64056 0.100278 
-0.327042 -0.157232 6.60954 0.0815665 
-0.316547 -0.178759 6.6298 0.0790054 
-0.299866 -0.161143 6.61719 0.0585009 
-0.306181 -0.20015 6.64887 0.0784205 
-0.310264 -0.139484 6.59599 0.060335 
-0.292957 -0.12094 6.58148 0.0431904 
-0.323316 -0.114769 6.57331 0.0684316 
-0.340115 -0.133919 6.58672 0.083238 
-0.288508 -0.183211 6.63803 0.0591549 
-0.279464 -0.20432 6.6574 0.0623992 
-0.270237 -0.167108 6.62443 0.0412908 
-0.261282 -0.187354 6.64486 0.0427364 
-0.242604 -0.170351 6.63098 0.0329234 
-0.252003 -0.207721 6.66444 0.045974 
-0.25187 -0.149268 6.611 0.0310789 
-0.233735 -0.129073 6.59862 0.0284232 
-0.263186 -0.125791 6.58983 0.032452 
-0.281593 -0.144266 6.60354 0.0407856 
-0.207068 -0.0512658 6.5217 0.0236879 
-0.223437 -0.0508963 6.5156 0.0229666 
-0.229767 -0.0707438 6.5365 0.0228929 
-0.245768 -0.0695018 6.53031 0.0225506 
-0.239513 -0.0498371 6.50899 0.0232191 
-0.251203 -0.0893798 6.55064 0.023936 
-0.261709 -0.0679033 6.52409 0.0237488 
-0.267254 -0.0876585 6.54472 0.0247576 
-0.283122 -0.0849081 6.53927 0.0283565 
-0.255822 -0.0490089 6.50246 0.0226472 
-0.277857 -0.0664145 6.5177 0.0253218 
-0.271929 -0.0476808 6.49545 0.0231978 
-0.272274 -0.106188 6.56564 0.0287632 
-0.288251 -0.103233 6.56059 0.0347128 
-0.242583 -0.109252 6.57494 0.0258704 
-0.221719 -0.0902932 6.56128 0.02484 
-0.288518 -0.0458402 6.48892 0.0263627 
-0.309444 -0.0620954 6.50563 0.0332423 
-0.304856 -0.0434858 6.48215 0.0312467 
-0.31333 -0.0806551 6.52904 0.0391797 
-0.325864 -0.0596491 6.49896 0.0402565 
-0.329855 -0.0775777 6.52282 0.0494293 
-0.321647 -0.0419178 6.47508 0.0348511 
-0.333431 -0.0958199 6.54601 0.0588767 
-0.0847302 -0.0641193 6.60236 0.042869 
-0.0688076 -0.0631087 6.6112 0.0486183 
-0.081106 -0.0780217 6.63121 0.0604505 
-0.0971901 -0.0798716 6.62201 0.0520197 
-0.0654457 -0.076248 6.64085 0.0666722 
-0.0927802 -0.0952662 6.65019 0.0693881 
-0.0774499 -0.0931183 6.65986 0.078617 
-0.0872822 -0.112579 6.67609 0.0767689 
-0.108007 -0.0982524 6.64045 0.0556469 
-0.102371 -0.115447 6.66665 0.06502 
-0.117445 -0.118069 6.65654 0.0550908 
-0.0614403 -0.091525 6.66919 0.087978 
-0.0718901 -0.110803 6.68633 0.0892555 
-0.0565107 -0.108751 6.69631 0.100843 
-0.0439533 -0.091102 6.67888 0.0932772 
-0.0480828 -0.0757891 6.65008 0.0714801 
-0.0302244 -0.0767912 6.65897 0.0710797 
-0.0339275 -0.0626656 6.62999 0.0531754 
-0.051501 -0.0622712 6.62065 0.0503101 
-0.016036 -0.0636957 6.63866 0.0513095 
-0.123491 -0.142701 6.66922 0.0457432 
-0.115066 -0.164141 6.68949 0.0467554 
-0.119403 -0.1884 6.69969 0.0397044 
-0.109526 -0.209723 6.71838 0.0401484 
-0.138147 -0.21208 6.7021 0.0362795 
-0.0913644 -0.184859 6.71759 0.0470732 
-0.081318 -0.206723 6.73603 0.0458785 
-0.0766744 -0.182331 6.72831 0.0558245 
-0.0861652 -0.159734 6.70892 0.0589531 
-0.071212 -0.158219 6.7189 0.0678067 
-0.0802084 -0.134252 6.69887 0.0759184 
-0.0951023 -0.137151 6.68851 0.0642432 
-0.0645948 -0.133016 6.70867 0.0848374 
-0.0348 -0.179205 6.75884 0.0825208 
-0.0282621 -0.154096 6.75093 0.0982701 
-0.0428065 -0.155204 6.73988 0.0872451 
-0.0194821 -0.129996 6.74039 0.113845 
-0.0347746 -0.130802 6.72985 0.106859 
-0.0243631 -0.107465 6.71705 0.118106 
-0.00782582 -0.108286 6.72636 0.119431 
-0.0402883 -0.107994 6.70678 0.112469 
-0.0537832 -0.204109 6.75643 0.0571878 
0.00570149 -0.0942422 6.70686 0.0880795 
0.021375 -0.0814124 6.68695 0.062532 
0.00295473 -0.0789307 6.67804 0.0685928 
0.0371445 -0.0698102 6.66586 0.0373473 
0.0189542 -0.0668394 6.65719 0.0447929 
0.000744136 -0.0651109 6.64784 0.0486851 
-0.0139091 -0.0767637 6.6692 0.074727 
-0.0275969 -0.0909619 6.68888 0.098848 
-0.0109047 -0.0919998 6.69843 0.0978015 
-0.148174 -0.191592 6.68314 0.0355167 
-0.143133 -0.16911 6.67141 0.0378791 
-0.152635 -0.147243 6.65129 0.0358814 
-0.146895 -0.123198 6.6391 0.0417406 
-0.175635 -0.127663 6.62264 0.0333223 
-0.180353 -0.150983 6.63617 0.0321726 
-0.171792 -0.171766 6.65659 0.0341896 
-0.176348 -0.19338 6.67039 0.0341714 
-0.166972 -0.21317 6.69017 0.0333754 
-0.195807 -0.212615 6.6799 0.0333575 
-0.124393 -0.100027 6.63133 0.0490731 
-0.113549 -0.0812181 6.61325 0.0474202 
-0.130252 -0.0825176 6.60458 0.0421296 
-0.101536 -0.0650579 6.59407 0.0415525 
-0.118701 -0.0651514 6.58588 0.0390907 
-0.106706 -0.0506571 6.56565 0.0320553 
-0.0894449 -0.050375 6.57391 0.0332362 
-0.135639 -0.0665931 6.5775 0.0344739 
-0.12362 -0.0508898 6.55746 0.0302564 
-0.140481 -0.0514177 6.54971 0.0289484 
-0.16045 -0.0869963 6.58912 0.0331514 
-0.154204 -0.105349 6.61455 0.0368948 
-0.200008 -0.0697543 6.54858 0.0267782 
-0.192517 -0.0891644 6.57409 0.0277149 
-0.213581 -0.110096 6.58585 0.0274173 
-0.204482 -0.129166 6.60963 0.0306003 
-0.18448 -0.107949 6.5989 0.0310843 
-0.176671 -0.0881343 6.58156 0.0291119 
-0.167517 -0.0688054 6.56271 0.0288366 
-0.183862 -0.0691469 6.55566 0.0275645 
-0.174032 -0.050888 6.53581 0.0256312 
-0.157403 -0.0510654 6.54284 0.0270477 
-0.190651 -0.0513255 6.52879 0.0246708 
-0.224426 -0.150713 6.61872 0.0297801 
-0.215059 -0.171901 6.63944 0.0320517 
-0.233459 -0.190466 6.65204 0.0353514 
-0.224207 -0.210383 6.67219 0.0378336 
-0.205493 -0.19271 6.65988 0.0326434 
-0.141157 -0.236385 6.71235 0.0334484 
-0.131077 -0.259716 6.72904 0.0332504 
-0.13648 -0.28269 6.74113 0.0332429 
-0.127659 -0.305551 6.75773 0.0363016 
-0.156235 -0.303812 6.74816 0.0383783 
-0.107509 -0.283525 6.75086 0.0329198 
-0.0988836 -0.306432 6.7668 0.0359446 
-0.101809 -0.259392 6.74131 0.0350278 
-0.0979849 -0.234761 6.73327 0.0370677 
-0.158163 -0.329133 6.7534 0.0348896 
-0.146895 -0.355344 6.7637 0.0353003 
-0.149647 -0.381217 6.76924 0.0374912 
-0.123223 -0.381218 6.77783 0.0397253 
-0.119678 -0.356082 6.7729 0.0365034 
-0.116372 -0.331372 6.76731 0.0359263 
-0.069425 -0.382067 6.79592 0.0480998 
-0.0645804 -0.357682 6.79216 0.0463025 
-0.0741068 -0.332749 6.78235 0.0414429 
-0.0703341 -0.307412 6.7781 0.0393356 
-0.0919398 -0.357093 6.78189 0.0402681 
-0.0960697 -0.381828 6.78668 0.0428027 
-0.0507132 -0.284 6.77712 0.0437725 
-0.0463092 -0.258246 6.77313 0.0431113 
-0.0565623 -0.232135 6.7599 0.0447807 
-0.0733109 -0.258995 6.75598 0.038311 
-0.0780652 -0.283659 6.76284 0.0385069 
-0.245911 -0.674299 6.72809 0.151834 
-0.249877 -0.705204 6.70686 0.143748 
-0.269305 -0.676975 6.71873 0.147012 
-0.253257 -0.735556 6.68314 0.135149 
-0.273208 -0.707485 6.69637 0.135837 
-0.276333 -0.736975 6.67153 0.12225 
-0.292805 -0.679394 6.70841 0.143357 
-0.255939 -0.764505 6.65694 0.130396 
-0.257646 -0.791976 6.62884 0.141061 
-0.235166 -0.791316 6.64098 0.161865 
-0.233188 -0.763023 6.6685 0.147193 
-0.230245 -0.733199 6.69386 0.145102 
-0.212832 -0.789665 6.65314 0.181785 
-0.296227 -0.709202 6.68512 0.125066 
-0.316087 -0.681443 6.69796 0.137981 
-0.298767 -0.738304 6.65932 0.107411 
-0.31924 -0.710231 6.67394 0.115585 
-0.321392 -0.738824 6.64727 0.0938699 
-0.339419 -0.683357 6.68721 0.135174 
-0.300765 -0.765741 6.63184 0.0973342 
-0.302595 -0.792485 6.60439 0.104618 
-0.280122 -0.792265 6.6169 0.120981 
-0.278407 -0.765212 6.64454 0.111049 
-0.25672 -0.849048 6.53345 0.111137 
-0.256547 -0.832482 6.56485 0.12071 
-0.234053 -0.848998 6.54511 0.125941 
-0.2342 -0.832179 6.57705 0.13624 
-0.257134 -0.813711 6.59667 0.131076 
-0.27954 -0.81363 6.58466 0.113952 
-0.279457 -0.832644 6.55302 0.107375 
-0.211047 -0.848256 6.55622 0.139591 
-0.21153 -0.831695 6.58874 0.152317 
-0.188357 -0.8476 6.56825 0.154362 
-0.189246 -0.830471 6.60094 0.165281 
-0.212375 -0.812354 6.62122 0.169297 
-0.234605 -0.813185 6.60876 0.151185 
-0.279616 -0.848551 6.52206 0.101931 
-0.302448 -0.832531 6.5411 0.0970959 
-0.302252 -0.813651 6.57223 0.0988878 
-0.325137 -0.792512 6.59143 0.0909847 
-0.325009 -0.813336 6.55958 0.0868401 
-0.347827 -0.79287 6.57816 0.0755811 
-0.325098 -0.832499 6.52791 0.084369 
-0.302546 -0.848674 6.50949 0.091151 
-0.323094 -0.766098 6.61979 0.0826632 
-0.34395 -0.739007 6.63562 0.0848892 
-0.342127 -0.711228 6.66251 0.10428 
-0.362543 -0.684935 6.67692 0.131931 
-0.364971 -0.712263 6.6514 0.0992864 
-0.385101 -0.686916 6.66627 0.126611 
-0.366679 -0.739758 6.62295 0.0756748 
-0.345605 -0.766192 6.6066 0.0704374 
-0.411148 -0.714785 6.62839 0.0875114 
-0.390285 -0.740122 6.61174 0.0766589 
-0.392454 -0.766825 6.58163 0.058567 
-0.371383 -0.792944 6.56486 0.0648632 
-0.36896 -0.766248 6.59473 0.0663468 
-0.387896 -0.713556 6.63963 0.0932084 
-0.408296 -0.689263 6.65572 0.124911 
-0.371825 -0.813727 6.53343 0.0646277 
-0.34901 -0.832773 6.51544 0.074298 
-0.349423 -0.849591 6.4838 0.077445 
-0.326136 -0.849033 6.49721 0.0838793 
-0.348155 -0.813623 6.54609 0.0724074 
-0.421524 -0.432885 6.66337 0.131125 
-0.420252 -0.399555 6.65328 0.14458 
-0.411866 -0.363927 6.65037 0.171272 
-0.401823 -0.395553 6.66342 0.131692 
-0.39285 -0.360717 6.66036 0.143246 
-0.402599 -0.428755 6.6725 0.111282 
-0.404494 -0.329771 6.64889 0.176318 
-0.397494 -0.296985 6.64841 0.181088 
-0.417881 -0.299244 6.63596 0.209136 
-0.424453 -0.331865 6.63672 0.201863 
-0.38336 -0.424835 6.68211 0.0859429 
-0.382047 -0.392825 6.67367 0.0928154 
-0.371987 -0.358964 6.67119 0.105664 
-0.362282 -0.389933 6.68332 0.0620977 
-0.352486 -0.356345 6.68033 0.0600524 
-0.363426 -0.421222 6.69184 0.0479027 
-0.362785 -0.326421 6.67002 0.107989 
-0.354542 -0.295296 6.66955 0.11853 
-0.376017 -0.295696 6.65961 0.15985 
-0.383976 -0.327504 6.65979 0.141838 
-0.367237 -0.21741 6.63511 0.13794 
-0.377259 -0.242841 6.63952 0.153247 
-0.392138 -0.216004 6.6231 0.177873 
-0.401509 -0.242245 6.62628 0.186483 
-0.3871 -0.269786 6.64373 0.173781 
-0.365519 -0.26905 6.65465 0.143575 
-0.355186 -0.242621 6.65002 0.115249 
-0.414881 -0.217337 6.60917 0.192082 
-0.422753 -0.244683 6.61336 0.208835 
-0.438758 -0.218747 6.59399 0.209678 
-0.430559 -0.272837 6.6182 0.227877 
-0.409731 -0.270261 6.63119 0.196293 
-0.226458 -0.702061 6.71711 0.150204 
-0.207085 -0.729922 6.70505 0.155217 
-0.210454 -0.760921 6.68009 0.165081 
-0.190042 -0.786912 6.66564 0.190205 
-0.187616 -0.757253 6.69148 0.165464 
-0.167248 -0.783192 6.67667 0.185236 
-0.184501 -0.726639 6.71478 0.152588 
-0.203379 -0.699089 6.7267 0.153137 
-0.222394 -0.671288 6.73742 0.15577 
-0.199236 -0.667307 6.74504 0.145728 
-0.189726 -0.810017 6.63413 0.179125 
-0.166387 -0.827884 6.61405 0.172385 
-0.165561 -0.846016 6.58054 0.162125 
-0.142468 -0.842417 6.59266 0.160429 
-0.143366 -0.824243 6.62564 0.17473 
-0.16695 -0.806993 6.64595 0.181533 
-0.0956271 -0.832332 6.61686 0.145577 
-0.1197 -0.818889 6.63824 0.159891 
-0.120079 -0.796781 6.66848 0.162963 
-0.143726 -0.778682 6.68753 0.177168 
-0.143685 -0.802105 6.65821 0.171142 
-0.119098 -0.838364 6.60474 0.156338 
-0.140791 -0.747712 6.71152 0.151953 
-0.160851 -0.72166 6.72427 0.145725 
-0.168305 -0.692375 6.73867 0.129507 
-0.175248 -0.663117 6.75226 0.131271 
-0.164565 -0.753046 6.70208 0.165364 
-0.170339 -0.235942 6.70232 0.032377 
-0.174415 -0.258082 6.71534 0.0329676 
-0.203937 -0.256162 6.70553 0.0358585 
-0.199692 -0.23428 6.69297 0.0338989 
-0.193229 -0.279221 6.72264 0.0365762 
-0.210946 -0.301166 6.7277 0.041911 
-0.184095 -0.302783 6.73893 0.0415151 
-0.165431 -0.280879 6.73214 0.0343289 
-0.227484 -0.232228 6.68548 0.0382818 
-0.230531 -0.254435 6.69715 0.0399899 
-0.257562 -0.252059 6.68763 0.0462404 
-0.255061 -0.229595 6.67697 0.0461991 
-0.24653 -0.27617 6.70263 0.0426726 
-0.261676 -0.298671 6.70663 0.0415188 
-0.236775 -0.299873 6.71734 0.0407816 
-0.220831 -0.277746 6.71241 0.039484 
-0.264872 -0.410092 6.73283 0.031884 
-0.250543 -0.382376 6.72834 0.023543 
-0.240036 -0.409391 6.74154 0.032423 
-0.236734 -0.354737 6.72673 0.0235278 
-0.225624 -0.381679 6.73825 0.0248348 
-0.21189 -0.35465 6.73711 0.0256223 
-0.215185 -0.40862 6.75057 0.0326857 
-0.223679 -0.327878 6.72696 0.029066 
-0.248675 -0.326733 6.71572 0.0267127 
-0.261933 -0.354468 6.71604 0.0218759 
-0.200495 -0.381558 6.74917 0.0288974 
-0.190049 -0.408105 6.76113 0.0362355 
-0.186333 -0.355148 6.7494 0.0314698 
-0.175332 -0.381328 6.75964 0.0337295 
-0.185211 -0.328611 6.74416 0.0347793 
-0.343228 -0.417978 6.70175 0.0263856 
-0.341451 -0.387652 6.69297 0.0202471 
-0.329882 -0.355918 6.68989 0.0227884 
-0.320502 -0.384973 6.70183 0.0229202 
-0.308899 -0.354449 6.69857 0.0241038 
-0.321768 -0.414982 6.71095 0.0295952 
-0.31991 -0.325613 6.68847 0.0318631 
-0.309668 -0.296254 6.68757 0.0471889 
-0.332525 -0.295743 6.67882 0.058101 
-0.341729 -0.325253 6.67931 0.052553 
-0.299616 -0.412674 6.71974 0.0309245 
-0.297888 -0.383973 6.71099 0.0245455 
-0.285026 -0.354993 6.7077 0.0229186 
-0.274939 -0.382703 6.71948 0.0239573 
-0.27309 -0.326741 6.706 0.0277559 
-0.285749 -0.297321 6.69738 0.0447961 
-0.297158 -0.32551 6.69706 0.0290968 
-0.28074 -0.226549 6.66871 0.0578404 
-0.281947 -0.250426 6.67886 0.0532896 
-0.307693 -0.246864 6.66944 0.0634717 
-0.306743 -0.223266 6.65964 0.071693 
-0.295891 -0.272988 6.68306 0.0495755 
-0.271741 -0.274255 6.69236 0.0443455 
-0.331535 -0.221056 6.65065 0.0837834 
-0.330883 -0.245793 6.65999 0.0677557 
-0.342535 -0.269819 6.665 0.0865691 
-0.320033 -0.270743 6.67435 0.0576024 
-0.344477 -0.651738 6.69783 0.127045 
-0.360232 -0.621275 6.70215 0.123272 
-0.363871 -0.58967 6.70834 0.113415 
-0.377205 -0.559764 6.70789 0.103605 
-0.355264 -0.555644 6.71637 0.0994295 
-0.385919 -0.593072 6.69977 0.117273 
-0.398459 -0.564001 6.69901 0.106325 
-0.382849 -0.624439 6.69338 0.12727 
-0.379217 -0.655374 6.68384 0.129359 
-0.354257 -0.521837 6.71151 0.0658567 
-0.364046 -0.489393 6.70125 0.0412419 
-0.363559 -0.455169 6.69614 0.0301196 
-0.383385 -0.458911 6.68629 0.0576327 
-0.384541 -0.493658 6.69191 0.0488478 
-0.386511 -0.527946 6.69815 0.0660726 
-0.421987 -0.468172 6.66784 0.101013 
-0.424948 -0.503069 6.67482 0.0857519 
-0.417668 -0.534928 6.68564 0.0890229 
-0.420801 -0.568352 6.69166 0.116828 
-0.40456 -0.498411 6.68307 0.0657658 
-0.402795 -0.463654 6.67653 0.0777024 
-0.43023 -0.601316 6.68376 0.130686 
-0.428191 -0.631381 6.67621 0.143576 
-0.413057 -0.659448 6.66971 0.135927 
-0.405592 -0.62796 6.68481 0.133098 
-0.408038 -0.597392 6.69138 0.124924 
-0.250544 -0.641154 6.7368 0.132618 
-0.266703 -0.608841 6.73921 0.114215 
-0.271095 -0.575262 6.74395 0.0990672 
-0.287017 -0.544318 6.74405 0.0946743 
-0.263306 -0.540337 6.7514 0.0885071 
-0.294787 -0.57863 6.73538 0.103666 
-0.310534 -0.547805 6.73493 0.0965485 
-0.290322 -0.612116 6.73017 0.116483 
-0.285849 -0.645226 6.72283 0.12842 
-0.263467 -0.506713 6.74675 0.0599521 
-0.275716 -0.474646 6.73735 0.0417517 
-0.275708 -0.44239 6.73206 0.0322862 
-0.299471 -0.444552 6.72355 0.0324232 
-0.299016 -0.477611 6.72901 0.0423143 
-0.299063 -0.511586 6.73474 0.0654035 
-0.342844 -0.45101 6.70537 0.0276965 
-0.343324 -0.485175 6.71111 0.0424423 
-0.332655 -0.517073 6.72093 0.0657128 
-0.333089 -0.551696 6.72588 0.0985982 
-0.32144 -0.481113 6.72019 0.0418944 
-0.321708 -0.447721 6.71502 0.0315171 
-0.341289 -0.58587 6.71736 0.110195 
-0.337111 -0.618189 6.711 0.117026 
-0.320949 -0.649112 6.70784 0.127384 
-0.313824 -0.615195 6.72052 0.116336 
-0.31817 -0.582442 6.72647 0.106216 
-0.176453 -0.437256 6.76673 0.035973 
-0.188579 -0.467976 6.76461 0.038813 
-0.201609 -0.438144 6.7576 0.0329306 
-0.213956 -0.469268 6.75627 0.0387152 
-0.201378 -0.500138 6.76412 0.0510313 
-0.213978 -0.533858 6.76427 0.069631 
-0.188843 -0.53083 6.77067 0.0639204 
-0.17642 -0.497189 6.77073 0.0471607 
-0.226666 -0.439841 6.74943 0.0333992 
-0.23881 -0.472177 6.74936 0.0413229 
-0.251439 -0.440952 6.74079 0.0330781 
-0.238835 -0.504545 6.75423 0.0553569 
-0.238759 -0.537315 6.75842 0.0802299 
-0.226854 -0.637982 6.74491 0.127291 
-0.230837 -0.604463 6.75075 0.106502 
-0.206864 -0.599751 6.75638 0.0911231 
-0.203137 -0.633322 6.75114 0.114007 
-0.222721 -0.569 6.75787 0.0830209 
-0.247103 -0.572103 6.75154 0.0942999 
-0.178829 -0.629521 6.75725 0.0985563 
-0.182432 -0.596843 6.76293 0.0803361 
-0.173296 -0.561685 6.7696 0.0625359 
-0.197975 -0.565092 6.76381 0.0716867 
-0.128211 0.0297994 6.33836 0.0127783 
-0.147503 0.0314118 6.33041 0.0138317 
-0.156507 0.0230021 6.35452 0.0110491 
-0.17559 0.024714 6.34603 0.0111657 
-0.166901 0.0330369 6.32214 0.0148786 
-0.184385 0.0160612 6.36984 0.00977493 
-0.194866 0.0262059 6.33719 0.0118271 
-0.203556 0.0175956 6.36072 0.00989213 
-0.222725 0.0191036 6.35134 0.00962226 
-0.186384 0.0344667 6.31365 0.0156015 
-0.214179 0.0274543 6.32823 0.011588 
-0.20596 0.0357597 6.30497 0.0156217 
-0.212441 0.00891417 6.38406 0.00865098 
-0.231387 0.0105994 6.37458 0.00864667 
-0.240528 0.00289155 6.39851 0.010717 
-0.222068 0.0015628 6.4069 0.0110978 
-0.193818 0.00773335 6.39225 0.00923899 
-0.203642 0.000345511 6.41525 0.0114009 
-0.17543 0.00655122 6.40044 0.00951578 
-0.165878 0.0146325 6.37764 0.00950108 
-0.147389 0.0131414 6.38519 0.00879869 
-0.185339 -0.00134672 6.42313 0.011281 
-0.157183 0.00499726 6.40807 0.00870622 
-0.167153 -0.00299281 6.43069 0.0106513 
-0.137865 0.0215359 6.36194 0.0101851 
-0.226539 0.0372929 6.29678 0.0160447 
-0.233769 0.0288758 6.32054 0.0118167 
-0.254018 0.0304412 6.31177 0.0123488 
-0.246825 0.0388174 6.28839 0.0167951 
-0.261315 0.0219425 6.33515 0.0103602 
-0.273932 0.0318657 6.30288 0.013296 
-0.281089 0.0233527 6.32617 0.0109236 
-0.300739 0.0248756 6.31753 0.0121519 
-0.266893 0.0405137 6.27994 0.0186076 
-0.293631 0.0333276 6.29413 0.0137924 
-0.286861 0.042299 6.27148 0.0198861 
-0.288761 0.0156533 6.35058 0.011376 
-0.308359 0.0173541 6.34186 0.0129261 
-0.316176 0.0103968 6.36683 0.0171537 
-0.297432 0.00869824 6.37478 0.015196 
-0.269632 0.0140037 6.35844 0.010103 
-0.278524 0.006835 6.38265 0.0133423 
-0.250547 0.0122891 6.36647 0.00922239 
-0.242172 0.0206362 6.34346 0.0095091 
-0.259609 0.00472819 6.39047 0.0118307 
-0.314978 -0.0290592 6.45115 0.0249523 
-0.298495 -0.0309306 6.45823 0.0221307 
-0.291194 -0.0180391 6.43429 0.0172557 
-0.281647 -0.0322623 6.46545 0.0215119 
-0.274374 -0.0193149 6.44122 0.0162024 
-0.257139 -0.0208846 6.44767 0.0145933 
-0.265015 -0.0339361 6.47218 0.0185796 
-0.266311 -0.00743945 6.41608 0.0125844 
-0.248728 -0.00893148 6.42284 0.011512 
-0.284807 -0.00535907 6.40803 0.014653 
-0.303558 -0.00311774 6.40051 0.0169804 
-0.309336 -0.0158208 6.42597 0.0198401 
-0.327677 -0.0139751 6.41772 0.0233767 
-0.322038 -0.00152869 6.39223 0.0190236 
-0.332766 -0.0268247 6.44269 0.0297537 
-0.247485 -0.0355833 6.4801 0.018004 
-0.230806 -0.0360068 6.48687 0.0187934 
-0.221259 -0.0237968 6.46359 0.0147895 
-0.214167 -0.036656 6.49333 0.0190585 
-0.204333 -0.0244735 6.47004 0.0148695 
-0.187247 -0.0253093 6.47638 0.0151099 
-0.19729 -0.0370985 6.49927 0.0193028 
-0.194217 -0.0133359 6.44678 0.0112754 
-0.176987 -0.0142483 6.45303 0.0113197 
-0.212295 -0.0119375 6.4391 0.0117029 
-0.230659 -0.0104628 6.43127 0.0116115 
-0.239457 -0.0222836 6.45577 0.0146231 
0.0104118 0.0263648 6.39641 0.0138611 
-0.00114121 0.0156598 6.41853 0.00778732 
-0.021458 0.0164199 6.41014 0.00808711 
-0.00985015 0.026364 6.38795 0.0127717 
-0.0331125 0.00729187 6.43276 0.00610798 
-0.0415259 0.0169775 6.40191 0.00824388 
-0.0531087 0.00852819 6.42473 0.00671477 
-0.0727972 0.00923704 6.41621 0.0069363 
-0.0300945 0.0264774 6.37952 0.0125353 
-0.0614013 0.0175972 6.39345 0.00828813 
-0.0500765 0.0266751 6.3709 0.0122974 
-0.064692 0.000513353 6.44754 0.00621851 
-0.0843978 0.00150005 6.43904 0.00696291 
-0.0956754 -0.00606077 6.46177 0.00950855 
-0.077258 -0.0066769 6.46984 0.00883741 
-0.045863 -0.000393464 6.4555 0.00588375 
-0.0586172 -0.00748842 6.47806 0.00831577 
-0.0266397 -0.00138033 6.46322 0.00502001 
-0.0139131 0.00662627 6.44048 0.00575645 
-0.0394784 -0.00862337 6.48607 0.00669633 
-0.069621 0.0277966 6.36297 0.0129769 
-0.0800596 0.0184019 6.38638 0.00867868 
-0.0993429 0.0196465 6.37857 0.00949247 
-0.0890322 0.0285105 6.35502 0.0127558 
-0.109512 0.0111874 6.40216 0.00826273 
-0.118636 0.0207049 6.37051 0.00987826 
-0.128462 0.0122429 6.39408 0.0087332 
-0.108603 0.029145 6.3468 0.0128173 
-0.138464 0.00415923 6.41688 0.00877781 
-0.149242 -0.00362476 6.43897 0.0103485 
-0.12051 0.0034357 6.42462 0.00847558 
-0.131486 -0.00408972 6.44661 0.0108504 
-0.102572 0.00252258 6.43191 0.00754164 
-0.0912742 0.0102863 6.40926 0.00769021 
-0.113712 -0.00498131 6.4543 0.0100488 
-0.17969 -0.0380262 6.50714 0.0196637 
-0.163058 -0.0379857 6.51389 0.0202703 
-0.151805 -0.0271687 6.49194 0.0151794 
-0.146256 -0.0388278 6.52095 0.0206506 
-0.135045 -0.0276856 6.49877 0.0149109 
-0.118236 -0.028059 6.50603 0.013963 
-0.129558 -0.0390552 6.5278 0.0202086 
-0.123911 -0.0168107 6.47671 0.0108027 
-0.107057 -0.0172399 6.48398 0.0099222 
-0.141676 -0.01576 6.46901 0.0116767 
-0.159453 -0.0146473 6.4612 0.011927 
-0.169514 -0.0261061 6.48405 0.0146335 
-0.111341 -0.0398084 6.53648 0.0216638 
-0.0942348 -0.0401199 6.54472 0.0225053 
-0.0818424 -0.0290349 6.52385 0.0136934 
-0.0769181 -0.0399375 6.55279 0.0220092 
-0.0644618 -0.0295828 6.53176 0.0144065 
-0.0514231 -0.0197281 6.50923 0.00822421 
-0.0703762 -0.018438 6.50128 0.00922279 
-0.0888573 -0.017676 6.49268 0.0103176 
-0.100123 -0.0285312 6.51507 0.0143746 
0.182671 0.0013041 6.08638 0.00525944 
0.173067 0.00999955 6.10359 0.00843263 
0.15176 0.00985477 6.09265 0.00864588 
0.161371 0.0013631 6.07536 0.00536904 
0.141915 0.0173875 6.11028 0.0118366 
0.130434 0.00935889 6.08169 0.00812617 
0.120704 0.0167959 6.09942 0.0113225 
0.0992379 0.0157699 6.08845 0.0100829 
0.140034 0.000983284 6.06438 0.00515988 
0.10902 0.00850609 6.07051 0.00731689 
0.118509 0.000289108 6.05326 0.00476195 
0.110472 0.0231504 6.11753 0.0130721 
0.0890661 0.0219538 6.10664 0.0118387 
0.0786847 0.0274279 6.1252 0.013078 
0.100455 0.0285955 6.13574 0.0145481 
0.13199 0.0237617 6.12807 0.0139688 
0.121883 0.0294028 6.14619 0.0155541 
0.153604 0.0241959 6.13843 0.0147752 
0.163512 0.0176682 6.12079 0.0121407 
0.143359 0.0297959 6.15669 0.0161882 
0.0992126 -6.79038e-05 6.043 0.00454354 
0.0891743 0.00823376 6.06083 0.00729253 
0.0699434 0.00764757 6.05073 0.00701675 
0.0800218 -0.000551046 6.03257 0.00453683 
0.059587 0.0146314 6.06916 0.00907798 
0.0506306 0.0067101 6.04037 0.00649869 
0.040337 0.0136437 6.05884 0.00829602 
0.0212456 0.012358 6.04871 0.007363 
0.0605551 -0.00125673 6.02211 0.00437294 
0.0314215 0.00558605 6.03003 0.00588291 
0.0413772 -0.00221563 6.01167 0.00398833 
0.0297737 0.0196729 6.07793 0.00919903 
0.0105718 0.0182651 6.06786 0.0077143 
5.09258e-05 0.0237851 6.08729 0.00835679 
0.0197539 0.0250091 6.09677 0.00974185 
0.0496523 0.0205515 6.08749 0.010122 
0.0395689 0.02603 6.10621 0.0107637 
0.0693803 0.021411 6.09715 0.0111934 
0.0794874 0.0153525 6.07873 0.00974239 
0.0591465 0.0268561 6.11573 0.011804 
-0.0420983 0.0394526 6.16733 0.0099317 
-0.021997 0.0398577 6.17677 0.0109076 
-0.0119286 0.0354583 6.15753 0.00863356 
0.00816142 0.035773 6.16656 0.00900661 
-0.00187995 0.0400743 6.18607 0.0114336 
0.0180673 0.0323639 6.14709 0.00835245 
0.0280698 0.036343 6.17563 0.00969578 
0.0382223 0.0328261 6.15584 0.00943196 
0.0582407 0.0330163 6.16492 0.0102277 
0.0181543 0.0401162 6.19516 0.0116904 
0.0480765 0.036407 6.18458 0.0107703 
0.0378238 0.0402179 6.2042 0.0121773 
0.0482741 0.0298464 6.13613 0.00981131 
0.0684818 0.0301586 6.14514 0.010902 
0.0287551 0.0290752 6.12665 0.00900131 
0.00902664 0.0280594 6.11726 0.00803908 
-0.0014692 0.0314281 6.13762 0.00776672 
-0.0209725 0.0307058 6.12793 0.00716508 
-0.0105928 0.0269471 6.10778 0.00720964 
-0.0314073 0.0348862 6.14783 0.00810976 
0.0591262 0.0409127 6.2145 0.0142504 
0.0691654 0.0373269 6.19527 0.0118523 
0.0905958 0.0380069 6.20542 0.0129482 
0.0803579 0.0414588 6.22457 0.0150937 
0.100717 0.0349003 6.18616 0.012464 
0.111653 0.0382303 6.21561 0.0130042 
0.12188 0.0351862 6.19621 0.0126295 
0.101395 0.0416627 6.23483 0.0151372 
0.132298 0.0324512 6.17674 0.0135761 
0.111218 0.0321498 6.16619 0.0132626 
0.0898745 0.0313546 6.1556 0.0124465 
0.079541 0.034132 6.1755 0.0112109 
-0.118332 0.0342089 6.31617 0.0137482 
-0.137246 0.0356506 6.30803 0.0144216 
-0.127435 0.040358 6.28692 0.0169209 
-0.108348 0.0391116 6.29476 0.0163484 
-0.146608 0.0416418 6.27862 0.0172201 
-0.117442 0.0448056 6.26589 0.0190115 
-0.136921 0.0460211 6.25786 0.0198757 
-0.126809 0.04952 6.23675 0.0224736 
-0.0978981 0.0435719 6.27354 0.0184718 
-0.107049 0.0484211 6.24456 0.0217533 
-0.0871697 0.0472877 6.25219 0.020814 
-0.156436 0.0470347 6.24953 0.0200993 
-0.146457 0.050611 6.22863 0.023392 
-0.16596 0.0516827 6.22042 0.0240983 
-0.176401 0.0480854 6.24136 0.0205603 
-0.16657 0.0428462 6.27039 0.0173647 
-0.186464 0.0439217 6.26218 0.0179192 
-0.176559 0.0383785 6.29169 0.0158764 
-0.156869 0.0369699 6.29998 0.0149975 
-0.196218 0.0396836 6.28334 0.0161464 
-0.0759182 0.046125 6.23128 0.0170473 
-0.094717 0.0467388 6.2234 0.0176771 
-0.08301 0.0448048 6.20224 0.0141791 
-0.0643412 0.044109 6.20994 0.0138198 
-0.101966 0.0454498 6.19437 0.0142106 
-0.0713577 0.0424142 6.18093 0.0116354 
-0.0902968 0.0430312 6.17295 0.0123444 
-0.0793378 0.0407378 6.15172 0.0112489 
-0.0528827 0.0418098 6.18849 0.0111374 
-0.0604829 0.040125 6.15962 0.010723 
-0.109461 0.0437675 6.16511 0.0126269 
-0.0982124 0.0412535 6.14366 0.0113441 
-0.117188 0.0419718 6.1359 0.0115747 
-0.129853 0.0450458 6.15769 0.0135214 
-0.122293 0.0467276 6.18687 0.015651 
-0.142444 0.0480474 6.17925 0.0172442 
-0.134628 0.0490634 6.20797 0.0191151 
-0.11459 0.0478737 6.21579 0.0183296 
-0.154449 0.0503015 6.20009 0.0209204 
-0.192252 0.0451466 6.10584 0.0139036 
-0.206051 0.0493405 6.12781 0.017902 
-0.185946 0.0474511 6.13483 0.0159843 
-0.199656 0.0510925 6.15627 0.0197063 
-0.219567 0.0527698 6.14905 0.0215672 
-0.179608 0.0493827 6.16343 0.0180664 
-0.212834 0.0536138 6.17688 0.0234788 
-0.192812 0.0523173 6.18446 0.0220502 
-0.205739 0.053896 6.20477 0.0247642 
-0.2327 0.055025 6.16934 0.0249113 
-0.225602 0.0549599 6.19697 0.0258865 
-0.245275 0.056179 6.18921 0.0265449 
-0.172898 0.0509166 6.19199 0.0207667 
-0.185893 0.0527834 6.21255 0.0242313 
-0.161147 0.0486245 6.1713 0.0171505 
-0.148862 0.0457015 6.15009 0.014098 
-0.167543 0.0464786 6.14244 0.0147582 
-0.155141 0.0432209 6.12092 0.0125902 
-0.136345 0.0425601 6.12839 0.0119455 
-0.17379 0.0440796 6.11345 0.0127887 
-0.256227 0.0526369 6.20957 0.0225182 
-0.235662 0.0512083 6.2171 0.0218045 
-0.246332 0.0473127 6.23791 0.0188928 
-0.266587 0.0487898 6.22997 0.0201482 
-0.225808 0.0459019 6.24575 0.0180817 
-0.256856 0.0439317 6.25876 0.0181493 
-0.236409 0.0421793 6.26673 0.0168573 
-0.276775 0.0454506 6.25055 0.0193868 
-0.215851 0.0406115 6.27486 0.0160707 
-0.206182 0.0449171 6.254 0.0175971 
-0.196198 0.0490536 6.23321 0.0206471 
-0.215924 0.0500685 6.22512 0.0211708 
-0.0952366 -0.0095033 5.93539 0.00183549 
-0.106447 -0.00191117 5.95657 0.00209946 
-0.0892746 -0.0014245 5.96521 0.00221281 
-0.100746 0.00593682 5.98625 0.00275085 
-0.117951 0.00553962 5.97791 0.00254124 
-0.0829744 0.00646138 5.9948 0.00304342 
-0.112065 0.0132536 6.00763 0.00336988 
-0.094483 0.0135643 6.01605 0.003601 
-0.105944 0.0209331 6.0369 0.00497535 
-0.129417 0.0130228 5.99918 0.00318292 
-0.123525 0.0207701 6.02851 0.00476694 
-0.140899 0.020717 6.0201 0.00472443 
-0.0768423 0.0141626 6.02425 0.00397142 
-0.0883655 0.0214235 6.04533 0.00542819 
-0.0706724 0.0220301 6.05371 0.00630324 
-0.0596313 0.0153379 6.0336 0.00498668 
-0.0659838 0.00751228 6.00416 0.00339735 
-0.0487239 0.00875761 6.01345 0.0043654 
-0.0551921 0.000727173 5.98405 0.00300829 
-0.0721578 -0.000453325 5.97461 0.00255614 
-0.0615204 -0.0078133 5.95441 0.00210803 
-0.0379202 0.00203392 5.99343 0.00383557 
-0.044418 -0.00673387 5.96384 0.00250627 
-0.0271948 -0.00548795 5.97347 0.00297829 
-0.0785611 -0.00875751 5.94493 0.00189923 
-0.153185 0.0261761 6.0416 0.00527678 
-0.134816 0.0256062 6.0492 0.00504149 
-0.147404 0.0313435 6.07064 0.00602374 
-0.166054 0.0320623 6.06322 0.00641252 
-0.128806 0.0308315 6.07805 0.00606908 
-0.160448 0.0374707 6.09191 0.00832022 
-0.14173 0.0367714 6.09935 0.00829208 
-0.179104 0.0384233 6.08464 0.00916963 
-0.122952 0.0362104 6.10696 0.00760767 
-0.105079 0.0363519 6.11547 0.0082897 
-0.111175 0.0309557 6.08647 0.0062672 
-0.0933758 0.0311797 6.09519 0.00669879 
-0.0997861 0.0260058 6.06601 0.00548525 
-0.117271 0.0257589 6.0577 0.00519129 
-0.0820812 0.0263742 6.07459 0.00594468 
-0.0488457 0.0348112 6.13931 0.00827421 
-0.0383392 0.0304583 6.11944 0.00704889 
-0.0559638 0.0304464 6.11096 0.00710975 
-0.0280102 0.0265924 6.09932 0.00667163 
-0.0456737 0.0264237 6.0909 0.00668059 
-0.0352908 0.0228279 6.07063 0.00734334 
-0.017561 0.0232711 6.07901 0.00769089 
-0.0634262 0.0262503 6.08243 0.00622881 
-0.0528886 0.0223504 6.06213 0.00659655 
-0.0747539 0.0308004 6.10312 0.00688816 
-0.0862833 0.0358358 6.12341 0.00856316 
-0.0675417 0.0353267 6.13139 0.0086569 
-0.00650908 0.0172292 6.05866 0.00704515 
0.00395328 0.0113453 6.03939 0.00650832 
-0.0131225 0.0102985 6.03015 0.00588345 
0.0141715 0.00475087 6.02066 0.00539834 
-0.00300503 0.00385386 6.01121 0.00499614 
0.00709647 -0.00367081 5.99253 0.00360638 
0.0241743 -0.00284505 6.00216 0.00391658 
-0.0201437 0.00273244 6.00179 0.00437967 
-0.0102543 -0.00459954 5.98295 0.00332259 
-0.0309641 0.00952477 6.02189 0.00515599 
-0.0418314 0.0159542 6.0421 0.00574948 
-0.024269 0.0166268 6.05043 0.0064619 
0.0906735 0.0430684 6.25566 0.0163602 
0.0697974 0.0428121 6.24536 0.0157563 
0.0592045 0.0444162 6.26571 0.0177272 
0.0486966 0.0422544 6.23506 0.0140719 
0.038225 0.0441251 6.2554 0.0159081 
0.0172635 0.0436198 6.24511 0.0148993 
0.0276007 0.0418262 6.22479 0.0134538 
0.0275627 0.0458235 6.27565 0.0192796 
0.00628342 0.0453659 6.26541 0.0180431 
-0.00497031 0.0463064 6.28581 0.0216331 
0.0162934 0.0466354 6.29529 0.0232005 
0.0483135 0.0460942 6.28518 0.0205136 
0.0372484 0.0470066 6.30474 0.0244393 
0.0687508 0.0462965 6.29492 0.0213489 
0.079721 0.044468 6.27535 0.0183014 
0.0578623 0.0474064 6.31438 0.0255531 
0.00758591 0.0420541 6.2163 0.0124089 
-0.012438 0.0420954 6.20726 0.0123779 
-0.0236287 0.0442553 6.22836 0.0146438 
-0.0326958 0.0421403 6.19811 0.0120413 
-0.043962 0.0443202 6.21928 0.0142844 
-0.0553936 0.0461178 6.2405 0.0177203 
-0.0663292 0.0471435 6.26089 0.0211914 
-0.0347976 0.0459214 6.24891 0.0177028 
-0.0458585 0.0469097 6.26924 0.0217613 
-0.0141931 0.0457416 6.25711 0.0178299 
-0.00309078 0.0440345 6.23671 0.0145762 
-0.0254228 0.0466322 6.27757 0.0217326 
-0.0983117 0.0338316 6.32528 0.0141274 
-0.0784919 0.0334805 6.33348 0.0145314 
-0.0675234 0.0384405 6.31235 0.0169038 
-0.058626 0.0329278 6.3414 0.014536 
-0.0475768 0.0382707 6.32027 0.0171421 
-0.027549 0.0378957 6.32808 0.0170092 
-0.0389586 0.0322053 6.34932 0.0141366 
-0.036426 0.0428493 6.2993 0.0195146 
-0.016408 0.0426554 6.30716 0.0195488 
-0.0566353 0.0430952 6.29084 0.0190865 
-0.0771156 0.043343 6.28222 0.0189593 
-0.0878937 0.0388844 6.30352 0.0168196 
-0.0180728 0.0322873 6.35871 0.0146923 
0.00228116 0.032668 6.36739 0.0166035 
0.0144125 0.0384084 6.34704 0.0195971 
0.0225976 0.0328532 6.37589 0.0170784 
0.0346582 0.0387208 6.35555 0.0208616 
0.046739 0.0438321 6.33546 0.0238042 
0.0258811 0.0434595 6.32596 0.0224867 
0.00475695 0.0429996 6.31652 0.0209098 
-0.00664219 0.038101 6.33756 0.0178858 
-0.309194 0.0433237 6.26327 0.0197859 
-0.314456 0.0351922 6.28671 0.0152995 
-0.336166 0.0364407 6.27855 0.0167163 
-0.330808 0.0444249 6.25548 0.0202321 
-0.341677 0.0290569 6.3025 0.0162016 
-0.356928 0.0378059 6.27056 0.0188586 
-0.3626 0.0303887 6.29419 0.01843 
-0.383086 0.0314134 6.28613 0.0210623 
-0.351595 0.0457127 6.24818 0.0219148 
-0.377535 0.0390241 6.26288 0.0212257 
-0.372068 0.0471514 6.24116 0.0245343 
-0.368294 0.0233847 6.31886 0.0225704 
-0.38869 0.0241141 6.31038 0.0253056 
-0.394323 0.0168834 6.33488 0.0328266 
-0.375332 0.0159243 6.34312 0.0291851 
-0.348745 0.0214804 6.32667 0.0187168 
-0.356225 0.0143816 6.3511 0.0251665 
-0.328926 0.0196707 6.33459 0.0159054 
-0.321468 0.0270955 6.30997 0.0138925 
-0.336523 0.0125531 6.35939 0.0211023 
-0.395633 0.0486135 6.23251 0.0256951 
-0.395531 0.0405086 6.25809 0.0233451 
-0.418838 0.0416318 6.24936 0.0252549 
-0.419362 0.0507049 6.22425 0.0296287 
-0.418598 0.033619 6.27569 0.0284237 
-0.441653 0.0431094 6.24048 0.0282033 
-0.441411 0.0339135 6.2661 0.0286572 
-0.464281 0.0349058 6.2566 0.0281111 
-0.442243 0.0530739 6.21614 0.0354772 
-0.464896 0.0451839 6.23168 0.0313651 
-0.465692 0.056057 6.20814 0.0416344 
-0.441119 0.0258148 6.29243 0.0309621 
-0.463497 0.0253916 6.28194 0.0297569 
-0.462682 0.0167313 6.30794 0.0350526 
-0.446018 0.0173358 6.31478 0.0356792 
-0.423808 0.0253436 6.29847 0.0298654 
-0.42902 0.0173548 6.32139 0.0351501 
-0.406655 0.0248913 6.30446 0.0275273 
-0.401158 0.0326585 6.28082 0.024626 
-0.412076 0.0173414 6.32811 0.0329388 
-0.445557 -0.0202033 6.38569 0.0412477 
-0.430913 -0.0194227 6.39348 0.043606 
-0.428479 -0.00717477 6.36947 0.0368468 
-0.416369 -0.0193147 6.40163 0.0437965 
-0.413982 -0.00700092 6.3772 0.0377733 
-0.399026 -0.00772087 6.38418 0.0359326 
-0.401398 -0.0201484 6.40931 0.043629 
-0.411346 0.00484685 6.35253 0.0338454 
-0.396535 0.00422399 6.35926 0.0320592 
-0.428605 0.00493907 6.34531 0.0337354 
-0.445862 0.00440616 6.33781 0.0345951 
-0.445436 -0.00802458 6.36159 0.0358041 
-0.462402 -0.00922232 6.35333 0.0339002 
-0.462779 0.00367672 6.33064 0.0333617 
-0.462429 -0.0217519 6.37663 0.0389389 
-0.38304 -0.0215352 6.41905 0.0419542 
-0.366422 -0.022761 6.42726 0.0396045 
-0.361859 -0.0104277 6.40286 0.0316292 
-0.34974 -0.0247194 6.43512 0.0346682 
-0.344664 -0.0120419 6.41 0.0274719 
-0.339516 0.000429873 6.38536 0.0232188 
-0.359094 0.00236434 6.3772 0.0279112 
-0.378054 0.00340659 6.36815 0.0310812 
-0.38055 -0.00869551 6.39361 0.0344178 
-0.484995 0.0546917 6.21186 0.0436507 
-0.498679 0.0436869 6.23296 0.0371504 
-0.504149 0.0532018 6.21478 0.0459696 
-0.493372 0.0348554 6.25205 0.0334622 
-0.517826 0.0414464 6.23591 0.0374236 
-0.512216 0.0320937 6.25454 0.0323676 
-0.53163 0.0299192 6.25723 0.0366628 
-0.523509 0.0518293 6.2178 0.0461481 
-0.537288 0.0397776 6.2389 0.0397839 
-0.543676 0.0507902 6.22122 0.0527923 
-0.507044 0.0239645 6.27398 0.0345067 
-0.526254 0.0209909 6.27623 0.0351682 
-0.520826 0.0125198 6.29531 0.0340492 
-0.491819 0.0147402 6.30139 0.0339161 
-0.566007 0.0375184 6.23948 0.0436872 
-0.574062 0.0472786 6.22271 0.0564232 
-0.558221 0.0277978 6.25622 0.0357396 
-0.588307 0.0239617 6.25844 0.0402485 
-0.596704 0.0346333 6.2415 0.0492996 
-0.605667 0.045162 6.2244 0.0668743 
-0.565543 0.0161407 6.27399 0.0328554 
-0.573145 0.00557794 6.29221 0.0356122 
-0.546672 0.00812008 6.2933 0.0327996 
-0.547048 -0.0349846 6.34629 0.0284199 
-0.538587 -0.0192199 6.33009 0.0284904 
-0.525724 -0.0305474 6.35321 0.0320413 
-0.516645 -0.0158409 6.33563 0.0290668 
-0.529929 -0.00354736 6.31287 0.0305867 
-0.555699 -0.0076908 6.31071 0.0294428 
-0.564545 -0.0242939 6.32729 0.0276218 
-0.500215 -0.0267214 6.36099 0.0328881 
-0.487916 -0.0119361 6.3439 0.0332761 
-0.489857 0.00109245 6.3222 0.0313792 
-0.297562 0.0458651 6.24125 0.0183268 
-0.287643 0.0491065 6.22116 0.0192463 
-0.308291 0.0494118 6.21263 0.0183922 
-0.277376 0.0529201 6.20116 0.0209313 
-0.29799 0.0533077 6.19306 0.0208044 
-0.287739 0.0570412 6.17335 0.0269432 
-0.266686 0.0566856 6.18117 0.0268538 
-0.318493 0.0539943 6.18512 0.0215062 
-0.308139 0.0577551 6.1656 0.0268843 
-0.328365 0.058631 6.15792 0.0265021 
-0.339601 0.0554592 6.17869 0.0226996 
-0.329763 0.0508545 6.20597 0.0194388 
-0.350477 0.052624 6.1993 0.0212989 
-0.340787 0.0482205 6.22682 0.0198632 
-0.319629 0.0467964 6.23379 0.0183242 
-0.361244 0.0498881 6.2201 0.0222956 
-0.252141 0.0546321 6.16004 0.0235027 
-0.239231 0.0525464 6.13986 0.0206928 
-0.258508 0.0526621 6.1308 0.0203063 
-0.225958 0.0494822 6.11885 0.0177916 
-0.245503 0.0497515 6.10977 0.0177876 
-0.232239 0.045962 6.0881 0.0146 
-0.212449 0.0455398 6.09697 0.0144499 
-0.264656 0.050158 6.10081 0.0176842 
-0.251445 0.046363 6.07928 0.0153568 
-0.270279 0.0469877 6.07061 0.0161635 
-0.285449 0.0518907 6.09371 0.0198167 
-0.279747 0.0539859 6.12332 0.021255 
-0.300444 0.055414 6.11604 0.0223587 
-0.294185 0.056425 6.14477 0.0241956 
-0.273327 0.0554856 6.15234 0.0231892 
-0.314683 0.0575146 6.13741 0.024668 
-0.342452 0.0457155 6.03152 0.0131163 
-0.358891 0.0514381 6.05491 0.0167693 
-0.339655 0.0501225 6.06422 0.0164175 
-0.355496 0.0543477 6.0871 0.0189533 
-0.374553 0.055673 6.07762 0.0200115 
-0.336498 0.0538032 6.09622 0.0186433 
-0.370591 0.0574158 6.10906 0.0217763 
-0.351803 0.0567632 6.11831 0.0214365 
-0.366306 0.0586331 6.13924 0.0239831 
-0.389423 0.0587108 6.09969 0.0228957 
-0.38483 0.0593846 6.13 0.0242553 
-0.403342 0.060812 6.12078 0.025185 
-0.332788 0.0564888 6.12757 0.0222648 
-0.347448 0.0583729 6.14838 0.0247258 
-0.318617 0.0543956 6.10608 0.0203151 
-0.303772 0.0509021 6.08388 0.0175743 
-0.321807 0.0504032 6.07411 0.0171412 
-0.306812 0.0457049 6.05117 0.0138263 
-0.288622 0.0462021 6.06087 0.0145296 
-0.324649 0.0454163 6.04132 0.0128451 
-0.419394 0.0601481 6.14319 0.0264975 
-0.39554 0.0562378 6.15042 0.0212659 
-0.411313 0.0553787 6.17258 0.0229214 
-0.434942 0.059281 6.16534 0.0285646 
-0.387711 0.052402 6.17996 0.0188737 
-0.426788 0.0543885 6.19436 0.0284563 
-0.403334 0.0515312 6.20218 0.0227399 
-0.45038 0.0578693 6.18659 0.0342995 
-0.379879 0.049277 6.21019 0.0188779 
-0.36944 0.0523077 6.18979 0.019923 
-0.358647 0.0551776 6.16909 0.0206579 
-0.377261 0.0554461 6.15974 0.0212156 
-0.31166 0.0378673 6.01961 0.00845247 
-0.293511 0.0381802 6.02946 0.00894342 
-0.280264 0.0304137 6.00741 0.00562827 
-0.275344 0.0387038 6.03929 0.00939596 
-0.261951 0.0310661 6.01726 0.00600655 
-0.243476 0.0318598 6.02701 0.00652102 
-0.257009 0.039466 6.04897 0.0102664 
-0.248462 0.0235978 5.99486 0.00356664 
-0.229905 0.0245549 6.00465 0.00383487 
-0.216385 0.0177193 5.98191 0.00298624 
-0.234736 0.016311 5.9722 0.0025617 
-0.266613 0.0224543 5.98504 0.00320446 
-0.252855 0.0149868 5.96247 0.00224499 
-0.284458 0.0216067 5.97507 0.00315783 
-0.298054 0.0297077 5.99746 0.00525758 
-0.31595 0.0294381 5.98751 0.00550452 
-0.27094 0.0140407 5.9525 0.00211634 
-0.302419 0.0210976 5.96496 0.00335772 
-0.288981 0.0133662 5.94228 0.00230049 
-0.329326 0.0377776 6.00971 0.00864593 
-0.238609 0.0394361 6.05832 0.0101208 
-0.219215 0.0389141 6.06697 0.00959942 
-0.20621 0.0320384 6.04569 0.00637269 
-0.199332 0.0386372 6.07587 0.00964052 
-0.186325 0.0319322 6.05445 0.00624598 
-0.173328 0.0257733 6.03281 0.0048154 
-0.160245 0.0195798 6.01035 0.00376257 
-0.192759 0.0251517 6.02337 0.00433202 
-0.179418 0.0187258 6.00071 0.00322917 
-0.211519 0.0246918 6.01399 0.00400521 
-0.225157 0.0318518 6.03629 0.00634229 
-0.198098 0.0180685 5.99136 0.00292348 
-0.114224 -0.0111856 5.92509 0.00135416 
-0.125523 -0.00344322 5.94673 0.0015351 
-0.144255 -0.00497553 5.93671 0.00112359 
-0.132813 -0.0126732 5.9148 0.00104888 
-0.155987 0.00294311 5.9584 0.00151118 
-0.162701 -0.00621297 5.92666 0.000878475 
-0.174509 0.0018062 5.94861 0.00124627 
-0.19257 0.00100694 5.93882 0.00111701 
-0.151085 -0.0139039 5.90472 0.000847035 
-0.18075 -0.00708153 5.91684 0.000795206 
-0.169079 -0.0147952 5.89492 0.000797504 
-0.18628 0.00998705 5.97015 0.00191079 
-0.204491 0.00927301 5.96041 0.00183857 
-0.167675 0.0107915 5.97967 0.00213684 
-0.148692 0.0117948 5.98933 0.00251196 
-0.137107 0.00405734 5.968 0.00186957 
-0.187529 -0.0165365 5.88546 0.000524671 
-0.198983 -0.00875428 5.90717 0.000548838 
-0.217212 -0.0102229 5.89765 0.000403544 
-0.20578 -0.018008 5.87586 0.000393549 
-0.228729 -0.00201914 5.91923 0.000643545 
-0.235695 -0.0113704 5.88798 0.000374174 
-0.247213 -0.00309333 5.9096 0.000598423 
-0.265841 -0.00392114 5.8998 0.0006337 
-0.224247 -0.0191246 5.86629 0.000370289 
-0.254247 -0.0121606 5.87821 0.000445839 
-0.242661 -0.0198628 5.85652 0.000484488 
-0.258813 0.00533208 5.93089 0.00114062 
-0.277335 0.00466954 5.92127 0.0012117 
-0.24056 0.00630913 5.94076 0.00120843 
-0.22259 0.007671 5.95058 0.00140313 
-0.210738 -0.000661072 5.92901 0.000821839 
-0.359064 0.0442535 6.02047 0.0121726 
-0.375252 0.050585 6.04148 0.015803 
-0.39193 0.0497452 6.03017 0.0151685 
-0.375764 0.0431796 6.00891 0.0118186 
-0.407242 0.0548831 6.05096 0.0189902 
-0.408959 0.0492903 6.01831 0.0158282 
-0.42414 0.0548678 6.03902 0.019466 
-0.441967 0.055816 6.02646 0.0228361 
-0.39288 0.0425345 5.99705 0.0121388 
-0.426491 0.0498139 6.0059 0.01816 
-0.410472 0.0422735 5.98484 0.0135402 
-0.438944 0.0595915 6.05927 0.0241402 
-0.456928 0.0606218 6.04691 0.0272697 
-0.471576 0.0646107 6.06699 0.0314676 
-0.453587 0.0628495 6.08128 0.0278189 
-0.421836 0.0587137 6.07336 0.0216121 
-0.43626 0.0614677 6.09495 0.0257753 
-0.405496 0.0583038 6.08675 0.0209654 
-0.390845 0.055064 6.0646 0.0184698 
-0.419686 0.0606916 6.10818 0.0237872 
-0.42797 0.0405902 5.97233 0.0141354 
-0.443183 0.0482004 5.98998 0.0199754 
-0.461969 0.0469211 5.97653 0.0221225 
-0.446833 0.0391737 5.95901 0.0158402 
-0.476627 0.0536476 5.99407 0.0285635 
-0.481825 0.0451379 5.96266 0.0249195 
-0.496476 0.0518423 5.9802 0.0317239 
-0.516545 0.0493536 5.96597 0.0356359 
-0.466455 0.0374601 5.94517 0.0189137 
-0.502227 0.0425541 5.94821 0.0295474 
-0.487016 0.0351361 5.93049 0.0232717 
-0.510888 0.0578013 5.9978 0.0387751 
-0.531264 0.0554578 5.9837 0.0435628 
-0.545483 0.0610142 6.00122 0.0523141 
-0.525987 0.0629452 6.01855 0.0451081 
-0.492064 0.0594026 6.01476 0.034135 
-0.506823 0.063923 6.03546 0.0392042 
-0.473768 0.0600751 6.03138 0.0297671 
-0.458632 0.0548004 6.01074 0.024503 
-0.488746 0.0645222 6.05161 0.0353559 
-0.606872 0.0702068 6.053 0.0866075 
-0.587682 0.0719731 6.07191 0.0780685 
-0.571997 0.0704312 6.0575 0.066775 
-0.553543 0.0713151 6.07602 0.0599392 
-0.569045 0.0727722 6.09029 0.069899 
-0.537182 0.0691938 6.06185 0.0513852 
-0.535285 0.0710663 6.09444 0.0532506 
-0.519782 0.0695717 6.07965 0.0463991 
-0.502836 0.0689022 6.09736 0.041515 
-0.550871 0.0726291 6.1082 0.0642018 
-0.518494 0.0707764 6.1115 0.0507627 
-0.533479 0.071684 6.12571 0.0594607 
-0.503913 0.0672053 6.0648 0.040253 
-0.487661 0.0670713 6.08242 0.0371376 
-0.522468 0.067027 6.04872 0.0456628 
-0.541352 0.0659128 6.03238 0.0497875 
-0.556985 0.0685114 6.04491 0.0587428 
-0.577048 0.0667334 6.0281 0.0672773 
-0.561303 0.0640613 6.01493 0.0587127 
-0.591842 0.0687098 6.04083 0.0761004 
-0.514744 0.066061 6.14711 0.0458055 
-0.499333 0.0678542 6.12607 0.0444189 
-0.48221 0.0634481 6.1466 0.0355991 
-0.497509 0.0614821 6.16766 0.0398174 
-0.466689 0.0647611 6.12518 0.0322351 
-0.465994 0.0602953 6.16671 0.0339166 
-0.45055 0.0614741 6.14542 0.0287315 
-0.481078 0.0578227 6.18813 0.038408 
-0.434662 0.062388 6.12352 0.0274159 
-0.451683 0.0632253 6.11023 0.0284372 
-0.469304 0.064914 6.09681 0.0304473 
-0.484299 0.0666221 6.11168 0.036163 
-0.260086 -0.0217538 5.84797 0.000441164 
-0.271545 -0.0142115 5.86867 0.000443557 
-0.289232 -0.015736 5.85987 0.000549396 
-0.277875 -0.0232598 5.83911 0.000524337 
-0.300584 -0.00775296 5.88028 0.000655997 
-0.307438 -0.0169527 5.85048 0.000785981 
-0.318707 -0.0090082 5.87093 0.000890742 
-0.33703 -0.00987513 5.86125 0.00130879 
-0.296149 -0.0244314 5.82986 0.000727809 
-0.326032 -0.0178481 5.84076 0.00118389 
-0.314829 -0.0252265 5.82042 0.00113301 
-0.329611 -0.000618915 5.89136 0.00111002 
-0.347913 -0.00151586 5.88152 0.00163762 
-0.358562 0.00731487 5.90184 0.00237034 
-0.340651 0.00831308 5.9126 0.00178741 
-0.312035 0.000736236 5.90168 0.00096263 
-0.323188 0.00958479 5.92282 0.00165751 
