ply
format ascii 1.0
comment VCGLIB generated
element vertex 1008
property float x
property float y
property float z
property uchar red
property uchar green
property uchar blue
property float quality
end_header
0.079397 -0.142116 0.917765 0 29 255 0.028581
0.076931 -0.141935 0.915769 0 51 255 0.033109
0.070220 -0.136655 0.919230 0 0 179 0.009005
0.071916 -0.137787 0.916051 0 0 179 0.008604
0.073090 -0.138844 0.917094 0 0 204 0.013234
0.073601 -0.138875 0.912961 0 0 179 0.008717
0.074781 -0.139952 0.914002 0 0 204 0.014290
0.076442 -0.140993 0.910994 0 0 229 0.016710
0.075236 -0.139938 0.909927 0 0 179 0.009704
0.075830 -0.140972 0.914915 0 0 255 0.021796
0.077519 -0.142012 0.911946 0 7 255 0.023890
0.074214 -0.139827 0.917952 0 0 255 0.020348
0.072579 -0.138640 0.921074 0 0 229 0.018631
0.071460 -0.137644 0.920206 0 0 204 0.011894
0.076760 -0.140871 0.906730 0 0 179 0.010879
0.078312 -0.141669 0.903588 0 0 204 0.011792
0.079583 -0.142693 0.904613 0 0 229 0.018022
0.079924 -0.142503 0.900430 0 0 204 0.014177
0.081154 -0.143457 0.901445 0 0 255 0.020063
0.082782 -0.144271 0.898325 0 7 255 0.023622
0.081491 -0.143365 0.897257 0 0 229 0.017567
0.082244 -0.144520 0.902426 0 29 255 0.030901
0.083844 -0.145268 0.899284 0 51 255 0.034293
0.080684 -0.143655 0.905598 0 7 255 0.027213
0.079117 -0.142872 0.908769 0 7 255 0.025586
0.078057 -0.141845 0.907802 0 0 229 0.016682
0.155890 -0.053070 0.841138 0 163 255 0.053638
0.154270 -0.057365 0.839947 0 141 255 0.049457
0.159368 -0.053896 0.842079 18 252 229 0.066927
0.157489 -0.058155 0.840604 0 208 255 0.060527
0.152664 -0.061599 0.838278 0 163 255 0.053285
0.151526 -0.065667 0.836395 36 255 211 0.072996
0.148205 -0.065215 0.835725 0 185 255 0.054969
0.149425 -0.060983 0.837711 0 96 255 0.039500
0.150860 -0.056706 0.839291 0 74 255 0.036480
0.144938 -0.064786 0.835071 0 118 255 0.044034
0.162566 -0.054825 0.843106 36 255 211 0.071597
0.160693 -0.058963 0.841416 18 252 229 0.067747
0.165760 -0.055791 0.843996 90 255 157 0.083656
0.163748 -0.059785 0.841992 90 255 157 0.083281
0.159070 -0.062948 0.839535 54 255 193 0.076258
0.157785 -0.067010 0.837636 127 255 120 0.094768
0.154613 -0.066292 0.836976 90 255 157 0.082401
0.155897 -0.062275 0.838922 1 230 247 0.063439
0.146945 -0.084226 0.833118 156 255 92 0.156428
0.147947 -0.079644 0.833732 142 255 106 0.128770
0.143956 -0.083904 0.831996 151 255 97 0.146753
0.149052 -0.074919 0.834513 133 255 115 0.106346
0.144929 -0.079190 0.832798 138 255 110 0.118008
0.145981 -0.074548 0.833632 126 255 122 0.092369
0.141118 -0.083503 0.830931 145 255 103 0.133876
0.150303 -0.070272 0.835465 90 255 157 0.083093
0.153354 -0.070846 0.836105 127 255 120 0.096870
0.152177 -0.075552 0.835359 138 255 110 0.120696
0.142013 -0.078890 0.831798 131 255 117 0.104524
0.138169 -0.083212 0.829805 134 255 113 0.112929
0.142924 -0.074246 0.832794 72 255 175 0.080779
0.139058 -0.078541 0.830825 127 255 120 0.094974
0.139833 -0.073835 0.831990 18 252 229 0.067272
0.135208 -0.083011 0.828637 131 255 117 0.102428
0.143919 -0.069507 0.833978 0 185 255 0.058204
0.147054 -0.069907 0.834702 36 255 211 0.070650
0.145783 -0.088644 0.833928 154 255 94 0.152559
0.150008 -0.084614 0.834291 156 255 92 0.158731
0.144672 -0.092990 0.834848 152 255 95 0.149237
0.148832 -0.088995 0.835187 154 255 94 0.156247
0.147629 -0.093351 0.836128 154 255 94 0.153977
0.153063 -0.085024 0.835370 161 255 87 0.168153
0.143609 -0.097316 0.835832 152 255 95 0.149473
0.142559 -0.101556 0.836967 149 255 99 0.141068
0.139641 -0.101453 0.835665 143 255 104 0.132628
0.140694 -0.097288 0.834466 149 255 99 0.142810
0.141640 -0.093023 0.833440 147 255 101 0.140004
0.136755 -0.101434 0.834257 134 255 113 0.110724
0.151912 -0.089167 0.836315 159 255 88 0.165485
0.156165 -0.085370 0.836416 161 255 87 0.169558
0.150839 -0.093272 0.837328 158 255 90 0.161395
0.155016 -0.089533 0.837393 159 255 88 0.165251
0.149739 -0.097404 0.838376 152 255 95 0.151443
0.145522 -0.101501 0.838246 147 255 101 0.138259
0.146548 -0.097454 0.837131 151 255 97 0.144618
0.139910 -0.111705 0.844003 18 252 229 0.069133
0.135794 -0.115086 0.845567 0 74 255 0.036761
0.140825 -0.108325 0.841625 108 255 139 0.087926
0.136723 -0.111826 0.843094 0 208 255 0.061442
0.137649 -0.108566 0.840577 72 255 175 0.078854
0.132733 -0.115090 0.844793 0 7 255 0.026638
0.141709 -0.104946 0.839276 134 255 113 0.111526
0.144647 -0.104982 0.840443 136 255 112 0.113480
0.133758 -0.111689 0.842164 0 74 255 0.036711
0.129773 -0.115024 0.843979 0 7 255 0.024148
0.134813 -0.108352 0.839400 0 185 255 0.055091
0.130738 -0.111735 0.841222 0 51 255 0.033243
0.131698 -0.108471 0.838369 0 141 255 0.048710
0.126782 -0.115096 0.843058 0 0 255 0.023080
0.135866 -0.104939 0.836774 72 255 175 0.080382
0.138687 -0.105064 0.838068 129 255 119 0.100456
0.132734 -0.087626 0.828403 129 255 119 0.100823
0.128990 -0.091970 0.827826 127 255 120 0.095963
0.126799 -0.096314 0.828045 127 255 120 0.093838
0.123203 -0.100505 0.827952 90 255 157 0.085525
0.126112 -0.100592 0.829265 108 255 139 0.088358
0.123833 -0.096236 0.826841 108 255 139 0.089708
0.120303 -0.100794 0.826600 108 255 139 0.089140
0.126037 -0.091871 0.826603 126 255 122 0.092287
0.128249 -0.087358 0.826617 126 255 122 0.092028
0.132130 -0.082802 0.827512 126 255 122 0.090360
0.128975 -0.082669 0.826359 90 255 157 0.082988
0.123757 -0.104424 0.831342 0 208 255 0.059459
0.120038 -0.108349 0.832766 0 96 255 0.040264
0.118007 -0.112551 0.834914 0 29 255 0.028768
0.115191 -0.117365 0.836371 0 29 255 0.029750
0.117351 -0.116632 0.837999 0 0 255 0.021363
0.115678 -0.113296 0.833288 0 74 255 0.037218
0.112681 -0.118512 0.834430 0 185 255 0.054989
0.117580 -0.108959 0.831157 0 141 255 0.048403
0.119537 -0.104653 0.829172 0 208 255 0.060848
0.109977 -0.114705 0.828939 129 255 119 0.097952
0.111850 -0.110025 0.827308 108 255 139 0.088490
0.115300 -0.105412 0.826538 108 255 139 0.087079
0.117320 -0.101354 0.824861 133 255 115 0.105662
0.114866 -0.109558 0.829240 18 252 229 0.068580
0.113021 -0.114198 0.831175 1 230 247 0.062608
0.109758 -0.119237 0.832068 129 255 119 0.098560
0.117657 -0.097018 0.823695 131 255 117 0.101838
0.119776 -0.092344 0.823595 127 255 120 0.096436
0.123449 -0.087264 0.824667 108 255 139 0.087769
0.125617 -0.082605 0.825031 72 255 175 0.080215
0.122917 -0.091802 0.825312 126 255 122 0.089944
0.120811 -0.096514 0.825439 126 255 122 0.091177
0.135639 -0.087829 0.829611 136 255 112 0.114075
0.133259 -0.092287 0.829626 134 255 113 0.110144
0.136136 -0.092590 0.830850 138 255 110 0.120391
0.138555 -0.088150 0.830805 145 255 103 0.133954
0.132312 -0.096696 0.830508 133 255 115 0.106476
0.131329 -0.101006 0.831722 129 255 119 0.099784
0.128711 -0.100720 0.830527 126 255 122 0.091699
0.129587 -0.096434 0.829342 127 255 120 0.097514
0.141301 -0.088328 0.832044 149 255 99 0.141089
0.138812 -0.092723 0.832145 145 255 103 0.133761
0.137760 -0.097134 0.833062 143 255 104 0.130320
0.134103 -0.101200 0.832987 133 255 115 0.107008
0.135136 -0.096961 0.831786 136 255 112 0.115928
0.128024 -0.111600 0.840193 0 29 255 0.031161
0.124258 -0.115109 0.842131 0 0 255 0.022707
0.129281 -0.108160 0.837268 0 118 255 0.044876
0.125371 -0.111626 0.839227 0 29 255 0.029635
0.126529 -0.108204 0.836227 0 96 255 0.039853
0.121735 -0.115466 0.840941 0 0 255 0.021647
0.130393 -0.104658 0.834381 18 252 229 0.067638
0.132845 -0.104885 0.835561 36 255 211 0.072704
0.122858 -0.111721 0.837933 0 29 255 0.028183
0.119534 -0.115875 0.839550 0 0 255 0.020275
0.124072 -0.108068 0.834860 0 96 255 0.039758
0.120446 -0.112061 0.836516 0 29 255 0.027718
0.126442 -0.104439 0.832601 0 208 255 0.061443
0.142908 -0.050668 0.838290 0 0 204 0.014264
0.139884 -0.055133 0.837103 0 0 204 0.014920
0.143665 -0.055578 0.837868 0 7 255 0.026096
0.146877 -0.051236 0.839148 0 0 255 0.019740
0.138979 -0.059620 0.835685 0 0 204 0.014419
0.138241 -0.063977 0.833699 0 0 229 0.017686
0.134428 -0.063818 0.832555 0 0 204 0.013404
0.135061 -0.059334 0.834677 0 0 229 0.016844
0.150689 -0.051909 0.839981 0 96 255 0.041565
0.147386 -0.056125 0.838611 0 29 255 0.029267
0.146029 -0.060515 0.837056 0 51 255 0.033133
0.141674 -0.064322 0.834466 0 51 255 0.034851
0.142571 -0.060078 0.836411 0 7 255 0.026618
0.135968 -0.078306 0.829805 36 255 211 0.073125
0.136717 -0.073561 0.831096 0 118 255 0.046062
0.132770 -0.078098 0.828755 0 185 255 0.057794
0.133357 -0.073398 0.829955 0 74 255 0.035803
0.137408 -0.068794 0.832447 0 29 255 0.027479
0.140735 -0.069092 0.833297 0 141 255 0.047995
0.129433 -0.078037 0.827589 0 163 255 0.052677
0.129852 -0.073310 0.828838 0 29 255 0.030882
0.125861 -0.077986 0.826227 0 141 255 0.049691
0.130241 -0.068474 0.830144 0 0 229 0.018700
0.133860 -0.068640 0.831295 0 0 255 0.023161
0.165417 -0.064521 0.840945 129 255 119 0.099930
0.164174 -0.068496 0.839105 136 255 112 0.114567
0.160983 -0.067724 0.838390 133 255 115 0.106197
0.162232 -0.063732 0.840208 108 255 139 0.086559
0.160407 -0.081460 0.837660 158 255 90 0.162032
0.161697 -0.077168 0.838100 149 255 99 0.142353
0.157216 -0.081052 0.836726 151 255 97 0.148172
0.158476 -0.076734 0.837202 145 255 103 0.133794
0.162869 -0.072770 0.838504 142 255 106 0.127420
0.154212 -0.080551 0.835822 152 255 95 0.149495
0.155432 -0.076002 0.836394 142 255 106 0.126118
0.151100 -0.080092 0.834812 145 255 103 0.136148
0.156606 -0.071436 0.836983 133 255 115 0.107318
0.159768 -0.072169 0.837770 138 255 110 0.120613
0.104562 -0.143103 0.866896 1 230 247 0.064625
0.102668 -0.144295 0.871074 0 163 255 0.054412
0.101647 -0.144309 0.870809 0 208 255 0.059113
0.099679 -0.145226 0.875120 0 141 255 0.047550
0.100712 -0.145262 0.875337 0 118 255 0.044888
0.098639 -0.145194 0.874981 0 141 255 0.049230
0.097665 -0.146045 0.879547 0 96 255 0.040906
0.096624 -0.145998 0.879449 0 118 255 0.043773
0.094579 -0.146811 0.883983 0 118 255 0.043448
0.098782 -0.146151 0.879734 0 96 255 0.039295
0.095697 -0.146956 0.884063 0 96 255 0.042716
0.096812 -0.147119 0.884174 0 96 255 0.042239
0.095510 -0.145888 0.879379 0 118 255 0.043955
0.093437 -0.146604 0.883956 0 96 255 0.042893
0.092254 -0.146364 0.883899 0 118 255 0.043117
0.094348 -0.145643 0.879465 0 96 255 0.042874
0.097606 -0.145133 0.875063 0 141 255 0.050521
0.096438 -0.144915 0.875142 0 141 255 0.048949
0.099641 -0.144334 0.870856 0 208 255 0.060361
0.100666 -0.144318 0.870817 0 208 255 0.059450
0.102557 -0.143283 0.866697 36 255 211 0.071135
0.098481 -0.144198 0.870873 0 208 255 0.060175
0.101551 -0.143426 0.866654 54 255 193 0.074984
0.100310 -0.143408 0.866615 54 255 193 0.076200
0.103534 -0.143150 0.866772 1 230 247 0.065517
0.095243 -0.146915 0.889221 0 29 255 0.028028
0.093945 -0.146922 0.888185 0 51 255 0.033373
0.092151 -0.146820 0.893115 0 29 255 0.029196
0.093589 -0.147067 0.894243 0 29 255 0.028490
0.090823 -0.146714 0.892166 0 51 255 0.033295
0.090446 -0.147010 0.898121 0 74 255 0.036985
0.089081 -0.146750 0.897113 0 74 255 0.037905
0.091879 -0.147614 0.899261 0 118 255 0.043218
0.087822 -0.146574 0.896238 0 96 255 0.039989
0.086682 -0.146108 0.896211 0 74 255 0.036628
0.089678 -0.146435 0.892176 0 51 255 0.032824
0.088455 -0.146040 0.892159 0 51 255 0.031319
0.091536 -0.146424 0.888073 0 51 255 0.033425
0.092721 -0.146664 0.888119 0 51 255 0.033046
0.090338 -0.146110 0.888058 0 51 255 0.033091
0.083205 -0.143380 0.893178 0 0 204 0.014176
0.084975 -0.143483 0.889446 0 0 204 0.013467
0.086355 -0.144312 0.890292 0 0 229 0.017526
0.086794 -0.143674 0.885649 0 0 229 0.016294
0.088193 -0.144516 0.886485 0 0 255 0.020671
0.090022 -0.144851 0.882600 0 29 255 0.030624
0.088586 -0.144040 0.881805 0 7 255 0.025562
0.089343 -0.145328 0.887171 0 7 255 0.026322
0.091217 -0.145622 0.883284 0 74 255 0.036803
0.087495 -0.145186 0.891288 0 0 255 0.023160
0.085685 -0.145165 0.895317 0 7 255 0.026331
0.084555 -0.144239 0.894302 0 0 229 0.018590
0.090499 -0.143495 0.877369 0 29 255 0.029220
0.092362 -0.143094 0.873174 0 74 255 0.038484
0.093960 -0.143674 0.873731 0 96 255 0.042107
0.094107 -0.142775 0.868926 0 185 255 0.058116
0.095809 -0.143191 0.869588 0 185 255 0.056077
0.097522 -0.142811 0.865360 72 255 175 0.079581
0.095792 -0.142563 0.864487 108 255 139 0.085993
0.097259 -0.143713 0.870118 0 185 255 0.057839
0.099045 -0.143096 0.866008 54 255 193 0.076908
0.095342 -0.144342 0.874479 0 118 255 0.045169
0.093314 -0.144990 0.878855 0 74 255 0.037174
0.092023 -0.144228 0.878138 0 51 255 0.032673
0.097322 -0.140886 0.859640 127 255 120 0.095840
0.098753 -0.138752 0.855007 129 255 119 0.098796
0.100415 -0.138482 0.856202 72 255 175 0.078797
0.099980 -0.136563 0.850371 134 255 113 0.109391
0.101691 -0.136135 0.851735 72 255 175 0.081188
0.102930 -0.133979 0.847169 127 255 120 0.096123
0.101236 -0.134459 0.845678 145 255 103 0.136480
0.103322 -0.135790 0.852940 1 230 247 0.064448
0.104560 -0.133495 0.848528 18 252 229 0.068927
0.106023 -0.133019 0.849726 0 163 255 0.051431
0.104769 -0.135659 0.854153 0 163 255 0.051358
0.102153 -0.138534 0.857333 18 252 229 0.068349
0.103520 -0.138432 0.858384 0 185 255 0.057490
0.100711 -0.140951 0.861753 36 255 211 0.072497
0.099173 -0.140925 0.860756 90 255 157 0.082423
0.102002 -0.141066 0.862515 1 230 247 0.065040
0.106002 -0.126808 0.839198 90 255 157 0.082040
0.107836 -0.123021 0.835511 90 255 157 0.085032
0.110797 -0.122309 0.838122 0 96 255 0.040620
0.107566 -0.126421 0.840564 0 185 255 0.056669
0.109025 -0.125898 0.841990 0 74 255 0.036514
0.105890 -0.130050 0.844543 0 208 255 0.061777
0.104340 -0.130614 0.843049 126 255 122 0.091326
0.107281 -0.129567 0.845857 0 118 255 0.044262
0.115423 -0.120294 0.841607 0 0 229 0.017101
0.112487 -0.124316 0.844507 0 0 229 0.017252
0.110892 -0.127995 0.848125 0 0 255 0.021584
0.108604 -0.132135 0.851065 0 51 255 0.032882
0.110564 -0.131541 0.851977 0 7 255 0.026253
0.113268 -0.121079 0.840043 0 0 255 0.021911
0.109257 -0.134428 0.855880 0 29 255 0.030894
0.108210 -0.134661 0.855539 0 51 255 0.033269
0.106810 -0.137614 0.859299 0 74 255 0.038848
0.107804 -0.137413 0.859589 0 74 255 0.036493
0.105816 -0.137854 0.859083 0 118 255 0.044042
0.105247 -0.140446 0.863074 0 141 255 0.049567
0.104254 -0.140668 0.862892 0 163 255 0.054438
0.106230 -0.140281 0.863279 0 118 255 0.046721
0.109652 -0.136495 0.859859 0 29 255 0.029096
0.111206 -0.133458 0.856284 0 7 255 0.025583
0.112649 -0.130524 0.852499 0 0 255 0.022627
0.114938 -0.129645 0.853117 0 0 255 0.021173
0.113667 -0.132540 0.856568 0 0 255 0.022359
0.112297 -0.135545 0.859866 0 7 255 0.025550
0.109540 -0.138918 0.863229 0 51 255 0.034129
0.106846 -0.142223 0.866605 0 141 255 0.049679
0.109407 -0.141405 0.866445 0 96 255 0.042482
0.112825 -0.127252 0.849183 0 0 255 0.020717
0.114355 -0.123500 0.845769 0 0 229 0.018708
0.117348 -0.119446 0.842965 0 0 255 0.020266
0.119719 -0.118713 0.844206 0 7 255 0.025349
0.116534 -0.122602 0.846808 0 7 255 0.024707
0.115037 -0.126302 0.849888 0 0 255 0.023055
0.124804 -0.117937 0.846107 0 7 255 0.024167
0.121711 -0.121226 0.848744 0 29 255 0.028904
0.120155 -0.124584 0.851365 0 7 255 0.025700
0.117493 -0.128573 0.853615 0 0 255 0.020627
0.120146 -0.127815 0.853992 0 0 229 0.018948
0.117508 -0.125457 0.850817 0 7 255 0.025923
0.119057 -0.121830 0.847881 0 29 255 0.029456
0.122153 -0.118223 0.845372 0 29 255 0.027578
0.119000 -0.130629 0.856951 0 0 255 0.019805
0.116367 -0.134043 0.859993 0 0 255 0.021720
0.115238 -0.137049 0.862892 0 7 255 0.026823
0.112457 -0.140450 0.866055 0 74 255 0.037679
0.115607 -0.139694 0.865595 0 96 255 0.039274
0.112176 -0.138052 0.863271 0 29 255 0.028058
0.116218 -0.131581 0.856895 0 0 255 0.021632
0.118238 -0.136296 0.862917 0 7 255 0.025129
0.119305 -0.133213 0.860045 0 0 255 0.020086
0.121708 -0.129916 0.857400 0 0 229 0.018523
0.122895 -0.127095 0.854539 0 0 229 0.018061
0.125772 -0.126724 0.854903 0 0 229 0.016382
0.124599 -0.129380 0.857622 0 0 229 0.017431
0.122132 -0.132524 0.860283 0 0 255 0.019958
0.121064 -0.135456 0.862930 0 7 255 0.024609
0.118518 -0.138898 0.865564 0 74 255 0.036939
0.121444 -0.138211 0.865547 0 96 255 0.039229
0.122936 -0.124102 0.852059 0 0 255 0.022761
0.124550 -0.120857 0.849474 0 7 255 0.024889
0.127796 -0.117850 0.847019 0 0 255 0.021214
0.130820 -0.117787 0.847646 0 0 255 0.019548
0.127449 -0.120685 0.850078 0 0 255 0.020025
0.125833 -0.123663 0.852536 0 0 229 0.018778
0.137109 -0.117790 0.848940 0 96 255 0.042543
0.133515 -0.120594 0.851119 0 0 255 0.019533
0.131811 -0.123397 0.853418 0 0 229 0.017595
0.128773 -0.126403 0.855414 0 0 229 0.016189
0.131743 -0.126334 0.855681 0 0 255 0.020194
0.128799 -0.123535 0.853076 0 0 229 0.015906
0.130492 -0.120594 0.850653 0 0 229 0.017291
0.133874 -0.117855 0.848331 0 0 255 0.023262
0.130353 -0.128794 0.858197 0 0 255 0.020069
0.127715 -0.131638 0.860702 0 0 255 0.022070
0.126517 -0.134462 0.863161 0 29 255 0.028049
0.124063 -0.137574 0.865685 0 74 255 0.037763
0.126683 -0.137108 0.865761 0 96 255 0.040522
0.123835 -0.134974 0.863045 0 7 255 0.026341
0.124911 -0.131971 0.860499 0 0 255 0.020037
0.127472 -0.129044 0.858044 0 0 229 0.017545
0.129187 -0.134155 0.863376 0 51 255 0.032480
0.130438 -0.131368 0.860881 0 7 255 0.025686
0.133182 -0.128698 0.858514 0 7 255 0.024604
0.134520 -0.126203 0.855992 0 7 255 0.024262
0.137350 -0.126070 0.856317 0 51 255 0.031667
0.135937 -0.128415 0.858820 0 29 255 0.028928
0.133241 -0.131113 0.861165 0 29 255 0.029560
0.131789 -0.133716 0.863607 0 51 255 0.034117
0.129108 -0.136653 0.865953 0 96 255 0.040476
0.131646 -0.136270 0.866125 0 118 255 0.043281
0.134772 -0.123453 0.853788 0 0 255 0.021473
0.136591 -0.120556 0.851594 0 7 255 0.024083
0.140045 -0.117781 0.849537 0 163 255 0.052404
0.143033 -0.117629 0.850062 0 208 255 0.059721
0.139580 -0.120472 0.852078 0 118 255 0.045925
0.137715 -0.123231 0.854203 0 29 255 0.028272
0.149061 -0.117363 0.851147 54 255 193 0.074714
0.145427 -0.120319 0.852896 1 230 247 0.063725
0.143509 -0.123088 0.854878 0 208 255 0.058764
0.140185 -0.125981 0.856603 0 74 255 0.036846
0.143065 -0.125870 0.856899 0 208 255 0.060577
0.140600 -0.123249 0.854557 0 141 255 0.048908
0.142503 -0.120440 0.852475 0 163 255 0.053731
0.145951 -0.117595 0.850588 18 252 229 0.069013
0.141480 -0.128214 0.859261 0 96 255 0.042906
0.138509 -0.130784 0.861512 0 96 255 0.039069
0.136893 -0.133322 0.863866 0 96 255 0.042575
0.134086 -0.136030 0.866262 0 118 255 0.045157
0.136745 -0.135807 0.866395 0 141 255 0.050566
0.134305 -0.133542 0.863744 0 74 255 0.037639
0.135858 -0.130931 0.861331 0 51 255 0.034152
0.138603 -0.128355 0.859029 0 51 255 0.033324
0.139731 -0.133298 0.864005 0 141 255 0.049609
0.141357 -0.130699 0.861683 0 118 255 0.044233
0.144459 -0.128290 0.859447 18 252 229 0.066452
0.146105 -0.125890 0.857129 36 255 211 0.070584
0.144221 -0.130722 0.861776 0 163 255 0.054573
0.142529 -0.133267 0.864041 0 185 255 0.056729
0.139473 -0.135819 0.866412 0 185 255 0.056460
0.146530 -0.123084 0.855211 1 230 247 0.063524
0.148525 -0.120184 0.853321 18 252 229 0.068860
0.152237 -0.117302 0.851616 108 255 139 0.086962
0.154956 -0.111291 0.847894 134 255 113 0.111682
0.090040 -0.117097 0.823459 174 255 74 0.197747
0.088022 -0.119943 0.826219 168 255 79 0.184936
0.086235 -0.118271 0.825745 151 255 97 0.145393
0.085946 -0.122780 0.829100 163 255 85 0.174287
0.084066 -0.121168 0.828573 147 255 101 0.140542
0.081807 -0.123900 0.831669 147 255 101 0.138814
0.083820 -0.125557 0.832270 161 255 87 0.170707
0.082171 -0.119488 0.828118 134 255 113 0.112848
0.079892 -0.122281 0.831016 136 255 112 0.113531
0.077923 -0.120764 0.830327 129 255 119 0.099028
0.082292 -0.115714 0.824922 134 255 113 0.110240
0.086395 -0.114601 0.822645 149 255 99 0.144336
0.090085 -0.113382 0.820488 172 255 76 0.193790
0.086353 -0.111094 0.819760 152 255 95 0.151137
0.081553 -0.127040 0.836126 140 255 108 0.124214
0.079509 -0.128551 0.840217 127 255 120 0.096838
0.077431 -0.126718 0.839384 54 255 193 0.076468
0.077497 -0.129647 0.844719 1 230 247 0.063581
0.075355 -0.127852 0.843849 0 185 255 0.055934
0.073272 -0.126198 0.842938 0 208 255 0.059609
0.071312 -0.124361 0.842482 1 230 247 0.064622
0.075417 -0.125094 0.838729 18 252 229 0.069643
0.073485 -0.123466 0.838132 18 252 229 0.069291
0.077556 -0.123797 0.834744 108 255 139 0.087416
0.079551 -0.125414 0.835414 131 255 117 0.103777
0.075721 -0.122193 0.834053 72 255 175 0.079281
0.064007 -0.118808 0.840616 147 255 101 0.140539
0.067860 -0.119139 0.836663 131 255 117 0.104253
0.069874 -0.118290 0.832502 126 255 122 0.091688
0.073980 -0.118258 0.829213 126 255 122 0.093195
0.070047 -0.115901 0.828180 127 255 120 0.097550
0.073659 -0.120830 0.833446 72 255 175 0.080588
0.071429 -0.122035 0.837554 54 255 193 0.077061
0.069368 -0.122983 0.841971 54 255 193 0.075928
0.067477 -0.121544 0.841438 129 255 119 0.098818
0.072056 -0.113713 0.825385 126 255 122 0.090279
0.076070 -0.112431 0.823365 126 255 122 0.091469
0.078112 -0.110350 0.820946 129 255 119 0.099465
0.082168 -0.109115 0.819171 136 255 112 0.113788
0.077961 -0.107366 0.818350 127 255 120 0.097333
0.082348 -0.112352 0.821622 138 255 110 0.119059
0.078170 -0.116984 0.826899 127 255 120 0.095131
0.103201 -0.087579 0.816438 72 255 175 0.080609
0.101400 -0.091794 0.816700 90 255 157 0.082856
0.097855 -0.095566 0.816624 90 255 157 0.085818
0.096363 -0.099494 0.816572 138 255 110 0.117968
0.092598 -0.098629 0.815896 127 255 120 0.095466
0.093848 -0.095026 0.816034 36 255 211 0.070366
0.097372 -0.091388 0.816039 1 230 247 0.065102
0.098883 -0.087446 0.815794 0 208 255 0.059610
0.096806 -0.103337 0.817709 149 255 99 0.143774
0.095179 -0.107069 0.818622 158 255 90 0.161889
0.091786 -0.109838 0.819215 161 255 87 0.169236
0.088032 -0.107993 0.818618 143 255 104 0.131757
0.091567 -0.105575 0.817728 147 255 101 0.139783
0.093069 -0.102401 0.816971 140 255 108 0.123028
0.079666 -0.104568 0.817562 108 255 139 0.088206
0.083629 -0.102596 0.816799 90 255 157 0.085569
0.085118 -0.099983 0.816041 54 255 193 0.077062
0.088558 -0.097789 0.815530 72 255 175 0.080325
0.084379 -0.096792 0.814997 18 252 229 0.066872
0.089286 -0.101163 0.816382 129 255 119 0.099138
0.087782 -0.104123 0.817175 134 255 113 0.109840
0.084062 -0.106092 0.818131 131 255 117 0.105098
0.085493 -0.093652 0.814973 0 118 255 0.046746
0.088909 -0.090576 0.814807 0 96 255 0.039827
0.090001 -0.087036 0.814335 0 51 255 0.034738
0.094555 -0.087121 0.815016 0 141 255 0.048157
0.093223 -0.091006 0.815358 0 163 255 0.052581
0.089877 -0.094390 0.815255 0 208 255 0.062313
0.073875 -0.108741 0.820124 126 255 122 0.093125
0.072003 -0.110929 0.822178 127 255 120 0.095460
0.068082 -0.112206 0.824581 127 255 120 0.097251
0.066271 -0.114201 0.827616 131 255 117 0.104410
0.062616 -0.112856 0.827208 138 255 110 0.118025
0.064213 -0.110917 0.824198 131 255 117 0.101858
0.067883 -0.109484 0.821626 126 255 122 0.090893
0.069637 -0.107569 0.819269 108 255 139 0.086940
0.073672 -0.106127 0.817635 127 255 120 0.096297
0.069302 -0.105010 0.817112 126 255 122 0.090806
0.066221 -0.116116 0.831793 134 255 113 0.110719
0.064337 -0.116998 0.836054 145 255 103 0.133614
0.060697 -0.117352 0.839743 165 255 83 0.176821
0.058824 -0.119188 0.843358 161 255 87 0.168594
0.055586 -0.119230 0.841779 161 255 87 0.169549
0.057499 -0.116930 0.838602 168 255 79 0.186169
0.060898 -0.115537 0.835392 158 255 90 0.160668
0.062669 -0.114468 0.831389 145 255 103 0.135826
0.049578 -0.122226 0.838108 140 255 108 0.121566
0.051331 -0.119498 0.835406 147 255 101 0.137626
0.054458 -0.116243 0.833149 154 255 94 0.153910
0.056037 -0.114199 0.829879 151 255 97 0.145927
0.059270 -0.112469 0.826713 140 255 108 0.124031
0.056030 -0.112744 0.826024 142 255 106 0.125715
0.059292 -0.113849 0.830739 151 255 97 0.147572
0.057572 -0.115383 0.834430 163 255 85 0.172889
0.054354 -0.117854 0.837106 161 255 87 0.168397
0.052526 -0.120396 0.840072 151 255 97 0.148245
0.057264 -0.110261 0.823391 136 255 112 0.113608
0.060321 -0.108132 0.820947 129 255 119 0.098020
0.061826 -0.106156 0.818334 108 255 139 0.087371
0.065347 -0.104412 0.816349 108 255 139 0.088675
0.061347 -0.103950 0.815606 90 255 157 0.084525
0.065695 -0.106642 0.818756 126 255 122 0.089974
0.064026 -0.108597 0.821198 127 255 120 0.096229
0.060688 -0.110404 0.823813 133 255 115 0.107364
-0.058714 -0.145908 0.786209 0 0 153 0.005756
-0.059912 -0.145211 0.789441 0 0 153 0.004609
-0.063476 -0.144724 0.788263 0 0 153 0.004834
-0.064686 -0.144479 0.791663 0 0 153 0.004729
-0.061181 -0.144813 0.792838 0 0 153 0.004589
-0.068315 -0.144224 0.790438 0 0 153 0.004895
-0.065844 -0.144460 0.795088 0 0 153 0.006601
-0.069400 -0.144284 0.793908 0 0 153 0.006633
-0.070502 -0.144554 0.797290 0 0 204 0.015342
-0.062373 -0.144678 0.796262 0 0 153 0.006743
-0.067001 -0.144642 0.798508 0 0 204 0.014044
-0.063526 -0.144764 0.799642 0 0 204 0.013500
-0.072924 -0.144216 0.792661 0 0 153 0.006725
-0.073981 -0.144524 0.796073 0 0 229 0.016802
-0.077381 -0.144486 0.794816 0 0 229 0.019082
-0.076531 -0.144275 0.791505 0 0 179 0.008726
-0.072025 -0.144159 0.789355 0 0 153 0.004407
-0.075681 -0.144235 0.788241 0 0 153 0.004863
-0.071115 -0.144306 0.786080 0 0 153 0.004439
-0.067272 -0.144452 0.787215 0 0 153 0.004882
-0.066307 -0.144879 0.784030 0 0 153 0.004855
-0.074761 -0.144252 0.784954 0 0 153 0.004204
-0.070177 -0.144586 0.782900 0 0 153 0.004852
-0.073849 -0.144453 0.781846 0 0 153 0.004688
-0.062488 -0.145328 0.785139 0 0 153 0.004683
-0.064930 -0.144758 0.803367 0 29 255 0.027856
-0.068139 -0.144607 0.802066 0 29 255 0.027894
-0.069517 -0.144663 0.805771 0 163 255 0.050885
-0.066302 -0.144756 0.807040 0 141 255 0.048427
-0.072689 -0.144588 0.804452 0 163 255 0.052054
-0.070837 -0.144484 0.809420 54 255 193 0.076560
-0.073968 -0.144413 0.808161 72 255 175 0.080423
-0.075149 -0.143877 0.811768 131 255 117 0.101803
-0.067619 -0.144509 0.810691 36 255 211 0.073240
-0.072037 -0.143859 0.812998 127 255 120 0.095812
-0.068829 -0.143920 0.814256 126 255 122 0.092377
-0.077090 -0.144436 0.806829 90 255 157 0.084916
-0.078283 -0.143994 0.810489 134 255 113 0.111695
-0.081285 -0.144164 0.809199 138 255 110 0.120480
-0.080368 -0.144649 0.805671 127 255 120 0.096756
-0.076045 -0.144661 0.803311 0 185 255 0.057515
-0.079350 -0.144750 0.802109 1 230 247 0.066257
-0.075017 -0.144625 0.799718 0 51 255 0.033762
-0.071600 -0.144610 0.800899 0 29 255 0.029854
-0.078360 -0.144656 0.798441 0 74 255 0.038520
-0.094783 -0.143104 0.802216 140 255 108 0.122673
-0.093995 -0.143309 0.798567 127 255 120 0.094397
-0.090488 -0.143736 0.800472 126 255 122 0.092154
-0.089705 -0.143626 0.796803 0 208 255 0.060899
-0.093212 -0.143197 0.794920 1 230 247 0.064893
-0.086158 -0.144015 0.798653 0 208 255 0.061914
-0.088853 -0.143326 0.793145 0 74 255 0.035396
-0.085353 -0.143742 0.794996 0 51 255 0.033982
-0.084487 -0.143516 0.791328 0 0 229 0.016961
-0.092409 -0.142933 0.791258 0 96 255 0.040260
-0.087998 -0.143111 0.789484 0 0 229 0.019057
-0.091497 -0.142819 0.787666 0 7 255 0.025342
-0.081798 -0.144235 0.796778 0 74 255 0.035477
-0.080935 -0.143953 0.793089 0 0 229 0.016853
-0.082752 -0.144393 0.800417 1 230 247 0.063362
-0.083735 -0.144317 0.804012 126 255 122 0.093329
-0.087061 -0.144008 0.802318 126 255 122 0.091230
-0.087980 -0.143687 0.805890 138 255 110 0.120211
-0.084627 -0.143920 0.807582 138 255 110 0.119593
-0.091320 -0.143405 0.804166 138 255 110 0.120803
-0.090599 -0.142654 0.784511 0 0 229 0.016405
-0.087171 -0.142904 0.786218 0 0 179 0.010912
-0.086310 -0.142813 0.783059 0 0 179 0.008098
-0.089687 -0.142622 0.781473 0 0 204 0.011950
-0.082848 -0.143158 0.784696 0 0 153 0.006199
-0.085436 -0.142779 0.780016 0 0 153 0.007055
-0.081995 -0.143119 0.781608 0 0 153 0.006090
-0.081106 -0.143248 0.778684 0 0 153 0.006935
-0.088825 -0.142615 0.778523 0 0 179 0.010290
-0.084561 -0.142968 0.777216 0 0 153 0.007420
-0.087938 -0.142703 0.775754 0 0 179 0.009695
-0.078453 -0.143613 0.783247 0 0 153 0.005206
-0.077560 -0.143761 0.780218 0 0 153 0.006125
-0.079299 -0.143590 0.786435 0 0 153 0.005165
-0.080113 -0.143708 0.789734 0 0 179 0.008054
-0.083654 -0.143259 0.787996 0 0 179 0.008570
-0.050928 -0.143044 0.820284 0 185 255 0.056756
-0.053101 -0.141874 0.823837 1 230 247 0.062632
-0.056805 -0.140170 0.826458 0 163 255 0.053818
-0.058770 -0.137982 0.829657 0 74 255 0.036172
-0.062260 -0.135567 0.832118 0 0 255 0.022539
-0.059058 -0.135623 0.833626 0 0 255 0.022369
-0.062043 -0.138033 0.828204 0 74 255 0.037297
-0.065428 -0.135515 0.830578 0 0 255 0.021855
-0.060409 -0.140307 0.825086 0 185 255 0.058460
-0.058718 -0.142134 0.821780 18 252 229 0.070264
-0.054904 -0.143247 0.818967 0 208 255 0.061746
-0.058831 -0.143518 0.817616 36 255 211 0.070589
-0.060735 -0.132567 0.836677 0 0 229 0.016506
-0.063887 -0.129518 0.838922 0 51 255 0.032354
-0.065561 -0.126766 0.841925 18 252 229 0.068061
-0.068466 -0.126700 0.840287 18 252 229 0.067943
-0.066913 -0.129436 0.837328 0 96 255 0.039097
-0.065373 -0.132422 0.834355 0 0 255 0.023246
-0.077713 -0.126332 0.835317 72 255 175 0.081567
-0.074397 -0.129210 0.833436 0 118 255 0.043641
-0.073102 -0.132357 0.830551 0 7 255 0.024776
-0.069622 -0.135392 0.828609 0 29 255 0.028696
-0.073795 -0.135471 0.826828 0 29 255 0.029598
-0.068940 -0.132441 0.832549 0 0 255 0.023084
-0.070417 -0.129317 0.835499 0 96 255 0.040153
-0.071959 -0.126552 0.838432 36 255 211 0.072232
-0.072688 -0.138143 0.823877 0 96 255 0.042544
-0.070276 -0.138101 0.824754 0 96 255 0.039662
-0.069033 -0.140482 0.821788 1 230 247 0.064952
-0.071481 -0.140499 0.820888 18 252 229 0.068727
-0.066664 -0.140450 0.822589 1 230 247 0.062672
-0.067688 -0.142341 0.818545 90 255 157 0.083481
-0.065314 -0.142349 0.819377 72 255 175 0.079859
-0.063832 -0.143619 0.815902 54 255 193 0.077646
-0.070230 -0.142567 0.817777 126 255 122 0.093199
-0.066336 -0.143719 0.815069 90 255 157 0.084541
-0.062863 -0.142295 0.820217 54 255 193 0.075219
-0.061361 -0.143569 0.816753 36 255 211 0.072982
-0.066062 -0.138117 0.826620 0 96 255 0.039503
-0.099476 -0.127129 0.824146 0 118 255 0.044940
-0.096448 -0.126951 0.825558 0 163 255 0.054195
-0.095603 -0.129867 0.822761 0 29 255 0.028640
-0.098678 -0.130097 0.821307 0 7 255 0.026032
-0.092619 -0.129755 0.824181 0 51 255 0.031874
-0.094834 -0.132965 0.820019 0 7 255 0.025895
-0.091815 -0.132950 0.821554 0 7 255 0.024591
-0.091020 -0.135957 0.818878 0 118 255 0.043804
-0.097913 -0.133046 0.818442 0 29 255 0.028673
-0.094103 -0.135963 0.817326 0 141 255 0.048148
-0.097220 -0.136023 0.815698 0 185 255 0.055651
-0.088815 -0.132891 0.823004 0 7 255 0.024246
-0.087937 -0.135818 0.820327 0 74 255 0.038747
-0.084907 -0.135804 0.821737 0 74 255 0.036207
-0.085953 -0.132755 0.824543 0 7 255 0.024069
-0.089752 -0.129542 0.825689 0 74 255 0.036238
-0.086962 -0.129477 0.827239 0 74 255 0.037779
-0.090756 -0.126562 0.828559 36 255 211 0.070930
-0.093580 -0.126789 0.827104 0 208 255 0.061538
-0.087967 -0.126509 0.830029 54 255 193 0.075449
-0.096845 -0.138619 0.812773 108 255 139 0.089012
-0.093534 -0.138617 0.814374 72 255 175 0.079459
-0.092965 -0.140797 0.811249 136 255 112 0.114802
-0.096307 -0.140624 0.809525 140 255 108 0.121128
-0.089636 -0.140948 0.812891 133 255 115 0.108956
-0.092263 -0.142464 0.807850 145 255 103 0.133802
-0.088945 -0.142724 0.809553 145 255 103 0.133134
-0.095668 -0.142205 0.805951 145 255 103 0.136322
-0.085631 -0.142803 0.811138 142 255 106 0.126459
-0.082454 -0.142885 0.812729 140 255 108 0.122192
-0.086513 -0.140939 0.814494 131 255 117 0.102646
-0.083375 -0.140972 0.816020 129 255 119 0.098432
-0.087318 -0.138657 0.817540 54 255 193 0.075586
-0.090387 -0.138631 0.815984 72 255 175 0.079849
-0.084197 -0.138635 0.819011 18 252 229 0.069725
-0.073181 -0.142484 0.816432 127 255 120 0.094287
-0.074463 -0.140538 0.819624 36 255 211 0.071280
-0.077348 -0.140578 0.818327 54 255 193 0.076247
-0.075569 -0.138181 0.822625 0 163 255 0.053039
-0.078436 -0.138267 0.821377 0 185 255 0.054795
-0.079448 -0.135464 0.824176 0 29 255 0.030115
-0.076633 -0.135398 0.825472 0 29 255 0.029376
-0.081281 -0.138431 0.820157 0 208 255 0.062491
-0.082208 -0.135602 0.822947 0 51 255 0.031699
-0.080368 -0.140721 0.817166 90 255 157 0.084384
-0.079433 -0.142697 0.813993 134 255 113 0.110769
-0.076342 -0.142592 0.815216 131 255 117 0.102368
-0.077807 -0.132325 0.828209 0 7 255 0.024968
-0.079036 -0.129090 0.831035 0 141 255 0.046906
-0.081673 -0.129204 0.829693 0 118 255 0.044925
-0.080338 -0.126265 0.833905 90 255 157 0.083133
-0.082897 -0.126238 0.832511 90 255 157 0.084315
-0.085407 -0.126414 0.831263 72 255 175 0.078960
-0.084335 -0.129311 0.828471 0 96 255 0.042374
-0.083268 -0.132547 0.825741 0 7 255 0.023753
-0.080552 -0.132340 0.826927 0 7 255 0.024761
0.032954 -0.115195 0.733581 255 196 0 0.455255
0.032997 -0.118005 0.734595 255 196 0 0.455720
0.033039 -0.120818 0.735656 255 198 0 0.451585
0.033173 -0.123491 0.736701 255 196 0 0.456552
0.020802 -0.098475 0.731944 213 255 35 0.281305
0.021607 -0.101350 0.733665 202 255 46 0.260932
0.024070 -0.101691 0.732347 220 255 28 0.300173
0.024762 -0.104881 0.733940 223 255 24 0.306211
0.022410 -0.104460 0.735321 197 255 51 0.247132
0.027170 -0.105364 0.732470 243 251 5 0.350444
0.025494 -0.108070 0.735492 222 255 26 0.300938
0.027768 -0.108334 0.734043 248 245 0 0.361639
0.028434 -0.111296 0.735740 250 243 0 0.366375
0.023133 -0.107621 0.736951 200 255 47 0.257721
0.026146 -0.110852 0.737236 227 255 21 0.314868
0.023860 -0.110479 0.738698 206 255 42 0.266909
0.030071 -0.108697 0.732499 255 216 0 0.417430
0.030720 -0.111889 0.734029 255 210 0 0.428754
0.029651 -0.105897 0.730934 255 208 0 0.433488
0.029174 -0.102964 0.729465 255 208 0 0.432837
0.026659 -0.102291 0.730914 245 249 3 0.353439
0.026101 -0.099413 0.729418 254 239 0 0.371357
0.028725 -0.099927 0.728038 255 218 0 0.412026
0.023509 -0.098912 0.730699 231 255 17 0.321757
0.024021 -0.113714 0.739808 209 255 39 0.274771
0.026205 -0.114049 0.738336 234 255 14 0.329953
0.026337 -0.117090 0.739466 231 255 17 0.323810
0.024111 -0.116868 0.741017 216 255 31 0.291190
0.028471 -0.117283 0.738007 247 247 2 0.358577
0.026415 -0.120080 0.740550 241 253 7 0.345619
0.028582 -0.120260 0.738976 254 239 0 0.374629
0.028724 -0.123246 0.740005 255 222 0 0.403843
0.024220 -0.119852 0.742028 223 255 24 0.304691
0.026502 -0.123008 0.741567 252 241 0 0.369694
0.024215 -0.122921 0.743105 241 253 7 0.344931
0.030783 -0.120450 0.737331 255 220 0 0.409280
0.030985 -0.123320 0.738395 255 212 0 0.423447
0.030748 -0.117658 0.736301 255 218 0 0.412260
0.030747 -0.114859 0.735152 255 220 0 0.410084
0.028449 -0.114348 0.736856 245 249 3 0.352817
0.025860 -0.145033 0.720171 255 173 0 0.498157
0.023330 -0.145189 0.717658 255 167 0 0.509297
0.021092 -0.145031 0.715045 255 171 0 0.503405
0.017285 -0.145326 0.716228 255 198 0 0.450655
0.014787 -0.145595 0.718707 255 220 0 0.409244
0.019591 -0.145451 0.718969 255 188 0 0.469613
0.017133 -0.145752 0.721484 255 208 0 0.432370
0.012453 -0.145884 0.721073 255 237 0 0.377092
0.010124 -0.146169 0.723439 232 255 15 0.324913
0.007175 -0.145930 0.720564 206 255 42 0.267757
0.009516 -0.145637 0.718265 227 255 21 0.313499
0.011946 -0.145382 0.715930 255 233 0 0.383909
0.004185 -0.145708 0.717658 188 255 60 0.226620
0.022272 -0.145339 0.721577 255 184 0 0.478194
0.020149 -0.145348 0.724108 255 190 0 0.468125
0.024890 -0.144802 0.724013 255 177 0 0.489419
0.022733 -0.144770 0.726599 255 190 0 0.467920
0.018132 -0.145333 0.726503 255 206 0 0.437449
0.016198 -0.145233 0.728963 255 204 0 0.438023
0.013138 -0.145704 0.726249 255 228 0 0.393574
0.015111 -0.145765 0.723833 255 220 0 0.408778
0.002651 -0.146299 0.732713 188 255 60 0.228383
0.004659 -0.146270 0.730371 197 255 51 0.246339
-0.001019 -0.146541 0.729759 163 255 85 0.174435
0.006550 -0.146233 0.728029 213 255 35 0.281275
0.001038 -0.146591 0.727369 168 255 79 0.186383
0.002953 -0.146573 0.725072 177 255 71 0.205735
-0.004559 -0.146838 0.726724 147 255 101 0.139399
0.008351 -0.146181 0.725716 223 255 24 0.306088
0.011384 -0.145751 0.728528 248 245 0 0.363159
0.009680 -0.145791 0.730853 236 255 12 0.335915
-0.002277 -0.146556 0.724373 154 255 94 0.152776
-0.008005 -0.146455 0.723716 134 255 113 0.112814
-0.000090 -0.146276 0.722077 159 255 88 0.167683
-0.005671 -0.146242 0.721366 138 255 110 0.120758
-0.003489 -0.145973 0.719101 147 255 101 0.140365
-0.011274 -0.146269 0.720671 136 255 112 0.113809
0.002065 -0.146013 0.719823 170 255 78 0.190422
0.005093 -0.146231 0.722807 191 255 56 0.237022
0.027677 -0.143855 0.726149 255 175 0 0.493658
0.025856 -0.143498 0.728612 255 179 0 0.487162
0.028502 -0.141980 0.730502 255 181 0 0.481829
0.024042 -0.143090 0.730999 255 194 0 0.460468
0.022384 -0.142631 0.733279 255 190 0 0.467532
0.019294 -0.143960 0.731127 255 202 0 0.444083
0.020941 -0.144416 0.728878 255 196 0 0.455906
0.031212 -0.139763 0.731821 255 175 0 0.492922
0.029431 -0.139086 0.734097 255 184 0 0.479781
0.027761 -0.138267 0.736238 255 181 0 0.480567
0.024960 -0.140490 0.734845 255 190 0 0.465070
0.026751 -0.141252 0.732681 255 186 0 0.472722
0.016215 -0.139538 0.741718 255 206 0 0.434657
0.017803 -0.140389 0.739524 255 204 0 0.439613
0.012956 -0.141753 0.739913 255 228 0 0.390896
0.019388 -0.141112 0.737429 255 181 0 0.483083
0.014606 -0.142581 0.737842 255 214 0 0.419761
0.016260 -0.143294 0.735687 255 198 0 0.450247
0.009775 -0.143952 0.738030 247 247 2 0.358822
0.020905 -0.141909 0.735371 255 186 0 0.475769
0.023573 -0.139723 0.736973 255 181 0 0.483757
0.022108 -0.138922 0.739035 255 177 0 0.490044
0.011570 -0.144402 0.735742 255 231 0 0.388737
0.006127 -0.145158 0.735442 218 255 30 0.296075
0.013166 -0.144625 0.733428 255 224 0 0.401083
0.008026 -0.145505 0.733128 227 255 21 0.314789
0.014733 -0.144968 0.731117 255 214 0 0.421057
0.017763 -0.143668 0.733489 255 190 0 0.467823
0.033276 -0.133246 0.735708 255 181 0 0.481819
0.031422 -0.131959 0.737737 255 179 0 0.487267
0.029544 -0.135135 0.737032 255 181 0 0.483938
0.031450 -0.136366 0.735070 255 175 0 0.492937
0.032399 -0.127801 0.737254 255 190 0 0.467774
0.025360 -0.127702 0.741889 255 226 0 0.395389
0.022825 -0.127822 0.743462 254 239 0 0.373756
0.027800 -0.127566 0.740398 255 212 0 0.425146
0.026455 -0.132227 0.740802 255 196 0 0.455384
0.023923 -0.132374 0.742233 255 214 0 0.421276
0.021250 -0.132536 0.743759 255 220 0 0.406864
0.029520 -0.129844 0.739048 255 190 0 0.467303
0.021660 -0.135792 0.741331 255 202 0 0.444434
0.018653 -0.136107 0.742804 255 216 0 0.414762
0.024463 -0.135457 0.739994 255 190 0 0.465905
0.026008 -0.136951 0.738141 255 181 0 0.481057
0.027993 -0.133750 0.738910 255 184 0 0.479676
0.023931 -0.095504 0.725995 254 239 0 0.374575
0.026560 -0.096037 0.724807 255 222 0 0.405465
0.024233 -0.092357 0.721130 255 220 0 0.407782
0.022562 -0.093639 0.724051 252 241 0 0.368828
0.021415 -0.091876 0.722117 255 235 0 0.382024
0.019749 -0.093226 0.725133 236 255 12 0.334596
0.021058 -0.095047 0.727136 236 255 12 0.332821
0.018088 -0.094587 0.728155 209 255 39 0.275626
0.018473 -0.091458 0.723069 245 249 3 0.354750
0.016841 -0.092902 0.726180 215 255 33 0.287468
0.015602 -0.091224 0.724121 234 255 14 0.329150
0.019486 -0.096440 0.730076 213 255 35 0.283908
0.024169 -0.090922 0.716549 255 204 0 0.438409
0.021409 -0.089232 0.712983 255 194 0 0.459444
0.018503 -0.088810 0.713850 255 208 0 0.430111
0.017072 -0.089242 0.716568 255 218 0 0.413109
0.014054 -0.088976 0.717370 255 233 0 0.385579
0.012527 -0.089617 0.720216 238 255 10 0.339517
0.009472 -0.088312 0.716208 255 237 0 0.378552
0.021435 -0.090463 0.717526 255 214 0 0.420925
0.011125 -0.088397 0.713745 255 224 0 0.402190
0.014053 -0.088560 0.712955 255 206 0 0.435837
0.015535 -0.088903 0.710554 255 206 0 0.437072
0.018525 -0.089244 0.709756 255 196 0 0.455337
0.015672 -0.089549 0.706458 255 190 0 0.467867
0.012618 -0.089207 0.707241 255 204 0 0.438380
0.011033 -0.088778 0.709647 255 206 0 0.435360
0.007999 -0.088670 0.710286 255 220 0 0.409047
0.006286 -0.088527 0.712726 255 235 0 0.379294
0.003230 -0.088829 0.709280 255 235 0 0.381511
0.018757 -0.089944 0.705479 255 179 0 0.487123
0.014815 -0.092231 0.701492 255 175 0 0.495058
0.012972 -0.091012 0.703821 255 190 0 0.465683
0.010267 -0.092627 0.701153 255 194 0 0.457960
0.007133 -0.092310 0.701830 255 212 0 0.423223
0.005369 -0.091326 0.703801 255 220 0 0.408396
0.002122 -0.091157 0.704486 255 235 0 0.381712
0.000233 -0.090373 0.706495 248 245 0 0.359647
-0.002565 -0.091730 0.703966 238 255 10 0.339651
0.005082 -0.089621 0.707230 255 222 0 0.403115
0.008204 -0.089743 0.706593 255 216 0 0.415675
0.009925 -0.090681 0.704551 255 216 0 0.416811
0.098345 -0.010523 0.825736 248 245 0 0.359934
0.098308 -0.007328 0.827387 255 216 0 0.414731
0.095160 -0.007855 0.826290 255 231 0 0.390497
0.095203 -0.011031 0.824693 238 255 10 0.338323
0.094781 -0.005192 0.828775 255 224 0 0.398565
0.091986 -0.008393 0.825189 250 243 0 0.363769
0.091586 -0.005776 0.827562 252 241 0 0.369102
0.088314 -0.006211 0.826305 248 245 0 0.359987
0.091969 -0.011374 0.823498 231 255 17 0.321971
0.088693 -0.008805 0.823929 243 251 5 0.350514
0.088660 -0.011862 0.822253 218 255 30 0.294445
0.091113 -0.003744 0.830172 255 235 0 0.380295
0.087864 -0.004220 0.828812 252 241 0 0.368379
0.087148 -0.002862 0.831861 232 255 15 0.324466
0.090519 -0.002452 0.833438 234 255 14 0.329279
0.094420 -0.003175 0.831556 255 222 0 0.406217
0.093768 -0.001880 0.834855 238 255 10 0.336939
0.097635 -0.002521 0.832862 255 208 0 0.429726
0.098053 -0.004578 0.830043 255 216 0 0.415219
0.096931 -0.001184 0.836215 247 247 2 0.359145
0.085437 -0.012307 0.820881 207 255 40 0.273169
0.085321 -0.009208 0.822388 231 255 17 0.324139
0.082000 -0.009665 0.821025 218 255 30 0.295022
0.082149 -0.012820 0.819452 195 255 53 0.245592
0.081529 -0.007026 0.823207 229 255 19 0.318896
0.078631 -0.010167 0.819597 202 255 46 0.259560
0.078135 -0.007482 0.821754 215 255 33 0.285795
0.074623 -0.008010 0.820311 206 255 42 0.266012
0.078756 -0.013420 0.818021 184 255 63 0.220131
0.075126 -0.010750 0.818168 191 255 56 0.236380
0.075267 -0.014043 0.816589 172 255 76 0.194020
0.077616 -0.005266 0.824062 220 255 28 0.297488
0.074131 -0.005724 0.822596 209 255 39 0.273776
0.073289 -0.004197 0.825360 207 255 40 0.270353
0.076950 -0.003837 0.827034 215 255 33 0.285363
0.081171 -0.004900 0.825684 232 255 15 0.327443
0.080456 -0.003501 0.828669 223 255 24 0.307340
0.084582 -0.004565 0.827264 241 253 7 0.347200
0.084977 -0.006617 0.824778 239 255 8 0.342223
0.083870 -0.003151 0.830276 229 255 19 0.317867
0.068099 -0.004800 0.838676 0 185 255 0.055060
0.071945 -0.004545 0.840398 1 230 247 0.062980
0.073188 -0.003838 0.836806 133 255 115 0.108582
0.076873 -0.003593 0.838555 140 255 108 0.122945
0.075662 -0.004303 0.842121 18 252 229 0.067150
0.078043 -0.003196 0.835077 165 255 83 0.178394
0.080468 -0.003372 0.840261 143 255 104 0.132018
0.081599 -0.002944 0.836798 165 255 83 0.178764
0.085051 -0.002613 0.838487 175 255 72 0.200375
0.079263 -0.004061 0.843803 36 255 211 0.073017
0.083884 -0.003219 0.841993 145 255 103 0.133828
0.082721 -0.003970 0.845538 90 255 157 0.085171
0.082700 -0.002766 0.833352 206 255 42 0.267369
0.086179 -0.002461 0.835028 209 255 39 0.273921
0.079303 -0.003111 0.831794 197 255 51 0.247403
0.075746 -0.003435 0.830183 183 255 65 0.217125
0.074507 -0.003477 0.833435 161 255 87 0.169948
0.070822 -0.003850 0.831800 152 255 95 0.151110
0.072093 -0.003769 0.828560 175 255 72 0.201637
0.069509 -0.004208 0.835218 108 255 139 0.088033
0.086223 -0.003734 0.847229 127 255 120 0.095474
0.087265 -0.002891 0.843614 145 255 103 0.135919
0.090618 -0.002434 0.845313 149 255 99 0.141517
0.089604 -0.003284 0.848908 129 255 119 0.098991
0.091590 -0.001805 0.841643 188 255 60 0.228475
0.093994 -0.001833 0.847029 152 255 95 0.149922
0.094946 -0.001202 0.843327 191 255 56 0.237176
0.093119 -0.002536 0.850664 129 255 119 0.099806
0.095874 -0.000845 0.839564 227 255 21 0.314374
0.092680 -0.001576 0.838132 218 255 30 0.295158
0.089480 -0.002089 0.836648 213 255 35 0.284752
0.088359 -0.002215 0.840068 183 255 65 0.216482
0.058134 -0.105989 0.817670 108 255 139 0.086624
0.056841 -0.108142 0.820393 129 255 119 0.099257
0.054153 -0.111042 0.822464 133 255 115 0.107404
0.053083 -0.113802 0.825043 136 255 112 0.114909
0.050091 -0.115299 0.823598 131 255 117 0.103725
0.050958 -0.111859 0.821364 129 255 119 0.098230
0.053447 -0.108471 0.819655 126 255 122 0.093148
0.054558 -0.105894 0.817012 72 255 175 0.082031
0.057572 -0.103645 0.814857 54 255 193 0.075293
0.053854 -0.103502 0.814020 18 252 229 0.070194
0.053065 -0.115507 0.828664 142 255 106 0.127485
0.051517 -0.117956 0.831644 142 255 106 0.126954
0.048396 -0.121837 0.833506 136 255 112 0.114327
0.046852 -0.124780 0.836166 133 255 115 0.107135
0.043975 -0.127400 0.834028 138 255 110 0.119389
0.045570 -0.124266 0.831532 131 255 117 0.104583
0.048584 -0.120045 0.829958 133 255 115 0.107929
0.050188 -0.117182 0.827247 133 255 115 0.108798
0.037857 -0.131270 0.829729 159 255 88 0.165913
0.039564 -0.128158 0.827257 142 255 106 0.126442
0.042600 -0.124125 0.826042 129 255 119 0.098504
0.044147 -0.120795 0.823638 126 255 122 0.091458
0.047027 -0.116711 0.821985 126 255 122 0.091863
0.043929 -0.118187 0.820142 72 255 175 0.081919
0.047222 -0.119182 0.825496 127 255 120 0.096285
0.045707 -0.122298 0.828027 129 255 119 0.100239
0.042656 -0.126545 0.829462 136 255 112 0.115547
0.041004 -0.129775 0.831936 152 255 95 0.148453
0.044792 -0.114005 0.818364 54 255 193 0.076671
0.047194 -0.109925 0.817069 72 255 175 0.080662
0.047890 -0.106595 0.814907 54 255 193 0.075016
0.050347 -0.103452 0.813165 1 230 247 0.065730
0.046946 -0.103682 0.811963 0 208 255 0.061312
0.051168 -0.106163 0.816061 54 255 193 0.077160
0.050292 -0.109099 0.818500 108 255 139 0.087704
0.047947 -0.112964 0.819894 108 255 139 0.086544
0.041250 -0.006507 0.825089 0 29 255 0.029463
0.044357 -0.006255 0.826746 0 51 255 0.032776
0.045882 -0.006149 0.823489 0 208 255 0.058746
0.048947 -0.005914 0.825093 1 230 247 0.064042
0.047422 -0.006107 0.828381 0 51 255 0.033082
0.050380 -0.005805 0.821819 131 255 117 0.101673
0.052015 -0.005648 0.826675 18 252 229 0.066888
0.053478 -0.005522 0.823432 131 255 117 0.104453
0.056647 -0.005241 0.825036 136 255 112 0.113350
0.050491 -0.005957 0.830008 0 74 255 0.035199
0.055158 -0.005468 0.828344 18 252 229 0.069610
0.053644 -0.005810 0.831694 0 74 255 0.036309
0.054856 -0.005729 0.820311 156 255 92 0.159156
0.058086 -0.005339 0.821926 158 255 90 0.163517
0.059361 -0.005961 0.818919 181 255 67 0.213943
0.056289 -0.006375 0.817340 175 255 72 0.199700
0.051884 -0.006037 0.818717 156 255 92 0.156916
0.053278 -0.006744 0.815799 168 255 79 0.186060
0.048973 -0.006342 0.817107 154 255 94 0.152701
0.047460 -0.006103 0.820260 129 255 119 0.097846
0.044526 -0.006462 0.818668 127 255 120 0.093777
0.050328 -0.007093 0.814213 168 255 79 0.185356
0.046050 -0.006696 0.815523 151 255 97 0.148251
0.047381 -0.007535 0.812701 165 255 83 0.176180
0.042924 -0.006412 0.821884 0 163 255 0.053264
0.057133 -0.005628 0.833432 0 74 255 0.037843
0.058473 -0.005171 0.829936 54 255 193 0.074338
0.062175 -0.004779 0.831671 72 255 175 0.078911
0.060693 -0.005361 0.835153 0 96 255 0.039715
0.063521 -0.004411 0.828255 147 255 101 0.137865
0.065844 -0.004473 0.833449 90 255 157 0.084339
0.067176 -0.004107 0.830009 149 255 99 0.144132
0.064409 -0.005037 0.836909 0 141 255 0.047039
0.068376 -0.004039 0.826752 174 255 74 0.196645
0.069760 -0.004521 0.823658 202 255 46 0.259989
0.064873 -0.004395 0.825074 170 255 78 0.188181
0.066215 -0.004951 0.822020 191 255 56 0.237269
0.061460 -0.004840 0.823476 165 255 83 0.177595
0.060067 -0.004745 0.826594 143 255 104 0.129497
0.062752 -0.005427 0.820436 184 255 63 0.222297
0.071950 -0.014595 0.815105 168 255 79 0.185101
0.071596 -0.011318 0.816506 186 255 62 0.223406
0.068289 -0.011880 0.815036 179 255 69 0.210476
0.068679 -0.015174 0.813632 161 255 87 0.171114
0.067529 -0.009089 0.817068 191 255 56 0.234668
0.064992 -0.012430 0.813648 174 255 74 0.197148
0.064257 -0.009598 0.815627 186 255 62 0.225058
0.061063 -0.010151 0.814267 179 255 69 0.207986
0.065475 -0.015741 0.812226 154 255 94 0.155960
0.061792 -0.012983 0.812306 168 255 79 0.183594
0.062321 -0.016257 0.810812 149 255 99 0.143917
