ply
format ascii 1.0
comment VCGLIB generated
element vertex 1022
property float x
property float y
property float z
property uchar red
property uchar green
property uchar blue
property float quality
end_header
-0.133972 -0.122592 0.803772 0 0 204 0.014863
-0.140311 -0.119097 0.810668 0 0 229 0.016708
-0.143381 -0.118168 0.808123 0 0 229 0.018107
-0.143584 -0.118645 0.804375 0 0 229 0.018192
-0.131734 -0.123159 0.805091 0 0 204 0.014801
-0.133447 -0.122091 0.808000 0 0 204 0.014610
-0.131260 -0.122553 0.809293 0 0 204 0.013908
-0.129551 -0.123664 0.806354 0 0 204 0.014082
-0.132982 -0.121412 0.812162 0 0 204 0.013841
-0.129092 -0.122930 0.810570 0 0 204 0.012813
-0.130815 -0.121757 0.813438 0 0 204 0.012762
-0.127413 -0.124116 0.807710 0 0 204 0.013709
-0.132615 -0.120570 0.816329 0 0 204 0.012782
-0.134570 -0.120379 0.814763 0 0 204 0.014183
-0.136561 -0.120023 0.813251 0 0 204 0.014643
-0.134989 -0.121073 0.810644 0 0 204 0.014223
-0.097452 -0.020498 0.785774 0 0 179 0.009286
-0.098350 -0.022162 0.783838 0 0 179 0.010415
-0.100162 -0.021182 0.786779 0 0 179 0.009352
-0.101127 -0.022853 0.784825 0 0 179 0.010808
-0.103914 -0.023567 0.785802 0 0 204 0.014516
-0.102094 -0.024559 0.782861 0 0 204 0.015445
-0.102922 -0.021917 0.787790 0 0 179 0.009516
-0.105687 -0.022671 0.788868 0 0 204 0.012415
-0.102169 -0.020000 0.790448 0 0 153 0.007745
-0.099474 -0.019256 0.789375 0 0 179 0.008251
-0.104581 -0.025338 0.783656 0 0 229 0.018395
-0.107071 -0.026127 0.784453 0 0 229 0.018059
-0.110361 -0.028562 0.783708 0 0 229 0.017562
-0.107140 -0.028044 0.781650 0 0 255 0.019677
-0.111920 -0.027878 0.786191 0 0 229 0.016226
-0.108869 -0.025227 0.787491 0 0 229 0.016193
-0.106403 -0.024387 0.786648 0 0 229 0.016741
-0.115791 -0.027479 0.791006 0 0 204 0.012838
-0.113305 -0.026200 0.790385 0 0 204 0.013893
-0.112879 -0.024584 0.792806 0 0 204 0.012476
-0.110785 -0.024984 0.789826 0 0 204 0.014343
-0.110322 -0.023375 0.792272 0 0 204 0.012780
-0.107809 -0.022205 0.791748 0 0 179 0.010574
-0.109903 -0.021760 0.794681 0 0 179 0.009046
-0.108195 -0.020284 0.795795 0 0 153 0.005168
-0.105418 -0.019115 0.795072 0 0 153 0.005802
-0.103805 -0.017613 0.796141 0 0 153 0.005717
-0.101528 -0.018394 0.792669 0 0 153 0.006992
-0.104982 -0.021098 0.791083 0 0 153 0.007542
-0.121374 -0.039363 0.778482 0 0 255 0.020101
-0.121102 -0.037379 0.780934 0 0 229 0.018828
-0.120854 -0.035482 0.783422 0 0 229 0.017324
-0.123848 -0.038047 0.782540 0 0 229 0.018941
-0.117835 -0.033117 0.784286 0 0 204 0.015448
-0.118024 -0.034860 0.781715 0 0 229 0.017309
-0.118204 -0.036782 0.779159 0 0 229 0.019084
-0.115736 -0.034036 0.781010 0 0 229 0.016890
-0.124029 -0.036577 0.785070 0 0 229 0.016891
-0.124222 -0.035266 0.787585 0 0 204 0.014513
-0.127014 -0.037718 0.786606 0 0 229 0.016753
-0.121355 -0.032888 0.788655 0 0 204 0.012885
-0.121126 -0.034158 0.786001 0 0 204 0.015109
-0.115348 -0.028854 0.788065 0 0 204 0.014838
-0.114890 -0.030373 0.785176 0 0 229 0.016410
-0.118228 -0.031546 0.786998 0 0 204 0.014481
-0.118614 -0.030071 0.789743 0 0 204 0.013411
-0.113514 -0.030968 0.783007 0 0 229 0.017658
-0.111935 -0.031720 0.780544 0 0 229 0.018828
-0.136186 -0.034553 0.805520 0 0 153 0.006521
-0.138292 -0.035301 0.807852 0 0 128 0.003374
-0.140402 -0.035982 0.810136 0 0 128 0.003636
-0.140496 -0.037714 0.807160 0 0 153 0.003980
-0.138113 -0.033590 0.810839 0 0 128 0.002894
-0.135527 -0.030931 0.811476 0 0 128 0.002218
-0.135907 -0.032735 0.808506 0 0 128 0.002882
-0.133338 -0.030089 0.809087 0 0 128 0.002893
-0.143297 -0.039822 0.808080 0 0 153 0.005034
-0.143316 -0.038314 0.811055 0 0 153 0.004932
-0.145376 -0.040665 0.810105 0 0 153 0.005889
-0.147436 -0.042991 0.809153 0 0 153 0.006534
-0.145416 -0.039140 0.813013 0 0 153 0.005426
-0.143244 -0.036770 0.813906 0 0 153 0.004628
-0.140250 -0.034425 0.813027 0 0 128 0.003208
-0.140138 -0.032601 0.816220 0 0 128 0.002544
-0.137143 -0.029598 0.817105 0 0 128 0.001661
-0.137735 -0.031584 0.813937 0 0 128 0.002178
-0.143230 -0.034938 0.817029 0 0 128 0.003848
-0.133193 -0.027668 0.814172 0 0 128 0.001718
-0.129592 -0.025283 0.812982 0 0 128 0.002267
-0.124965 -0.028991 0.799540 0 0 179 0.010143
-0.126547 -0.028550 0.802442 0 0 153 0.006426
-0.128075 -0.028084 0.805277 0 0 153 0.006309
-0.129083 -0.030723 0.802072 0 0 153 0.006657
-0.125500 -0.026078 0.805721 0 0 128 0.002862
-0.122702 -0.023959 0.806107 0 0 128 0.002673
-0.123829 -0.026431 0.802840 0 0 153 0.006099
-0.121039 -0.024312 0.803236 0 0 128 0.003135
-0.131886 -0.032097 0.803532 0 0 153 0.006585
-0.131396 -0.029963 0.806614 0 0 128 0.002929
-0.133834 -0.032254 0.806076 0 0 128 0.003173
-0.130544 -0.027700 0.809659 0 0 128 0.002559
-0.127263 -0.025954 0.808409 0 0 128 0.002612
-0.125010 -0.022006 0.813124 0 0 128 0.001888
-0.126380 -0.023651 0.811767 0 0 128 0.001976
-0.122929 -0.021856 0.810528 0 0 128 0.002223
-0.121583 -0.020243 0.811923 0 0 128 0.002026
-0.124300 -0.023452 0.809147 0 0 128 0.002478
-0.118496 -0.019109 0.810336 0 0 128 0.001890
-0.119976 -0.020748 0.808947 0 0 128 0.002130
-0.116772 -0.019543 0.807327 0 0 128 0.002057
-0.115328 -0.017893 0.808711 0 0 128 0.002140
-0.119853 -0.021781 0.806719 0 0 128 0.002527
-0.115524 -0.025986 0.793227 0 0 204 0.012060
-0.117930 -0.027629 0.793289 0 0 179 0.011316
-0.115212 -0.024581 0.795512 0 0 179 0.011132
-0.117648 -0.026141 0.795527 0 0 179 0.010675
-0.117323 -0.024724 0.797786 0 0 179 0.010014
-0.120105 -0.027795 0.795558 0 0 179 0.010813
-0.114859 -0.023181 0.797802 0 0 153 0.007185
-0.114507 -0.021753 0.800048 0 0 128 0.003772
-0.112236 -0.021741 0.797356 0 0 153 0.004712
-0.112546 -0.023168 0.795090 0 0 179 0.008160
-0.120030 -0.026551 0.797829 0 0 179 0.009873
-0.122514 -0.028391 0.797559 0 0 179 0.010261
-0.119947 -0.025297 0.800044 0 0 153 0.006381
-0.122460 -0.027086 0.799764 0 0 179 0.009978
-0.118440 -0.022544 0.803378 0 0 128 0.002991
-0.117219 -0.023526 0.800076 0 0 153 0.006141
-0.112657 -0.017399 0.806382 0 0 128 0.002529
-0.114191 -0.019041 0.805142 0 0 128 0.002516
-0.111370 -0.018558 0.802619 0 0 128 0.003015
-0.109845 -0.016948 0.803888 0 0 128 0.003157
-0.114336 -0.020443 0.802644 0 0 128 0.002623
-0.116945 -0.020929 0.804827 0 0 128 0.002378
-0.107426 -0.017036 0.801015 0 0 128 0.003896
-0.109067 -0.018582 0.800006 0 0 128 0.003655
-0.110638 -0.020166 0.798686 0 0 153 0.004059
-0.127468 -0.036675 0.789057 0 0 204 0.015076
-0.127950 -0.035767 0.791567 0 0 204 0.012874
-0.129612 -0.038066 0.789508 0 0 204 0.014852
-0.125787 -0.034439 0.791189 0 0 204 0.012557
-0.123356 -0.033130 0.790701 0 0 204 0.011994
-0.131449 -0.038468 0.791323 0 0 204 0.013935
-0.130115 -0.036354 0.793406 0 0 204 0.012301
-0.132030 -0.036896 0.795038 0 0 204 0.011850
-0.133366 -0.039006 0.792969 0 0 204 0.013187
-0.129667 -0.034615 0.796356 0 0 179 0.010535
-0.127527 -0.034004 0.794605 0 0 179 0.010918
-0.125213 -0.031162 0.796159 0 0 179 0.010745
-0.122771 -0.030508 0.794128 0 0 179 0.011334
-0.127390 -0.031783 0.797961 0 0 179 0.010220
-0.120787 -0.030238 0.792032 0 0 204 0.012502
-0.134324 -0.034210 0.803266 0 0 153 0.006622
-0.132471 -0.033885 0.801033 0 0 179 0.010174
-0.134901 -0.036061 0.800796 0 0 179 0.010278
-0.137029 -0.038022 0.800438 0 0 179 0.010507
-0.136629 -0.036266 0.802957 0 0 153 0.006666
-0.138769 -0.038213 0.802581 0 0 179 0.010449
-0.130099 -0.032924 0.799603 0 0 179 0.010019
-0.132055 -0.035583 0.797815 0 0 179 0.010574
-0.135360 -0.039734 0.794427 0 0 204 0.012861
-0.134404 -0.037890 0.796507 0 0 179 0.011621
-0.136500 -0.038767 0.797733 0 0 179 0.011619
-0.137444 -0.040596 0.795665 0 0 204 0.012885
-0.139624 -0.041646 0.796762 0 0 204 0.012803
-0.139051 -0.040222 0.798916 0 0 179 0.011279
-0.141349 -0.041443 0.799927 0 0 179 0.011553
-0.141928 -0.042874 0.797739 0 0 204 0.013226
-0.144369 -0.044351 0.798708 0 0 204 0.013129
-0.146190 -0.045105 0.800437 0 0 204 0.013193
-0.148299 -0.046865 0.799967 0 0 204 0.015161
-0.144545 -0.043297 0.802265 0 0 179 0.008291
-0.142279 -0.041367 0.802630 0 0 153 0.007686
-0.150068 -0.047828 0.801545 0 0 179 0.011608
-0.151894 -0.048765 0.803063 0 0 179 0.009820
-0.153409 -0.050459 0.801172 0 0 204 0.015491
-0.150347 -0.047123 0.804911 0 0 153 0.007582
-0.148484 -0.046118 0.803395 0 0 179 0.009611
-0.146342 -0.044240 0.803931 0 0 179 0.008768
-0.145457 -0.042000 0.807431 0 0 153 0.005698
-0.143507 -0.040955 0.805650 0 0 153 0.004684
-0.148262 -0.045139 0.805692 0 0 153 0.006054
-0.140767 -0.039075 0.804658 0 0 153 0.007181
-0.138495 -0.036838 0.805096 0 0 153 0.006807
-0.157582 -0.051217 0.810223 0 0 255 0.021060
-0.160256 -0.053425 0.811501 0 51 255 0.033173
-0.162976 -0.055607 0.812765 0 163 255 0.051353
-0.162088 -0.055687 0.810094 0 163 255 0.051542
-0.161063 -0.053410 0.814168 0 51 255 0.032966
-0.158986 -0.050650 0.815511 0 0 255 0.020935
-0.158223 -0.050939 0.812925 0 0 255 0.019539
-0.156158 -0.048131 0.814270 0 0 204 0.013276
-0.165238 -0.058935 0.809822 127 255 120 0.096340
-0.166375 -0.059677 0.812459 131 255 117 0.101716
-0.168232 -0.061908 0.810914 151 255 97 0.144819
-0.170008 -0.064164 0.809359 175 255 72 0.203113
-0.169390 -0.062690 0.813635 151 255 97 0.146422
-0.167404 -0.060131 0.815112 129 255 119 0.098611
-0.163966 -0.056106 0.815347 0 163 255 0.053181
-0.167428 -0.058286 0.819648 36 255 211 0.072134
-0.165506 -0.055970 0.819689 0 163 255 0.051727
-0.163775 -0.054582 0.818291 0 96 255 0.040047
-0.161949 -0.052302 0.818353 0 29 255 0.031018
-0.165681 -0.057483 0.816707 18 252 229 0.066563
-0.169159 -0.060920 0.818098 131 255 117 0.104952
-0.158270 -0.047717 0.819775 0 0 255 0.019868
-0.155012 -0.044765 0.818368 0 0 204 0.015003
-0.157174 -0.048001 0.817000 0 0 204 0.014395
-0.162169 -0.057373 0.801556 90 255 157 0.082288
-0.163817 -0.058657 0.803379 131 255 117 0.102904
-0.166262 -0.060410 0.804118 151 255 97 0.147720
-0.162556 -0.057244 0.805537 54 255 193 0.074499
-0.160882 -0.055968 0.803678 0 185 255 0.056665
-0.159608 -0.054628 0.805713 0 96 255 0.042102
-0.167274 -0.061363 0.808478 149 255 99 0.142222
-0.165217 -0.059150 0.806377 136 255 112 0.115328
-0.168223 -0.062521 0.806033 168 255 79 0.184117
-0.171131 -0.065097 0.806816 197 255 51 0.248040
-0.159544 -0.053586 0.809081 0 51 255 0.032759
-0.172485 -0.067756 0.810574 193 255 55 0.241349
-0.174746 -0.071568 0.812086 213 255 35 0.283882
-0.174053 -0.070018 0.808919 216 255 31 0.292812
-0.173252 -0.069255 0.813593 191 255 56 0.234862
-0.171793 -0.066538 0.814997 170 255 78 0.188973
-0.171008 -0.065300 0.812136 172 255 76 0.194784
-0.175563 -0.074044 0.810741 229 255 19 0.317362
-0.176616 -0.078250 0.810965 241 253 7 0.344325
-0.175780 -0.078168 0.814403 216 255 31 0.290767
-0.175191 -0.075655 0.815695 200 255 47 0.257171
-0.175107 -0.077660 0.821828 170 255 78 0.190040
-0.174966 -0.075428 0.819564 179 255 69 0.210521
-0.174646 -0.072564 0.820780 172 255 76 0.192934
-0.174230 -0.070398 0.818664 177 255 71 0.206016
-0.174666 -0.073252 0.817383 186 255 62 0.224578
-0.175380 -0.077875 0.817912 195 255 53 0.243079
-0.175413 -0.080194 0.820208 183 255 65 0.216658
-0.173143 -0.067725 0.820204 156 255 92 0.159048
-0.171774 -0.065183 0.819940 147 255 101 0.138968
-0.170574 -0.063322 0.818205 143 255 104 0.130470
-0.173108 -0.068432 0.816792 177 255 71 0.203505
-0.170320 -0.098133 0.812208 175 255 72 0.199818
-0.168297 -0.100092 0.813481 151 255 97 0.145116
-0.167861 -0.101366 0.811637 154 255 94 0.155864
-0.166081 -0.103171 0.812713 142 255 106 0.126658
-0.167813 -0.102432 0.809529 156 255 92 0.158546
-0.166241 -0.102017 0.814749 136 255 112 0.115676
-0.164171 -0.103922 0.815917 126 255 122 0.090579
-0.166978 -0.100455 0.817029 140 255 108 0.121426
-0.169185 -0.098410 0.815681 154 255 94 0.154816
-0.171337 -0.096399 0.814281 175 255 72 0.202860
-0.169992 -0.096788 0.817909 156 255 92 0.160069
-0.165106 -0.104500 0.810284 134 255 113 0.111891
-0.164982 -0.105284 0.808090 134 255 113 0.112870
-0.162711 -0.106350 0.810760 108 255 139 0.086680
-0.162464 -0.107284 0.808571 108 255 139 0.087036
-0.160168 -0.109088 0.808917 36 255 211 0.072398
-0.162348 -0.108155 0.806358 90 255 157 0.085658
-0.157883 -0.110066 0.811475 0 185 255 0.058024
-0.160954 -0.106986 0.813822 18 252 229 0.068735
-0.163383 -0.105176 0.813371 108 255 139 0.087142
-0.155933 -0.109980 0.817048 0 96 255 0.042204
-0.157897 -0.108285 0.818563 0 141 255 0.049817
-0.160599 -0.106306 0.818212 0 208 255 0.060887
-0.162690 -0.104534 0.819602 36 255 211 0.073060
-0.158262 -0.109025 0.814121 0 185 255 0.055267
-0.155586 -0.110995 0.814369 0 118 255 0.045243
-0.163428 -0.103067 0.822010 18 252 229 0.067449
-0.165644 -0.101013 0.820708 126 255 122 0.093165
-0.167223 -0.098990 0.823488 127 255 120 0.096440
-0.169429 -0.096869 0.822093 140 255 108 0.123304
-0.167831 -0.098923 0.819330 136 255 112 0.113899
-0.164928 -0.102453 0.818285 126 255 122 0.091296
-0.174941 -0.082211 0.822464 170 255 78 0.189062
-0.174775 -0.084464 0.820837 175 255 72 0.201671
-0.175321 -0.082340 0.818548 188 255 60 0.226761
-0.174997 -0.084647 0.816971 195 255 53 0.245911
-0.174416 -0.086702 0.819239 184 255 63 0.219735
-0.173988 -0.088974 0.817674 184 255 63 0.220553
-0.173575 -0.088963 0.821905 168 255 79 0.184392
-0.173929 -0.086722 0.823471 159 255 88 0.166535
-0.175953 -0.082346 0.814733 215 255 33 0.287064
-0.176071 -0.084418 0.813210 223 255 24 0.308460
-0.175105 -0.088724 0.813970 213 255 35 0.281947
-0.175089 -0.086691 0.815476 200 255 47 0.255536
-0.172920 -0.094330 0.812467 195 255 53 0.244941
-0.173484 -0.092423 0.814076 195 255 53 0.244543
-0.171787 -0.094585 0.816025 172 255 76 0.195189
-0.172057 -0.092931 0.817803 167 255 81 0.180964
-0.170921 -0.094842 0.819923 154 255 94 0.155235
-0.171771 -0.092815 0.821951 156 255 92 0.159976
-0.170131 -0.094994 0.824164 142 255 106 0.125673
-0.172446 -0.090866 0.824001 152 255 95 0.149461
-0.172870 -0.090935 0.819858 170 255 78 0.190475
-0.152499 -0.113351 0.811024 0 51 255 0.032827
-0.155181 -0.111735 0.811262 0 118 255 0.043144
-0.154805 -0.112492 0.808155 0 96 255 0.040797
-0.152155 -0.114069 0.807827 0 29 255 0.031050
-0.151930 -0.114768 0.804575 0 29 255 0.030051
-0.149196 -0.115782 0.806888 0 7 255 0.025075
-0.149409 -0.115064 0.810167 0 7 255 0.025207
-0.157611 -0.110772 0.808770 0 185 255 0.055005
-0.157276 -0.111495 0.806098 0 141 255 0.047162
-0.159824 -0.109828 0.806256 36 255 211 0.070614
-0.159392 -0.110618 0.803608 1 230 247 0.063324
-0.157043 -0.112203 0.803287 0 141 255 0.048870
-0.156815 -0.112841 0.800452 0 141 255 0.047580
-0.154433 -0.113862 0.802565 0 96 255 0.039653
-0.154535 -0.113213 0.805362 0 96 255 0.039079
-0.152606 -0.115718 0.792239 0 51 255 0.034362
-0.152303 -0.115697 0.795460 0 29 255 0.029842
-0.149946 -0.116818 0.794003 0 29 255 0.027567
-0.152090 -0.115552 0.798542 0 51 255 0.032243
-0.149652 -0.116751 0.797122 0 7 255 0.027006
-0.149420 -0.116552 0.800203 0 7 255 0.026073
-0.147124 -0.117877 0.795707 0 0 255 0.021774
-0.151999 -0.115231 0.801610 0 29 255 0.031049
-0.154440 -0.114227 0.799563 0 96 255 0.040250
-0.154504 -0.114515 0.796480 0 74 255 0.036121
-0.146824 -0.117867 0.799189 0 0 255 0.022727
-0.144044 -0.119115 0.797603 0 0 229 0.019206
-0.146615 -0.117568 0.802520 0 0 255 0.020609
-0.143774 -0.118979 0.801009 0 0 229 0.018786
-0.146470 -0.117164 0.805865 0 0 255 0.021199
-0.149297 -0.116216 0.803570 0 7 255 0.025165
-0.154794 -0.114690 0.793582 0 96 255 0.039150
-0.156899 -0.113231 0.797699 0 141 255 0.048904
-0.159322 -0.111302 0.801062 0 208 255 0.061257
-0.134394 -0.046494 0.774574 90 255 157 0.083794
-0.133745 -0.045142 0.776832 36 255 211 0.071183
-0.133197 -0.043796 0.779151 0 185 255 0.057790
-0.136210 -0.045447 0.777936 72 255 175 0.081064
-0.130197 -0.042185 0.780399 0 74 255 0.037237
-0.130625 -0.043626 0.778006 0 141 255 0.047058
-0.131205 -0.044975 0.775610 0 208 255 0.061557
-0.127960 -0.043446 0.776698 0 74 255 0.038256
-0.135981 -0.044437 0.780356 1 230 247 0.065273
-0.135766 -0.043495 0.782749 0 163 255 0.050859
-0.138625 -0.045094 0.781414 36 255 211 0.073127
-0.132869 -0.041844 0.784166 0 51 255 0.033694
-0.133057 -0.042853 0.781667 0 118 255 0.043970
-0.127000 -0.038880 0.784031 0 0 255 0.021022
-0.127037 -0.040132 0.781487 0 7 255 0.026799
-0.130065 -0.040948 0.782869 0 29 255 0.029600
-0.129975 -0.039753 0.785335 0 7 255 0.024184
-0.124274 -0.039703 0.780035 0 0 255 0.022863
-0.124719 -0.041404 0.777548 0 29 255 0.028296
-0.127517 -0.041804 0.779051 0 51 255 0.032083
-0.140013 -0.046162 0.778400 133 255 115 0.107707
-0.142404 -0.046587 0.779326 136 255 112 0.114963
-0.138000 -0.046914 0.775185 136 255 112 0.113723
-0.144368 -0.046530 0.787880 0 141 255 0.049952
-0.143681 -0.045665 0.790553 0 51 255 0.033650
-0.146842 -0.047529 0.789483 0 141 255 0.048315
-0.142993 -0.044815 0.793189 0 0 255 0.021929
-0.140203 -0.043766 0.791584 0 0 255 0.021192
-0.148432 -0.048067 0.791628 0 118 255 0.043164
-0.151383 -0.049647 0.791645 0 163 255 0.053137
-0.147215 -0.047164 0.793653 0 29 255 0.028757
-0.143044 -0.044175 0.795689 0 0 229 0.016508
-0.140755 -0.042901 0.794739 0 0 229 0.015958
-0.146104 -0.046054 0.795730 0 0 255 0.020043
-0.137877 -0.041740 0.792994 0 0 229 0.016266
-0.138617 -0.044515 0.783863 0 185 255 0.055942
-0.138662 -0.043909 0.786345 0 96 255 0.042222
-0.141322 -0.045537 0.784861 0 208 255 0.058668
-0.135949 -0.042301 0.787781 0 7 255 0.027083
-0.135852 -0.042865 0.785295 0 74 255 0.037452
-0.141102 -0.044684 0.788663 0 74 255 0.035688
-0.135154 -0.040768 0.790772 0 0 229 0.018226
-0.133267 -0.040203 0.789108 0 0 255 0.019747
-0.133058 -0.041017 0.786620 0 7 255 0.025920
-0.145279 -0.047016 0.784841 72 255 175 0.079173
-0.141228 -0.045814 0.782443 72 255 175 0.078697
-0.144360 -0.046930 0.781762 133 255 115 0.105813
-0.151559 -0.049802 0.793949 0 74 255 0.038343
-0.153764 -0.051161 0.794589 0 118 255 0.043771
-0.151839 -0.049914 0.796402 0 29 255 0.029410
-0.149407 -0.048434 0.795686 0 7 255 0.024824
-0.156486 -0.053050 0.796087 0 118 255 0.045315
-0.152591 -0.050199 0.798779 0 0 255 0.020377
-0.150075 -0.048364 0.798195 0 0 255 0.020849
-0.155032 -0.051850 0.799209 0 7 255 0.024643
-0.149771 -0.048812 0.789602 0 208 255 0.061866
-0.148401 -0.048219 0.787327 36 255 211 0.071514
-0.073345 -0.120972 0.874000 0 74 255 0.039060
-0.075168 -0.119832 0.877682 0 141 255 0.048332
-0.071465 -0.121778 0.870130 0 7 255 0.026251
-0.073953 -0.122051 0.868900 0 29 255 0.027954
-0.075829 -0.121190 0.872735 0 96 255 0.040674
-0.077653 -0.120050 0.876429 0 141 255 0.049566
-0.070803 -0.122513 0.865563 0 0 229 0.017789
-0.070123 -0.122987 0.860952 0 0 179 0.011351
-0.067680 -0.122814 0.862274 0 0 179 0.011166
-0.068371 -0.122327 0.866915 0 0 229 0.017406
-0.078434 -0.121281 0.871143 0 96 255 0.039217
-0.080338 -0.120241 0.874813 0 141 255 0.049132
-0.076494 -0.122128 0.867356 0 7 255 0.026115
-0.075873 -0.122671 0.862650 0 0 204 0.014054
-0.072654 -0.123065 0.859444 0 0 179 0.011526
-0.073319 -0.122608 0.864171 0 0 204 0.014660
-0.067786 -0.124315 0.846852 0 96 255 0.041458
-0.064608 -0.125694 0.843839 0 74 255 0.038480
-0.068548 -0.123483 0.851476 0 7 255 0.026417
-0.065287 -0.124265 0.848311 0 74 255 0.036619
-0.066053 -0.123427 0.852937 0 7 255 0.025977
-0.062092 -0.125677 0.845281 0 74 255 0.036427
-0.069304 -0.123026 0.856186 0 0 204 0.015088
-0.071849 -0.123129 0.854696 0 0 204 0.015447
-0.062809 -0.124140 0.849649 0 74 255 0.037227
-0.059673 -0.125590 0.846638 0 74 255 0.036178
-0.063599 -0.123293 0.854235 0 7 255 0.026177
-0.060395 -0.124040 0.851025 0 74 255 0.036859
-0.065636 -0.122940 0.858250 0 0 204 0.014654
-0.079330 -0.030302 0.895807 184 255 63 0.220620
-0.080246 -0.027618 0.893159 170 255 78 0.188182
-0.080314 -0.024728 0.891004 154 255 94 0.155445
-0.078052 -0.026980 0.894237 161 255 87 0.170861
-0.077203 -0.029772 0.896852 175 255 72 0.202339
-0.080276 -0.021626 0.888978 134 255 113 0.111080
-0.080186 -0.018201 0.887037 0 185 255 0.058098
-0.075317 -0.026384 0.896024 154 255 94 0.153913
-0.076235 -0.020576 0.891066 72 255 175 0.078987
-0.077956 -0.017706 0.888107 0 141 255 0.048525
-0.077726 -0.024075 0.892296 143 255 104 0.131462
-0.079398 -0.009871 0.880672 0 0 255 0.020766
-0.078740 -0.012533 0.883063 0 0 255 0.021625
-0.081543 -0.013248 0.882221 0 7 255 0.025215
-0.082235 -0.010510 0.880040 0 0 255 0.019692
-0.079474 -0.015462 0.885038 0 51 255 0.033586
-0.077256 -0.014888 0.886020 0 7 255 0.024170
-0.084566 -0.011005 0.879756 0 0 229 0.019509
-0.084906 -0.014040 0.881591 0 29 255 0.030998
-0.082870 -0.016369 0.883991 0 163 255 0.050814
-0.081429 -0.074034 0.914989 145 255 103 0.135380
-0.080321 -0.069281 0.914678 161 255 87 0.168489
-0.083685 -0.078943 0.914297 133 255 115 0.106891
-0.085680 -0.083531 0.913325 72 255 175 0.081761
-0.082692 -0.069449 0.913911 167 255 81 0.180305
-0.086346 -0.078814 0.913256 133 255 115 0.107214
-0.083789 -0.074268 0.914117 147 255 101 0.138351
-0.091011 -0.095365 0.905839 0 185 255 0.057043
-0.091410 -0.098983 0.903586 0 208 255 0.060078
-0.088749 -0.091523 0.908744 0 208 255 0.059334
-0.087484 -0.094979 0.907214 0 208 255 0.058930
-0.087879 -0.098616 0.904813 0 208 255 0.061130
-0.088166 -0.087728 0.910762 1 230 247 0.064340
-0.085589 -0.098356 0.905919 18 252 229 0.069553
-0.085128 -0.091055 0.910371 1 230 247 0.063497
-0.084302 -0.094588 0.908887 18 252 229 0.069913
-0.085447 -0.087369 0.912009 36 255 211 0.072506
-0.083547 -0.101136 0.903022 0 163 255 0.052595
-0.083779 -0.104114 0.898959 0 74 255 0.035309
-0.085813 -0.101310 0.901885 0 118 255 0.046864
-0.086054 -0.104310 0.897894 0 51 255 0.033828
-0.084005 -0.107247 0.895026 0 29 255 0.027932
-0.084251 -0.110453 0.891120 0 29 255 0.028106
-0.081801 -0.110350 0.892335 0 29 255 0.030958
-0.081586 -0.107134 0.896325 0 51 255 0.031852
-0.088308 -0.101597 0.900291 0 74 255 0.036006
-0.088807 -0.104644 0.895833 0 7 255 0.024900
-0.087910 -0.107554 0.892357 0 0 229 0.019345
-0.087038 -0.110808 0.889168 0 7 255 0.024160
-0.081983 -0.118059 0.878349 0 74 255 0.037749
-0.083652 -0.115702 0.881963 0 29 255 0.030183
-0.080956 -0.115562 0.883645 0 51 255 0.034501
-0.079290 -0.117906 0.879999 0 96 255 0.040410
-0.083951 -0.113070 0.886488 0 7 255 0.026387
-0.086755 -0.113450 0.884591 0 0 255 0.023206
-0.076790 -0.117803 0.881237 0 118 255 0.043967
-0.078461 -0.115412 0.884795 0 51 255 0.032801
-0.078910 -0.112906 0.889190 0 51 255 0.031937
-0.081370 -0.112992 0.887966 0 29 255 0.029399
-0.074505 -0.058347 0.912855 188 255 60 0.230051
-0.074258 -0.053472 0.910623 207 255 40 0.273212
-0.073850 -0.048529 0.908673 213 255 35 0.281598
-0.073757 -0.043818 0.906843 215 255 33 0.288502
-0.072625 -0.057715 0.913505 190 255 58 0.232332
-0.071974 -0.047998 0.909563 211 255 37 0.277812
-0.072401 -0.052874 0.911362 207 255 40 0.269569
-0.074818 -0.032615 0.900241 190 255 58 0.233636
-0.074760 -0.036073 0.902117 204 255 44 0.264313
-0.073879 -0.039715 0.904628 211 255 37 0.281090
-0.076993 -0.033070 0.898881 191 255 56 0.236011
-0.076672 -0.036511 0.901122 206 255 42 0.269254
-0.101999 0.000422 0.863631 0 185 255 0.058428
-0.104051 0.000913 0.861475 1 230 247 0.066295
-0.100015 0.000032 0.865802 0 185 255 0.058237
-0.103392 -0.000730 0.866156 18 252 229 0.068630
-0.105366 -0.000376 0.864004 18 252 229 0.068652
-0.107427 0.000034 0.861790 36 255 211 0.073308
-0.101382 -0.001278 0.868234 1 230 247 0.063853
-0.099423 -0.001897 0.870232 1 230 247 0.064984
-0.098182 -0.000845 0.867870 0 163 255 0.052377
-0.096473 -0.001605 0.869912 0 163 255 0.052602
-0.107975 -0.001096 0.864404 36 255 211 0.072345
-0.110138 -0.000808 0.862294 72 255 175 0.079364
-0.105888 -0.001252 0.866433 54 255 193 0.074346
-0.103880 -0.001767 0.868556 36 255 211 0.071754
-0.101935 -0.002274 0.870603 54 255 193 0.074568
-0.096791 -0.007742 0.875906 0 7 255 0.025612
-0.098333 -0.006074 0.874093 0 51 255 0.032547
-0.098850 -0.003978 0.872191 0 141 255 0.047257
-0.093121 -0.007277 0.875528 0 0 255 0.020100
-0.093200 -0.005428 0.873587 0 7 255 0.024213
-0.090677 -0.007032 0.875418 0 0 229 0.017847
-0.093331 -0.003427 0.871689 0 51 255 0.032116
-0.096278 -0.003616 0.871927 0 96 255 0.039676
-0.116942 -0.003877 0.845255 0 29 255 0.031087
-0.120892 -0.006454 0.843490 0 7 255 0.025455
-0.116551 -0.003361 0.847741 0 74 255 0.035785
-0.120488 -0.006006 0.845899 0 7 255 0.025833
-0.120097 -0.005544 0.848377 0 29 255 0.029380
-0.124507 -0.008445 0.844203 0 7 255 0.025263
-0.116204 -0.002875 0.850243 0 96 255 0.041524
-0.115812 -0.002576 0.852718 0 118 255 0.045838
-0.112464 -0.000912 0.852261 0 141 255 0.049749
-0.112810 -0.001333 0.849767 0 118 255 0.043732
-0.123678 -0.007583 0.846670 0 29 255 0.028366
-0.127524 -0.009934 0.845409 0 7 255 0.026645
-0.122860 -0.006718 0.849191 0 51 255 0.031440
-0.126654 -0.009090 0.847908 0 7 255 0.026764
-0.122115 -0.005885 0.851780 0 96 255 0.039703
-0.118620 -0.003732 0.853538 0 141 255 0.047488
-0.119354 -0.004611 0.850964 0 74 255 0.036321
-0.112221 -0.001392 0.860037 18 252 229 0.068414
-0.114330 -0.001978 0.857707 0 208 255 0.060982
-0.111659 -0.001115 0.857264 0 185 255 0.056438
-0.109540 -0.000503 0.859551 1 230 247 0.063699
-0.115083 -0.002202 0.855237 0 163 255 0.054108
-0.117812 -0.003549 0.856032 0 163 255 0.052552
-0.106125 0.000762 0.859193 0 208 255 0.062180
-0.108227 0.000442 0.856822 0 208 255 0.060254
-0.110382 -0.000166 0.854544 0 185 255 0.054916
-0.134640 -0.019817 0.831629 0 0 153 0.007296
-0.136394 -0.021856 0.830229 0 0 153 0.005907
-0.132874 -0.017757 0.833076 0 0 179 0.009224
-0.137090 -0.020438 0.833832 0 0 179 0.009462
-0.138521 -0.023178 0.830601 0 0 153 0.006485
-0.140671 -0.024463 0.830981 0 0 204 0.012918
-0.135285 -0.018439 0.835307 0 0 179 0.011484
-0.133456 -0.016425 0.836858 0 0 204 0.013843
-0.131130 -0.015930 0.834599 0 0 179 0.010990
-0.129355 -0.014112 0.836084 0 0 204 0.013035
-0.143128 -0.025968 0.831608 0 0 204 0.012736
-0.140711 -0.023129 0.833057 0 0 229 0.015926
-0.143147 -0.024674 0.833731 0 0 204 0.015558
-0.145623 -0.027480 0.832211 0 0 204 0.013415
-0.140711 -0.021888 0.835205 0 0 229 0.019242
-0.145634 -0.026170 0.834314 0 0 229 0.016206
-0.143129 -0.023453 0.835836 0 0 229 0.018918
-0.148152 -0.028912 0.832831 0 0 204 0.014283
-0.140640 -0.020670 0.837429 0 0 255 0.022680
-0.136975 -0.017950 0.838288 0 0 229 0.017286
-0.129789 -0.011886 0.843495 0 0 255 0.021929
-0.132048 -0.013847 0.841606 0 0 229 0.018832
-0.128984 -0.012529 0.840402 0 0 229 0.016866
-0.126741 -0.010528 0.842258 0 0 255 0.021088
-0.132765 -0.015113 0.839228 0 0 229 0.016372
-0.136223 -0.016753 0.840620 0 0 229 0.017835
-0.122905 -0.008257 0.841571 0 0 255 0.021389
-0.124988 -0.010002 0.839716 0 0 229 0.018649
-0.125184 -0.010848 0.837510 0 0 204 0.015425
-0.129182 -0.013293 0.838250 0 0 204 0.014288
-0.143037 -0.033123 0.820029 0 0 128 0.003074
-0.143158 -0.031421 0.822882 0 0 179 0.007841
-0.145561 -0.034125 0.821803 0 0 179 0.008662
-0.147844 -0.036747 0.820707 0 0 179 0.009727
-0.145693 -0.032374 0.824635 0 0 179 0.008674
-0.142987 -0.029619 0.825647 0 0 179 0.008271
-0.139078 -0.026967 0.824978 0 0 128 0.002739
-0.150671 -0.038429 0.822305 0 0 179 0.010904
-0.149604 -0.035764 0.825043 0 0 179 0.009778
-0.147812 -0.030647 0.829652 0 0 179 0.011395
-0.145283 -0.029101 0.829127 0 0 179 0.010655
-0.142806 -0.027569 0.828549 0 0 179 0.010069
-0.148338 -0.032423 0.827998 0 0 179 0.009727
-0.138950 -0.025023 0.827843 0 0 153 0.004661
-0.136795 -0.023713 0.827471 0 0 128 0.003870
-0.149380 -0.043749 0.810921 0 0 153 0.007096
-0.151312 -0.044425 0.812626 0 0 179 0.007859
-0.151156 -0.045853 0.809803 0 0 179 0.007982
-0.149503 -0.042352 0.813725 0 0 153 0.007140
-0.147413 -0.040011 0.814780 0 0 153 0.006235
-0.147467 -0.041522 0.811975 0 0 153 0.006453
-0.153689 -0.047917 0.810068 0 0 179 0.010573
-0.154053 -0.046994 0.812807 0 0 179 0.010364
-0.155750 -0.049101 0.811579 0 0 204 0.013704
-0.154345 -0.045874 0.815474 0 0 179 0.010296
-0.151515 -0.043345 0.815320 0 0 179 0.008142
-0.151598 -0.040973 0.819550 0 0 204 0.012115
-0.149083 -0.039423 0.817930 0 0 153 0.006226
-0.145528 -0.035886 0.818902 0 0 153 0.004570
-0.145514 -0.037617 0.815928 0 0 153 0.005077
-0.155850 -0.052144 0.802605 0 0 255 0.022154
-0.154481 -0.050591 0.804543 0 0 204 0.015186
-0.158780 -0.054678 0.801642 0 118 255 0.045281
-0.157228 -0.052644 0.805706 0 7 255 0.024112
-0.155576 -0.049988 0.809071 0 0 204 0.014991
-0.151377 -0.046991 0.807465 0 0 179 0.008119
-0.153131 -0.048802 0.806568 0 0 179 0.010343
-0.160334 -0.055942 0.799601 1 230 247 0.063326
-0.157126 -0.053486 0.799508 0 51 255 0.034810
0.127604 -0.003446 0.888810 0 74 255 0.035757
0.121805 -0.002806 0.888342 0 0 255 0.021260
0.128895 -0.003067 0.886105 0 163 255 0.052236
0.123092 -0.002428 0.885689 0 29 255 0.029136
0.124313 -0.002093 0.882936 0 118 255 0.046829
0.120415 -0.002766 0.890747 0 0 229 0.015693
0.136336 -0.004579 0.876498 143 255 104 0.130472
0.131225 -0.003221 0.876734 133 255 115 0.107408
0.130341 -0.003116 0.879915 90 255 157 0.084212
0.126067 -0.002236 0.876955 54 255 193 0.077418
0.131901 -0.003329 0.873255 143 255 104 0.130035
0.126805 -0.002379 0.873772 133 255 115 0.105513
0.127703 -0.002542 0.870516 145 255 103 0.134377
0.129508 -0.002945 0.882839 0 208 255 0.062096
0.125162 -0.002103 0.879991 1 230 247 0.064733
0.089466 -0.003867 0.873151 0 7 255 0.027069
0.093964 -0.003501 0.875653 0 0 229 0.019459
0.095185 -0.003592 0.873106 0 0 229 0.017419
0.098232 -0.003185 0.878010 0 0 204 0.014236
0.099560 -0.003120 0.875463 0 0 179 0.011017
0.103903 -0.002708 0.877870 0 0 179 0.008084
0.102524 -0.002859 0.880372 0 0 179 0.009808
0.100939 -0.002921 0.872943 0 0 179 0.008597
0.105292 -0.002348 0.875254 0 0 179 0.008782
0.106678 -0.001870 0.872538 0 0 229 0.016284
0.102323 -0.002408 0.870292 0 0 179 0.009079
0.096552 -0.003340 0.870581 0 0 179 0.011551
0.097859 -0.002864 0.867896 0 0 179 0.008322
0.091940 -0.003884 0.868047 0 0 229 0.018957
0.090733 -0.004029 0.870677 0 7 255 0.025372
0.085546 -0.004572 0.867834 0 74 255 0.038005
0.093298 -0.003462 0.865404 0 0 179 0.011118
0.086731 -0.004478 0.865164 0 29 255 0.029789
0.087899 -0.004084 0.862350 0 0 229 0.018710
0.084350 -0.004344 0.870387 0 96 255 0.039332
0.106821 -0.002669 0.882765 0 0 179 0.008128
0.111174 -0.002643 0.885276 0 0 179 0.008859
0.112600 -0.002481 0.882787 0 0 179 0.010691
0.115750 -0.002652 0.887923 0 0 179 0.010966
0.117123 -0.002503 0.885454 0 0 229 0.015744
0.118379 -0.002190 0.882801 0 7 255 0.025206
0.119696 -0.001900 0.880129 0 74 255 0.037670
0.113942 -0.002102 0.880176 0 0 229 0.018182
0.115361 -0.001741 0.877532 0 29 255 0.031012
0.109590 -0.002185 0.877689 0 0 204 0.012745
0.108221 -0.002551 0.880300 0 0 179 0.008604
0.110937 -0.001759 0.874965 0 0 255 0.022807
0.123373 -0.002161 0.867739 145 255 103 0.134241
0.122388 -0.001971 0.870936 129 255 119 0.100882
0.118195 -0.001757 0.868355 127 255 120 0.094302
0.118998 -0.001784 0.865099 143 255 104 0.130727
0.117081 -0.001682 0.871395 1 230 247 0.065182
0.113839 -0.001552 0.865883 72 255 175 0.081158
0.112927 -0.001550 0.868979 0 185 255 0.056709
0.108698 -0.001540 0.866669 0 118 255 0.044385
0.114956 -0.001593 0.862648 134 255 113 0.109997
0.109740 -0.001364 0.863464 18 252 229 0.068072
0.110730 -0.001402 0.860363 127 255 120 0.095604
0.111912 -0.001570 0.871964 0 74 255 0.036431
0.107641 -0.001699 0.869635 0 29 255 0.027919
0.116214 -0.001603 0.874456 0 141 255 0.048697
0.120587 -0.001867 0.877098 0 163 255 0.054277
0.121476 -0.001871 0.874090 54 255 193 0.077425
0.106455 -0.001392 0.858104 72 255 175 0.080490
0.105371 -0.001512 0.861175 0 141 255 0.050504
0.100932 -0.001725 0.858876 0 96 255 0.039774
0.102042 -0.001394 0.855812 18 252 229 0.069099
0.099796 -0.002190 0.861928 0 0 229 0.019498
0.096080 -0.002219 0.856291 0 29 255 0.028853
0.095172 -0.002683 0.859444 0 0 204 0.013904
0.089610 -0.003327 0.856186 0 0 179 0.009890
0.096915 -0.001690 0.852981 0 185 255 0.058373
0.090517 -0.002584 0.852839 0 0 255 0.022443
0.091468 -0.001943 0.849544 0 163 255 0.053994
0.094211 -0.003138 0.862450 0 0 179 0.008853
0.088705 -0.003824 0.859306 0 0 204 0.012270
0.098821 -0.002548 0.864945 0 0 179 0.010092
0.103281 -0.002096 0.867301 0 0 204 0.015381
0.104293 -0.001799 0.864271 0 29 255 0.028644
0.097065 -0.001461 0.849011 131 255 117 0.103514
0.102589 -0.001461 0.852297 131 255 117 0.102166
0.102981 -0.001670 0.848601 152 255 95 0.151002
0.107083 -0.001696 0.854735 131 255 117 0.102009
0.107678 -0.002031 0.851208 149 255 99 0.143800
0.111947 -0.002421 0.853591 147 255 101 0.140344
0.111298 -0.001839 0.857036 138 255 110 0.120354
0.108228 -0.002598 0.847617 168 255 79 0.184878
0.112611 -0.003071 0.850132 165 255 83 0.177089
0.113151 -0.003850 0.846613 177 255 71 0.205598
0.108829 -0.003429 0.844107 181 255 67 0.212500
0.103425 -0.002076 0.844782 170 255 78 0.189746
0.103871 -0.002747 0.840888 195 255 53 0.243777
0.097976 -0.001645 0.841173 186 255 62 0.223569
0.097505 -0.001438 0.845107 158 255 90 0.161698
0.092846 -0.001701 0.842251 156 255 92 0.159158
0.098594 -0.002169 0.837369 211 255 37 0.277588
0.093681 -0.001879 0.838579 183 255 65 0.217022
0.094512 -0.002429 0.835090 207 255 40 0.269717
0.092103 -0.001746 0.845879 127 255 120 0.096608
0.115342 -0.002005 0.859215 147 255 101 0.138273
0.119535 -0.002404 0.861656 152 255 95 0.149010
0.119976 -0.002911 0.858120 167 255 81 0.180962
0.123618 -0.002583 0.864175 158 255 90 0.160357
0.124139 -0.003283 0.860692 165 255 83 0.179373
0.128207 -0.003685 0.863229 170 255 78 0.190551
0.127926 -0.003046 0.866925 158 255 90 0.161809
0.124464 -0.003969 0.857009 184 255 63 0.219015
0.128658 -0.004544 0.859592 181 255 67 0.214228
0.128846 -0.005405 0.856015 193 255 55 0.241371
0.124983 -0.005035 0.853566 190 255 58 0.233213
0.120497 -0.003674 0.854743 174 255 74 0.196915
0.121041 -0.004638 0.851161 186 255 62 0.224421
0.116567 -0.003347 0.852366 168 255 79 0.186956
0.115994 -0.002673 0.855897 158 255 90 0.160836
0.117079 -0.004299 0.848866 181 255 67 0.211311
0.127667 -0.012866 0.841744 197 255 51 0.246454
0.124002 -0.012588 0.839690 190 255 58 0.234156
0.124188 -0.010189 0.842782 193 255 55 0.242034
0.120539 -0.009885 0.840645 188 255 60 0.229452
0.120353 -0.012280 0.837608 186 255 62 0.223879
0.120693 -0.007828 0.844037 186 255 62 0.225690
0.116855 -0.009549 0.838548 188 255 60 0.226766
0.117008 -0.007466 0.841817 186 255 62 0.225528
0.113212 -0.007105 0.839702 188 255 60 0.228149
0.116706 -0.012060 0.835527 184 255 63 0.220905
0.113122 -0.009269 0.836328 191 255 56 0.236582
0.112834 -0.011749 0.833079 191 255 56 0.235088
0.117023 -0.005761 0.845255 181 255 67 0.214114
0.113179 -0.005364 0.843039 183 255 65 0.217785
0.120903 -0.006154 0.847496 188 255 60 0.228142
0.124772 -0.006572 0.849812 193 255 55 0.241066
0.124508 -0.008267 0.846323 193 255 55 0.240919
0.128372 -0.008728 0.848564 204 255 44 0.262183
0.128700 -0.006991 0.852318 197 255 51 0.248036
0.128075 -0.010616 0.845155 197 255 51 0.247017
0.107888 -0.011191 0.829391 215 255 33 0.286423
0.108179 -0.008587 0.832782 209 255 39 0.276130
0.103348 -0.008011 0.829250 236 255 12 0.332542
0.103374 -0.010966 0.826487 225 255 23 0.309003
0.103236 -0.005597 0.832549 229 255 19 0.319817
0.099465 -0.008106 0.827177 234 255 14 0.328421
0.099125 -0.005561 0.830135 232 255 15 0.324531
0.095661 -0.005965 0.828602 223 255 24 0.308344
0.099660 -0.011186 0.824726 220 255 28 0.297478
0.096098 -0.008523 0.825778 222 255 26 0.303184
0.096307 -0.011499 0.823446 213 255 35 0.282321
0.098708 -0.003562 0.833441 231 255 17 0.320872
0.095137 -0.003929 0.831672 227 255 21 0.312910
0.103480 -0.003897 0.836594 218 255 30 0.294164
0.108781 -0.004826 0.840454 193 255 55 0.238337
0.108634 -0.006541 0.836650 206 255 42 0.268525
0.131899 -0.003762 0.869453 158 255 90 0.160412
0.136261 -0.004910 0.872611 154 255 94 0.152986
0.135983 -0.005237 0.868229 167 255 81 0.182610
0.140429 -0.006691 0.871626 163 255 85 0.175286
0.140181 -0.007103 0.867420 174 255 74 0.198938
0.144357 -0.009260 0.866489 190 255 58 0.230663
0.140235 -0.007964 0.863482 186 255 62 0.223318
0.136123 -0.006002 0.864590 181 255 67 0.210954
0.136351 -0.006898 0.860796 188 255 60 0.227475
0.132372 -0.005211 0.861996 179 255 69 0.210882
0.132116 -0.004447 0.865744 168 255 79 0.187075
0.132598 -0.006116 0.858351 191 255 56 0.234779
0.150419 -0.018149 0.854743 191 255 56 0.236868
0.148257 -0.015457 0.857103 191 255 56 0.237591
0.147237 -0.017233 0.852829 190 255 58 0.234275
0.145033 -0.014404 0.855123 193 255 55 0.239510
0.145833 -0.012706 0.859285 195 255 53 0.242257
0.142783 -0.011834 0.857440 195 255 53 0.245253
0.143985 -0.016165 0.850830 193 255 55 0.238530
0.141746 -0.013373 0.853130 200 255 47 0.254625
0.140832 -0.015271 0.849056 197 255 51 0.249678
0.143604 -0.010448 0.861867 191 255 56 0.236730
0.137561 -0.014656 0.847212 200 255 47 0.256697
0.138101 -0.012602 0.850771 199 255 49 0.251192
0.134762 -0.012009 0.848828 200 255 47 0.256529
0.134276 -0.014110 0.845437 199 255 49 0.251167
0.135116 -0.009888 0.852439 202 255 46 0.259852
0.131386 -0.011310 0.846984 200 255 47 0.254648
0.131817 -0.009322 0.850564 199 255 49 0.250172
0.130934 -0.013374 0.843543 197 255 51 0.249909
0.131908 -0.007419 0.854116 199 255 49 0.251287
0.135811 -0.008279 0.856576 195 255 53 0.242579
0.139573 -0.009250 0.858873 195 255 53 0.243604
0.138955 -0.010873 0.854906 197 255 51 0.247624
0.082983 -0.144738 0.897784 0 96 255 0.039772
0.081504 -0.143794 0.900896 0 51 255 0.031877
0.079753 -0.142760 0.899435 0 7 255 0.023987
0.078268 -0.141829 0.902534 0 0 229 0.019282
0.079996 -0.142881 0.903968 0 7 255 0.026302
0.076449 -0.140813 0.901050 0 0 204 0.014015
0.076771 -0.140881 0.905578 0 0 204 0.015122
0.074979 -0.139858 0.904117 0 0 179 0.011218
0.073482 -0.138879 0.907141 0 0 179 0.008798
0.078467 -0.141944 0.906995 0 0 255 0.022532
0.075252 -0.139917 0.908599 0 0 204 0.012718
0.076937 -0.141017 0.910024 0 0 255 0.020398
0.073047 -0.138876 0.902566 0 0 179 0.008944
0.071588 -0.137891 0.905628 0 0 153 0.007139
0.069538 -0.136958 0.904045 0 0 179 0.011385
0.071016 -0.137769 0.900889 0 0 153 0.006946
0.074562 -0.139692 0.899442 0 0 179 0.010536
0.072507 -0.138550 0.897737 0 0 179 0.007981
0.076091 -0.140481 0.896284 0 0 204 0.013027
0.077978 -0.141606 0.897901 0 0 229 0.016990
0.079551 -0.142425 0.894755 0 0 255 0.021333
0.074017 -0.139290 0.894576 0 0 179 0.010075
0.077650 -0.141243 0.893127 0 0 229 0.016196
0.075564 -0.140000 0.891417 0 0 204 0.012516
0.081332 -0.143587 0.896299 0 29 255 0.028957
0.075380 -0.139847 0.912810 0 0 229 0.016010
0.073652 -0.138854 0.911519 0 0 179 0.011382
0.072114 -0.137679 0.914333 0 0 179 0.009333
0.073855 -0.138701 0.915632 0 0 204 0.013300
0.070310 -0.136707 0.913021 0 0 153 0.006633
0.070595 -0.136493 0.917201 0 0 179 0.008175
0.068784 -0.135493 0.915899 0 0 179 0.011667
0.072326 -0.137535 0.918492 0 0 179 0.011160
0.066881 -0.134571 0.914523 0 0 179 0.009814
0.064851 -0.133606 0.912941 0 0 179 0.008825
0.068457 -0.135701 0.911532 0 0 179 0.010200
0.066431 -0.134742 0.909923 0 0 179 0.009125
0.070036 -0.136815 0.908565 0 0 179 0.010792
0.071894 -0.137806 0.910071 0 0 153 0.007717
0.067980 -0.135853 0.906956 0 0 179 0.009588
0.055423 -0.130054 0.906316 0 0 179 0.011202
0.057887 -0.131261 0.908243 0 0 179 0.010493
0.059525 -0.132134 0.905044 0 0 179 0.010844
0.057100 -0.130825 0.903108 0 0 179 0.010715
0.061905 -0.133123 0.906848 0 0 179 0.009952
0.061176 -0.133001 0.901893 0 0 179 0.011348
0.063550 -0.134072 0.903733 0 0 179 0.010594
0.065167 -0.134999 0.900620 0 0 179 0.011551
0.058748 -0.131592 0.899945 0 0 179 0.010697
0.062785 -0.133858 0.898783 0 0 204 0.012111
0.060381 -0.132390 0.896841 0 0 179 0.010921
0.065804 -0.135026 0.905459 0 0 179 0.009922
0.067431 -0.136042 0.902397 0 0 179 0.011318
0.064263 -0.133954 0.908443 0 0 179 0.009037
0.062691 -0.132823 0.911463 0 0 179 0.008566
0.060344 -0.132065 0.909890 0 0 179 0.009058
0.061906 -0.132818 0.893586 0 0 179 0.010132
0.064233 -0.134506 0.895596 0 0 204 0.012632
0.065756 -0.134972 0.892359 0 0 204 0.011962
0.063407 -0.133282 0.890349 0 0 179 0.009828
0.068089 -0.136401 0.894299 0 0 204 0.013463
0.067263 -0.135466 0.889121 0 0 153 0.006460
0.069629 -0.136916 0.891065 0 0 153 0.007632
0.071194 -0.137432 0.887824 0 0 179 0.008508
0.064906 -0.133775 0.887134 0 0 153 0.004555
0.068791 -0.136005 0.885871 0 0 153 0.007243
0.066398 -0.134276 0.883897 0 0 153 0.005250
0.071861 -0.138231 0.892918 0 0 179 0.009328
0.073458 -0.138741 0.889672 0 0 179 0.009990
0.070366 -0.137526 0.896055 0 0 153 0.007549
0.068894 -0.136808 0.899221 0 0 204 0.012070
0.066629 -0.135719 0.897446 0 0 204 0.012292
0.062517 -0.132464 0.885418 0 0 179 0.011021
0.061033 -0.131942 0.888624 0 0 179 0.009890
0.058734 -0.130510 0.886913 0 0 179 0.010444
0.059527 -0.131575 0.891862 0 0 179 0.010222
0.057230 -0.130112 0.890117 0 0 179 0.009657
0.055690 -0.129694 0.893341 0 0 179 0.009793
0.057983 -0.131210 0.895106 0 0 179 0.011315
0.054972 -0.128457 0.888340 0 0 179 0.010712
0.053420 -0.128103 0.891562 0 0 179 0.009769
0.051142 -0.126495 0.889795 0 0 204 0.012565
0.052852 -0.126742 0.886578 0 0 229 0.016406
0.056605 -0.128851 0.885156 0 0 204 0.012044
0.054484 -0.127198 0.883417 0 0 229 0.019223
0.058189 -0.129373 0.882007 0 0 204 0.014274
0.060329 -0.130946 0.883714 0 0 179 0.011442
0.061922 -0.131422 0.880530 0 0 153 0.006496
0.056053 -0.127732 0.880278 0 0 229 0.017325
0.059771 -0.129807 0.878837 0 0 179 0.011058
0.057633 -0.128219 0.877124 0 0 229 0.018851
0.064111 -0.132897 0.882202 0 0 153 0.005812
0.056272 -0.130545 0.898290 0 0 179 0.011640
0.054607 -0.129808 0.901445 0 0 204 0.011832
0.052188 -0.128480 0.899741 0 0 179 0.011047
0.052901 -0.129151 0.904646 0 0 204 0.013221
0.050441 -0.127861 0.902953 0 0 204 0.012355
0.048019 -0.126521 0.901267 0 0 179 0.011062
0.045685 -0.124883 0.899446 0 0 179 0.009723
0.049864 -0.127047 0.897981 0 0 179 0.009707
0.047549 -0.125374 0.896161 0 0 179 0.009642
0.051672 -0.127458 0.894728 0 0 179 0.008836
0.053968 -0.129014 0.896502 0 0 179 0.009772
0.049368 -0.125799 0.892913 0 0 179 0.010603
0.036933 -0.118974 0.893126 0 163 255 0.051183
0.038978 -0.120585 0.894722 0 29 255 0.028407
0.040894 -0.121010 0.891430 0 74 255 0.037129
0.038814 -0.119476 0.889843 0 208 255 0.061235
0.043016 -0.122544 0.893025 0 0 255 0.020728
0.042770 -0.121725 0.888249 0 74 255 0.038536
0.044902 -0.123112 0.889807 0 7 255 0.025376
0.046768 -0.123766 0.886665 0 29 255 0.028578
0.040666 -0.120167 0.886672 1 230 247 0.062906
0.044601 -0.122399 0.885110 0 96 255 0.041800
0.042436 -0.121077 0.883579 0 208 255 0.061568
0.047101 -0.124509 0.891388 0 0 204 0.015558
0.048948 -0.125170 0.888227 0 0 229 0.016931
0.045259 -0.124048 0.894596 0 0 204 0.012586
0.043378 -0.123688 0.897893 0 0 179 0.011163
0.041158 -0.122151 0.896288 0 0 229 0.017016
0.044193 -0.121654 0.880437 1 230 247 0.063904
0.046287 -0.122876 0.881966 0 141 255 0.047165
0.048005 -0.123526 0.878850 0 141 255 0.047946
0.045883 -0.122446 0.877323 0 208 255 0.061967
0.050118 -0.124694 0.880371 0 74 255 0.037086
0.049687 -0.124305 0.875756 0 141 255 0.049154
0.051802 -0.125283 0.877252 0 74 255 0.037916
0.053437 -0.126072 0.874148 0 74 255 0.038538
0.047581 -0.123353 0.874231 0 208 255 0.062379
0.051329 -0.125100 0.872626 0 141 255 0.048143
0.049215 -0.124293 0.871106 1 230 247 0.063765
0.053890 -0.126538 0.878783 0 7 255 0.026405
0.055523 -0.127217 0.875649 0 29 255 0.027767
0.052308 -0.125926 0.881887 0 7 255 0.026802
0.050659 -0.125500 0.885040 0 0 255 0.022715
0.048470 -0.124188 0.883496 0 51 255 0.034954
0.095674 -0.143346 0.865498 90 255 157 0.082968
0.094150 -0.143767 0.869977 0 185 255 0.058142
0.092134 -0.142803 0.868224 0 185 255 0.056817
0.090678 -0.143189 0.872690 0 96 255 0.040140
0.092597 -0.144239 0.874300 0 118 255 0.045423
0.088652 -0.142180 0.870950 0 74 255 0.038456
0.089138 -0.143685 0.877034 0 51 255 0.033160
0.087188 -0.142556 0.875414 0 29 255 0.029976
0.085695 -0.143128 0.879731 0 29 255 0.028003
0.090973 -0.144823 0.878542 0 96 255 0.040882
0.087576 -0.144324 0.881253 0 51 255 0.034353
0.089336 -0.145492 0.882705 0 118 255 0.042996
0.085109 -0.141439 0.873704 0 7 255 0.026303
0.083678 -0.141931 0.878143 0 7 255 0.024413
0.081485 -0.140673 0.876501 0 0 255 0.020461
0.082927 -0.140322 0.872246 0 7 255 0.023780
0.086546 -0.141210 0.869443 0 74 255 0.035697
0.084315 -0.140076 0.867854 0 51 255 0.033905
0.087957 -0.140993 0.865023 0 163 255 0.053523
0.090123 -0.141973 0.866658 0 185 255 0.056378
0.091565 -0.141673 0.862258 90 255 157 0.082311
0.085690 -0.139693 0.863378 0 141 255 0.049910
0.089311 -0.140545 0.860550 72 255 175 0.079602
0.087044 -0.139078 0.858864 18 252 229 0.069105
0.093705 -0.142546 0.863931 90 255 157 0.083884
0.087730 -0.145176 0.886470 0 51 255 0.034741
0.085975 -0.144020 0.884877 0 7 255 0.026496
0.084438 -0.143818 0.888692 0 7 255 0.023738
0.086146 -0.144965 0.890222 0 51 255 0.031599
0.082597 -0.142624 0.887120 0 0 229 0.017685
0.082878 -0.143675 0.892497 0 7 255 0.024473
0.081081 -0.142507 0.890932 0 0 229 0.018163
0.084572 -0.144823 0.894012 0 51 255 0.033807
0.079127 -0.141259 0.889301 0 0 204 0.013746
0.077079 -0.139982 0.887775 0 0 179 0.010182
0.080667 -0.141360 0.885655 0 0 204 0.013131
0.078572 -0.140053 0.884088 0 0 179 0.010442
0.082202 -0.141565 0.881928 0 0 229 0.016004
0.084160 -0.142810 0.883420 0 0 255 0.020067
0.080050 -0.140281 0.880335 0 0 204 0.012651
0.067909 -0.134131 0.880314 0 0 153 0.003979
0.070187 -0.135948 0.882176 0 0 153 0.005531
0.071677 -0.135920 0.878519 0 0 153 0.005043
0.069423 -0.134058 0.876695 0 0 128 0.003886
0.073984 -0.137462 0.880371 0 0 153 0.006825
0.073193 -0.135900 0.874802 0 0 153 0.005792
0.075502 -0.137620 0.876622 0 0 179 0.008621
0.076998 -0.137894 0.872817 0 0 204 0.014183
0.070959 -0.134008 0.872997 0 0 153 0.005421
0.074719 -0.136017 0.870997 0 0 179 0.008579
0.072496 -0.134031 0.869207 0 0 153 0.006946
0.077799 -0.139017 0.878481 0 0 179 0.011297
0.079293 -0.139380 0.874672 0 0 229 0.017839
0.076362 -0.138802 0.882273 0 0 179 0.008184
0.074940 -0.138713 0.886018 0 0 179 0.007955
0.072577 -0.137417 0.884119 0 0 153 0.006906
0.074015 -0.133470 0.865085 0 0 179 0.008832
0.076145 -0.135245 0.866654 0 0 179 0.009426
0.077704 -0.134771 0.862409 0 0 204 0.013384
0.075549 -0.132964 0.860825 0 0 204 0.011721
0.079821 -0.136528 0.864043 0 0 229 0.017977
0.079196 -0.134304 0.858097 0 0 255 0.021586
0.081301 -0.136141 0.859750 0 29 255 0.028360
0.082784 -0.135698 0.855399 0 141 255 0.047295
0.077058 -0.132616 0.856443 0 0 229 0.019088
0.080722 -0.133903 0.853741 0 74 255 0.037313
0.078571 -0.132194 0.852041 0 51 255 0.031582
0.083443 -0.137927 0.861415 0 74 255 0.038911
0.084901 -0.137476 0.857090 0 208 255 0.059178
0.082064 -0.138535 0.865938 0 29 255 0.027615
0.080701 -0.138979 0.870355 0 0 255 0.021053
0.078421 -0.137231 0.868481 0 0 204 0.014838
0.074763 -0.131098 0.854962 0 0 255 0.021273
0.073252 -0.131463 0.859338 0 0 204 0.015197
0.070950 -0.130038 0.857826 0 0 255 0.022506
0.071751 -0.132021 0.863577 0 0 204 0.012196
0.069460 -0.130527 0.862066 0 0 229 0.017651
0.067995 -0.131156 0.866152 0 0 204 0.015275
0.070256 -0.132678 0.867674 0 0 179 0.009721
0.067170 -0.129135 0.860518 0 29 255 0.028056
0.065725 -0.129773 0.864580 0 7 255 0.023865
0.063520 -0.128438 0.862988 0 51 255 0.034719
0.065051 -0.127836 0.859131 0 96 255 0.039913
0.068752 -0.128630 0.856518 0 29 255 0.030793
0.066596 -0.127338 0.855136 0 118 255 0.044408
0.070380 -0.128288 0.852359 0 29 255 0.030787
0.072570 -0.129699 0.853646 0 7 255 0.025012
0.074187 -0.129426 0.849412 0 51 255 0.032053
0.068208 -0.126934 0.851045 0 118 255 0.043891
0.072031 -0.128051 0.848092 0 74 255 0.036763
0.069881 -0.126596 0.846850 0 118 255 0.045801
0.076365 -0.130798 0.850705 0 29 255 0.030535
0.068656 -0.132576 0.871424 0 0 153 0.007372
0.067136 -0.132616 0.875070 0 0 153 0.005754
0.064878 -0.131139 0.873447 0 0 179 0.010887
0.065609 -0.132739 0.878657 0 0 153 0.005683
0.063404 -0.131279 0.877015 0 0 179 0.008112
0.061215 -0.129722 0.875344 0 0 204 0.013722
0.059172 -0.128239 0.873728 0 0 255 0.021688
0.062754 -0.129731 0.871869 0 0 229 0.018742
0.060654 -0.128248 0.870246 0 29 255 0.029488
0.064250 -0.129721 0.868268 0 0 255 0.020974
0.066428 -0.131148 0.869852 0 0 204 0.012061
