ply
format ascii 1.0
comment VCGLIB generated
element vertex 1052
property float x
property float y
property float z
property uchar red
property uchar green
property uchar blue
property float quality
end_header
0.034020 -0.008843 0.930489 0 0 128 0.003564
0.033725 -0.010545 0.934996 0 0 128 0.003310
0.031231 -0.010334 0.933636 0 0 153 0.004870
0.041591 -0.009075 0.934876 0 0 179 0.008849
0.038721 -0.010782 0.937739 0 0 128 0.003517
0.041426 -0.010625 0.939342 0 0 153 0.004710
0.044923 -0.008843 0.936807 0 0 179 0.009970
0.044906 -0.007053 0.932355 0 0 204 0.012720
0.048540 -0.006816 0.934499 0 0 204 0.012303
0.048359 -0.004775 0.930166 0 0 153 0.007177
0.045015 -0.004744 0.928223 0 0 128 0.003829
0.052255 -0.004722 0.932416 0 0 179 0.008623
0.053041 -0.008370 0.947078 0 0 153 0.005632
0.057259 -0.006872 0.944964 0 0 153 0.004353
0.054110 -0.007317 0.942990 0 0 153 0.003968
0.058152 -0.005725 0.940817 0 0 153 0.005555
0.061075 -0.005349 0.942798 0 0 153 0.004144
0.054946 -0.006124 0.938773 0 0 153 0.006319
0.061924 -0.004245 0.938614 0 0 153 0.007068
0.058894 -0.004415 0.936635 0 0 179 0.008387
0.062659 -0.002924 0.934469 0 0 179 0.010695
0.064914 -0.004132 0.940585 0 0 153 0.005972
0.065729 -0.003022 0.936391 0 0 179 0.008387
0.068750 -0.003056 0.938343 0 0 153 0.007142
0.055556 -0.004588 0.934577 0 0 179 0.008089
0.059497 -0.002872 0.932517 0 0 204 0.012892
0.051838 -0.006564 0.936655 0 0 179 0.010520
0.047992 -0.008490 0.938853 0 0 153 0.007380
0.051309 -0.007831 0.941046 0 0 153 0.004514
0.047438 -0.009602 0.943231 0 0 128 0.003292
0.044289 -0.010253 0.941205 0 0 153 0.003965
0.050389 -0.008895 0.945216 0 0 153 0.004415
0.072364 -0.002801 0.936134 0 0 128 0.002590
0.068945 -0.002527 0.934063 0 0 128 0.003185
0.072550 -0.002142 0.931916 0 0 128 0.002884
0.076014 -0.002492 0.933937 0 0 153 0.004102
0.069134 -0.001697 0.929887 0 0 128 0.002130
0.076249 -0.001636 0.929744 0 0 128 0.001556
0.072698 -0.001216 0.927717 0 0 128 0.001442
0.079755 -0.001996 0.931780 0 0 128 0.002031
0.069216 -0.000695 0.925748 0 0 128 0.000964
0.065983 -0.001341 0.928011 0 0 128 0.002207
0.062712 -0.002045 0.930276 0 0 153 0.005825
0.065931 -0.002304 0.932192 0 0 153 0.004232
0.028524 -0.012562 0.936576 0 0 128 0.001908
0.030776 -0.012797 0.937913 0 0 128 0.001767
0.028158 -0.014995 0.940698 0 0 128 0.000974
0.025946 -0.014840 0.939313 0 0 128 0.000807
0.030336 -0.015169 0.942034 0 0 128 0.001982
0.025480 -0.017021 0.943355 0 0 153 0.003946
0.027668 -0.017165 0.944735 0 0 153 0.004574
0.025164 -0.019295 0.947064 0 0 153 0.006639
0.023280 -0.016897 0.941899 0 0 128 0.003283
0.022933 -0.019143 0.945649 0 0 153 0.006331
0.020708 -0.018939 0.944224 0 0 153 0.005427
0.029838 -0.017265 0.946120 0 0 153 0.006070
0.027267 -0.019336 0.948512 0 0 153 0.007634
0.029374 -0.019236 0.950026 0 0 179 0.009588
0.032247 -0.017081 0.947634 0 0 153 0.007606
0.032777 -0.015145 0.943452 0 0 128 0.002582
0.035318 -0.015075 0.944806 0 0 153 0.007435
0.035759 -0.013060 0.940551 0 0 153 0.004867
0.033260 -0.012926 0.939223 0 0 128 0.002016
0.038338 -0.012912 0.942052 0 0 153 0.007007
0.018471 -0.021523 0.946185 0 0 153 0.004482
0.020525 -0.021803 0.947602 0 0 153 0.003925
0.018281 -0.024290 0.949467 0 0 153 0.004559
0.016175 -0.023887 0.948180 0 0 153 0.006164
0.016032 -0.026702 0.951251 0 0 255 0.020507
0.015832 -0.029386 0.954255 0 96 255 0.040179
0.013901 -0.026301 0.949915 0 7 255 0.025605
0.011842 -0.028831 0.951405 1 230 247 0.065480
0.020051 -0.027225 0.954018 0 0 204 0.014612
0.019684 -0.029658 0.957174 0 7 255 0.023625
0.022167 -0.027220 0.955456 0 0 204 0.013867
0.022510 -0.024732 0.952237 0 0 204 0.012139
0.024600 -0.024658 0.953738 0 0 204 0.012490
0.024883 -0.022062 0.950469 0 0 179 0.008967
0.022762 -0.022062 0.948927 0 0 179 0.008831
0.026994 -0.022015 0.951918 0 0 179 0.010550
0.026696 -0.028978 0.963720 0 7 255 0.023985
0.029478 -0.026224 0.962082 0 0 153 0.007775
0.027490 -0.026807 0.960442 0 0 153 0.007511
0.030241 -0.023923 0.958732 0 0 153 0.004466
0.032363 -0.023231 0.960277 0 0 128 0.002689
0.028228 -0.024463 0.957045 0 0 153 0.006438
0.033035 -0.020972 0.956862 0 0 153 0.005540
0.030907 -0.021521 0.955240 0 0 153 0.006813
0.033664 -0.018679 0.953151 0 0 179 0.010683
0.035245 -0.020215 0.958472 0 0 153 0.004782
0.035942 -0.018069 0.954756 0 0 179 0.009222
0.038279 -0.017156 0.956421 0 0 204 0.012938
0.031482 -0.019023 0.951618 0 0 179 0.010383
0.023191 -0.029602 0.960474 0 0 229 0.019141
0.041939 -0.014860 0.954066 0 0 128 0.003834
0.039160 -0.015849 0.952418 0 0 153 0.004585
0.042795 -0.013541 0.949952 0 0 128 0.001462
0.045666 -0.012707 0.951710 0 0 128 0.000743
0.039937 -0.014440 0.948124 0 0 153 0.005905
0.046652 -0.011255 0.947507 0 0 128 0.001475
0.043603 -0.012067 0.945577 0 0 128 0.003449
0.049379 -0.010594 0.949341 0 0 128 0.000992
0.040707 -0.012673 0.943761 0 0 179 0.008560
0.037637 -0.014824 0.946390 0 0 179 0.008965
0.034505 -0.016944 0.949088 0 0 179 0.007948
0.036799 -0.016618 0.950641 0 0 179 0.010469
0.027735 -0.062808 0.979772 0 163 255 0.051448
0.026246 -0.062256 0.978908 0 163 255 0.050889
0.027116 -0.067147 0.977769 0 0 204 0.012720
0.025608 -0.066539 0.976764 0 0 179 0.010662
0.024749 -0.061698 0.977868 0 141 255 0.049873
0.026517 -0.071503 0.975607 0 0 128 0.001986
0.024004 -0.065996 0.975556 0 0 179 0.010882
0.024851 -0.070913 0.974430 0 0 128 0.003075
0.023120 -0.070362 0.973108 0 0 128 0.003539
0.023135 -0.061156 0.976684 0 141 255 0.049473
0.022333 -0.065456 0.974167 0 0 179 0.008433
0.021584 -0.060663 0.975226 0 74 255 0.038372
0.025774 -0.075960 0.973273 0 0 153 0.004509
0.023955 -0.075421 0.971917 0 0 153 0.007059
0.024810 -0.080550 0.970587 0 7 255 0.025691
0.026840 -0.081465 0.972088 0 0 255 0.020505
0.027630 -0.076943 0.974517 0 0 153 0.004059
0.028740 -0.082402 0.973359 0 0 229 0.016718
0.029305 -0.077879 0.975632 0 0 153 0.005090
0.028188 -0.072445 0.976694 0 0 128 0.002221
0.029733 -0.073428 0.977639 0 0 128 0.003713
0.030430 -0.083351 0.974513 0 0 204 0.014773
0.030896 -0.078866 0.976619 0 0 153 0.007568
0.032056 -0.084333 0.975503 0 0 204 0.015155
0.028669 -0.068078 0.978716 0 0 204 0.013679
0.019935 -0.060099 0.973671 0 74 255 0.038577
0.020581 -0.064467 0.972620 0 0 153 0.007610
0.018909 -0.063868 0.970965 0 0 179 0.008596
0.018350 -0.059496 0.971992 0 74 255 0.037949
0.019431 -0.068324 0.969882 0 0 128 0.002664
0.017277 -0.063279 0.969115 0 0 153 0.007665
0.017710 -0.067739 0.968057 0 0 128 0.001682
0.016053 -0.067106 0.966105 0 0 128 0.001099
0.016825 -0.058969 0.970178 0 74 255 0.037444
0.015736 -0.062746 0.967166 0 0 153 0.006748
0.015352 -0.058482 0.968171 0 7 255 0.026428
0.018135 -0.072295 0.966915 0 0 153 0.006332
0.016408 -0.071665 0.964980 0 0 153 0.004801
0.016808 -0.076276 0.963730 0 0 255 0.019583
0.018712 -0.077333 0.965680 0 7 255 0.026582
0.019989 -0.073326 0.968768 0 0 179 0.009180
0.020666 -0.078444 0.967494 0 29 255 0.031036
0.021932 -0.074374 0.970470 0 0 179 0.010569
0.021229 -0.069310 0.971594 0 0 153 0.004016
0.022742 -0.079517 0.969120 0 29 255 0.028704
0.022966 -0.089990 0.959181 0 0 128 0.002121
0.025310 -0.091462 0.960912 0 0 128 0.003552
0.023547 -0.086917 0.963066 0 0 128 0.000688
0.027657 -0.092941 0.962531 0 0 128 0.003671
0.025883 -0.088364 0.964742 0 0 128 0.001090
0.028224 -0.089806 0.966265 0 0 128 0.000557
0.029980 -0.094424 0.964057 0 0 128 0.003882
0.024185 -0.083774 0.966919 0 0 179 0.007918
0.026492 -0.085165 0.968491 0 0 153 0.007685
0.022069 -0.082701 0.965310 0 0 179 0.009026
0.019965 -0.081578 0.963599 0 0 179 0.008765
0.021456 -0.085799 0.961389 0 0 128 0.000622
0.019398 -0.084688 0.959613 0 0 128 0.000405
0.018039 -0.080457 0.961774 0 0 153 0.006129
0.020893 -0.088864 0.957359 0 0 128 0.001990
0.032062 -0.095418 0.965629 0 0 153 0.003925
0.034078 -0.096789 0.967130 0 0 153 0.004968
0.032223 -0.091697 0.969191 0 0 128 0.001738
0.035871 -0.098146 0.968519 0 0 153 0.005169
0.034127 -0.093064 0.970501 0 0 128 0.001554
0.035738 -0.094408 0.971691 0 0 128 0.002299
0.037371 -0.099465 0.969756 0 0 153 0.004870
0.032204 -0.087977 0.972485 0 0 128 0.003610
0.033923 -0.089331 0.973614 0 0 128 0.002149
0.030426 -0.087035 0.971288 0 0 128 0.003254
0.028540 -0.086124 0.969955 0 0 153 0.005053
0.030235 -0.090751 0.967762 0 0 128 0.000603
0.069790 -0.004579 0.962389 0 51 255 0.031934
0.074165 -0.003739 0.960477 0 0 255 0.022022
0.072273 -0.004154 0.958472 0 0 229 0.015838
0.076708 -0.003562 0.956447 0 0 153 0.005907
0.078817 -0.003336 0.958430 0 0 128 0.003667
0.074756 -0.003755 0.954542 0 0 128 0.003612
0.081330 -0.003190 0.954439 0 0 128 0.003571
0.079139 -0.003360 0.952400 0 0 128 0.003072
0.083556 -0.003056 0.950250 0 0 128 0.002753
0.083422 -0.003027 0.956384 0 0 153 0.004148
0.085868 -0.002869 0.952356 0 0 128 0.003706
0.088096 -0.002474 0.954561 0 0 153 0.005766
0.077032 -0.003558 0.950357 0 0 128 0.002765
0.081315 -0.003145 0.948212 0 0 128 0.002936
0.079200 -0.003164 0.946286 0 0 128 0.003822
0.070870 -0.004438 0.950675 0 0 153 0.005063
0.068590 -0.004889 0.954772 0 0 179 0.010376
0.066152 -0.005498 0.958651 0 29 255 0.029058
0.062267 -0.006306 0.954896 0 0 229 0.019211
0.092841 -0.002994 0.952767 0 0 153 0.005027
0.090177 -0.003057 0.950400 0 0 128 0.003408
0.094854 -0.003268 0.948608 0 0 153 0.006983
0.097637 -0.003373 0.950945 0 0 179 0.009758
0.092250 -0.003176 0.946353 0 0 153 0.006294
0.099832 -0.003478 0.946880 0 0 179 0.008302
0.097255 -0.003171 0.944769 0 0 153 0.004777
0.094431 -0.003014 0.942466 0 0 128 0.003678
0.091840 -0.003050 0.940262 0 0 153 0.004698
0.090046 -0.003332 0.944322 0 0 153 0.007411
0.087561 -0.003279 0.942213 0 0 153 0.007367
0.085577 -0.003332 0.946200 0 0 128 0.003523
0.087841 -0.003277 0.948213 0 0 153 0.004240
0.083361 -0.003292 0.944252 0 0 153 0.004064
0.082508 -0.002218 0.933799 0 0 128 0.001412
0.078711 -0.002748 0.935858 0 0 153 0.005114
0.081407 -0.002870 0.937858 0 0 153 0.004035
0.075042 -0.003003 0.938052 0 0 128 0.003297
0.077670 -0.003238 0.939965 0 0 153 0.005155
0.074019 -0.003291 0.942207 0 0 128 0.003624
0.071359 -0.003211 0.940262 0 0 153 0.004789
0.080366 -0.003188 0.942034 0 0 128 0.003490
0.076653 -0.003411 0.944184 0 0 128 0.003171
0.084416 -0.003006 0.940031 0 0 153 0.003953
0.088619 -0.002792 0.938019 0 0 128 0.003455
0.085580 -0.002471 0.935941 0 0 128 0.001688
0.067335 -0.004017 0.942504 0 0 153 0.006711
0.063520 -0.005066 0.944748 0 0 153 0.004488
0.065774 -0.004808 0.946661 0 0 153 0.005619
0.059462 -0.006390 0.946881 0 0 153 0.005485
0.061943 -0.006000 0.948850 0 0 153 0.007167
0.057759 -0.007388 0.950916 0 0 179 0.010095
0.055562 -0.007912 0.948996 0 0 153 0.005868
0.064145 -0.005535 0.950830 0 0 153 0.007637
0.060108 -0.006859 0.952909 0 0 204 0.014204
0.068372 -0.004618 0.948690 0 0 153 0.004534
0.072526 -0.003907 0.946471 0 0 153 0.004028
0.069962 -0.003945 0.944484 0 0 153 0.004701
0.051593 -0.010259 0.951101 0 0 128 0.001560
0.047841 -0.012240 0.953420 0 0 128 0.000440
0.050074 -0.011947 0.955124 0 0 128 0.001844
0.044151 -0.014315 0.955698 0 0 153 0.004263
0.046182 -0.013839 0.957335 0 0 128 0.003164
0.042596 -0.015808 0.959626 0 0 229 0.018304
0.040482 -0.016341 0.958050 0 0 255 0.021977
0.048407 -0.013491 0.959038 0 0 128 0.002787
0.044610 -0.015368 0.961193 0 0 229 0.018189
0.046671 -0.014980 0.962872 0 0 229 0.015934
0.050501 -0.012975 0.960771 0 0 128 0.003841
0.052248 -0.011402 0.956903 0 0 128 0.001742
0.054530 -0.010844 0.958762 0 0 128 0.002214
0.056232 -0.009134 0.954912 0 0 128 0.001984
0.053976 -0.009746 0.952974 0 0 128 0.001734
0.058502 -0.008616 0.956867 0 0 153 0.003940
0.036221 -0.021879 0.963408 0 0 128 0.002415
0.033212 -0.025008 0.965184 0 0 204 0.014289
0.030193 -0.028135 0.966905 0 96 255 0.042154
0.033860 -0.027103 0.969712 0 118 255 0.043587
0.036885 -0.023946 0.968157 0 0 229 0.018881
0.038176 -0.021269 0.964938 0 0 153 0.006339
0.040105 -0.020813 0.966428 0 0 128 0.003526
0.041281 -0.018325 0.963124 0 0 179 0.009197
0.039361 -0.018805 0.961604 0 0 179 0.009036
0.043391 -0.017885 0.964685 0 0 153 0.007575
0.040224 -0.026281 0.975233 0 74 255 0.036313
0.043445 -0.022986 0.973732 0 0 204 0.013634
0.045107 -0.020142 0.970833 0 0 153 0.004329
0.048484 -0.016902 0.969252 0 0 204 0.014637
0.050120 -0.014243 0.966056 0 0 229 0.016300
0.053487 -0.013354 0.969275 0 51 255 0.031316
0.040273 -0.023456 0.971015 0 0 229 0.017510
0.037155 -0.026562 0.972502 0 118 255 0.045348
0.057530 -0.011215 0.967512 0 0 179 0.011607
0.059870 -0.009401 0.964137 0 0 153 0.004498
0.063896 -0.007120 0.962389 0 0 204 0.013310
0.054066 -0.012056 0.964175 0 0 179 0.008268
0.017326 -0.054326 0.970244 0 0 255 0.021236
0.018874 -0.054878 0.972053 0 0 255 0.020604
0.019446 -0.050251 0.972045 0 7 255 0.024531
0.020347 -0.055347 0.973758 0 7 255 0.024177
0.021036 -0.050814 0.973669 0 0 255 0.021309
0.022526 -0.051242 0.975169 0 0 255 0.020965
0.021935 -0.055908 0.975265 0 0 255 0.022019
0.021875 -0.046339 0.973357 0 118 255 0.046213
0.023396 -0.046825 0.974878 0 96 255 0.041381
0.024546 -0.042459 0.974359 54 255 193 0.077874
0.021506 -0.042337 0.971414 18 252 229 0.067309
0.018952 -0.046091 0.970057 0 74 255 0.036084
0.016583 -0.049941 0.968377 0 0 204 0.015216
0.018468 -0.042192 0.967993 0 208 255 0.059181
0.024978 -0.056612 0.977872 0 51 255 0.033719
0.025606 -0.051610 0.977672 0 7 255 0.025789
0.026564 -0.057106 0.978903 0 29 255 0.029453
0.027214 -0.052054 0.978587 0 0 204 0.014999
0.028769 -0.052506 0.979301 0 0 153 0.006082
0.028047 -0.057642 0.979639 0 0 255 0.021049
0.028185 -0.047164 0.978125 0 0 255 0.021401
0.029809 -0.047547 0.978807 0 0 153 0.007563
0.031031 -0.042776 0.978486 0 7 255 0.023820
0.027776 -0.042565 0.976666 0 141 255 0.050233
0.036421 -0.030302 0.974764 0 0 255 0.019786
0.032617 -0.034328 0.974262 0 0 179 0.010595
0.033261 -0.030692 0.972039 0 0 229 0.019121
0.029254 -0.034948 0.971871 0 0 179 0.011376
0.028454 -0.038408 0.974278 0 0 255 0.020466
0.031768 -0.038458 0.976426 0 0 179 0.011176
0.035643 -0.034484 0.976828 0 0 153 0.005497
0.029831 -0.031345 0.969442 0 0 255 0.019971
0.025821 -0.035242 0.969159 0 0 204 0.011938
0.026291 -0.032097 0.966421 0 0 204 0.014799
0.022424 -0.035660 0.965953 0 0 179 0.010624
0.021901 -0.038684 0.968781 0 74 255 0.035933
0.025180 -0.038706 0.971763 0 29 255 0.028331
0.065266 -0.057072 0.999545 0 0 128 0.001686
0.065160 -0.060759 1.000000 0 0 153 0.006673
0.067170 -0.041005 0.999271 0 0 153 0.004848
0.066409 -0.045080 0.999764 0 0 179 0.008157
0.063826 -0.045192 0.998316 0 0 179 0.009280
0.062654 -0.049492 0.997677 0 0 128 0.001968
0.062810 -0.053485 0.997863 0 0 128 0.001454
0.061533 -0.057702 0.997444 0 0 128 0.001493
0.061534 -0.061637 0.997836 0 0 153 0.006277
0.059047 -0.062200 0.996482 0 0 153 0.005259
0.065293 -0.053156 0.999229 0 0 128 0.001600
0.066507 -0.049104 0.999821 0 0 128 0.003040
0.080186 -0.001423 0.975381 72 255 175 0.079447
0.083724 -0.001190 0.972171 0 74 255 0.038939
0.087388 -0.001125 0.968976 0 0 255 0.021611
0.089725 -0.001698 0.963832 0 0 153 0.004460
0.084840 -0.001849 0.965670 0 0 179 0.009023
0.081264 -0.002002 0.968929 0 7 255 0.026779
0.077839 -0.002127 0.972286 90 255 157 0.083574
0.075355 -0.002970 0.969051 0 96 255 0.041875
0.091420 -0.002072 0.958309 0 0 153 0.004519
0.081782 -0.002561 0.961961 0 0 153 0.006912
0.077188 -0.003147 0.963845 0 0 229 0.017322
0.072537 -0.003779 0.965726 0 96 255 0.042225
0.086673 -0.002260 0.960233 0 0 153 0.004506
0.065947 -0.133924 0.951761 1 230 247 0.063430
0.064212 -0.132965 0.950860 0 0 229 0.018853
0.066086 -0.134147 0.948019 0 0 229 0.017576
0.064391 -0.133518 0.947290 0 0 229 0.016369
0.062446 -0.132411 0.950151 0 0 229 0.017382
0.066282 -0.134680 0.944465 0 0 179 0.010606
0.062822 -0.133103 0.946735 0 0 229 0.015850
0.064729 -0.134220 0.943895 0 0 179 0.010142
0.063284 -0.133756 0.943351 0 0 255 0.020625
0.060873 -0.132014 0.949628 0 7 255 0.023686
0.061315 -0.132676 0.946199 0 0 255 0.021513
0.059393 -0.131640 0.949129 0 118 255 0.045595
0.066559 -0.135354 0.940951 0 0 255 0.019548
0.065201 -0.134872 0.940451 0 0 255 0.023315
0.067062 -0.135996 0.937452 0 29 255 0.028752
0.068542 -0.136143 0.937698 0 0 179 0.010038
0.068194 -0.135493 0.941254 0 0 179 0.008144
0.070145 -0.136304 0.938025 0 0 153 0.004893
0.069925 -0.135847 0.941687 0 0 179 0.007989
0.068033 -0.134997 0.944878 0 0 179 0.011051
0.069830 -0.135636 0.945466 0 7 255 0.023535
0.071931 -0.136693 0.938506 0 0 153 0.006944
0.071792 -0.136519 0.942329 0 0 255 0.020905
0.073787 -0.137343 0.939134 0 0 255 0.020010
0.067887 -0.134767 0.948623 0 29 255 0.027966
0.058353 -0.130572 0.948515 0 29 255 0.030082
0.060220 -0.131668 0.945592 0 0 204 0.011818
0.059217 -0.130601 0.944927 0 0 153 0.003985
0.057267 -0.129454 0.947800 0 0 204 0.014644
0.061054 -0.131764 0.942041 0 0 128 0.003439
0.058063 -0.129460 0.944135 0 0 128 0.002225
0.059911 -0.130674 0.941216 0 0 128 0.000844
0.056132 -0.128314 0.947035 0 0 153 0.007799
0.061733 -0.131855 0.938312 0 0 128 0.000739
0.063586 -0.133006 0.935280 0 0 128 0.002749
0.062970 -0.132879 0.939094 0 0 128 0.003213
0.064903 -0.134004 0.936138 0 0 153 0.004964
0.064121 -0.133890 0.939829 0 0 179 0.008461
0.062220 -0.132747 0.942739 0 0 153 0.007430
0.065999 -0.135041 0.936838 0 0 179 0.011401
0.070287 -0.136227 0.922908 0 0 128 0.003812
0.068551 -0.135552 0.926033 0 0 128 0.001888
0.069888 -0.136440 0.926972 0 0 153 0.005932
0.071588 -0.137111 0.923859 0 0 153 0.006217
0.068168 -0.135727 0.930020 0 0 153 0.004713
0.071089 -0.137329 0.927782 0 0 179 0.010306
0.069342 -0.136619 0.930788 0 0 179 0.010979
0.070454 -0.137485 0.931533 0 7 255 0.025432
0.072806 -0.137971 0.924712 0 0 179 0.009109
0.072214 -0.138180 0.928560 0 0 255 0.022714
0.073963 -0.138822 0.925509 0 0 204 0.015240
0.067633 -0.135869 0.933785 0 0 204 0.011727
0.068740 -0.136739 0.934484 0 7 255 0.025933
0.066529 -0.134887 0.933109 0 0 153 0.004131
0.065270 -0.133868 0.932289 0 0 128 0.001003
0.066897 -0.134736 0.929181 0 0 128 0.000966
0.075374 -0.138816 0.926128 0 0 153 0.007792
0.073813 -0.138290 0.928936 0 0 179 0.008196
0.075277 -0.138334 0.929568 0 0 153 0.005873
0.076930 -0.138889 0.926843 0 0 179 0.010150
0.073639 -0.137753 0.932268 0 0 153 0.004658
0.076946 -0.138639 0.930409 0 0 153 0.005794
0.075313 -0.138084 0.933081 0 0 153 0.004943
0.076989 -0.138599 0.933945 0 0 229 0.018627
0.078537 -0.139197 0.927681 0 0 153 0.007095
0.078604 -0.139178 0.931296 0 0 204 0.014769
0.080282 -0.139731 0.928674 0 0 179 0.009082
0.073701 -0.137452 0.935716 0 0 153 0.007675
0.075390 -0.137998 0.936566 0 0 255 0.020302
0.071904 -0.137058 0.935173 0 0 153 0.004408
0.070318 -0.136912 0.934826 0 0 179 0.009045
0.072049 -0.137642 0.931920 0 0 179 0.008672
0.075913 -0.003354 0.976889 1 230 247 0.066162
0.072971 -0.005269 0.979748 1 230 247 0.062631
0.068957 -0.007805 0.980943 0 208 255 0.060199
0.066037 -0.010265 0.983347 131 255 117 0.102227
0.063636 -0.010697 0.980694 0 208 255 0.062035
0.071161 -0.007346 0.983656 129 255 119 0.097953
0.068381 -0.010020 0.985933 133 255 115 0.108693
0.075220 -0.004896 0.982620 18 252 229 0.069357
0.079368 -0.002638 0.981378 133 255 115 0.106388
0.060525 -0.014471 0.981682 0 0 255 0.021159
0.058632 -0.018111 0.983940 0 0 179 0.011033
0.055434 -0.022007 0.984921 0 7 255 0.023677
0.053696 -0.025867 0.987002 0 163 255 0.053693
0.051134 -0.025690 0.984842 0 141 255 0.048146
0.057988 -0.022025 0.987086 0 0 229 0.018033
0.056287 -0.026002 0.988968 0 96 255 0.042875
0.061043 -0.018118 0.986248 0 0 179 0.009365
0.064168 -0.014071 0.985478 0 96 255 0.041204
0.061508 -0.026607 0.992945 0 96 255 0.039973
0.064486 -0.022501 0.992446 0 51 255 0.032143
0.066108 -0.018295 0.990763 0 0 255 0.019818
0.069053 -0.014231 0.990307 0 141 255 0.047786
0.070822 -0.010115 0.988508 138 255 110 0.118197
0.066644 -0.014006 0.987811 0 141 255 0.047357
0.063572 -0.018098 0.988487 0 0 204 0.013605
0.060537 -0.022104 0.989194 0 0 255 0.021231
0.058883 -0.026248 0.990959 0 96 255 0.040081
0.073393 -0.007240 0.986328 36 255 211 0.073450
0.059232 -0.031344 0.992665 0 0 179 0.009482
0.058561 -0.036065 0.993364 0 0 128 0.001429
0.056395 -0.040607 0.993255 0 0 153 0.004041
0.055545 -0.045132 0.993836 0 0 179 0.009546
0.052748 -0.044977 0.992483 0 0 204 0.015441
0.059240 -0.040692 0.994818 0 0 128 0.002507
0.058379 -0.045232 0.995391 0 0 179 0.008615
0.061261 -0.036287 0.994976 0 0 128 0.002190
0.063408 -0.031764 0.995303 0 0 179 0.009358
0.064169 -0.026953 0.994751 0 96 255 0.040035
0.066769 -0.027314 0.996538 0 96 255 0.041197
0.051556 -0.049715 0.992030 0 0 153 0.004034
0.051934 -0.054281 0.992363 0 0 128 0.000204
0.050887 -0.058962 0.992073 0 0 128 0.002734
0.051106 -0.063546 0.992438 0 0 179 0.008732
0.048439 -0.063911 0.991138 0 0 204 0.014169
0.053578 -0.058641 0.993339 0 0 128 0.001415
0.053714 -0.063184 0.993775 0 0 153 0.007468
0.054693 -0.054182 0.993674 0 0 128 0.000533
0.055789 -0.049684 0.994089 0 0 128 0.002017
0.059059 -0.057992 0.996114 0 0 128 0.001561
0.060171 -0.053752 0.996457 0 0 128 0.001399
0.060026 -0.049505 0.996273 0 0 128 0.001669
0.061106 -0.045222 0.996813 0 0 179 0.008658
0.057492 -0.053973 0.995113 0 0 128 0.000945
0.056308 -0.058451 0.994741 0 0 128 0.001504
0.056417 -0.062690 0.995114 0 0 153 0.005191
0.064626 -0.040863 0.997784 0 0 153 0.004411
0.066720 -0.036604 0.998183 0 0 153 0.004720
0.067481 -0.032107 0.997828 0 0 204 0.014345
0.064021 -0.036433 0.996606 0 0 128 0.003552
0.061803 -0.040917 0.996219 0 0 153 0.004417
0.047495 -0.030273 0.984182 0 0 229 0.017975
0.048444 -0.025773 0.982622 0 141 255 0.048905
0.043900 -0.034734 0.983507 0 0 153 0.004869
0.044742 -0.030312 0.981927 0 0 229 0.016206
0.041293 -0.034646 0.981520 0 0 153 0.005805
0.045820 -0.025926 0.980235 0 96 255 0.041610
0.040413 -0.039042 0.983076 0 0 204 0.012201
0.036888 -0.043329 0.982550 0 0 255 0.022654
0.039726 -0.043514 0.984583 0 7 255 0.026587
0.043099 -0.039251 0.984945 0 0 179 0.009788
0.046711 -0.034879 0.985616 0 0 153 0.004984
0.042390 -0.043827 0.986345 0 7 255 0.024808
0.042125 -0.030196 0.979742 0 0 229 0.017235
0.043037 -0.025962 0.977765 0 118 255 0.043359
0.038388 -0.034409 0.979187 0 0 153 0.006756
0.039327 -0.030254 0.977308 0 0 204 0.014493
0.034767 -0.038577 0.978734 0 0 204 0.014640
0.034015 -0.043016 0.980544 0 0 255 0.021732
0.037612 -0.038830 0.980897 0 0 204 0.013186
0.030843 -0.057857 0.980943 0 0 179 0.010659
0.030410 -0.063214 0.981143 0 74 255 0.036901
0.031663 -0.052594 0.980746 0 0 128 0.002365
0.034737 -0.053232 0.982494 0 0 128 0.002593
0.033912 -0.058436 0.982507 0 0 153 0.006663
0.033244 -0.063775 0.982548 0 29 255 0.028720
0.034335 -0.047898 0.981575 0 0 179 0.007861
0.036767 -0.058653 0.984112 0 0 153 0.006607
0.036023 -0.063915 0.984020 0 0 229 0.018236
0.037621 -0.053498 0.984210 0 0 128 0.001666
0.040398 -0.053830 0.985930 0 0 128 0.000750
0.039562 -0.058947 0.985781 0 0 153 0.006210
0.038815 -0.064176 0.985647 0 0 255 0.019933
0.040035 -0.048605 0.985343 0 0 153 0.007515
0.037222 -0.048315 0.983453 0 0 153 0.007337
0.050117 -0.030465 0.986180 0 0 204 0.014501
0.049247 -0.035129 0.987320 0 0 128 0.003169
0.045804 -0.039501 0.986770 0 0 179 0.008345
0.045029 -0.044116 0.988031 0 7 255 0.025096
0.048383 -0.039787 0.988461 0 0 153 0.007367
0.047576 -0.044495 0.989574 0 0 255 0.021519
0.051870 -0.035399 0.989182 0 0 153 0.004201
0.052771 -0.030629 0.988106 0 0 229 0.016900
0.042678 -0.048845 0.987010 0 0 153 0.007182
0.042951 -0.053912 0.987494 0 0 128 0.000970
0.042077 -0.059035 0.987203 0 0 153 0.004714
0.041265 -0.064240 0.986943 0 0 204 0.014162
0.043736 -0.064246 0.988467 0 0 229 0.015744
0.044530 -0.059227 0.988630 0 0 153 0.004556
0.045442 -0.054249 0.988901 0 0 128 0.000746
0.045229 -0.049148 0.988536 0 0 153 0.006879
0.048292 -0.059023 0.990761 0 0 128 0.003828
0.049294 -0.054292 0.991023 0 0 128 0.000540
0.049028 -0.049458 0.990603 0 0 153 0.004505
0.050206 -0.044719 0.991024 0 0 229 0.017774
0.046142 -0.064070 0.989775 0 0 204 0.011869
0.053670 -0.040346 0.991706 0 0 153 0.005525
0.055808 -0.035821 0.991689 0 0 128 0.002178
0.056708 -0.030986 0.990876 0 0 179 0.009980
0.051077 -0.040095 0.990109 0 0 153 0.005898
0.067216 -0.006236 0.965906 0 0 255 0.022082
0.063205 -0.008458 0.967582 0 0 179 0.011128
0.060416 -0.010237 0.970760 0 0 204 0.014802
0.056200 -0.012680 0.972181 0 51 255 0.034070
0.058932 -0.011823 0.975197 0 96 255 0.041860
0.063169 -0.009435 0.973840 0 0 204 0.013809
0.065989 -0.007628 0.970783 0 0 153 0.007071
0.069820 -0.005278 0.969209 0 7 255 0.024643
0.051554 -0.016288 0.972294 0 0 204 0.013524
0.048162 -0.019440 0.973625 0 0 153 0.004461
0.046241 -0.022633 0.976359 0 0 229 0.016994
0.049001 -0.022377 0.978999 0 0 255 0.019668
0.050947 -0.019135 0.976418 0 0 179 0.011490
0.054296 -0.015639 0.975051 0 29 255 0.027988
0.052914 -0.022008 0.982638 0 7 255 0.025002
0.056051 -0.018292 0.981527 0 0 179 0.011694
0.058061 -0.014846 0.979097 0 7 255 0.024098
0.061405 -0.011189 0.978023 0 163 255 0.052073
0.053607 -0.018624 0.979047 0 0 179 0.010247
0.066560 -0.008378 0.978148 0 118 255 0.046105
0.070747 -0.005979 0.976821 0 7 255 0.025571
0.073712 -0.004116 0.973906 0 118 255 0.043943
0.068351 -0.006732 0.973906 0 0 179 0.007960
0.071625 -0.014423 0.992589 0 118 255 0.046146
0.068677 -0.018574 0.992984 0 7 255 0.026371
0.067124 -0.022841 0.994400 0 29 255 0.029462
0.069655 -0.023347 0.996334 0 51 255 0.033889
0.045225 -0.106300 0.975273 0 0 255 0.022352
0.044394 -0.106420 0.974502 0 29 255 0.028542
0.046250 -0.110372 0.971953 0 0 179 0.010253
0.045552 -0.110503 0.971173 0 0 204 0.014110
0.043676 -0.106540 0.973727 0 29 255 0.030082
0.047451 -0.114410 0.968514 0 0 204 0.014366
0.044913 -0.110590 0.970345 0 0 229 0.015829
0.046837 -0.114484 0.967709 0 0 229 0.017133
0.046280 -0.114546 0.966800 0 0 229 0.017037
0.042979 -0.106639 0.972892 0 51 255 0.033881
0.044296 -0.110685 0.969450 0 0 229 0.017951
0.042335 -0.106737 0.971987 0 74 255 0.036069
0.048836 -0.118284 0.964930 0 0 229 0.017988
0.048275 -0.118344 0.964064 0 0 229 0.018687
0.050307 -0.122030 0.961261 0 141 255 0.047313
0.051039 -0.122091 0.962136 0 96 255 0.042555
0.049637 -0.118318 0.965765 0 0 179 0.011370
0.051799 -0.122135 0.962954 0 51 255 0.032090
0.050512 -0.118276 0.966521 0 0 153 0.005545
0.048325 -0.114380 0.969268 0 0 179 0.009060
0.049298 -0.114361 0.970010 0 0 153 0.005209
0.052676 -0.122116 0.963762 0 0 255 0.021575
0.051465 -0.118278 0.967339 0 0 153 0.004601
0.053675 -0.122152 0.964689 0 0 229 0.015737
0.047227 -0.110364 0.972699 0 0 153 0.007061
0.041594 -0.106148 0.971163 0 0 255 0.023254
0.043389 -0.109868 0.968729 0 0 179 0.010146
0.042658 -0.109288 0.967784 0 0 153 0.004781
0.040834 -0.105582 0.970230 0 0 229 0.015984
0.044446 -0.112845 0.965223 0 0 153 0.005936
0.041752 -0.108642 0.966638 0 0 128 0.003768
0.043619 -0.112181 0.964118 0 0 153 0.004251
0.039918 -0.104962 0.969109 0 0 179 0.010585
0.045528 -0.115634 0.961522 0 0 153 0.006494
0.047659 -0.119224 0.958795 0 0 179 0.011366
0.046569 -0.116569 0.962527 0 0 153 0.006871
0.048677 -0.120221 0.959782 0 0 229 0.017841
0.047458 -0.117474 0.963360 0 0 179 0.011547
0.045416 -0.113711 0.966096 0 0 179 0.010742
0.049523 -0.121145 0.960581 0 7 255 0.026659
0.053871 -0.125929 0.950083 0 0 128 0.003282
0.055076 -0.127079 0.950884 0 0 179 0.009286
0.052766 -0.124715 0.953958 0 0 153 0.007571
0.056128 -0.128219 0.951575 0 0 255 0.021431
0.053882 -0.125849 0.954636 0 0 229 0.016499
0.054923 -0.126874 0.955247 0 51 255 0.031323
0.057168 -0.129261 0.952160 0 51 255 0.033556
0.051569 -0.123444 0.957687 0 0 255 0.021824
0.052655 -0.124486 0.958290 0 51 255 0.031854
0.050743 -0.122476 0.956854 0 0 179 0.010015
0.049780 -0.121479 0.955925 0 0 153 0.003942
0.051840 -0.123710 0.953016 0 0 128 0.001426
0.057819 -0.129394 0.953064 0 51 255 0.031594
0.059436 -0.129675 0.953531 0 0 179 0.011204
0.056268 -0.127042 0.956937 0 29 255 0.029229
0.061254 -0.130054 0.954133 0 0 153 0.005184
0.058080 -0.127293 0.957427 0 0 179 0.011484
0.060019 -0.127875 0.958199 0 0 128 0.002074
0.063084 -0.130866 0.955034 0 0 179 0.010732
0.054939 -0.124609 0.960811 0 0 204 0.015518
0.056870 -0.125001 0.961439 0 0 153 0.004260
0.054063 -0.124597 0.959942 0 7 255 0.024600
0.053276 -0.124577 0.959105 0 51 255 0.032341
0.055546 -0.127003 0.956088 0 74 255 0.036355
0.038402 -0.099858 0.970936 0 0 153 0.004088
0.039392 -0.100461 0.972057 0 0 128 0.002425
0.037781 -0.095246 0.973754 0 0 128 0.003497
0.040202 -0.101045 0.972966 0 0 153 0.005753
0.038692 -0.095856 0.974652 0 0 153 0.004771
0.039584 -0.096490 0.975459 0 0 179 0.009573
0.040980 -0.101617 0.973787 0 0 179 0.008740
0.037097 -0.090644 0.976307 0 0 153 0.004835
0.038082 -0.091277 0.977077 0 0 153 0.006599
0.036466 -0.086110 0.978703 0 0 204 0.015140
0.035498 -0.085698 0.978063 0 0 229 0.017446
0.036175 -0.090229 0.975503 0 0 128 0.002720
0.034461 -0.085266 0.977301 0 0 229 0.018061
0.035129 -0.089791 0.974620 0 0 128 0.002994
0.036832 -0.094844 0.972772 0 0 128 0.002607
0.033340 -0.084814 0.976465 0 0 229 0.017516
0.042424 -0.101461 0.975414 0 0 179 0.008939
0.041106 -0.096327 0.976974 0 0 153 0.006289
0.043207 -0.101369 0.976203 0 0 153 0.007374
0.041979 -0.096280 0.977791 0 0 153 0.005877
0.042930 -0.096235 0.978691 0 0 153 0.004216
0.044070 -0.101290 0.977005 0 0 153 0.006626
0.040691 -0.091175 0.979331 0 0 128 0.003793
0.041706 -0.091154 0.980264 0 0 153 0.004058
0.040451 -0.086094 0.981868 0 0 204 0.012668
0.038399 -0.086115 0.980207 0 0 204 0.012025
0.037818 -0.069528 0.983810 0 0 128 0.003428
0.037013 -0.074986 0.982001 0 0 128 0.001325
0.035108 -0.069336 0.982288 0 0 153 0.005746
0.034632 -0.074906 0.980670 0 0 128 0.002694
0.036571 -0.080543 0.980268 0 0 153 0.005082
0.038860 -0.080589 0.981909 0 0 128 0.002704
0.039589 -0.075114 0.983744 0 0 128 0.001445
0.032442 -0.068831 0.980867 0 0 179 0.009057
0.032181 -0.073949 0.979227 0 0 128 0.003902
0.033276 -0.079587 0.978296 0 0 179 0.007872
0.034411 -0.080055 0.978961 0 0 153 0.006706
0.033385 -0.074440 0.979992 0 0 153 0.004049
0.045844 -0.100199 0.979015 0 0 153 0.004008
0.046952 -0.104984 0.977524 0 0 204 0.015449
0.044719 -0.095421 0.980426 0 0 128 0.001553
0.046633 -0.094189 0.982818 0 0 128 0.003553
0.047671 -0.098947 0.981438 0 0 153 0.005967
0.048655 -0.103734 0.979980 0 7 255 0.026508
0.044529 -0.090019 0.982924 0 0 128 0.003486
0.044466 -0.084692 0.985423 0 0 229 0.019323
0.042438 -0.085382 0.983592 0 0 204 0.013587
0.049548 -0.097511 0.983431 0 0 153 0.006587
0.050528 -0.102006 0.982302 0 0 255 0.022730
0.048594 -0.093072 0.984591 0 0 128 0.003080
0.050480 -0.091401 0.986717 0 0 153 0.004682
0.051386 -0.095812 0.985656 0 0 179 0.010261
0.052314 -0.100322 0.984577 0 29 255 0.029622
0.048577 -0.087834 0.986670 0 0 153 0.005334
0.048578 -0.082645 0.988702 0 0 229 0.019486
0.046526 -0.083644 0.986989 0 0 204 0.015372
0.046540 -0.088880 0.984916 0 0 153 0.005151
0.047378 -0.068980 0.989598 0 0 128 0.002137
0.046433 -0.074137 0.988189 0 0 128 0.001255
0.045121 -0.069205 0.988280 0 0 128 0.002465
0.044181 -0.074445 0.986867 0 0 128 0.001345
0.045406 -0.079383 0.986783 0 0 128 0.002527
0.047534 -0.078423 0.988366 0 0 128 0.002907
0.048554 -0.073271 0.989750 0 0 128 0.001327
0.042783 -0.069583 0.986762 0 0 128 0.002549
0.041876 -0.075001 0.985108 0 0 128 0.001799
0.040359 -0.069611 0.985304 0 0 128 0.002578
0.041052 -0.080525 0.983446 0 0 128 0.002583
0.043283 -0.079867 0.985232 0 0 128 0.002587
0.053487 -0.094538 0.987272 0 0 153 0.004625
0.054356 -0.098832 0.986367 0 0 255 0.019715
0.052660 -0.090327 0.988196 0 0 128 0.001319
0.054624 -0.088893 0.989826 0 0 128 0.000752
0.055441 -0.093113 0.988977 0 0 153 0.004015
0.056221 -0.097424 0.988130 0 0 229 0.019131
0.052859 -0.085426 0.989900 0 0 128 0.002681
0.053153 -0.080658 0.991645 0 0 179 0.011237
0.050902 -0.081627 0.990138 0 0 204 0.012023
0.050683 -0.086474 0.988454 0 0 153 0.004569
0.057459 -0.092016 0.990375 0 0 128 0.002337
0.058215 -0.096163 0.989553 0 0 204 0.011833
0.056823 -0.087937 0.991255 0 0 128 0.000292
0.058897 -0.086716 0.992720 0 0 128 0.000392
0.059526 -0.090808 0.991887 0 0 128 0.002232
0.060132 -0.094951 0.991027 0 0 179 0.010378
0.057257 -0.083311 0.992841 0 0 128 0.001826
0.057880 -0.078767 0.994515 0 0 153 0.007300
0.055556 -0.079697 0.993049 0 0 179 0.007930
0.055056 -0.084251 0.991437 0 0 128 0.002087
0.057425 -0.066748 0.995124 0 0 128 0.001594
0.055866 -0.071353 0.993875 0 0 128 0.000643
0.054851 -0.067273 0.993767 0 0 128 0.001448
0.053357 -0.071909 0.992508 0 0 128 0.000656
0.054449 -0.076003 0.992697 0 0 128 0.001782
0.056883 -0.075059 0.994115 0 0 128 0.001307
0.058431 -0.070423 0.995343 0 0 128 0.001116
0.052262 -0.067975 0.992343 0 0 128 0.001586
0.050947 -0.072824 0.991064 0 0 128 0.000846
0.049763 -0.068356 0.991038 0 0 128 0.002234
0.049769 -0.077710 0.989874 0 0 128 0.003260
0.052107 -0.076748 0.991291 0 0 128 0.002032
0.061545 -0.089838 0.993264 0 0 128 0.002212
0.062160 -0.093889 0.992458 0 0 179 0.008365
0.061075 -0.085864 0.994162 0 0 128 0.000681
0.063228 -0.084763 0.995587 0 0 128 0.001592
0.063631 -0.088734 0.994744 0 0 128 0.002813
0.064178 -0.092808 0.993958 0 0 179 0.009128
0.061655 -0.081395 0.995677 0 0 128 0.002691
0.062393 -0.077009 0.997240 0 0 179 0.008262
0.060064 -0.077894 0.995771 0 0 153 0.006624
0.059435 -0.082261 0.994245 0 0 128 0.001853
0.065761 -0.087835 0.996384 0 0 153 0.004619
0.066148 -0.091813 0.995534 0 0 204 0.012936
0.065332 -0.083926 0.997190 0 0 128 0.003787
0.066051 -0.079562 0.998780 0 0 153 0.006137
0.065692 -0.075733 0.999501 0 0 179 0.009154
0.063879 -0.080412 0.997173 0 0 153 0.004756
0.065397 -0.068387 0.999594 0 0 128 0.002679
0.064692 -0.064718 0.999329 0 0 128 0.002985
0.063240 -0.068967 0.998119 0 0 128 0.001533
0.063780 -0.072685 0.998373 0 0 128 0.003357
0.062332 -0.065440 0.997928 0 0 128 0.002236
0.060801 -0.069846 0.996746 0 0 128 0.000899
0.059945 -0.066025 0.996517 0 0 128 0.001505
0.059261 -0.074306 0.995561 0 0 128 0.002226
0.061566 -0.073422 0.996899 0 0 128 0.002399
0.014117 -0.062137 0.965168 0 0 179 0.007827
0.012430 -0.057774 0.964236 0 29 255 0.030475
0.012778 -0.065829 0.962146 0 0 128 0.000867
0.011172 -0.061402 0.961246 0 0 179 0.009556
0.009759 -0.064982 0.958357 0 0 128 0.003469
0.009617 -0.057124 0.960319 0 51 255 0.031785
0.011304 -0.069533 0.959206 0 0 153 0.004974
0.009924 -0.073273 0.956388 0 0 204 0.014392
0.011551 -0.074041 0.958137 0 0 229 0.015831
0.012942 -0.070241 0.961125 0 0 153 0.005037
0.013257 -0.074794 0.960043 0 0 229 0.019251
0.014646 -0.070943 0.963077 0 0 153 0.005247
0.014391 -0.066438 0.964168 0 0 128 0.000876
0.014985 -0.075552 0.961903 0 0 255 0.020965
0.008228 -0.060686 0.957544 0 0 204 0.014609
0.006858 -0.056734 0.956572 0 51 255 0.032336
0.006726 -0.064304 0.954913 0 0 179 0.009384
0.005462 -0.060287 0.953846 0 0 229 0.015981
0.003905 -0.063787 0.951455 0 0 204 0.013331
0.004161 -0.056401 0.952865 0 0 255 0.022973
0.005193 -0.067905 0.952334 0 0 179 0.010021
0.003720 -0.071597 0.949921 0 0 255 0.020963
0.006771 -0.072408 0.953099 0 0 255 0.021928
0.008220 -0.068643 0.955745 0 0 179 0.008116
0.007471 -0.083790 0.946458 0 0 229 0.019321
0.009271 -0.084227 0.947736 0 0 204 0.012584
0.008267 -0.080144 0.949503 0 0 179 0.010123
0.011069 -0.084659 0.949103 0 0 153 0.007202
0.010043 -0.080630 0.950997 0 0 153 0.007456
0.011799 -0.081162 0.952554 0 0 153 0.003970
0.012897 -0.085137 0.950566 0 0 153 0.007688
0.009046 -0.076647 0.952892 0 0 153 0.007523
0.010816 -0.077201 0.954521 0 0 153 0.005300
0.005907 -0.075779 0.949778 0 0 204 0.014492
0.005087 -0.079330 0.946728 0 29 255 0.030926
0.014671 -0.085914 0.952227 0 0 153 0.004334
0.016640 -0.086893 0.953925 0 0 128 0.003214
0.015254 -0.082729 0.956046 0 0 128 0.001435
0.018735 -0.087876 0.955645 0 0 128 0.002568
0.017284 -0.083671 0.957842 0 0 128 0.000926
0.016013 -0.079493 0.959936 0 0 153 0.006771
0.014196 -0.078755 0.958030 0 0 153 0.006291
0.012475 -0.078002 0.956234 0 0 153 0.005361
0.013503 -0.081921 0.954294 0 0 128 0.001591
0.023037 -0.032548 0.963193 0 0 179 0.010660
0.019351 -0.035666 0.962611 0 0 204 0.013612
0.019569 -0.032763 0.959922 0 0 229 0.017217
0.016051 -0.035843 0.959128 0 0 255 0.020497
0.015853 -0.038725 0.961843 0 29 255 0.028436
0.012712 -0.042169 0.960574 0 74 255 0.036510
0.015536 -0.042202 0.964369 0 163 255 0.052750
0.018862 -0.038877 0.965315 0 7 255 0.023567
0.016095 -0.032525 0.956743 0 7 255 0.026277
0.012711 -0.035592 0.955912 0 7 255 0.026415
0.012323 -0.032260 0.953717 0 74 255 0.038801
0.009239 -0.035603 0.952532 0 29 255 0.029545
0.009804 -0.038896 0.954586 0 0 229 0.017759
0.007205 -0.042401 0.953032 0 0 179 0.008899
0.009922 -0.042290 0.956805 0 0 255 0.021182
0.012796 -0.038869 0.958165 0 0 255 0.023333
0.006453 -0.052859 0.954561 0 0 179 0.009786
0.008514 -0.049218 0.956594 0 0 153 0.004478
0.009093 -0.053130 0.958367 0 0 179 0.010239
0.011184 -0.049467 0.960371 0 0 153 0.006174
0.010567 -0.045700 0.958671 0 0 204 0.011775
0.007982 -0.045877 0.954668 0 0 153 0.004405
0.005983 -0.049414 0.952632 0 0 204 0.011996
0.011808 -0.053331 0.962352 0 0 204 0.014218
0.013821 -0.049491 0.964595 0 0 204 0.015468
0.014569 -0.053880 0.966359 0 0 204 0.012700
0.016105 -0.045755 0.966453 0 7 255 0.025043
0.013234 -0.045740 0.962559 0 0 255 0.021697
0.002505 -0.059898 0.950726 0 0 229 0.017316
0.001250 -0.056322 0.949822 0 7 255 0.026267
0.000824 -0.063464 0.948616 0 0 229 0.017425
-0.000414 -0.059826 0.947797 0 0 255 0.020536
-0.002152 -0.063341 0.945961 0 29 255 0.027568
-0.001697 -0.056304 0.947044 0 7 255 0.026193
-0.000844 -0.067103 0.946715 0 0 255 0.020584
-0.002495 -0.070970 0.945125 0 0 255 0.022356
0.000618 -0.071245 0.947340 0 0 255 0.022775
0.002211 -0.067461 0.949308 0 0 204 0.015027
-0.003531 -0.059807 0.945485 0 7 255 0.027132
-0.004917 -0.056392 0.944893 0 0 255 0.023371
-0.005376 -0.063446 0.944225 0 0 255 0.023016
-0.006788 -0.059885 0.943633 0 0 255 0.021542
-0.008679 -0.063593 0.942710 0 0 229 0.017469
-0.008421 -0.056420 0.943172 0 0 229 0.018282
-0.007165 -0.067200 0.943168 0 0 255 0.019725
-0.009011 -0.071244 0.942375 0 0 204 0.013147
-0.005662 -0.071110 0.943636 0 0 255 0.021621
-0.003937 -0.067096 0.944579 0 7 255 0.025744
-0.007611 -0.088338 0.939320 0 0 204 0.013021
-0.006280 -0.083718 0.940583 0 0 153 0.007167
-0.004180 -0.087992 0.940215 0 0 204 0.013264
-0.004916 -0.079173 0.941790 0 0 229 0.017515
-0.002808 -0.083378 0.941475 0 0 229 0.016108
-0.001463 -0.078885 0.942867 0 96 255 0.040718
-0.000708 -0.087617 0.941151 0 0 204 0.013687
-0.003647 -0.074874 0.943250 0 29 255 0.030153
-0.006931 -0.075118 0.942069 0 0 229 0.017664
-0.008270 -0.079471 0.940786 0 0 179 0.010024
0.000622 -0.083210 0.942752 0 7 255 0.025290
0.002922 -0.087671 0.942476 0 0 204 0.015166
0.001765 -0.079064 0.944688 0 74 255 0.036521
0.004098 -0.083346 0.944331 0 29 255 0.030159
0.002741 -0.075178 0.947057 0 29 255 0.027655
-0.000388 -0.074882 0.944843 0 51 255 0.033519
-0.113254 -0.108721 0.884299 0 0 128 0.001501
-0.116166 -0.109128 0.881853 0 0 128 0.001293
-0.114236 -0.110690 0.879720 0 0 128 0.001882
-0.117193 -0.111269 0.877411 0 0 128 0.002286
-0.119119 -0.109673 0.879477 0 0 128 0.001580
-0.115243 -0.112954 0.875380 0 0 128 0.002807
-0.120177 -0.111907 0.875187 0 0 128 0.001126
-0.118200 -0.113644 0.873237 0 0 128 0.000751
-0.121229 -0.114404 0.871110 0 0 153 0.004834
-0.122103 -0.110255 0.877196 0 0 128 0.001207
-0.123117 -0.112630 0.873024 0 0 128 0.003543
-0.125082 -0.110926 0.874968 0 0 128 0.003794
-0.116254 -0.115363 0.871287 0 0 128 0.001084
-0.119225 -0.116091 0.869159 0 0 153 0.005832
-0.117208 -0.117881 0.867251 0 0 204 0.014118
-0.114259 -0.117416 0.869225 0 0 153 0.006994
-0.113314 -0.114927 0.873316 0 0 128 0.000851
-0.111339 -0.116926 0.871219 0 0 128 0.002495
-0.110365 -0.114525 0.875366 0 0 128 0.000438
-0.112304 -0.112565 0.877485 0 0 128 0.001641
-0.109352 -0.112233 0.879655 0 0 128 0.000942
-0.108424 -0.116502 0.873244 0 0 128 0.002325
-0.107451 -0.114161 0.877481 0 0 128 0.001105
-0.105514 -0.116164 0.875347 0 0 128 0.003668
-0.111340 -0.110420 0.881929 0 0 128 0.001328
-0.128336 -0.110777 0.872723 0 0 128 0.000747
-0.126470 -0.112511 0.870799 0 0 128 0.000748
-0.129842 -0.112474 0.868651 0 0 128 0.000165
-0.131635 -0.110741 0.870509 0 0 128 0.000381
-0.127951 -0.114244 0.866752 0 0 128 0.000442
-0.133167 -0.112475 0.866511 0 0 128 0.002123
-0.131339 -0.114234 0.864687 0 0 128 0.003462
-0.134636 -0.114173 0.862602 0 0 204 0.013876
-0.134986 -0.110725 0.868317 0 0 128 0.001329
-0.136528 -0.112445 0.864438 0 0 179 0.008564
-0.138348 -0.110738 0.866229 0 0 153 0.007660
-0.129373 -0.115961 0.862760 0 0 153 0.006331
-0.132732 -0.115897 0.860684 0 0 255 0.021783
-0.130657 -0.117605 0.858736 0 51 255 0.033767
-0.127276 -0.117754 0.860849 0 0 229 0.017551
-0.125887 -0.116011 0.864865 0 0 128 0.002204
-0.123829 -0.117798 0.862960 0 0 179 0.009444
-0.122520 -0.116035 0.866994 0 0 128 0.002784
-0.124541 -0.114285 0.868903 0 0 128 0.001008
-0.120490 -0.117825 0.865089 0 0 179 0.009085
-0.120060 -0.121735 0.849132 0 29 255 0.028130
-0.116854 -0.122098 0.851168 0 7 255 0.023989
-0.119582 -0.121623 0.853769 0 51 255 0.031611
-0.116345 -0.121864 0.855813 0 29 255 0.029761
-0.113745 -0.122453 0.853200 0 7 255 0.025412
-0.118897 -0.120862 0.858332 0 7 255 0.027239
-0.113200 -0.122077 0.857815 0 7 255 0.024311
-0.115685 -0.121010 0.860363 0 7 255 0.027064
-0.112500 -0.121106 0.862413 0 7 255 0.024307
-0.110676 -0.122670 0.855199 0 7 255 0.027047
-0.110089 -0.122248 0.859855 0 29 255 0.027476
-0.107653 -0.122957 0.857267 0 51 255 0.033289
-0.118082 -0.119540 0.862833 0 0 229 0.015941
-0.114884 -0.119616 0.864878 0 0 255 0.020328
-0.121402 -0.119467 0.860702 0 0 229 0.016914
-0.124802 -0.119345 0.858570 0 7 255 0.026143
-0.122232 -0.120683 0.856211 0 51 255 0.031521
-0.125573 -0.120414 0.854069 0 141 255 0.047998
-0.128196 -0.119142 0.856428 0 96 255 0.041761
-0.122860 -0.121269 0.851623 0 74 255 0.036159
-0.104924 -0.122823 0.859013 0 0 255 0.021459
-0.107313 -0.121863 0.861863 0 0 229 0.015743
-0.104555 -0.121705 0.863650 0 0 179 0.010966
-0.102272 -0.122754 0.860835 0 0 229 0.018992
-0.106817 -0.120231 0.866423 0 0 153 0.004661
-0.101830 -0.121617 0.865542 0 0 204 0.011725
-0.104020 -0.120071 0.868250 0 0 153 0.004274
-0.101284 -0.120044 0.870167 0 0 179 0.008923
-0.099634 -0.122729 0.862782 0 0 255 0.021312
-0.099118 -0.121663 0.867511 0 0 229 0.019219
-0.096942 -0.122749 0.864716 0 7 255 0.024759
-0.106189 -0.118245 0.870886 0 0 128 0.002863
-0.103391 -0.118131 0.872765 0 0 153 0.004457
-0.109064 -0.118655 0.868827 0 0 128 0.003177
-0.111957 -0.119159 0.866846 0 0 179 0.007925
-0.109623 -0.120622 0.864386 0 0 179 0.007838
-0.082240 -0.121519 0.875729 0 29 255 0.030897
-0.081829 -0.122586 0.871079 0 0 204 0.013098
-0.085449 -0.121818 0.873373 0 7 255 0.026133
-0.081363 -0.123179 0.866289 0 0 153 0.005501
-0.085045 -0.122915 0.868680 0 0 204 0.015611
-0.084520 -0.123424 0.863865 0 0 204 0.011901
-0.088679 -0.122198 0.871007 0 7 255 0.024514
-0.080830 -0.123266 0.861366 0 0 128 0.001944
-0.080251 -0.123196 0.856456 0 0 128 0.001396
-0.077393 -0.123344 0.858404 0 0 128 0.002513
-0.077949 -0.123333 0.863328 0 0 153 0.003937
-0.078450 -0.123224 0.868276 0 0 179 0.010966
-0.074529 -0.123388 0.860341 0 0 128 0.002876
-0.090771 -0.122268 0.869394 0 0 229 0.019319
-0.088564 -0.122993 0.866148 0 0 204 0.012685
-0.090611 -0.123023 0.864572 0 0 229 0.016463
-0.092814 -0.122409 0.867811 0 0 255 0.020018
-0.088352 -0.123237 0.861220 0 0 153 0.007691
-0.092599 -0.123076 0.863014 0 0 229 0.016007
-0.090305 -0.123165 0.859672 0 0 153 0.005348
-0.092336 -0.123175 0.858139 0 0 153 0.006481
-0.094875 -0.122561 0.866246 0 0 255 0.019777
-0.094665 -0.123241 0.861467 0 0 229 0.016583
-0.088066 -0.122972 0.856255 0 0 128 0.000917
-0.090041 -0.122942 0.854732 0 0 128 0.001508
-0.087729 -0.122589 0.851261 0 0 128 0.000924
-0.084002 -0.122900 0.853821 0 0 128 0.000611
-0.084266 -0.123148 0.858840 0 0 128 0.001981
-0.079728 -0.124688 0.837122 0 0 255 0.023266
-0.079712 -0.123338 0.841546 0 0 255 0.019910
-0.075977 -0.124716 0.839229 0 74 255 0.035203
-0.079800 -0.122735 0.846306 0 0 255 0.021674
-0.075993 -0.123423 0.843692 0 51 255 0.033637
-0.076117 -0.123029 0.848614 0 0 179 0.011354
-0.072243 -0.124893 0.841372 0 7 255 0.023609
-0.080027 -0.122807 0.851333 0 0 128 0.002889
-0.083753 -0.122542 0.848750 0 0 153 0.004490
-0.083537 -0.122715 0.843839 0 0 229 0.015963
-0.072668 -0.123564 0.845778 0 0 255 0.020994
-0.069364 -0.124970 0.843041 0 0 255 0.020873
-0.073237 -0.122989 0.850502 0 0 204 0.014786
-0.069830 -0.123641 0.847518 0 0 255 0.022720
-0.070419 -0.123123 0.852272 0 0 204 0.013044
-0.066511 -0.125101 0.844744 0 0 229 0.017242
-0.073844 -0.123001 0.855414 0 0 128 0.002962
-0.076719 -0.122992 0.853485 0 0 128 0.002423
-0.101120 -0.124831 0.825524 0 0 204 0.014522
-0.098210 -0.124642 0.827047 0 0 255 0.021294
-0.099928 -0.122852 0.830032 0 0 255 0.020498
-0.097075 -0.122868 0.831549 0 7 255 0.024399
-0.095352 -0.124506 0.828540 0 7 255 0.023925
-0.099036 -0.121799 0.834659 0 0 229 0.019340
-0.094273 -0.122878 0.833043 0 7 255 0.027025
-0.096213 -0.121952 0.836200 0 0 229 0.017413
-0.093455 -0.122162 0.837762 0 0 204 0.013892
-0.092537 -0.124462 0.830037 0 7 255 0.023803
-0.091527 -0.123040 0.834586 0 0 255 0.022285
-0.089734 -0.124537 0.831588 0 0 255 0.020739
-0.098334 -0.121565 0.839495 0 0 179 0.009595
-0.095562 -0.121893 0.841118 0 0 153 0.005641
-0.097749 -0.121960 0.844608 0 0 128 0.001740
-0.100497 -0.121600 0.842743 0 0 128 0.003624
-0.101094 -0.121333 0.837743 0 0 204 0.012539
-0.103285 -0.121335 0.840946 0 0 153 0.005153
-0.103874 -0.121153 0.836019 0 0 204 0.012349
-0.101819 -0.121737 0.832964 0 0 229 0.017193
-0.104667 -0.121738 0.831262 0 0 204 0.013731
-0.106088 -0.121039 0.839182 0 0 179 0.009201
-0.106730 -0.121027 0.834306 0 0 229 0.016093
-0.108983 -0.120888 0.837444 0 0 179 0.008213
-0.102782 -0.123004 0.828337 0 0 204 0.014362
-0.087271 -0.124493 0.832931 0 7 255 0.025226
-0.089081 -0.122945 0.836047 0 29 255 0.027347
-0.086560 -0.123002 0.837416 0 29 255 0.029131
-0.084766 -0.124468 0.834277 0 74 255 0.038239
-0.088544 -0.122258 0.840844 0 0 229 0.018662
-0.084099 -0.123189 0.838891 0 29 255 0.029376
-0.086057 -0.122442 0.842307 0 0 229 0.016517
-0.082252 -0.124514 0.835681 0 29 255 0.027699
-0.088120 -0.122236 0.845957 0 0 179 0.009944
-0.090275 -0.122395 0.849548 0 0 128 0.001315
-0.090616 -0.122014 0.844291 0 0 179 0.008361
-0.092776 -0.122235 0.847878 0 0 128 0.001791
-0.093079 -0.121949 0.842690 0 0 153 0.006730
-0.091012 -0.122129 0.839257 0 0 229 0.017546
-0.095270 -0.122026 0.846201 0 0 128 0.002335
-0.097288 -0.123072 0.859713 0 0 204 0.011809
-0.099891 -0.122899 0.857783 0 0 153 0.007587
-0.097500 -0.122747 0.854690 0 0 128 0.001247
-0.102486 -0.122873 0.855921 0 0 179 0.008355
-0.100074 -0.122616 0.852797 0 0 128 0.001146
-0.102635 -0.122677 0.851034 0 0 128 0.003771
-0.105119 -0.122902 0.854146 0 0 204 0.014142
-0.097665 -0.122297 0.849595 0 0 128 0.000629
-0.100155 -0.122316 0.847863 0 0 128 0.001278
-0.095134 -0.122449 0.851249 0 0 128 0.000524
-0.092608 -0.122642 0.852968 0 0 128 0.000491
-0.094938 -0.122920 0.856392 0 0 128 0.002173
-0.108082 -0.122670 0.852277 0 0 179 0.011652
-0.111047 -0.122325 0.850241 0 0 179 0.008306
-0.108355 -0.121980 0.847300 0 0 128 0.001567
-0.114079 -0.122057 0.848269 0 0 179 0.011696
-0.111309 -0.121637 0.845312 0 0 128 0.001399
-0.114342 -0.121370 0.843293 0 0 128 0.002577
-0.117215 -0.121721 0.846228 0 0 204 0.014798
-0.108632 -0.121267 0.842321 0 0 128 0.002990
-0.111586 -0.120972 0.840329 0 0 128 0.003411
-0.105760 -0.121647 0.844165 0 0 128 0.001052
-0.102955 -0.121947 0.845978 0 0 128 0.000686
-0.105474 -0.122350 0.849152 0 0 128 0.001720
-0.085423 -0.045104 0.947155 0 29 255 0.031215
-0.085654 -0.046089 0.945238 0 7 255 0.026775
-0.084584 -0.043075 0.943345 0 0 204 0.012094
-0.084623 -0.044012 0.941509 0 0 179 0.010573
-0.085595 -0.047021 0.943292 0 0 255 0.021884
-0.083748 -0.040769 0.939664 0 0 128 0.002436
-0.084683 -0.044916 0.939615 0 0 128 0.001635
-0.083826 -0.041671 0.937885 0 0 128 0.002370
-0.083852 -0.042506 0.935956 0 0 128 0.003345
-0.085672 -0.047927 0.941439 0 0 255 0.021782
