ply
format ascii 1.0
comment Seamless Cloth Simulation with High Geometric Fidelity 
comment Thu Mar 21 14:21:58 2019
element vertex 1194
property float x
property float y
property float z
property float quality
end_header
-0.0460256 0.0132409 6.41207 0.00032528 
-0.0655145 0.0139139 6.40327 0.000407568 
-0.0240827 0.0299228 6.36842 0.00295911 
-0.0545981 0.0217834 6.3813 0.000499149 
-0.0437722 0.0300501 6.35946 0.00226337 
-0.0571012 0.00549265 6.4341 0.000500084 
-0.0766208 0.00637643 6.42539 0.000518625 
-0.0875542 -0.00101584 6.44749 0.00219423 
-0.0691848 -0.00158874 6.45555 0.00271561 
-0.0385557 0.0048143 6.4422 0.000467868 
-0.050705 -0.00232981 6.46375 0.00305698 
-0.0198321 0.00397086 6.45023 0.000368464 
-0.00761214 0.0117108 6.42863 0.000788648 
-0.0320234 -0.0033756 6.47182 0.00227697 
-0.0631164 0.0309878 6.35131 0.00309866 
-0.0731053 0.02251 6.37389 0.000454746 
-0.0922968 0.02359 6.36581 0.000641777 
-0.082442 0.0317122 6.34315 0.00343441 
-0.102237 0.0156685 6.38859 7.14242e-05 
-0.111585 0.0245241 6.35755 0.000704482 
-0.121327 0.016761 6.38036 8.03496e-05 
-0.101894 0.0323726 6.33486 0.00307145 
-0.131099 0.00907513 6.40282 0.000706533 
-0.141699 0.00200238 6.42469 0.00288797 
-0.112984 0.0083617 6.41057 0.000809571 
-0.123688 0.00120704 6.4323 0.00355261 
-0.0948577 0.00746504 6.41803 0.000659682 
-0.0838701 0.0148092 6.39594 0.000148412 
-0.105642 0.000166244 6.43998 0.00313765 
-0.170845 -0.031653 6.49202 0.00174329 
-0.154192 -0.0321008 6.49889 0.00143497 
-0.143239 -0.0214944 6.47716 5.72034e-05 
-0.137346 -0.0330877 6.50592 0.00124561 
-0.12643 -0.0221971 6.48396 7.42591e-05 
-0.109604 -0.0229266 6.49102 0.000111723 
-0.120611 -0.0337852 6.51269 0.000935805 
-0.115576 -0.0113725 6.46226 0.000494649 
-0.0986168 -0.0119877 6.46931 0.000524331 
-0.13346 -0.0101828 6.45461 0.000584926 
-0.151441 -0.00910629 6.44681 0.000683695 
-0.161038 -0.0203289 6.46933 6.4696e-05 
-0.102513 -0.034756 6.52118 0.000788964 
-0.0855347 -0.0351913 6.52913 0.000759975 
-0.0733012 -0.0245153 6.50808 6.25938e-05 
-0.0683719 -0.0358155 6.5367 0.000756594 
-0.0560842 -0.0251315 6.51577 6.91396e-05 
-0.0434545 -0.0145863 6.49406 0.000450872 
-0.0620728 -0.013481 6.48611 0.000693891 
-0.0804231 -0.012591 6.47778 0.000714357 
-0.0914887 -0.0237085 6.49969 5.83234e-05 
0.177351 0.00101013 6.08645 0.00162486 
0.168219 0.00810237 6.10342 0.00141413 
0.14755 0.00780658 6.09243 0.00167468 
0.156671 0.000732728 6.07539 0.00204906 
0.138238 0.0146063 6.10961 0.00185213 
0.126771 0.0070963 6.08144 0.00127945 
0.117576 0.0138755 6.09863 0.001706 
0.0967702 0.0128984 6.08758 0.00112574 
0.135955 0.000116208 6.06441 0.00186054 
0.105961 0.00618198 6.07034 0.00114963 
0.115036 -0.000794954 6.05336 0.00151875 
0.108084 0.0203316 6.11597 0.00220321 
0.0873147 0.019205 6.10497 0.00167471 
0.0777273 0.0252282 6.12247 0.00324579 
0.0988887 0.0262651 6.1332 0.00424373 
0.129083 0.0209305 6.12664 0.00297172 
0.119815 0.0269412 6.14381 0.00534776 
0.15008 0.0212265 6.13721 0.00288498 
0.15928 0.014868 6.12024 0.00179604 
0.140727 0.0272718 6.15449 0.00510367 
0.0963249 -0.00127676 6.04315 0.00184182 
0.086704 0.00591583 6.06067 0.00138574 
0.0679248 0.00520895 6.05056 0.00135291 
0.0775776 -0.00192753 6.03294 0.00174862 
0.0581397 0.011906 6.06826 0.000771645 
0.0491074 0.00420829 6.04029 0.00103798 
0.0393684 0.0109034 6.05803 0.000652749 
0.0206478 0.00982278 6.04788 0.000268118 
0.0586704 -0.00278143 6.02263 0.00153141 
0.0303341 0.00316844 6.03004 0.000756795 
0.039871 -0.00376961 6.0123 0.0013238 
0.029471 0.0173037 6.07596 0.000832155 
0.0107068 0.0161295 6.06587 0.000588051 
0.000754803 0.0223735 6.08396 0.00160312 
0.0200788 0.0233047 6.09357 0.00209586 
0.0488568 0.0180923 6.08564 0.00136923 
0.0394128 0.0241067 6.10323 0.00313714 
0.0681255 0.0188222 6.09535 0.00185667 
0.0775287 0.0125635 6.07788 0.00153469 
0.0586069 0.0247591 6.1129 0.00340724 
-0.0399381 0.0389937 6.15993 0.00136047 
-0.0200208 0.0394376 6.1694 0.0017631 
-0.010405 0.0351531 6.15096 0.000393638 
0.00943753 0.0354293 6.1602 0.000485307 
-0.000154401 0.0396474 6.17876 0.0020467 
0.0189673 0.0317549 6.14163 0.000213908 
0.0291062 0.0358824 6.16952 0.000585494 
0.0387416 0.0320117 6.15078 0.000421322 
0.0584452 0.0321422 6.16003 0.000391686 
0.0195857 0.0397416 6.1881 0.00207139 
0.0488122 0.0358681 6.1787 0.000452735 
0.0390811 0.0398136 6.19733 0.00182211 
0.048312 0.0284356 6.13211 0.000915494 
0.0680978 0.0286654 6.14129 0.000923875 
0.0292072 0.0278579 6.12241 0.000668052 
0.00989131 0.0270768 6.11276 0.000501983 
-0.000253527 0.0309194 6.13198 0.000181406 
-0.0195252 0.0302174 6.12226 0.000378789 
-0.00941094 0.0261338 6.10315 0.000444514 
-0.0296702 0.0345381 6.14124 0.000424271 
0.0600784 0.0404515 6.20775 0.00236824 
0.0695937 0.0367756 6.18946 0.000616504 
0.0905621 0.0372791 6.19978 0.000751899 
0.0809675 0.0409274 6.21806 0.00272878 
0.100115 0.0337579 6.18144 0.000586783 
0.111457 0.0374522 6.21008 0.000813101 
0.121052 0.0339826 6.19166 0.000594103 
0.101802 0.0411306 6.22843 0.00282273 
0.130727 0.0306825 6.17329 0.00155645 
0.109943 0.0303725 6.16262 0.00168871 
0.0890719 0.029702 6.15193 0.00132701 
0.0793233 0.0331266 6.17073 0.000401623 
-0.111553 0.0364588 6.30475 0.00094723 
-0.130264 0.0378839 6.29673 0.000887489 
-0.120539 0.0414918 6.27574 0.000133885 
-0.101672 0.0402228 6.28361 0.000308836 
-0.139465 0.0426881 6.26761 9.21042e-05 
-0.110691 0.0447582 6.25475 0.00170997 
-0.129839 0.0459383 6.24678 0.00192562 
-0.120009 0.0485855 6.22581 0.00594591 
-0.0916197 0.0435428 6.26247 0.00141575 
-0.100733 0.0475089 6.23362 0.0052555 
-0.0814702 0.0463934 6.24133 0.005082 
-0.148994 0.0469882 6.23866 0.00185089 
-0.139325 0.0496727 6.21785 0.00618652 
-0.158518 0.0507605 6.20982 0.0063359 
-0.168678 0.0481023 6.23075 0.00177158 
-0.159074 0.0438876 6.25967 5.01493e-05 
-0.178664 0.0450183 6.25166 3.75939e-05 
-0.169114 0.0405946 6.28084 0.000922143 
-0.149641 0.0391956 6.28886 0.000863664 
-0.188568 0.0418847 6.27277 0.000901448 
-0.0709654 0.0449023 6.22098 0.0013629 
-0.0892057 0.0455367 6.21306 0.00149682 
-0.07865 0.0436477 6.19271 0.000309263 
-0.0603941 0.0429819 6.20053 0.000362914 
-0.0970646 0.0442078 6.1847 0.000129552 
-0.0681656 0.0415536 6.17238 0.000728052 
-0.086567 0.0420914 6.16434 0.000545945 
-0.0764142 0.0400887 6.1441 0.00203607 
-0.0500098 0.0409921 6.18013 0.00065567 
-0.0580532 0.0395634 6.15206 0.00191088 
-0.105084 0.0427291 6.15641 0.000542191 
-0.0947851 0.04057 6.1361 0.00215079 
-0.113251 0.0412282 6.12826 0.00246982 
-0.12467 0.0438388 6.14883 0.000751719 
-0.116653 0.0453301 6.17702 5.60229e-05 
-0.136166 0.0464826 6.16938 0.00013591 
-0.128071 0.0476726 6.19749 0.00168158 
-0.108584 0.0465538 6.20532 0.00150681 
-0.147473 0.0488639 6.18968 0.00199952 
-0.18658 0.0436535 6.0974 0.00301788 
-0.19942 0.0473448 6.1184 0.00151902 
-0.179599 0.0457211 6.12559 0.000665968 
-0.192411 0.0491714 6.14633 0.000858594 
-0.212119 0.0507372 6.13907 0.00179084 
-0.172623 0.0476051 6.15361 0.000113209 
-0.204973 0.0520489 6.16671 0.00249476 
-0.185263 0.0507397 6.17422 0.0019164 
-0.197785 0.0531477 6.19454 0.00662505 
-0.224623 0.0534893 6.15926 0.00469373 
-0.217399 0.0543567 6.18687 0.00737681 
-0.236981 0.0557057 6.17929 0.00987693 
-0.165571 0.049379 6.18167 0.00160865 
-0.17818 0.051953 6.20215 0.00650072 
-0.154449 0.0469886 6.16149 7.52852e-05 
-0.143102 0.0443571 6.1411 0.000642743 
-0.161386 0.0449607 6.13333 0.000573473 
-0.150092 0.042166 6.11283 0.00197093 
-0.131757 0.0416384 6.12053 0.00213572 
-0.168397 0.0428467 6.10514 0.00227147 
-0.247838 0.0532299 6.20002 0.00254521 
-0.227301 0.0515579 6.20728 0.00165565 
-0.238055 0.0488208 6.22827 0.000143295 
-0.25845 0.0504873 6.22074 0.000610159 
-0.217627 0.0472844 6.23575 0.000167722 
-0.248798 0.0463847 6.24943 0.00150532 
-0.228433 0.0445787 6.25702 0.00100624 
-0.268948 0.0480816 6.24165 0.00211654 
-0.207984 0.0429565 6.26466 0.000830971 
-0.198144 0.0461586 6.24373 7.37623e-05 
-0.188235 0.0491911 6.22291 0.00160851 
-0.207786 0.050311 6.21505 0.00141026 
-0.0950106 -0.00944666 5.93652 0.00162007 
-0.105699 -0.00232353 5.95652 0.000483693 
-0.0885733 -0.0020876 5.96512 0.000294202 
-0.0994636 0.00511427 5.98499 5.27749e-05 
-0.116632 0.00493788 5.97655 0.000110723 
-0.0820329 0.00541145 5.99361 9.27913e-05 
-0.110354 0.0125456 6.00502 0.000276858 
-0.0929805 0.0127489 6.01349 0.00023833 
-0.103934 0.020307 6.0332 0.00115341 
-0.127579 0.0124326 5.99655 0.000464638 
-0.121307 0.0201747 6.02478 0.00140123 
-0.138593 0.020185 6.01633 0.00199459 
-0.07555 0.0131826 6.02193 0.000254867 
-0.0864778 0.0206829 6.04171 0.00133388 
-0.0690318 0.0211759 6.05022 0.00166676 
-0.0585507 0.0142103 6.03133 0.000385637 
-0.0651052 0.00633103 6.00297 3.10222e-05 
-0.0480975 0.00739033 6.01236 2.02808e-05 
-0.0547505 -0.000437242 5.98402 0.000336394 
-0.0716641 -0.00137934 5.97453 0.000265849 
-0.0614517 -0.00815622 5.95544 0.00107856 
-0.0377534 0.000619525 5.99341 0.000533101 
-0.0444981 -0.00730902 5.96493 0.00126491 
-0.0274993 -0.0063013 5.97448 0.00166042 
-0.0783027 -0.0089254 5.946 0.00111894 
-0.150344 0.0257021 6.03675 0.000518729 
-0.132166 0.0251204 6.04443 0.000293979 
-0.144056 0.0307708 6.06476 0.000157181 
-0.162338 0.0314817 6.05712 0.000163776 
-0.125776 0.0302718 6.07236 0.000256376 
-0.156148 0.0366667 6.08488 0.000407994 
-0.137824 0.0360883 6.09254 0.000356464 
-0.17444 0.0374826 6.07733 0.000678121 
-0.119439 0.0356053 6.1003 0.000355658 
-0.101957 0.0358308 6.10888 0.000491424 
-0.108362 0.0304364 6.08087 0.000154717 
-0.0908399 0.0306951 6.08953 0.000107986 
-0.0974371 0.0254603 6.06139 0.000304367 
-0.114824 0.0252325 6.05295 0.000277358 
-0.0799152 0.0257837 6.06996 0.000353071 
-0.0469522 0.0344618 6.13273 0.000367487 
-0.0367524 0.0300463 6.11382 0.000308686 
-0.054084 0.0300146 6.10532 0.000227849 
-0.0266706 0.0258563 6.09476 0.000291496 
-0.0440749 0.025722 6.08632 0.000321792 
-0.0340674 0.0217236 6.0672 0.00153449 
-0.0165914 0.0220023 6.07564 0.00163897 
-0.0615569 0.0255706 6.07783 0.000306774 
-0.0514968 0.0213858 6.0587 0.00153077 
-0.0725017 0.0303415 6.09744 0.000137582 
-0.0835598 0.0353387 6.11682 0.000413373 
-0.0652154 0.034872 6.12475 0.000378045 
-0.00604089 0.0153235 6.05658 0.000531228 
0.00382662 0.00905026 6.03849 0.00024255 
-0.0129823 0.00827689 6.02923 4.85649e-05 
0.0135377 0.00252038 6.02067 0.000846072 
-0.00330512 0.00186222 6.01123 0.000679546 
0.00625503 -0.00489754 5.99337 0.00161663 
0.0230496 -0.00429627 6.00288 0.00161344 
-0.0202334 0.00104896 6.00185 0.00060221 
-0.0106774 -0.00563695 5.98383 0.00161375 
-0.0305809 0.00785635 6.02086 3.08724e-05 
-0.0409769 0.014583 6.03983 0.000405104 
-0.0235286 0.014991 6.04824 0.000460952 
0.0917595 0.0422938 6.24835 0.000983014 
0.0710045 0.0421358 6.23795 0.000957294 
0.0610131 0.0434286 6.2577 0.000678875 
0.0501721 0.0416317 6.22755 0.000807697 
0.040223 0.0431125 6.24727 0.000646761 
0.0194138 0.0426325 6.23675 0.000767058 
0.0292278 0.0411464 6.21712 0.000699945 
0.0301822 0.0445226 6.26691 0.00236217 
0.00923278 0.0440861 6.25642 0.0021059 
-0.00119665 0.0451845 6.27624 0.00527771 
0.0195995 0.0454589 6.28596 0.00596119 
0.0506304 0.0447958 6.27671 0.00276197 
0.0401864 0.0457216 6.29571 0.0063892 
0.0709401 0.044838 6.28652 0.00243652 
0.0813776 0.0434692 6.26745 0.000900342 
0.0605603 0.0459099 6.30554 0.00780526 
0.00945082 0.0413548 6.20842 0.00078706 
-0.0102335 0.0413623 6.19911 0.000718753 
-0.0205658 0.0432306 6.21937 0.000756827 
-0.0301077 0.0413408 6.18978 0.000693256 
-0.0404411 0.0432535 6.21 0.000220084 
-0.0509728 0.0449773 6.23044 0.00170781 
-0.0612117 0.0462622 6.25025 0.00595717 
-0.0308589 0.0447975 6.23915 0.00180783 
-0.0412032 0.0460322 6.25895 0.00635722 
-0.0107545 0.0445283 6.24775 0.00255032 
-0.000464528 0.0430029 6.22804 0.000647623 
-0.0212076 0.0456739 6.2676 0.00630692 
-0.0917429 0.0360219 6.31391 0.0009767 
-0.072139 0.035636 6.32222 0.00117347 
-0.0616758 0.039441 6.30147 0.00018018 
-0.0526049 0.0350673 6.33036 0.00107349 
-0.0420872 0.039125 6.30957 0.000690422 
-0.0224829 0.0385853 6.31763 0.000730093 
-0.0331909 0.0343575 6.3385 0.00099517 
-0.0315271 0.0426525 6.28895 0.00254424 
-0.0119197 0.042254 6.29705 0.0023477 
-0.0514043 0.0430629 6.2802 0.00273477 
-0.0713963 0.0433522 6.27136 0.00169245 
-0.0816411 0.0398829 6.29251 0.000154063 
-0.0126412 0.0343492 6.34818 0.00120354 
0.00725405 0.0345356 6.35709 0.00180731 
0.0188024 0.0388196 6.3371 0.000881054 
0.0271488 0.0345369 6.36594 0.00181845 
0.0386282 0.0390115 6.34602 0.000954543 
0.0500777 0.0428427 6.32618 0.00349828 
0.0295634 0.0426858 6.31641 0.00357212 
0.00887767 0.0424582 6.30669 0.00260158 
-0.0018769 0.0387872 6.32738 0.000808058 
-0.301829 0.0467809 6.25505 0.00733915 
-0.307547 0.0393551 6.27854 0.00182267 
-0.32959 0.0405059 6.27075 0.00154226 
-0.323955 0.0479409 6.24764 0.00726209 
-0.335342 0.0333687 6.29422 0.000176712 
-0.35121 0.0416839 6.26299 0.00239537 
-0.356857 0.0344685 6.28621 0.000102668 
-0.37828 0.03538 6.27841 0.000450344 
-0.345622 0.0492327 6.24046 0.00841717 
-0.372669 0.0428459 6.25541 0.0023632 
-0.366998 0.0506838 6.23333 0.0106116 
-0.362686 0.0273593 6.30996 0.00225892 
-0.38399 0.0280315 6.30183 0.00178903 
-0.389773 0.0207136 6.32545 0.00697815 
-0.370048 0.0198315 6.33325 0.00739739 
-0.342527 0.0257184 6.31739 0.00120992 
-0.350122 0.0185866 6.34083 0.00697403 
-0.322276 0.0241743 6.32489 0.000952762 
-0.314754 0.0315983 6.30132 8.92644e-05 
-0.32988 0.0170211 6.3486 0.00549833 
-0.392053 0.0522524 6.22481 0.0110527 
-0.391471 0.0443444 6.25063 0.00305577 
-0.416225 0.0456123 6.24193 0.00324877 
-0.416952 0.054376 6.21655 0.0122754 
-0.415733 0.0377026 6.2681 0.00172056 
-0.440602 0.0472568 6.23303 0.00558574 
-0.440127 0.0383495 6.25866 0.00139819 
-0.464662 0.0396048 6.24943 0.00240842 
-0.441446 0.0568094 6.20826 0.0183253 
-0.465421 0.0494474 6.2244 0.00601245 
-0.466428 0.0598449 6.20019 0.0201288 
-0.439706 0.0301818 6.28471 0.0049916 
-0.463761 0.0301975 6.27472 0.00328741 
-0.462967 0.0215016 6.30046 0.00777314 
-0.445016 0.0216073 6.30681 0.0100178 
-0.421171 0.0294576 6.29046 0.00366412 
-0.426743 0.0213868 6.31293 0.00774913 
-0.402748 0.0287811 6.29619 0.00234068 
-0.397173 0.0366121 6.27322 0.000329384 
-0.408466 0.0211703 6.31918 0.00778606 
-0.444638 -0.0166912 6.37541 0.00290478 
-0.429089 -0.0162636 6.38248 0.00373034 
-0.426352 -0.00377408 6.35935 0.000770253 
-0.413547 -0.0160474 6.38997 0.00364034 
-0.410909 -0.00355467 6.36644 0.000960268 
-0.395077 -0.0041555 6.37292 0.000616237 
-0.397755 -0.016546 6.39696 0.00267146 
-0.408093 0.00857745 6.34261 0.0019037 
-0.392252 0.00797017 6.34895 0.00164197 
-0.426474 0.00872157 6.336 0.00227942 
-0.44473 0.0084379 6.32909 0.00322902 
-0.444503 -0.00435066 6.35215 0.00107233 
-0.462625 -0.00509202 6.34474 0.00135193 
-0.462937 0.00814381 6.32262 0.00350306 
-0.462769 -0.0177814 6.36739 0.0029599 
-0.378543 -0.0174088 6.40607 0.00236015 
-0.361373 -0.0183364 6.41385 0.00217146 
-0.35614 -0.00585455 6.39031 0.00069472 
-0.3441 -0.0196013 6.42141 0.00213244 
-0.338593 -0.0072038 6.39723 0.000349157 
-0.333099 0.00506101 6.3735 0.00222184 
-0.353199 0.00662562 6.36579 0.00285702 
-0.372828 0.00736285 6.35728 0.00198996 
-0.375738 -0.00481375 6.38172 0.000589536 
-0.486797 0.0586638 6.20393 0.0191691 
-0.501336 0.0484449 6.22604 0.00577051 
-0.507119 0.057437 6.20725 0.0147469 
-0.495664 0.0400144 6.24533 0.00263815 
-0.521574 0.0465831 6.22918 0.00585955 
-0.515539 0.0378009 6.24822 0.003123 
-0.535882 0.0358188 6.2512 0.00368472 
-0.527453 0.0562009 6.2105 0.015872 
-0.54186 0.0451032 6.23236 0.00702964 
-0.548318 0.0553048 6.21403 0.0202267 
-0.510071 0.0298338 6.26768 0.00375123 
-0.530328 0.0273226 6.27037 0.00527849 
-0.52458 0.0191088 6.28956 0.0135394 
-0.493895 0.0202952 6.29484 0.0109408 
-0.571706 0.0427982 6.23314 0.00549288 
-0.579601 0.0514246 6.21585 0.0140586 
-0.563685 0.033842 6.25054 0.00343486 
-0.594823 0.0299809 6.25261 0.00527325 
-0.602978 0.039266 6.23522 0.0102913 
-0.611709 0.0484897 6.2178 0.0231498 
-0.571398 0.0231267 6.26869 0.00434207 
-0.579461 0.0132891 6.28716 0.015712 
-0.551772 0.0154921 6.28807 0.011457 
-0.552585 -0.026915 6.34194 0.0041805 
-0.543332 -0.0116097 6.32483 0.00302984 
-0.529685 -0.0236954 6.34741 0.00593117 
-0.520041 -0.00921002 6.32964 0.00399929 
-0.534104 0.00370588 6.30731 0.00397922 
-0.56122 0.000224195 6.3057 0.00468941 
-0.570528 -0.0158248 6.3228 0.00253586 
-0.502682 -0.0209943 6.35391 0.0047242 
-0.489575 -0.00661247 6.33654 0.00395506 
-0.491593 0.0064836 6.31532 0.00388659 
-0.290055 0.0484521 6.23275 0.00114236 
-0.27982 0.0510055 6.21218 0.000590689 
-0.300878 0.0514901 6.20383 0.00108313 
-0.269235 0.0536968 6.19177 0.001609 
-0.290402 0.0543106 6.1836 0.00122474 
-0.279868 0.0569876 6.16336 0.00769232 
-0.258521 0.056318 6.17128 0.00844842 
-0.311338 0.0551255 6.1756 0.00200664 
-0.300815 0.0579196 6.15554 0.00851926 
-0.321557 0.0590378 6.1477 0.00982106 
-0.333221 0.0570404 6.16907 0.00313315 
-0.322884 0.0531449 6.19714 0.000681632 
-0.344466 0.0549648 6.19038 0.00184067 
-0.334332 0.0511583 6.21868 0.00180462 
-0.312479 0.0496385 6.22548 0.00123995 
-0.355853 0.0528126 6.21182 0.00426302 
-0.244196 0.053204 6.15 0.00277816 
-0.231728 0.0504921 6.12981 0.000730884 
-0.251173 0.0505304 6.12066 0.000355877 
-0.219141 0.0472866 6.10925 0.00083305 
-0.238691 0.0474337 6.10008 0.000923026 
-0.226158 0.0439064 6.07928 0.00205944 
-0.206505 0.0437406 6.08836 0.00236412 
-0.258036 0.0477136 6.09104 0.000732096 
-0.245505 0.0442051 6.07028 0.00240957 
-0.264586 0.0447047 6.06143 0.00364253 
-0.27914 0.0493635 6.08369 0.00222311 
-0.272536 0.0518522 6.11305 0.00113803 
-0.293575 0.0533594 6.1055 0.00253558 
-0.286797 0.0552481 6.13445 0.0046078 
-0.265637 0.0541586 6.14218 0.00387394 
-0.307693 0.0565667 6.12687 0.00604248 
-0.339426 0.0434597 6.02138 0.0034815 
-0.355364 0.049142 6.04401 0.00213189 
-0.335307 0.0478042 6.05361 0.000897762 
-0.350966 0.0527523 6.07598 0.000434919 
-0.37087 0.0540865 6.06623 0.00134543 
-0.33099 0.0519175 6.08543 0.000432032 
-0.366194 0.0568652 6.09774 0.00212229 
-0.346409 0.0560269 6.10732 0.00318318 
-0.361325 0.0592694 6.12856 0.00622133 
-0.386052 0.0582087 6.08806 0.00292588 
-0.380903 0.0600906 6.11901 0.00511169 
-0.40056 0.0614909 6.1094 0.0059989 
-0.32641 0.0556753 6.11681 0.00316732 
-0.341571 0.0589497 6.13807 0.00756908 
-0.312394 0.0524868 6.09545 0.000351534 
-0.298 0.0484642 6.07368 0.000998362 
-0.31674 0.0480272 6.0637 0.00080652 
-0.302268 0.0434535 6.04159 0.00187323 
-0.283524 0.0439316 6.0515 0.00236895 
-0.320872 0.0432077 6.03155 0.00214544 
-0.41734 0.061802 6.13257 0.00315746 
-0.392055 0.0578256 6.14012 0.0027442 
-0.408597 0.0578677 6.16301 0.00111911 
-0.433879 0.0617746 6.15547 0.00412801 
-0.383727 0.0547651 6.17068 0.00365217 
-0.425227 0.0576187 6.1858 0.00695636 
-0.400126 0.0546199 6.1937 0.00288709 
-0.450244 0.0610295 6.17776 0.00912947 
-0.375237 0.0522785 6.20172 0.00213294 
-0.364373 0.0545851 6.1806 0.00131296 
-0.353159 0.056785 6.15931 0.0016163 
-0.372723 0.057051 6.14969 0.00258761 
-0.308589 0.0361016 6.01072 0.000681583 
-0.289845 0.0364255 6.02081 0.000516003 
-0.277349 0.0292478 5.99979 0.000123781 
-0.271023 0.0369681 6.03086 0.000595215 
-0.258501 0.0299712 6.00988 9.95383e-05 
-0.239462 0.0308192 6.01979 0.000160068 
-0.252098 0.0377737 6.0407 0.000905722 
-0.245884 0.0229561 5.98862 0.00020872 
-0.226814 0.023955 5.99865 0.000380628 
-0.214278 0.0173698 5.97741 0.00144976 
-0.233074 0.0159685 5.96743 0.000714022 
-0.264541 0.0218114 5.97863 0.000162257 
-0.251751 0.0147557 5.95743 0.000440318 
-0.283032 0.0210338 5.96854 0.000184554 
-0.295819 0.0285703 5.98968 0.000133127 
-0.314307 0.0282061 5.9795 0.000323448 
-0.27033 0.0138725 5.94734 0.000638543 
-0.301583 0.0205578 5.95833 0.000475238 
-0.288908 0.0132574 5.93703 0.00141664 
-0.326928 0.0358802 6.00051 0.00108741 
-0.233448 0.0378432 6.05027 0.000681535 
-0.214056 0.0375378 6.05924 0.000461323 
-0.201884 0.0312036 6.03905 0.000136363 
-0.194321 0.0374395 6.06831 0.000497263 
-0.182216 0.0312287 6.04807 0.000133732 
-0.170121 0.025305 6.02772 0.000326368 
-0.157813 0.0191272 6.00648 0.00111655 
-0.189333 0.0246252 6.01795 0.000230049 
-0.176892 0.0183099 5.99669 0.000800785 
-0.208187 0.0241289 6.00829 0.000194191 
-0.220836 0.0308972 6.02937 0.000103655 
-0.195723 0.0177059 5.98708 0.000874707 
-0.114033 -0.0108803 5.92632 0.000756935 
-0.124738 -0.00360265 5.94667 0.000165291 
-0.143691 -0.00485822 5.93662 0.000110613 
-0.132866 -0.0121011 5.91612 0.000430533 
-0.154683 0.00274833 5.95695 0.000135121 
-0.162399 -0.00585739 5.92644 9.79041e-05 
-0.173477 0.00180805 5.94695 0.000102832 
-0.192009 0.00115107 5.93696 7.94329e-05 
-0.151478 -0.0131196 5.90591 0.000475773 
-0.180943 -0.00654916 5.91648 0.000168022 
-0.169903 -0.0138016 5.89592 0.000835015 
-0.184579 0.00978004 5.96717 0.000199542 
-0.203145 0.00915605 5.95724 0.000328323 
-0.165768 0.0104317 5.97688 0.000169338 
-0.146718 0.0113037 5.98663 0.000216829 
-0.135691 0.0036927 5.96662 6.78573e-05 
-0.18883 -0.0154149 5.88613 0.000218741 
-0.199585 -0.00809669 5.9065 6.09027e-05 
-0.218396 -0.00939755 5.89674 0.00013647 
-0.20758 -0.0166957 5.87633 0.000111269 
-0.229257 -0.00161481 5.91695 0.000215823 
-0.237271 -0.0104234 5.8868 0.000100212 
-0.248165 -0.0025996 5.90711 0.000153791 
-0.267191 -0.00333458 5.89705 0.000200973 
-0.226396 -0.0177032 5.86645 0.000217712 
-0.256254 -0.0111357 5.87679 0.000230374 
-0.245294 -0.0183857 5.85639 0.000791365 
-0.259058 0.0055151 5.9271 0.000164716 
-0.277994 0.00486133 5.91715 0.000467717 
-0.240405 0.00642307 5.93721 0.000137412 
-0.221851 0.00764381 5.94722 0.00014764 
-0.210696 -0.00038947 5.92695 0.000129874 
-0.356814 0.041825 6.0102 0.00170014 
-0.372626 0.0481187 6.03051 0.00180912 
-0.390194 0.0471528 6.01908 0.00119852 
-0.374379 0.0407707 5.99874 0.00130038 
-0.405614 0.0529116 6.03921 0.00110247 
-0.40802 0.0465482 6.00727 0.00124334 
-0.423334 0.0525943 6.02735 0.00123186 
-0.441768 0.0528941 6.01495 0.00229371 
-0.392194 0.0399256 5.98696 0.00138482 
-0.426229 0.0465942 5.99503 0.00236736 
-0.41042 0.0393194 5.9748 0.00214973 
-0.438455 0.0579753 6.04716 0.00168626 
-0.456905 0.0582848 6.03488 0.0028961 
-0.471776 0.062912 6.05474 0.00296339 
-0.453322 0.0619821 6.06899 0.00180054 
-0.420495 0.0576189 6.06118 0.00128829 
-0.435294 0.0613259 6.08284 0.00216553 
-0.403136 0.0576355 6.0748 0.0017036 
-0.388145 0.0532758 6.05292 0.000960838 
-0.417815 0.0611015 6.09636 0.00294976 
-0.428115 0.0373095 5.96269 0.00130063 
-0.443167 0.044557 5.97957 0.00236308 
-0.461608 0.0427243 5.9669 0.00234045 
-0.446599 0.0354324 5.94995 0.00139417 
-0.476282 0.0493113 5.98376 0.00335056 
-0.480536 0.0405508 5.95399 0.00314562 
-0.495228 0.0470417 5.97091 0.00390617 
-0.51436 0.0443496 5.9577 0.00479372 
-0.465511 0.0334077 5.93708 0.00215046 
-0.499919 0.0378231 5.94061 0.00467176 
-0.484896 0.0310331 5.92369 0.00523917 
-0.509684 0.0530628 5.98786 0.00508909 
-0.529041 0.0503549 5.97475 0.00585124 
-0.543466 0.0559556 5.99168 0.00753176 
-0.524961 0.058487 6.00803 0.0039649 
-0.491648 0.0553021 6.0038 0.00262077 
-0.506749 0.0602888 6.02394 0.00220416 
-0.473912 0.0568476 6.0197 0.00202378 
-0.458656 0.0511995 5.99962 0.0022717 
-0.489017 0.0618267 6.03961 0.00262751 
-0.605487 0.0658828 6.04453 0.0120662 
-0.587633 0.0683457 6.0628 0.00628068 
-0.571345 0.0665669 6.04766 0.00489124 
-0.554046 0.068371 6.06559 0.00178393 
-0.57011 0.0701044 6.08063 0.0032725 
-0.53755 0.0660096 6.05062 0.00153333 
-0.536807 0.0693943 6.08342 0.00319778 
-0.520777 0.0674425 6.06817 0.00248025 
-0.50419 0.0680576 6.08557 0.00437758 
-0.55279 0.0711704 6.09814 0.00516814 
-0.520434 0.0702341 6.10042 0.00745406 
-0.535934 0.0715388 6.11538 0.00811038 
-0.504464 0.064815 6.05275 0.00255803 
-0.488288 0.0658065 6.07023 0.00318138 
-0.522448 0.0635508 6.03732 0.00223554 
-0.540478 0.0616251 6.02157 0.0037019 
-0.55616 0.0644228 6.03457 0.00392269 
-0.575011 0.0620021 6.01864 0.00811372 
-0.559238 0.0591388 6.00529 0.00657124 
-0.590169 0.0641548 6.03182 0.00927055 
-0.517457 0.0673986 6.13718 0.00306508 
-0.501225 0.0684674 6.11491 0.00498662 
-0.483695 0.065166 6.13619 0.00243833 
-0.49981 0.0639031 6.15839 0.00262063 
-0.467175 0.0657235 6.11375 0.0042211 
-0.466687 0.0627829 6.15705 0.00289171 
-0.450335 0.0633086 6.13476 0.00189287 
-0.482584 0.0610683 6.1794 0.00682873 
-0.433581 0.0633536 6.11194 0.00407193 
-0.451231 0.0635956 6.09832 0.00182992 
-0.469506 0.0645837 6.08462 0.00239492 
-0.485335 0.0667192 6.09987 0.00373198 
-0.263193 -0.0202617 5.84761 0.000125236 
-0.273918 -0.013164 5.86703 8.30287e-05 
-0.292036 -0.0147403 5.85797 0.000199902 
-0.281338 -0.0218176 5.83852 6.30225e-05 
-0.302708 -0.00714508 5.87726 0.000306506 
-0.310441 -0.0159989 5.84856 0.000114867 
-0.321102 -0.0084696 5.86779 0.000213503 
-0.33974 -0.00940796 5.85809 0.000222951 
-0.299739 -0.023067 5.82917 0.000101282 
-0.3292 -0.0169729 5.83885 0.000241594 
-0.318564 -0.0239959 5.8196 0.000604614 
-0.331497 -0.000464159 5.88702 0.000105927 
-0.350182 -0.00144805 5.87716 0.000274134 
-0.360425 0.00698271 5.89636 0.000825359 
-0.342134 0.00809626 5.90705 0.000271246 
-0.313537 0.000970481 5.89737 0.000174816 
-0.324193 0.00948983 5.91738 0.000188831 
-0.295723 0.00269515 5.90736 0.000119586 
-0.284835 -0.00540678 5.88728 0.000183008 
-0.306513 0.0111691 5.92727 0.000378712 
-0.33682 -0.0261568 5.81086 0.000134779 
-0.34712 -0.0193849 5.82901 0.000112871 
-0.365802 -0.0213098 5.81986 0.000173861 
-0.355571 -0.0280821 5.80184 8.729e-05 
-0.375989 -0.0140484 5.83776 0.000277437 
-0.385017 -0.0232067 5.81036 0.00029217 
-0.395194 -0.0159904 5.82821 0.000418363 
-0.414978 -0.0178802 5.81833 0.000930507 
-0.374836 -0.0299872 5.79241 0.000267568 
-0.404822 -0.0250156 5.80054 0.000976044 
-0.394576 -0.0317634 5.78277 0.00116258 
-0.405508 -0.00823877 5.84595 0.000437032 
-0.425297 -0.0101266 5.836 0.00110185 
-0.43571 -0.00186434 5.85383 0.00149498 
-0.416131 0.00033162 5.86491 0.000441219 
-0.386459 -0.00602992 5.85679 0.000189836 
-0.396946 0.00246525 5.8759 0.000159119 
-0.367969 -0.00385184 5.86725 0.000145384 
-0.357572 -0.011882 5.84816 0.000230734 
-0.378359 0.00460748 5.88627 0.000237397 
-0.453146 0.0249265 5.91784 0.00168016 
-0.434216 0.0269856 5.93073 0.00056523 
-0.421611 0.0184533 5.91127 0.000432968 
-0.415881 0.0290048 5.94325 0.000501198 
-0.403279 0.0207109 5.92376 0.000320574 
-0.385454 0.0228377 5.93576 0.000376138 
-0.398052 0.0312488 5.9554 0.000779768 
-0.390695 0.0123431 5.90405 0.000298238 
-0.372891 0.0146814 5.91597 0.000385529 
-0.409374 0.0103027 5.89355 0.000320376 
-0.428481 0.00811275 5.88258 0.000508872 
-0.440812 0.0163455 5.90028 0.00079226 
-0.460577 0.0142725 5.88908 0.00176121 
-0.448229 0.00604893 5.87144 0.00142038 
-0.472888 0.0226315 5.90641 0.00308929 
-0.379637 0.0319221 5.96618 0.000460713 
-0.361777 0.0328586 5.97798 0.000373014 
-0.349094 0.0248123 5.95686 0.000202038 
-0.34427 0.0342391 5.9894 0.000546061 
-0.331675 0.0264067 5.96831 0.000191623 
-0.319 0.0186103 5.94705 0.000232871 
-0.336632 0.0169171 5.9371 0.00023067 
-0.354593 0.0157046 5.92683 0.000215979 
-0.367072 0.0236297 5.94654 0.000196488 
-0.491845 0.0189387 5.89672 0.00172783 
-0.479703 0.0106674 5.87933 0.000950106 
-0.498724 0.00668331 5.86969 0.000779326 
-0.467248 0.00253882 5.86184 0.000809704 
-0.486308 -0.00138608 5.85229 0.000646916 
-0.473642 -0.00907904 5.83494 0.000522925 
-0.454567 -0.00536533 5.84436 0.00081872 
-0.5052 -0.00567553 5.84292 0.00116777 
-0.492786 -0.01315 5.82555 0.00115998 
-0.511872 -0.0176225 5.81615 0.00255989 
-0.523372 -0.0106551 5.83253 0.00226983 
-0.51684 0.00162355 5.859 0.00128715 
-0.5352 -0.00327237 5.84857 0.00278204 
-0.528437 0.00923041 5.87513 0.00181659 
-0.51025 0.0141681 5.8857 0.00121138 
-0.521532 0.021962 5.90182 0.00193436 
-0.546557 0.0039158 5.86463 0.00325394 
-0.539649 0.016483 5.89096 0.00215299 
-0.557834 0.0110817 5.88054 0.00416714 
-0.50345 0.0267316 5.91258 0.00318795 
-0.444396 -0.013424 5.82749 0.000530589 
-0.434258 -0.0211923 5.80971 0.000577488 
-0.453462 -0.024603 5.80113 0.000562628 
-0.424012 -0.0283722 5.792 0.000510266 
-0.443356 -0.0317778 5.78335 0.000449748 
-0.433092 -0.0384535 5.76556 0.000388861 
-0.413948 -0.0350079 5.77412 0.000544934 
-0.46268 -0.0354438 5.77473 0.000835186 
-0.45259 -0.0421628 5.75691 0.000882917 
-0.472026 -0.0460806 5.74842 0.00198818 
-0.481897 -0.0396413 5.76546 0.00181064 
-0.472681 -0.0285386 5.79166 0.000899703 
-0.491852 -0.0327341 5.78243 0.00179299 
-0.482638 -0.0210974 5.80858 0.000932321 
-0.463582 -0.017036 5.81803 0.000472781 
-0.502005 -0.0253708 5.79922 0.002154 
-0.548227 -0.0709453 5.7195 0.00242413 
-0.55755 -0.064935 5.73551 0.00210176 
-0.539426 -0.0581141 5.74327 0.000855942 
-0.548663 -0.0516595 5.75943 0.000494796 
-0.566666 -0.0586854 5.75186 0.00200348 
-0.53004 -0.0449025 5.76752 0.000627509 
-0.557853 -0.0450031 5.77571 0.000850228 
-0.539569 -0.0379511 5.7837 0.000637033 
-0.549048 -0.0306944 5.79991 0.000481735 
-0.575737 -0.0520484 5.76799 0.00182144 
-0.567125 -0.0379004 5.79182 0.000885406 
-0.584993 -0.045159 5.78417 0.00188073 
-0.521069 -0.0314324 5.79162 0.00105014 
-0.530584 -0.0239822 5.80805 0.00125928 
-0.511055 -0.03873 5.77475 0.000974529 
-0.501126 -0.0455667 5.75789 0.000885863 
-0.520343 -0.0516476 5.75048 0.00034522 
-0.510543 -0.0580409 5.73354 0.00055626 
-0.491278 -0.0519549 5.74097 0.000908374 
-0.529679 -0.064327 5.72628 0.000576536 
-0.595575 -0.0394483 5.79924 0.00172462 
-0.578503 -0.0315293 5.80811 0.000706374 
-0.588999 -0.0253118 5.82326 0.000800664 
-0.605984 -0.0334365 5.81452 0.00201264 
-0.571711 -0.0174978 5.83218 0.000390768 
-0.599497 -0.0191583 5.83829 0.000943428 
-0.582377 -0.0109264 5.84719 0.000683023 
-0.592815 -0.00468073 5.86207 0.000746885 
-0.616233 -0.0274693 5.82968 0.0024346 
-0.609888 -0.0130776 5.85321 0.00134595 
-0.626591 -0.0216304 5.84465 0.00279194 
-0.564977 -0.00318307 5.85629 0.00162811 
-0.575442 0.00335668 5.8712 0.00163597 
-0.553506 -0.0102374 5.8403 0.00126388 
-0.542171 -0.0171558 5.82418 0.000866239 
-0.560388 -0.0241959 5.81605 0.000359566 
-0.911356 -0.056084 6.70216 0.0116169 
-0.921103 -0.06368 6.67767 0.0111577 
-0.901357 -0.04848 6.72603 0.0144094 
-0.923695 -0.0577502 6.72384 0.0201364 
-0.933769 -0.0648417 6.69934 0.0202999 
-0.943692 -0.0721114 6.67475 0.0148812 
-0.902567 -0.0458317 6.74933 0.0193116 
-0.903625 -0.0433758 6.77273 0.0214021 
-0.882184 -0.0344207 6.77224 0.0204544 
-0.881017 -0.0365747 6.74852 0.0182605 
-0.953367 -0.0779471 6.6987 0.0133853 
-0.963674 -0.085374 6.67322 0.00768164 
-0.942922 -0.0708425 6.72371 0.0101977 
-0.963048 -0.0835485 6.72167 0.0146895 
-0.973452 -0.0904128 6.69677 0.0168171 
-0.983702 -0.0974695 6.67144 0.0109983 
-0.942526 -0.0702766 6.7482 0.011848 
-0.941993 -0.0695631 6.77223 0.0137215 
-0.922497 -0.0567799 6.77315 0.0116507 
-0.923209 -0.0573077 6.74851 0.0118788 
-0.902948 -0.0421187 6.82449 0.0333875 
-0.903417 -0.0429121 6.79844 0.026266 
-0.92239 -0.0559006 6.79868 0.0199302 
-0.92199 -0.0545653 6.82435 0.0398798 
-0.862171 -0.0226224 6.79627 0.0517737 
-0.883623 -0.0316026 6.79751 0.0347416 
-0.994813 -0.176429 6.87947 0.0429988 
-1.00371 -0.177046 6.85135 0.0147506 
-0.988111 -0.158671 6.87574 0.0316917 
-1.01239 -0.177101 6.82365 0.00848626 
-0.997179 -0.159079 6.84772 0.0147942 
-1.00628 -0.158668 6.81961 0.0109956 
-0.981735 -0.140083 6.87278 0.0254924 
-1.02118 -0.176475 6.7961 0.00678188 
-1.02988 -0.175514 6.76873 0.00932764 
-1.03756 -0.195102 6.7727 0.00846425 
-1.02908 -0.1961 6.79974 0.0111929 
-1.02063 -0.196556 6.82704 0.0177455 
-1.04563 -0.214771 6.77673 0.0177755 
-0.987807 -0.139821 6.8461 0.0162167 
-0.971044 -0.121514 6.87201 0.038046 
-0.994008 -0.139041 6.81883 0.00648575 
-0.9776 -0.12114 6.84438 0.0200429 
-0.983939 -0.120244 6.81719 0.0128349 
-1.00005 -0.137868 6.79225 0.00762058 
-1.00601 -0.136195 6.76584 0.0101362 
-1.01766 -0.156124 6.76723 0.00616058 
-1.01198 -0.157598 6.79335 0.00735303 
-1.05193 -0.162507 6.66655 0.0117559 
-1.04619 -0.166037 6.69235 0.00824862 
-1.06519 -0.182784 6.66824 0.00845752 
-1.04059 -0.169497 6.71793 0.00615669 
-1.05947 -0.186045 6.69423 0.00966964 
-1.05416 -0.189656 6.71957 0.0118426 
-1.07878 -0.20313 6.66998 0.0127676 
-1.03519 -0.172836 6.74336 0.00690503 
-1.02322 -0.153034 6.74156 0.0090587 
-1.02898 -0.14994 6.71573 0.0104916 
-1.07017 -0.206173 6.69712 0.00998219 
-1.08788 -0.223953 6.67337 0.0105228 
-1.06178 -0.209331 6.72369 0.00955438 
-1.07933 -0.227202 6.70049 0.0121123 
-1.07109 -0.230233 6.72705 0.0171482 
-1.09735 -0.24538 6.67646 0.0173441 
-1.05364 -0.21214 6.75022 0.0122893 
-1.04576 -0.192456 6.74616 0.00891402 
-0.984039 -0.0972132 6.64839 0.0150061 
-0.984155 -0.0975153 6.62455 0.0154965 
-0.96392 -0.0847347 6.65022 0.0177209 
-0.963971 -0.0848675 6.62603 0.0233242 
-0.984149 -0.0983042 6.59994 0.0197351 
-0.983994 -0.100915 6.57354 0.0198035 
-1.00652 -0.113746 6.56936 0.0117619 
-1.00615 -0.110959 6.59589 0.0137501 
-1.00588 -0.109602 6.62097 0.0238772 
-1.02899 -0.12499 6.56554 0.0136518 
-0.942207 -0.0736638 6.65317 0.0160572 
-0.940492 -0.075755 6.63123 0.0216378 
-0.919803 -0.0649603 6.65597 0.0164175 
-0.938811 -0.0786479 6.60841 0.0290912 
-0.948251 -0.0873197 6.58291 0.0289484 
-0.962101 -0.08788 6.60358 0.018711 
-0.981665 -0.111983 6.51657 0.0120441 
-0.974274 -0.105441 6.53668 0.0168765 
-0.999799 -0.113295 6.53044 0.0176052 
-0.992181 -0.107801 6.55095 0.014076 
-0.96731 -0.0991581 6.55765 0.0150718 
-1.0182 -0.122806 6.51102 0.0111612 
-1.02221 -0.123147 6.52886 0.0110887 
-1.04233 -0.131853 6.50872 0.00992904 
-1.04641 -0.132557 6.52595 0.0141319 
-1.02586 -0.123893 6.54702 0.00876691 
-1.05599 -0.159715 6.64137 0.0104761 
-1.03551 -0.145254 6.66715 0.00768299 
-1.06032 -0.157032 6.61502 0.00919613 
-1.03967 -0.142013 6.64238 0.01194 
-1.04393 -0.139105 6.61613 0.0164691 
-1.01979 -0.127685 6.66755 0.00991566 
-1.0649 -0.15442 6.58835 0.00960421 
-1.06877 -0.150877 6.5634 0.0125286 
-1.08599 -0.166069 6.56469 0.0076817 
-1.08221 -0.170391 6.58837 0.00795274 
-1.07787 -0.173716 6.61381 0.0101785 
-1.10345 -0.180871 6.56625 0.0091421 
-1.02207 -0.125799 6.64397 0.012047 
-1.00168 -0.112875 6.66959 0.00893294 
-1.02441 -0.124583 6.61959 0.0139411 
-1.0039 -0.111301 6.64545 0.0130058 
-1.02686 -0.124514 6.59247 0.0154161 
-1.04893 -0.138405 6.56431 0.00941922 
-1.04677 -0.139122 6.5894 0.0124516 
-1.06471 -0.140998 6.50807 0.0124416 
-1.08417 -0.149385 6.48911 0.0101941 
-1.06645 -0.144414 6.52639 0.00872272 
-1.08624 -0.151989 6.50762 0.0124473 
-1.08793 -0.155579 6.52572 0.0117584 
-1.106 -0.159396 6.48842 0.0160632 
-1.06781 -0.147346 6.54491 0.00977613 
-1.04788 -0.135357 6.54502 0.0115546 
-1.10585 -0.164515 6.50842 0.0104132 
-1.12513 -0.173003 6.48966 0.00794628 
-1.1053 -0.169492 6.52789 0.00786506 
-1.12467 -0.178007 6.50992 0.00896127 
-1.12411 -0.183409 6.52934 0.0128764 
-1.14432 -0.18644 6.49059 0.0153207 
-1.10459 -0.175033 6.54709 0.0081054 
-1.08713 -0.160415 6.54527 0.00952778 
-0.990782 -0.106015 6.69514 0.00915095 
-0.980184 -0.099292 6.72012 0.00769746 
-0.998341 -0.114559 6.71774 0.0129283 
-1.00897 -0.120911 6.69286 0.0102886 
-0.978268 -0.100233 6.7443 0.0103381 
-0.976238 -0.100568 6.76843 0.0118277 
-0.959014 -0.0853465 6.77067 0.00839779 
-0.961109 -0.0846116 6.74615 0.0124225 
-1.02421 -0.138988 6.69195 0.00594018 
-1.01291 -0.13265 6.71687 0.00602294 
-1.00941 -0.134471 6.7414 0.008704 
-0.990932 -0.118665 6.76725 0.00731519 
-0.994551 -0.116709 6.74248 0.0104176 
-0.96481 -0.102989 6.8451 0.0223825 
-0.968666 -0.102614 6.81949 0.0141208 
-0.951155 -0.0857618 6.84667 0.029483 
-0.955336 -0.0851206 6.82032 0.0218523 
-0.972437 -0.101737 6.79375 0.00898128 
-0.987468 -0.11965 6.79207 0.00867537 
-0.938184 -0.0701092 6.8227 0.0213249 
-0.940112 -0.0699908 6.79736 0.0133855 
-0.95743 -0.0856814 6.79501 0.0102972 
-1.18991 -0.188986 6.31569 0.0106429 
-1.20341 -0.201088 6.30405 0.00387 
-1.18958 -0.188428 6.29592 0.0109196 
-1.21726 -0.213221 6.2924 0.00304536 
-1.20335 -0.200262 6.28433 0.00490871 
-1.21748 -0.212183 6.27254 0.00541517 
-1.1889 -0.187752 6.27624 0.0124812 
-1.2316 -0.225284 6.28068 0.00755954 
-1.24576 -0.237779 6.2691 0.0183903 
-1.24368 -0.23679 6.28971 0.0145595 
-1.22956 -0.224387 6.30142 0.00645221 
-1.21597 -0.21167 6.3131 0.00677398 
-1.24173 -0.235551 6.31041 0.0171842 
-1.20239 -0.201014 6.26381 0.00388061 
-1.18555 -0.187912 6.25556 0.00921196 
-1.21632 -0.213921 6.25098 0.00352999 
-1.19921 -0.200756 6.2429 0.00469009 
-1.21351 -0.213484 6.22995 0.00597157 
-1.18208 -0.187448 6.23485 0.0118244 
-1.23026 -0.227365 6.23845 0.0066917 
-1.24461 -0.240764 6.226 0.0188756 
-1.24548 -0.239412 6.24746 0.0163508 
-1.23144 -0.225605 6.26 0.00700198 
-1.29198 -0.31223 6.23022 0.0263238 
-1.28124 -0.293119 6.2395 0.0138033 
-1.28994 -0.308497 6.25214 0.0200991 
-1.26953 -0.274551 6.24918 0.00634477 
-1.27872 -0.289485 6.26164 0.00907868 
-1.26733 -0.270678 6.27142 0.0062279 
-1.28755 -0.304432 6.27398 0.0205126 
-1.25779 -0.256144 6.25906 0.00776198 
-1.25746 -0.257632 6.23752 0.0089764 
-1.26961 -0.275607 6.2276 0.00868618 
-1.27626 -0.286959 6.28289 0.00961024 
-1.28277 -0.301096 6.29551 0.0180348 
-1.2652 -0.269555 6.29171 0.00820448 
-1.27214 -0.283364 6.30423 0.0101793 
-1.26047 -0.265925 6.31386 0.00780261 
-1.27828 -0.297284 6.3171 0.0206106 
-1.25295 -0.252514 6.30127 0.00693798 
-1.25573 -0.253605 6.28048 0.00896816 
-1.16779 -0.179187 6.24846 0.00341147 
-1.15356 -0.17062 6.26203 0.00153911 
-1.17149 -0.178991 6.26906 0.00410703 
-1.15704 -0.170354 6.28279 0.00257394 
-1.13956 -0.162007 6.27574 0.00202823 
-1.12611 -0.153596 6.28912 0.00581198 
-1.12143 -0.152462 6.26895 0.00482154 
-1.13491 -0.160686 6.25563 0.00239296 
-1.14864 -0.169157 6.24234 0.00246626 
-1.11662 -0.150562 6.24911 0.00865018 
-1.1739 -0.179721 6.28926 0.00422015 
-1.15876 -0.172015 6.3023 0.00124369 
-1.17447 -0.180705 6.30878 0.00338319 
-1.15984 -0.172257 6.32178 0.00267245 
-1.14436 -0.16434 6.31489 0.00136454 
-1.13057 -0.156418 6.32735 0.00539707 
-1.12812 -0.155302 6.30829 0.00387643 
-1.14226 -0.162962 6.29581 0.00178345 
-1.08129 -0.138585 6.31882 0.000626512 
-1.09542 -0.143359 6.30601 0.000687544 
-1.11374 -0.150508 6.32149 0.00131146 
-1.09968 -0.145307 6.33445 0.00222446 
-1.07552 -0.135543 6.29057 0.000800327 
-1.08891 -0.140812 6.27688 0.000480471 
-1.06972 -0.133188 6.27181 0.000939268 
-1.08315 -0.138092 6.25827 0.00172658 
-1.10267 -0.145547 6.26322 0.00220828 
-1.10756 -0.147477 6.28321 0.00164552 
-1.10177 -0.150736 6.4143 0.00550856 
-1.12717 -0.161461 6.41868 0.0102396 
-1.11677 -0.155494 6.40247 0.00593158 
-1.11216 -0.156561 6.43057 0.00546787 
-1.14268 -0.167927 6.39797 0.00958772 
-1.14925 -0.175037 6.41729 0.00876669 
-1.16456 -0.182611 6.40478 0.00832743 
-1.18035 -0.190109 6.39184 0.0160992 
-1.17082 -0.189722 6.42404 0.0176136 
-1.15665 -0.182572 6.43551 0.0111415 
-1.13474 -0.168282 6.4369 0.0137095 
-1.13436 -0.174021 6.46427 0.0071438 
-1.11503 -0.160752 6.46356 0.0137735 
-1.15577 -0.187969 6.46337 0.0125997 
-1.09102 -0.149947 6.46611 0.00802016 
-1.17432 -0.18151 6.33717 0.00473797 
-1.15987 -0.173852 6.34931 0.00514779 
-1.18813 -0.189791 6.34351 0.0116012 
-1.14595 -0.166044 6.3612 0.00617072 
-1.13183 -0.158421 6.35452 0.00529782 
-1.17252 -0.182495 6.36506 0.00516675 
-1.15801 -0.17501 6.37696 0.00513555 
-1.13131 -0.159856 6.38176 0.00640943 
-1.08967 -0.14558 6.39822 0.00274266 
-1.10365 -0.149715 6.38731 0.00379728 
-1.08848 -0.142782 6.37293 0.00269814 
-1.1176 -0.153229 6.36713 0.00392535 
-1.08567 -0.14082 6.3464 0.00170202 
-1.10226 -0.1476 6.36124 0.00268928 
-1.00707 -0.107972 6.19384 0.00412202 
-0.996069 -0.1039 6.2093 0.0011387 
-1.01934 -0.113205 6.21181 0.00268978 
-0.985397 -0.0996606 6.22432 0.00140581 
-1.00866 -0.109177 6.22704 0.00129108 
-0.997947 -0.104983 6.24199 0.00148735 
-1.03195 -0.117224 6.22955 0.00338007 
-0.975074 -0.0950289 6.23928 0.00219641 
-0.964836 -0.0907347 6.25396 0.00558169 
-0.951702 -0.0831786 6.23995 0.00639601 
-0.961929 -0.0879759 6.22501 0.00374242 
-0.972337 -0.0925826 6.21001 0.00227449 
-0.938963 -0.074744 6.22607 0.00788554 
-1.02029 -0.114222 6.24369 0.00112988 
-1.04115 -0.121672 6.24787 0.00184512 
-1.00889 -0.110712 6.25774 0.00111948 
-1.02966 -0.118358 6.2622 0.00104324 
-0.980981 -0.100088 6.27684 0.00567089 
-0.992046 -0.104408 6.26353 0.00191122 
-0.9269 -0.0868656 6.2907 0.00309165 
-0.943179 -0.0909573 6.28252 0.00323422 
-0.931699 -0.0829549 6.27021 0.00255532 
-0.953868 -0.091003 6.2684 0.00293362 
-0.909033 -0.0737664 6.27212 0.00238923 
-0.91862 -0.0744471 6.25694 0.00264809 
-0.895757 -0.0636718 6.26149 0.00375669 
-0.905426 -0.064606 6.24629 0.00210335 
-0.928503 -0.0750665 6.24158 0.00316815 
-0.941605 -0.0831297 6.25499 0.00257375 
-1.06231 -0.130694 6.25223 0.00105596 
-1.07458 -0.136523 6.23765 0.000989247 
-1.05317 -0.127375 6.23373 0.0010815 
-1.06525 -0.133033 6.2196 0.00159568 
-1.0872 -0.142044 6.22295 0.00236634 
-1.09959 -0.148016 6.20824 0.00745329 
-1.10823 -0.149646 6.22852 0.00626784 
-1.09563 -0.143869 6.24326 0.00262845 
-1.04294 -0.1246 6.21373 0.00107086 
-1.05426 -0.131839 6.19759 0.0013313 
-1.03049 -0.120414 6.19576 0.00166758 
-1.04187 -0.127441 6.17945 0.00213524 
-1.06582 -0.138976 6.1809 0.00203707 
-1.07772 -0.14564 6.16461 0.0100283 
-1.08855 -0.147233 6.1862 0.00614915 
-1.07667 -0.140379 6.203 0.00194478 
-1.14818 -0.192615 6.14256 0.01362 
-1.13606 -0.181152 6.1589 0.00477062 
-1.15876 -0.19019 6.16594 0.0140449 
-1.12331 -0.170456 6.17551 0.00180938 
-1.14536 -0.179589 6.183 0.00317803 
-1.13268 -0.168334 6.20026 0.00182147 
-1.168 -0.188289 6.1904 0.0134602 
-1.11105 -0.159407 6.19206 0.00187683 
-1.10039 -0.158489 6.17012 0.00337112 
-1.11241 -0.169554 6.15408 0.00385377 
-1.15455 -0.178918 6.20545 0.00318187 
-1.17536 -0.187933 6.21242 0.0104363 
-1.14135 -0.169851 6.22026 0.00127611 
-1.16174 -0.17876 6.22744 0.00299662 
-1.12877 -0.160414 6.23486 0.00229157 
-1.1203 -0.158993 6.21439 0.00250864 
-0.769221 -0.0767558 6.34816 0.0057716 
-0.775181 -0.0633086 6.33342 0.00374001 
-0.750399 -0.0667048 6.34239 0.00516399 
-0.781156 -0.0492666 6.3188 0.00950566 
-0.787952 -0.0339623 6.30426 0.0377781 
-0.748187 -0.0497765 6.32592 0.00538749 
-0.729261 -0.0586131 6.3381 0.00370943 
-0.753663 -0.0350653 6.31169 0.0154512 
-0.759759 -0.0195138 6.29708 0.0536677 
-0.819092 -0.0136717 6.23942 0.0331858 
-0.810848 -0.0185777 6.256 0.0153951 
-0.833363 -0.0226892 6.24554 0.0259898 
-0.80331 -0.0231269 6.27226 0.0136194 
-0.825378 -0.0274612 6.26222 0.0127467 
-0.81775 -0.0325825 6.27842 0.011273 
-0.847497 -0.0322232 6.25152 0.0180394 
-0.795345 -0.0287762 6.28844 0.0187056 
-0.774264 -0.0176916 6.2832 0.0278352 
-0.845062 -0.0420788 6.27139 0.00625531 
-0.836606 -0.0472245 6.28698 0.00485764 
-0.632113 0.0323109 6.23649 0.00450729 
-0.642776 0.039653 6.22027 0.0102036 
-0.621762 0.0252293 6.25284 0.00427513 
-0.652168 0.0158083 6.25527 0.00254826 
-0.663026 0.0235261 6.23907 0.00282437 
-0.673955 0.0310341 6.22262 0.00859752 
-0.626744 0.013663 6.27021 0.0047997 
-0.631843 0.00181033 6.28714 0.00808286 
-0.605613 0.00738007 6.28721 0.00959 
-0.600047 0.0181967 6.2698 0.00458283 
-0.689422 0.0165047 6.2408 0.00330375 
-0.702292 0.0208282 6.22474 0.00560516 
-0.677077 0.0117769 6.25627 0.00537957 
-0.705234 0.0020147 6.2588 0.00463623 
-0.717825 0.0063736 6.24332 0.00413412 
-0.730981 0.0103627 6.22695 0.00375906 
-0.678727 0.00161829 6.27284 0.00723013 
-0.68072 -0.00783995 6.28898 0.0123274 
-0.656111 -0.00336022 6.28815 0.010095 
-0.65428 0.00677588 6.27184 0.00598443 
-0.639687 -0.0425681 6.33221 0.00353291 
-0.623255 -0.0530825 6.34915 0.00937505 
-0.636997 -0.0281527 6.31749 0.00160682 
-0.620188 -0.0395073 6.33387 0.00322272 
-0.617295 -0.0254153 6.31887 0.00199742 
-0.604019 -0.0493261 6.35135 0.00822009 
-0.634432 -0.0132002 6.30237 0.00225337 
-0.6585 -0.0186726 6.3031 0.00254708 
-0.661018 -0.0336962 6.31787 0.00386364 
-0.597697 -0.0343524 6.33549 0.00304073 
-0.582711 -0.0460997 6.35474 0.00780279 
-0.59153 -0.0188891 6.31977 0.00234305 
-0.576404 -0.03131 6.33858 0.00325321 
-0.585533 -0.00265016 6.30364 0.00445875 
-0.611483 -0.00923382 6.30302 0.00220465 
-0.604027 0.0683592 6.06925 0.00709863 
-0.63527 0.0640243 6.05836 0.0139254 
-0.602461 0.0702811 6.09368 0.00658783 
-0.633636 0.0663047 6.083 0.00988993 
-0.631865 0.0679282 6.10753 0.0118828 
-0.664771 0.0612876 6.07209 0.0253789 
-0.600987 0.0710514 6.1177 0.0107979 
-0.599609 0.071317 6.14157 0.0214027 
-0.583618 0.0717318 6.13497 0.0140053 
-0.584894 0.0714048 6.11117 0.007549 
-0.567827 0.0722349 6.12835 0.0119396 
-0.569081 0.0715326 6.10474 0.00607657 
-0.586323 0.0702895 6.08698 0.00434644 
-0.551963 0.0719408 6.12181 0.0102164 
-0.664862 0.0619873 6.09188 0.0168541 
-0.695393 0.052321 6.07846 0.0167743 
-0.664759 0.0619868 6.11173 0.0131606 
-0.695317 0.0528601 6.09811 0.00995792 
-0.695177 0.0529568 6.11772 0.0102085 
-0.725573 0.0420459 6.08476 0.0185214 
-0.664649 0.0614693 6.13113 0.0159594 
-0.664481 0.0603451 6.15039 0.0234815 
-0.632196 0.0663154 6.14594 0.0207871 
-0.632216 0.0675751 6.12687 0.0152388 
-0.608604 0.0545397 6.19902 0.0131567 
-0.605569 0.0604147 6.17997 0.0110087 
-0.576163 0.0571263 6.19704 0.00821345 
-0.572856 0.0630183 6.17815 0.00849076 
-0.602382 0.0662073 6.16116 0.0125997 
-0.634835 0.06095 6.16551 0.0140156 
-0.637383 0.0549566 6.18465 0.0100239 
-0.545066 0.0597323 6.18963 0.00620243 
-0.524009 0.0600739 6.18625 0.00618906 
-0.541961 0.0641744 6.1652 0.00190503 
-0.50333 0.0608382 6.18304 0.0071112 
-0.520729 0.0638611 6.16183 0.00294498 
-0.538977 0.068059 6.14049 0.00342613 
-0.5547 0.0682007 6.14704 0.00492824 
-0.570373 0.0679278 6.15346 0.00706809 
-0.55743 0.0638064 6.17167 0.00476502 
-0.882282 -0.0534279 6.25111 0.00516949 
-0.891395 -0.0548616 6.23486 0.00267069 
-0.8627 -0.0388809 6.23924 0.00584479 
-0.900851 -0.0558436 6.21855 0.00395308 
-0.910432 -0.0567539 6.20246 0.0122814 
-0.924783 -0.0659663 6.21401 0.0106922 
-0.915024 -0.0653226 6.23022 0.00389316 
-0.847993 -0.0288137 6.23126 0.00997146 
-0.8631 -0.0346431 6.21685 0.00510592 
-0.849013 -0.0254838 6.2105 0.0076559 
-0.83386 -0.0194706 6.22495 0.0147122 
-0.871061 -0.03652 6.19933 0.00588435 
-0.879407 -0.0379843 6.18207 0.0147004 
-0.894966 -0.0471435 6.19213 0.0145213 
-0.886581 -0.0460599 6.20962 0.00477909 
-0.944136 -0.0817169 6.12887 0.00940168 
-0.935334 -0.075259 6.1471 0.00403436 
-0.961027 -0.0891782 6.14372 0.00768273 
-0.92666 -0.0695438 6.1654 0.00250656 
-0.95187 -0.0837368 6.16214 0.00215519 
-0.943142 -0.0777013 6.18034 0.00219901 
-0.977538 -0.0969387 6.15893 0.00490798 
-0.918281 -0.0630832 6.18389 0.00424816 
-0.902685 -0.0542245 6.17333 0.00467175 
-0.910664 -0.0611764 6.15495 0.00218933 
-0.967742 -0.0913594 6.17551 0.00218134 
-0.992465 -0.102602 6.17615 0.00496096 
-0.957848 -0.0861124 6.19256 0.00219869 
-0.9823 -0.097289 6.19305 0.00148789 
-0.94823 -0.0806234 6.20924 0.00387142 
-0.933938 -0.0719719 6.19715 0.00483581 
-0.741774 0.0332312 6.08651 0.0139233 
-0.726691 0.040649 6.1027 0.010895 
-0.742872 0.0318345 6.10439 0.00601878 
-0.757671 0.0240145 6.08818 0.0105736 
-0.727806 0.038846 6.12072 0.00604809 
-0.758849 0.0229541 6.10623 0.00517613 
-0.743835 0.0299552 6.12232 0.00319127 
-0.759656 0.0209962 6.12397 0.00306182 
-0.773323 0.0146529 6.08988 0.00733635 
-0.774422 0.0137064 6.10795 0.00351755 
-0.788967 0.00573503 6.09199 0.00974509 
-0.728804 0.0364444 6.13865 0.0073946 
-0.745038 0.0279912 6.14012 0.00507115 
-0.730035 0.0337842 6.15628 0.00954537 
-0.713896 0.0409153 6.15495 0.00940323 
-0.712714 0.0435802 6.13721 0.0064763 
-0.697714 0.0477798 6.15341 0.0119772 
-0.696517 0.0506145 6.13563 0.00987075 
-0.711671 0.0463386 6.11943 0.00778611 
-0.681103 0.0541456 6.15202 0.0166328 
-0.803832 -0.00397511 6.09369 0.00704867 
