ply
format ascii 1.0
comment VCGLIB generated
element vertex 1044
property float x
property float y
property float z
property uchar red
property uchar green
property uchar blue
property float quality
end_header
-0.021503 0.000354 0.823946 0 0 128 0.000106
-0.022485 -0.000891 0.819627 0 0 128 0.000126
-0.024079 0.000205 0.822583 0 0 128 0.000087
-0.026607 0.000100 0.821220 0 0 128 0.000072
-0.020923 -0.001935 0.816674 0 0 128 0.000664
-0.025012 -0.001001 0.818265 0 0 128 0.000194
-0.023435 -0.002051 0.815311 0 0 128 0.000961
-0.025673 0.001329 0.825487 0 0 128 0.000217
-0.028212 0.001232 0.824133 0 0 128 0.000361
-0.023087 0.001435 0.826816 0 0 128 0.000190
-0.020457 0.001569 0.828156 0 0 128 0.000241
-0.018886 0.000502 0.825275 0 0 128 0.000058
-0.026010 -0.002283 0.813985 0 0 128 0.000279
-0.027556 -0.001226 0.816914 0 0 128 0.000074
-0.030105 -0.001423 0.815581 0 0 128 0.000131
-0.028556 -0.002476 0.812649 0 0 128 0.000129
-0.031663 -0.000306 0.818490 0 0 128 0.000188
-0.032679 -0.001574 0.814232 0 0 128 0.000096
-0.034238 -0.000451 0.817150 0 0 128 0.000132
-0.036830 -0.000559 0.815785 0 0 128 0.000168
-0.031125 -0.002623 0.811309 0 0 128 0.000210
-0.035260 -0.001678 0.812870 0 0 128 0.000198
-0.033690 -0.002722 0.809941 0 0 128 0.000727
-0.035804 0.000701 0.820027 0 0 128 0.000157
-0.038386 0.000613 0.818685 0 0 128 0.000423
-0.033261 0.000832 0.821402 0 0 128 0.000136
-0.030749 0.001014 0.822765 0 0 128 0.000160
-0.029145 -0.000124 0.819857 0 0 128 0.000110
-0.049528 0.005962 0.832077 0 0 128 0.002071
-0.051745 0.006845 0.834944 0 0 128 0.002338
-0.054101 0.006728 0.833374 0 0 128 0.001608
-0.051885 0.005826 0.830489 0 0 128 0.001592
-0.056226 0.007489 0.836216 0 0 128 0.001250
-0.056500 0.006668 0.831742 0 0 128 0.001609
-0.058606 0.007475 0.834570 0 0 128 0.001318
-0.061103 0.007579 0.832841 0 0 128 0.002816
-0.054289 0.005730 0.828853 0 0 128 0.001680
-0.058963 0.006723 0.830037 0 0 128 0.002889
-0.056757 0.005680 0.827167 0 0 128 0.002287
-0.060668 0.008175 0.837343 0 0 128 0.001711
-0.063184 0.008289 0.835641 0 0 128 0.002906
-0.065220 0.008880 0.838402 0 0 128 0.002540
-0.062709 0.008671 0.840374 0 0 128 0.001701
-0.058262 0.008076 0.839282 0 0 128 0.001360
-0.060275 0.008512 0.842272 0 0 128 0.002060
-0.055948 0.008036 0.841145 0 0 128 0.001728
-0.053904 0.007519 0.838105 0 0 128 0.001232
-0.057936 0.008426 0.844115 0 0 128 0.002649
-0.059189 0.005436 0.825460 0 0 128 0.001592
-0.061286 0.006482 0.827854 0 0 128 0.002892
-0.063870 0.006280 0.826032 0 0 128 0.003119
-0.061780 0.005220 0.823639 0 0 128 0.001621
-0.065898 0.007213 0.828419 0 0 153 0.004183
-0.066567 0.006015 0.824161 0 0 153 0.004129
-0.068598 0.006942 0.826554 0 0 153 0.005057
-0.071320 0.006591 0.824636 0 0 153 0.005936
-0.064461 0.004969 0.821767 0 0 128 0.002853
-0.069336 0.005655 0.822217 0 0 153 0.005809
-0.067245 0.004652 0.819807 0 0 153 0.006189
-0.070591 0.007781 0.828951 0 0 153 0.005783
-0.073349 0.007440 0.827051 0 0 153 0.006374
-0.075333 0.008220 0.829441 0 0 179 0.008282
-0.072688 0.008518 0.831785 0 0 153 0.004614
-0.068030 0.008034 0.831239 0 0 128 0.003166
-0.070084 0.008694 0.834071 0 0 128 0.002466
-0.065524 0.008171 0.833509 0 0 128 0.002382
-0.063428 0.007410 0.830687 0 0 128 0.002754
-0.067599 0.008821 0.836288 0 0 128 0.002077
-0.083856 0.009551 0.836656 0 0 204 0.013381
-0.081271 0.009830 0.839242 0 0 153 0.006020
-0.079069 0.009602 0.837216 0 0 153 0.004068
-0.076579 0.009771 0.839744 0 0 128 0.001958
-0.078751 0.009988 0.841762 0 0 128 0.003540
-0.074311 0.009459 0.837737 0 0 128 0.001664
-0.074101 0.009795 0.842265 0 0 128 0.003207
-0.071932 0.009562 0.840189 0 0 128 0.002625
-0.069598 0.009528 0.842623 0 0 153 0.003968
-0.076277 0.010027 0.844211 0 0 153 0.004302
-0.071796 0.009807 0.844615 0 0 153 0.007404
-0.073898 0.009957 0.846617 0 0 179 0.007916
-0.069714 0.009218 0.838105 0 0 128 0.002318
-0.067468 0.009249 0.840539 0 0 128 0.003469
-0.072250 0.009140 0.835912 0 0 128 0.002310
-0.074814 0.008944 0.833682 0 0 153 0.003975
-0.076984 0.009321 0.835443 0 0 153 0.003940
-0.079699 0.009044 0.833165 0 0 179 0.009428
-0.077521 0.008654 0.831327 0 0 153 0.007293
-0.081757 0.009330 0.834946 0 0 179 0.010487
-0.071325 0.009241 0.849593 0 0 128 0.002946
-0.069146 0.009453 0.846627 0 0 153 0.004737
-0.066767 0.008886 0.849495 0 0 128 0.002390
-0.068922 0.008648 0.852470 0 0 128 0.002612
-0.064558 0.009029 0.846489 0 0 153 0.003908
-0.064484 0.008481 0.852312 0 0 128 0.002302
-0.062295 0.008611 0.849322 0 0 128 0.001626
-0.066609 0.008170 0.855319 0 0 153 0.005696
-0.060051 0.008691 0.846244 0 0 128 0.003026
-0.062436 0.008785 0.844393 0 0 128 0.001928
-0.064901 0.008992 0.842529 0 0 128 0.002228
-0.067015 0.009253 0.844602 0 0 128 0.003636
-0.036125 -0.002981 0.808744 0 0 128 0.000108
-0.037669 -0.001959 0.811538 0 0 128 0.000083
-0.040138 -0.002171 0.810307 0 0 128 0.000219
-0.038603 -0.003190 0.807508 0 0 128 0.000063
-0.041672 -0.001085 0.813072 0 0 128 0.000319
-0.042666 -0.002340 0.809009 0 0 128 0.000124
-0.044193 -0.001261 0.811770 0 0 128 0.000225
-0.046744 -0.001381 0.810430 0 0 128 0.000192
-0.041136 -0.003353 0.806223 0 0 128 0.000082
-0.045248 -0.002464 0.807666 0 0 128 0.000197
-0.043727 -0.003467 0.804910 0 0 128 0.000517
-0.045674 -0.000117 0.814536 0 0 128 0.000123
-0.048226 -0.000242 0.813171 0 0 128 0.000234
-0.049677 0.000962 0.815925 0 0 128 0.000653
-0.047181 0.001103 0.817412 0 0 128 0.000207
-0.043224 0.000073 0.815966 0 0 128 0.000207
-0.044741 0.001283 0.818832 0 0 128 0.000159
-0.040801 0.000308 0.817334 0 0 128 0.000126
-0.039237 -0.000847 0.814445 0 0 128 0.000179
-0.042340 0.001509 0.820187 0 0 128 0.000315
-0.046262 -0.003750 0.803694 0 0 128 0.000109
-0.047727 -0.002785 0.806288 0 0 128 0.000109
-0.050344 -0.003041 0.804988 0 0 128 0.000190
-0.048898 -0.004003 0.802413 0 0 128 0.000086
-0.051786 -0.002005 0.807550 0 0 128 0.000306
-0.053071 -0.003293 0.803619 0 0 128 0.000272
-0.054507 -0.002266 0.806167 0 0 128 0.000389
-0.057340 -0.002528 0.804721 0 0 128 0.000884
-0.051628 -0.004250 0.801072 0 0 128 0.000284
-0.055900 -0.003540 0.802196 0 0 128 0.000919
-0.054450 -0.004490 0.799676 0 0 128 0.001205
-0.055971 -0.001156 0.808702 0 0 128 0.000406
-0.058804 -0.001414 0.807250 0 0 128 0.001181
-0.060296 -0.000217 0.809804 0 0 128 0.001471
-0.057485 0.000086 0.811429 0 0 128 0.000481
-0.053264 -0.000855 0.810280 0 0 128 0.000225
-0.054748 0.000372 0.813026 0 0 128 0.000188
-0.050678 -0.000565 0.811775 0 0 128 0.000162
-0.049203 -0.001714 0.809035 0 0 128 0.000245
-0.052146 0.000646 0.814498 0 0 128 0.000223
-0.062743 0.003717 0.819021 0 0 128 0.001963
-0.060046 0.003984 0.820897 0 0 128 0.000625
-0.058257 0.002722 0.818106 0 0 128 0.000425
-0.057474 0.004230 0.822690 0 0 128 0.000490
-0.055681 0.003002 0.819891 0 0 128 0.000352
-0.053225 0.003271 0.821583 0 0 128 0.000288
-0.055016 0.004507 0.824400 0 0 128 0.000813
-0.053893 0.001776 0.817053 0 0 128 0.000314
-0.051436 0.002075 0.818738 0 0 128 0.000342
-0.056509 0.001519 0.815563 0 0 128 0.000383
-0.059241 0.001228 0.813962 0 0 128 0.000589
-0.060994 0.002446 0.816504 0 0 128 0.000930
-0.063835 0.002172 0.814872 0 0 128 0.001981
-0.062074 0.000947 0.812335 0 0 128 0.001514
-0.065571 0.003417 0.817355 0 0 128 0.003638
-0.052512 0.004570 0.825898 0 0 128 0.000521
-0.050100 0.004680 0.827534 0 0 128 0.000458
-0.048291 0.003504 0.824509 0 0 128 0.000278
-0.047747 0.004867 0.829117 0 0 128 0.000622
-0.045940 0.003721 0.826091 0 0 128 0.000215
-0.044128 0.002581 0.823036 0 0 128 0.000194
-0.046510 0.002351 0.821661 0 0 128 0.000318
-0.048950 0.002198 0.820245 0 0 128 0.000258
-0.050721 0.003357 0.823082 0 0 128 0.000256
-0.068296 0.002901 0.815922 0 0 128 0.002013
-0.066591 0.001681 0.813445 0 0 128 0.001186
-0.069352 0.001113 0.812019 0 0 128 0.001022
-0.064816 0.000469 0.810937 0 0 128 0.000965
-0.067585 -0.000083 0.809536 0 0 128 0.000830
-0.065760 -0.001220 0.807052 0 0 128 0.000655
-0.062999 -0.000709 0.808408 0 0 128 0.000819
-0.070310 -0.000706 0.808161 0 0 128 0.001185
-0.068538 -0.001799 0.805687 0 0 128 0.001369
-0.071296 -0.002457 0.804322 0 0 128 0.002785
-0.072909 -0.001437 0.806658 0 0 128 0.002484
-0.071945 0.000365 0.810447 0 0 128 0.001268
-0.074578 -0.000352 0.808946 0 0 128 0.002514
-0.073571 0.001488 0.812743 0 0 128 0.001854
-0.070956 0.002219 0.814300 0 0 128 0.001446
-0.072525 0.003354 0.816580 0 0 128 0.002409
-0.076163 0.000698 0.811217 0 0 128 0.003321
-0.075127 0.002542 0.814976 0 0 128 0.002532
-0.077726 0.001750 0.813474 0 0 153 0.004113
-0.069928 0.004046 0.818169 0 0 128 0.003882
-0.061553 -0.001872 0.806006 0 0 128 0.000648
-0.060114 -0.002983 0.803474 0 0 128 0.000662
-0.062890 -0.003458 0.802228 0 0 128 0.000695
-0.058660 -0.004004 0.800953 0 0 128 0.000568
-0.061454 -0.004479 0.799697 0 0 128 0.000561
-0.059990 -0.005411 0.797191 0 0 128 0.000487
-0.057233 -0.004935 0.798422 0 0 128 0.000618
-0.064265 -0.004997 0.798458 0 0 128 0.001011
-0.062839 -0.005939 0.795940 0 0 128 0.001045
-0.065649 -0.006504 0.794721 0 0 128 0.002184
-0.067046 -0.005606 0.797122 0 0 128 0.002020
-0.065691 -0.004021 0.800853 0 0 128 0.001090
-0.068453 -0.004631 0.799521 0 0 128 0.002011
-0.067099 -0.002953 0.803261 0 0 128 0.001128
-0.064328 -0.002373 0.804634 0 0 128 0.000613
-0.069889 -0.003576 0.801910 0 0 128 0.002381
-0.076558 -0.010094 0.790652 0 0 128 0.002515
-0.077855 -0.009257 0.792905 0 0 128 0.002178
-0.075306 -0.008276 0.793981 0 0 128 0.000967
-0.076597 -0.007366 0.796259 0 0 128 0.000823
-0.079135 -0.008386 0.795200 0 0 128 0.002098
-0.073930 -0.006382 0.797400 0 0 128 0.000447
-0.077878 -0.006417 0.798564 0 0 128 0.001272
-0.075272 -0.005385 0.799704 0 0 128 0.000431
-0.076595 -0.004342 0.802004 0 0 128 0.000568
-0.080377 -0.007433 0.797490 0 0 128 0.001899
-0.079149 -0.005391 0.800855 0 0 128 0.000957
-0.081665 -0.006438 0.799790 0 0 128 0.002397
-0.072628 -0.004452 0.800816 0 0 128 0.000899
-0.073971 -0.003370 0.803167 0 0 128 0.000981
-0.071214 -0.005495 0.798421 0 0 128 0.000791
-0.069815 -0.006457 0.796041 0 0 128 0.000702
-0.072571 -0.007335 0.794994 0 0 128 0.000252
-0.071191 -0.008225 0.792607 0 0 128 0.000377
-0.068425 -0.007347 0.793656 0 0 128 0.000742
-0.073938 -0.009138 0.791590 0 0 128 0.000645
-0.083130 -0.005616 0.801918 0 0 128 0.001803
-0.080735 -0.004462 0.803170 0 0 128 0.000809
-0.082181 -0.003557 0.805312 0 0 128 0.001090
-0.084568 -0.004751 0.804071 0 0 128 0.002158
-0.079751 -0.002422 0.806577 0 0 128 0.000479
-0.083640 -0.002669 0.807432 0 0 128 0.001094
-0.081234 -0.001463 0.808703 0 0 128 0.000842
-0.082680 -0.000558 0.810801 0 0 128 0.001143
-0.085956 -0.003877 0.806219 0 0 128 0.002646
-0.085057 -0.001782 0.809544 0 0 128 0.001557
-0.087379 -0.003033 0.808332 0 0 128 0.003036
-0.078780 -0.000330 0.810014 0 0 128 0.001558
-0.080238 0.000623 0.812118 0 0 128 0.001936
-0.077180 -0.001366 0.807745 0 0 128 0.001015
-0.075602 -0.002375 0.805460 0 0 128 0.000979
-0.078179 -0.003399 0.804291 0 0 128 0.000433
-0.125435 -0.007463 0.929311 0 0 204 0.015350
-0.126897 -0.008564 0.925693 0 0 179 0.010302
-0.123934 -0.006361 0.932796 0 0 229 0.018359
-0.126963 -0.007685 0.932496 0 0 255 0.021757
-0.128474 -0.008719 0.928899 0 0 229 0.019096
-0.129950 -0.009772 0.925272 0 0 229 0.016248
-0.123945 -0.005969 0.936220 0 0 229 0.017648
-0.123902 -0.005561 0.939734 0 0 255 0.022907
-0.120994 -0.004296 0.939648 0 7 255 0.024662
-0.121037 -0.004659 0.936054 0 0 255 0.023214
-0.131132 -0.010566 0.928755 0 0 204 0.012328
-0.132652 -0.011655 0.924997 0 0 179 0.009018
-0.129567 -0.009538 0.932411 0 0 179 0.009529
-0.132308 -0.011333 0.932042 0 0 204 0.013610
-0.133850 -0.012333 0.928409 0 0 204 0.015197
-0.135368 -0.013352 0.924700 0 0 204 0.012199
-0.129359 -0.009411 0.935979 0 0 204 0.011730
-0.129112 -0.009221 0.939516 0 0 204 0.012161
-0.126440 -0.007421 0.939758 0 0 179 0.010025
-0.126735 -0.007587 0.936090 0 0 229 0.017013
-0.123284 -0.005117 0.947605 0 74 255 0.038054
-0.123621 -0.005389 0.943609 0 29 255 0.028528
-0.126206 -0.007175 0.943600 0 0 229 0.016765
-0.125905 -0.006824 0.947505 0 51 255 0.033738
-0.118034 -0.002581 0.943250 0 185 255 0.056942
-0.120959 -0.003859 0.943440 0 74 255 0.039007
-0.135912 -0.023008 0.954525 0 141 255 0.046880
-0.137291 -0.023345 0.950324 0 0 204 0.013457
-0.134916 -0.020659 0.954121 0 29 255 0.029394
-0.138613 -0.023596 0.946222 0 0 179 0.007860
-0.136335 -0.020968 0.949927 0 0 229 0.016201
-0.137737 -0.021146 0.945757 0 0 179 0.009217
-0.133970 -0.018141 0.953904 0 29 255 0.028990
-0.139937 -0.023723 0.942186 0 0 179 0.008236
-0.141239 -0.023751 0.938223 0 0 179 0.008555
-0.142327 -0.026372 0.938678 0 0 153 0.007134
-0.141066 -0.026328 0.942613 0 0 179 0.011341
-0.139813 -0.026188 0.946569 0 0 255 0.022568
-0.143481 -0.029014 0.939167 0 0 229 0.018490
-0.134984 -0.018361 0.949891 0 0 204 0.015095
-0.132418 -0.015582 0.954035 0 51 255 0.032469
-0.136003 -0.018475 0.945833 0 0 153 0.007061
-0.133523 -0.015793 0.949842 0 0 255 0.020779
-0.134570 -0.015904 0.945801 0 0 204 0.013109
-0.136978 -0.018497 0.941911 0 0 179 0.008057
-0.137920 -0.018420 0.938090 0 0 179 0.008497
-0.139541 -0.021137 0.938120 0 0 153 0.004778
-0.138646 -0.021182 0.941921 0 0 153 0.007644
-0.144670 -0.022508 0.923481 0 0 179 0.009437
-0.143761 -0.022887 0.927227 0 0 153 0.006271
-0.146508 -0.025331 0.923581 0 0 153 0.006689
-0.142887 -0.023237 0.930912 0 0 153 0.004563
-0.145594 -0.025614 0.927415 0 0 179 0.007947
-0.144778 -0.025989 0.931030 0 0 179 0.009768
-0.148405 -0.028185 0.923649 0 0 179 0.009782
-0.142062 -0.023543 0.934560 0 0 153 0.006421
-0.140409 -0.020863 0.934415 0 0 153 0.007002
-0.141296 -0.020562 0.930703 0 0 179 0.008602
-0.147094 -0.028376 0.927697 0 0 179 0.010344
-0.149704 -0.031082 0.923913 0 0 179 0.008923
-0.145850 -0.028630 0.931540 0 0 179 0.008166
-0.148389 -0.031263 0.928045 0 0 179 0.010271
-0.147175 -0.031480 0.931893 0 0 229 0.017185
-0.151064 -0.034022 0.924212 0 0 204 0.013257
-0.144656 -0.028833 0.935352 0 0 179 0.010726
-0.143536 -0.026190 0.934861 0 0 153 0.007454
-0.135527 -0.013318 0.921356 0 0 204 0.014286
-0.135655 -0.013345 0.917878 0 0 229 0.019046
-0.132796 -0.011533 0.921709 0 0 229 0.019480
-0.132912 -0.011556 0.918143 0 29 255 0.028917
-0.135758 -0.013462 0.914195 0 7 255 0.024037
-0.135861 -0.013976 0.910036 0 7 255 0.026508
-0.138996 -0.015806 0.909361 0 0 204 0.013668
-0.138806 -0.015352 0.913355 0 0 229 0.016551
-0.138610 -0.015091 0.917237 0 0 255 0.022931
-0.142150 -0.017384 0.908771 0 0 229 0.015929
-0.129858 -0.009962 0.922168 0 0 255 0.020933
-0.129717 -0.010242 0.918945 0 0 255 0.022317
-0.126815 -0.008708 0.922583 0 0 229 0.016049
-0.129575 -0.010624 0.915592 0 51 255 0.031764
-0.130923 -0.011941 0.911678 0 96 255 0.039896
-0.132745 -0.011968 0.914801 0 29 255 0.027728
-0.135670 -0.015721 0.901788 0 0 204 0.014944
-0.134628 -0.014759 0.904615 0 0 204 0.015132
-0.138194 -0.015802 0.903770 0 0 255 0.021767
-0.137081 -0.015006 0.906692 0 0 255 0.022504
-0.133609 -0.013789 0.907699 0 0 229 0.018102
-0.140773 -0.017064 0.901157 0 0 204 0.013431
-0.141308 -0.017104 0.903615 0 0 204 0.014557
-0.144139 -0.018217 0.900940 0 0 179 0.010651
-0.144678 -0.018331 0.903319 0 0 229 0.016532
-0.141784 -0.017208 0.906156 0 0 179 0.011141
-0.145391 -0.022240 0.919729 0 0 179 0.008454
-0.142401 -0.020059 0.923751 0 0 153 0.006257
-0.146193 -0.021962 0.915769 0 0 179 0.007973
-0.143122 -0.019683 0.920100 0 0 179 0.010746
-0.143901 -0.019390 0.916124 0 0 229 0.018241
-0.140264 -0.017613 0.923936 0 0 179 0.010527
-0.146993 -0.021578 0.911963 0 0 179 0.009713
-0.147643 -0.020991 0.908511 0 0 204 0.012937
-0.149999 -0.023087 0.908725 0 0 153 0.007028
-0.149364 -0.023799 0.911956 0 0 153 0.007366
-0.148631 -0.024322 0.915503 0 0 179 0.008928
-0.152372 -0.025119 0.908991 0 0 179 0.008272
-0.140694 -0.017361 0.920500 0 0 179 0.011595
-0.137799 -0.015533 0.924313 0 0 179 0.007968
-0.141172 -0.017265 0.916850 0 0 204 0.013275
-0.138223 -0.015315 0.920811 0 0 179 0.011038
-0.141697 -0.017320 0.912712 0 0 229 0.016094
-0.144920 -0.019262 0.908597 0 0 179 0.010877
-0.144490 -0.019420 0.912144 0 0 204 0.014516
-0.147245 -0.019429 0.900946 0 0 204 0.015554
-0.149949 -0.020527 0.898421 0 0 204 0.012648
-0.147443 -0.019939 0.903457 0 0 179 0.009091
-0.150206 -0.020914 0.900965 0 0 204 0.012714
-0.150398 -0.021462 0.903444 0 0 179 0.010060
-0.152946 -0.021886 0.898360 0 0 229 0.017890
-0.147583 -0.020440 0.905977 0 0 179 0.010564
-0.144840 -0.018770 0.905937 0 0 204 0.013878
-0.152889 -0.022620 0.901115 0 0 179 0.010641
-0.155576 -0.023749 0.898560 0 0 179 0.009166
-0.152759 -0.023378 0.903795 0 0 179 0.008463
-0.155459 -0.024478 0.901373 0 0 179 0.009818
-0.155331 -0.025283 0.904042 0 0 204 0.013370
-0.158209 -0.025606 0.898690 0 0 229 0.016561
-0.152608 -0.024223 0.906395 0 0 179 0.007881
-0.150236 -0.022213 0.906088 0 0 179 0.009976
-0.136198 -0.014525 0.928077 0 0 153 0.007628
-0.134629 -0.013541 0.931730 0 0 153 0.006714
-0.137099 -0.015671 0.931258 0 0 179 0.010656
-0.138672 -0.016627 0.927617 0 0 179 0.010635
-0.134224 -0.013574 0.935249 0 0 179 0.008990
-0.133796 -0.013519 0.938773 0 0 179 0.010670
-0.131438 -0.011410 0.939189 0 0 179 0.009157
-0.131891 -0.011416 0.935594 0 0 179 0.010692
-0.140734 -0.019120 0.927388 0 0 153 0.005838
-0.139080 -0.018167 0.931005 0 0 153 0.004755
-0.138505 -0.018324 0.934530 0 0 153 0.007046
-0.135835 -0.016015 0.938430 0 0 153 0.006112
-0.136451 -0.015863 0.934851 0 0 179 0.008850
-0.131693 -0.013289 0.950192 0 7 255 0.024600
-0.132420 -0.013459 0.946319 0 0 204 0.011940
-0.129749 -0.010906 0.950638 0 51 255 0.032360
-0.130545 -0.011035 0.946646 0 0 255 0.023207
-0.133121 -0.013531 0.942467 0 0 179 0.009577
-0.135211 -0.015998 0.942087 0 0 153 0.007579
-0.128147 -0.008940 0.947168 0 7 255 0.024453
-0.128650 -0.009140 0.943262 0 0 179 0.011139
-0.131048 -0.011306 0.942817 0 0 179 0.010972
-0.164904 -0.026490 0.873172 0 0 179 0.010557
-0.166822 -0.028247 0.871386 0 0 128 0.003712
-0.164900 -0.026481 0.870299 0 0 179 0.010698
-0.168797 -0.030006 0.869609 0 0 153 0.004042
-0.166867 -0.028202 0.868529 0 0 153 0.005579
-0.168880 -0.029918 0.866740 0 0 153 0.005681
-0.164845 -0.026453 0.867445 0 0 204 0.012065
-0.170850 -0.031744 0.867831 0 0 153 0.007208
-0.172851 -0.033515 0.866105 0 0 229 0.017320
-0.172512 -0.033332 0.869046 0 0 204 0.013693
-0.170509 -0.031560 0.870821 0 0 153 0.006861
-0.168559 -0.029716 0.872627 0 0 153 0.006447
-0.172186 -0.033101 0.872040 0 0 229 0.016408
-0.166773 -0.028357 0.865572 0 0 153 0.003978
-0.164409 -0.026525 0.864480 0 0 179 0.008209
-0.168756 -0.030197 0.863653 0 0 128 0.003484
-0.166358 -0.028365 0.862589 0 0 153 0.004171
-0.168398 -0.030169 0.860646 0 0 153 0.005672
-0.163953 -0.026508 0.861504 0 0 179 0.011377
-0.170753 -0.032096 0.861791 0 0 153 0.006966
-0.172790 -0.033981 0.859948 0 0 255 0.019951
-0.172870 -0.033772 0.863010 0 0 229 0.015667
-0.170876 -0.031829 0.864861 0 0 179 0.007878
-0.179399 -0.043775 0.860340 0 7 255 0.026921
-0.177900 -0.041160 0.861696 0 0 204 0.015092
-0.179074 -0.043257 0.863422 0 0 255 0.019842
-0.176259 -0.038615 0.863100 0 0 153 0.007058
-0.177499 -0.040656 0.864821 0 0 179 0.008901
-0.175882 -0.038062 0.866297 0 0 153 0.005988
-0.178698 -0.042698 0.866522 0 0 255 0.021939
-0.174564 -0.036075 0.864596 0 0 179 0.008200
-0.174582 -0.036298 0.861512 0 0 179 0.008826
-0.176301 -0.038771 0.860054 0 0 179 0.010426
-0.177103 -0.040284 0.867844 0 0 179 0.010306
-0.177980 -0.042209 0.869590 0 0 229 0.017588
-0.175531 -0.037866 0.869172 0 0 179 0.007897
-0.176477 -0.039750 0.870898 0 0 179 0.009897
-0.174809 -0.037316 0.872386 0 0 153 0.007488
-0.177303 -0.041642 0.872700 0 0 255 0.020179
-0.173780 -0.035483 0.870633 0 0 153 0.006480
-0.174214 -0.035679 0.867666 0 0 179 0.008355
-0.161921 -0.025300 0.863519 0 0 128 0.003227
-0.159892 -0.024044 0.865549 0 0 128 0.001474
-0.162414 -0.025216 0.866499 0 0 153 0.004053
-0.160354 -0.023949 0.868540 0 0 128 0.002543
-0.157902 -0.022774 0.867598 0 0 128 0.002123
-0.155987 -0.021535 0.869601 0 0 153 0.006326
-0.155345 -0.021438 0.866681 0 0 153 0.005041
-0.157270 -0.022646 0.864697 0 0 128 0.002259
-0.159226 -0.023894 0.862730 0 0 128 0.002256
-0.154702 -0.021234 0.863819 0 0 153 0.007567
-0.162721 -0.025266 0.869403 0 0 153 0.004213
-0.160566 -0.024101 0.871396 0 0 128 0.001327
-0.162762 -0.025329 0.872231 0 0 128 0.003403
-0.160692 -0.024069 0.874224 0 0 153 0.004129
-0.158526 -0.022963 0.873286 0 0 128 0.001563
-0.156576 -0.021793 0.875165 0 0 153 0.006417
-0.156258 -0.021710 0.872390 0 0 153 0.004376
-0.158258 -0.022834 0.870519 0 0 128 0.002051
-0.149622 -0.019378 0.874040 0 0 128 0.000976
-0.151633 -0.020063 0.872134 0 0 128 0.000948
-0.154214 -0.020984 0.874353 0 0 128 0.002353
-0.152209 -0.020218 0.876304 0 0 128 0.003372
-0.148823 -0.019027 0.869966 0 0 128 0.001231
-0.150744 -0.019789 0.867933 0 0 128 0.000600
-0.148035 -0.018744 0.867261 0 0 128 0.001149
-0.149971 -0.019456 0.865233 0 0 128 0.001524
-0.152713 -0.020481 0.865907 0 0 128 0.002255
-0.153380 -0.020702 0.868804 0 0 128 0.001698
-0.152487 -0.020717 0.887906 0 0 153 0.007702
-0.155990 -0.022183 0.888514 0 0 204 0.012248
-0.154569 -0.021393 0.886184 0 0 153 0.007711
-0.153901 -0.021486 0.890232 0 0 179 0.009518
-0.158171 -0.023140 0.885472 0 0 204 0.012504
-0.159040 -0.024086 0.888246 0 0 204 0.012126
-0.161184 -0.025196 0.886357 0 0 179 0.011082
-0.163394 -0.026317 0.884400 0 0 229 0.016821
-0.162008 -0.026139 0.889157 0 0 229 0.019015
-0.160025 -0.025097 0.890852 0 0 204 0.012304
-0.157012 -0.023108 0.891113 0 0 204 0.015579
-0.156893 -0.023880 0.894996 0 0 179 0.008139
-0.154242 -0.022044 0.894913 0 0 204 0.014007
-0.159851 -0.025818 0.894826 0 0 204 0.013787
-0.150934 -0.020567 0.895251 0 0 179 0.010429
-0.162679 -0.025326 0.876402 0 0 153 0.005925
-0.160641 -0.024174 0.878251 0 0 153 0.005685
-0.164599 -0.026492 0.877245 0 0 204 0.012253
-0.158684 -0.023014 0.880063 0 0 153 0.007152
-0.156717 -0.021953 0.879138 0 0 153 0.007586
-0.162373 -0.025342 0.880508 0 0 179 0.010108
-0.160327 -0.024215 0.882333 0 0 153 0.007542
-0.156609 -0.022063 0.883139 0 0 179 0.008498
-0.150790 -0.020078 0.885577 0 0 153 0.004167
-0.152752 -0.020637 0.884014 0 0 153 0.005540
-0.150622 -0.019749 0.881936 0 0 153 0.004265
-0.154719 -0.021180 0.881034 0 0 153 0.006670
-0.150219 -0.019573 0.878083 0 0 128 0.002882
-0.152557 -0.020436 0.880201 0 0 153 0.003980
-0.139340 -0.015169 0.856095 0 0 153 0.004785
-0.137726 -0.014602 0.858345 0 0 128 0.001656
-0.141025 -0.015940 0.858655 0 0 128 0.003436
-0.136155 -0.014033 0.860538 0 0 128 0.002134
-0.139460 -0.015388 0.860880 0 0 128 0.001874
-0.137896 -0.014838 0.863039 0 0 128 0.002133
-0.142759 -0.016534 0.861210 0 0 153 0.003972
-0.134640 -0.013435 0.862694 0 0 128 0.003300
-0.133131 -0.012926 0.864828 0 0 153 0.006231
-0.131307 -0.011770 0.862866 0 0 153 0.007441
-0.132822 -0.012383 0.860681 0 0 153 0.004722
-0.134364 -0.012984 0.858469 0 0 128 0.003026
-0.129559 -0.010486 0.860901 0 0 179 0.008908
-0.141073 -0.016141 0.863254 0 0 128 0.001632
-0.144021 -0.017178 0.863831 0 0 128 0.002268
-0.139409 -0.015700 0.865304 0 0 128 0.001606
-0.142349 -0.016742 0.865937 0 0 128 0.001325
-0.135367 -0.014339 0.868070 0 0 153 0.006099
-0.136991 -0.014865 0.866161 0 0 128 0.002561
-0.127626 -0.012658 0.870122 0 0 153 0.004184
-0.129962 -0.013158 0.868922 0 0 153 0.004470
-0.128370 -0.011938 0.867214 0 0 128 0.003341
-0.131523 -0.013060 0.866904 0 0 128 0.003805
-0.125178 -0.010609 0.867595 0 0 128 0.002676
-0.126578 -0.010619 0.865406 0 0 128 0.002645
-0.123343 -0.009055 0.866145 0 0 153 0.004194
-0.124759 -0.009105 0.863949 0 0 128 0.002517
-0.128029 -0.010599 0.863155 0 0 153 0.003928
-0.129820 -0.011862 0.865023 0 0 128 0.003262
-0.147024 -0.018417 0.864429 0 0 128 0.001447
-0.148797 -0.019258 0.862292 0 0 128 0.001190
-0.145768 -0.017960 0.861768 0 0 128 0.001352
-0.147502 -0.018780 0.859699 0 0 128 0.001884
-0.150603 -0.020071 0.860141 0 0 128 0.002491
-0.152366 -0.020953 0.857995 0 0 153 0.007175
-0.153545 -0.021158 0.860878 0 0 153 0.005994
-0.151759 -0.020302 0.863037 0 0 128 0.002441
-0.144359 -0.017566 0.858897 0 0 128 0.001412
-0.146003 -0.018606 0.856559 0 0 128 0.001541
-0.142656 -0.016960 0.856334 0 0 128 0.001618
-0.144297 -0.017973 0.853957 0 0 128 0.002433
-0.147672 -0.019653 0.854128 0 0 128 0.002940
-0.149361 -0.020628 0.851816 0 0 179 0.009771
-0.150842 -0.020856 0.854845 0 0 153 0.005928
-0.149149 -0.019849 0.857288 0 0 128 0.002082
-0.159294 -0.027295 0.848535 0 0 204 0.013615
-0.157575 -0.025681 0.850881 0 0 153 0.004481
-0.160761 -0.026959 0.851767 0 0 204 0.014408
-0.155756 -0.024171 0.853254 0 0 128 0.001737
-0.158841 -0.025462 0.854221 0 0 128 0.002818
-0.157038 -0.023843 0.856753 0 0 128 0.001875
-0.162043 -0.026684 0.855200 0 0 204 0.012777
-0.154002 -0.022592 0.855641 0 0 128 0.001774
-0.152552 -0.022468 0.852563 0 0 128 0.003272
-0.154258 -0.024050 0.850272 0 0 128 0.003590
-0.160121 -0.025341 0.857400 0 0 128 0.003203
-0.163039 -0.026600 0.858319 0 0 179 0.010876
-0.158223 -0.024028 0.859583 0 0 128 0.001154
-0.161087 -0.025282 0.860540 0 0 128 0.002670
-0.156429 -0.022664 0.861725 0 0 128 0.002191
-0.155269 -0.022498 0.858815 0 0 128 0.002374
-0.105428 -0.011065 0.878462 0 0 153 0.006778
-0.106315 -0.009100 0.876510 0 0 153 0.004688
-0.102862 -0.009644 0.877658 0 0 153 0.006365
-0.107194 -0.007039 0.874567 0 0 204 0.012498
-0.108202 -0.004793 0.872627 0 118 255 0.044401
-0.102604 -0.007179 0.875484 0 0 153 0.005996
-0.099952 -0.008545 0.877045 0 0 153 0.004782
-0.103412 -0.005020 0.873587 0 0 229 0.018725
-0.104321 -0.002719 0.871623 0 208 255 0.061262
-0.112825 -0.001620 0.863379 0 74 255 0.037386
-0.111605 -0.002365 0.865771 0 0 229 0.018346
-0.114764 -0.002934 0.864200 0 29 255 0.029671
-0.110490 -0.003064 0.868095 0 0 229 0.017134
-0.113587 -0.003670 0.866614 0 0 229 0.015758
-0.112459 -0.004474 0.868947 0 0 204 0.014507
-0.116679 -0.004347 0.864998 0 0 255 0.020718
-0.109295 -0.003968 0.870406 0 0 255 0.022652
-0.106395 -0.002377 0.869681 0 51 255 0.032485
-0.116264 -0.005849 0.867824 0 0 153 0.007690
-0.115020 -0.006660 0.870060 0 0 153 0.005950
-0.086839 0.004167 0.863001 0 0 128 0.003535
-0.088344 0.005322 0.860780 0 0 179 0.009214
-0.085379 0.003041 0.865229 0 0 128 0.002911
-0.089552 0.001862 0.865615 0 0 128 0.002740
-0.091096 0.003076 0.863382 0 0 128 0.002867
-0.092669 0.004277 0.861123 0 0 179 0.009106
-0.086023 0.001369 0.867594 0 0 153 0.004151
-0.086680 -0.000369 0.869905 0 0 153 0.006913
-0.083130 0.000346 0.869893 0 0 179 0.008178
-0.082378 0.001909 0.867518 0 0 128 0.003552
-0.094751 0.002254 0.863655 0 0 153 0.003968
-0.096593 0.002996 0.861421 0 0 153 0.006519
-0.092981 0.001438 0.865782 0 0 153 0.005882
-0.096886 0.000238 0.866178 0 0 153 0.004861
-0.098685 0.000983 0.864048 0 0 153 0.004642
-0.100602 0.001676 0.861730 0 0 153 0.004483
-0.093161 -0.000068 0.868074 0 0 153 0.007360
-0.093391 -0.001473 0.870260 0 0 204 0.012054
-0.089994 -0.000986 0.870108 0 0 179 0.009838
-0.089801 0.000515 0.867876 0 0 153 0.005536
-0.087647 -0.006693 0.875951 0 0 153 0.004845
-0.085410 -0.008218 0.878209 0 0 179 0.009158
-0.087322 -0.004658 0.873984 0 0 128 0.003240
-0.085017 -0.006313 0.876151 0 0 153 0.004240
-0.084662 -0.004321 0.874149 0 0 128 0.003364
-0.082822 -0.007701 0.878521 0 0 179 0.007842
-0.087007 -0.002539 0.871946 0 0 128 0.002826
-0.090290 -0.003193 0.872119 0 0 128 0.002757
-0.090597 -0.005330 0.874078 0 0 153 0.004656
-0.081993 -0.005592 0.876382 0 0 153 0.004027
-0.079953 -0.007213 0.878987 0 0 153 0.007179
-0.081193 -0.003399 0.874299 0 0 128 0.001829
-0.079133 -0.005126 0.876846 0 0 153 0.004350
-0.080385 -0.001108 0.872116 0 0 153 0.004223
-0.083893 -0.002010 0.872025 0 0 128 0.002312
-0.083549 0.009845 0.840084 0 0 179 0.008256
-0.087969 0.009283 0.838480 0 0 204 0.015217
-0.083217 0.010039 0.843454 0 0 153 0.007447
-0.087624 0.009556 0.841912 0 0 179 0.011168
-0.087266 0.009720 0.845305 0 0 204 0.012950
-0.092027 0.008876 0.840278 0 7 255 0.027096
-0.082909 0.010052 0.846765 0 0 179 0.011524
-0.082631 0.009993 0.850062 0 0 255 0.022064
-0.080434 0.010027 0.849187 0 0 204 0.014281
-0.080702 0.010095 0.845911 0 0 179 0.008224
-0.078251 0.010086 0.848307 0 0 204 0.012110
-0.078512 0.010097 0.845074 0 0 153 0.006642
-0.080987 0.010031 0.842582 0 0 153 0.004308
-0.076074 0.010027 0.847458 0 0 179 0.009254
-0.091950 0.008958 0.843037 0 0 229 0.018370
-0.096265 0.007590 0.841038 0 0 229 0.017910
-0.091834 0.008931 0.845772 0 0 204 0.014461
-0.096168 0.007678 0.843785 0 0 179 0.010616
-0.096049 0.007690 0.846511 0 0 179 0.011425
-0.100413 0.006110 0.841795 0 0 255 0.019904
-0.091723 0.008822 0.848468 0 0 229 0.017166
-0.091617 0.008600 0.851145 0 7 255 0.024353
-0.087146 0.009368 0.850591 0 0 255 0.021447
-0.087225 0.009614 0.847967 0 0 229 0.017583
-0.083692 0.007382 0.857887 0 0 204 0.013430
-0.083321 0.008292 0.855286 0 0 179 0.010448
-0.079225 0.007662 0.857639 0 0 153 0.007453
-0.078814 0.008584 0.855074 0 0 179 0.008393
-0.082934 0.009192 0.852726 0 0 204 0.012674
-0.087439 0.008542 0.853272 0 0 204 0.014031
-0.087715 0.007627 0.855898 0 0 179 0.009689
-0.074997 0.007991 0.856652 0 0 153 0.005713
-0.072141 0.008027 0.856205 0 0 153 0.005764
-0.074608 0.008719 0.853361 0 0 128 0.001976
-0.069368 0.008128 0.855790 0 0 153 0.006895
-0.071731 0.008643 0.852915 0 0 128 0.002962
-0.074248 0.009365 0.850022 0 0 128 0.002838
-0.076388 0.009406 0.850880 0 0 153 0.005076
-0.078539 0.009389 0.851723 0 0 153 0.007456
-0.076721 0.008679 0.854211 0 0 153 0.004883
-0.121499 -0.007476 0.864758 0 0 153 0.006038
-0.122833 -0.007612 0.862372 0 0 128 0.002596
-0.118829 -0.005282 0.863134 0 0 153 0.006896
-0.124229 -0.007698 0.859963 0 0 153 0.004190
-0.125621 -0.007805 0.857615 0 0 179 0.010906
-0.127615 -0.009177 0.859215 0 0 179 0.010349
-0.126182 -0.009132 0.861598 0 0 153 0.004311
-0.116829 -0.003781 0.862083 0 0 204 0.011755
-0.118975 -0.004591 0.859926 0 0 153 0.006368
-0.117050 -0.003268 0.859075 0 0 179 0.008893
-0.114913 -0.002408 0.861226 0 0 229 0.017366
-0.120134 -0.004843 0.857355 0 0 153 0.007291
-0.121357 -0.005061 0.854856 0 0 229 0.016388
-0.123505 -0.006382 0.856208 0 0 204 0.014676
-0.122265 -0.006243 0.858768 0 0 153 0.005977
-0.130633 -0.011337 0.847000 0 0 179 0.009514
-0.129335 -0.010403 0.849606 0 0 153 0.004374
-0.132993 -0.012411 0.849048 0 0 179 0.010576
-0.128047 -0.009585 0.852235 0 0 128 0.002101
-0.131615 -0.011625 0.851698 0 0 128 0.002617
-0.130321 -0.010773 0.854316 0 0 128 0.002646
-0.135276 -0.013533 0.851167 0 0 153 0.005856
-0.126795 -0.008674 0.854912 0 0 153 0.004560
-0.124648 -0.007385 0.853480 0 0 153 0.005799
-0.125810 -0.008376 0.850821 0 0 128 0.002681
-0.133827 -0.012737 0.853539 0 0 128 0.002311
-0.137328 -0.014369 0.853583 0 0 153 0.005881
-0.132359 -0.012011 0.856017 0 0 128 0.002137
-0.135827 -0.013625 0.856024 0 0 128 0.001935
-0.130933 -0.011268 0.858446 0 0 128 0.003867
-0.128962 -0.009984 0.856754 0 0 153 0.005828
-0.102655 0.004851 0.841973 0 0 204 0.012740
-0.100494 0.005952 0.844310 0 0 179 0.010758
-0.102722 0.004706 0.844449 0 0 153 0.005918
-0.104824 0.003536 0.842116 0 0 179 0.010231
-0.100572 0.005727 0.846815 0 0 153 0.007025
-0.104919 0.003445 0.844635 0 0 153 0.005478
-0.102783 0.004485 0.846970 0 0 128 0.002706
-0.104967 0.003225 0.847143 0 0 128 0.003634
-0.106964 0.002194 0.842282 0 0 153 0.007248
-0.107068 0.002132 0.844825 0 0 153 0.004135
-0.109098 0.000933 0.842522 0 0 179 0.009484
-0.100639 0.005412 0.849314 0 0 179 0.009212
-0.102886 0.004244 0.849458 0 0 153 0.004716
-0.100742 0.005046 0.851784 0 0 179 0.011305
-0.098494 0.006010 0.851650 0 0 179 0.010785
-0.098410 0.006390 0.849185 0 0 179 0.007950
-0.096231 0.006932 0.851477 0 0 204 0.013338
-0.096148 0.007341 0.848989 0 0 179 0.010809
-0.098341 0.006772 0.846691 0 0 179 0.008858
-0.093921 0.007788 0.851341 0 0 229 0.017732
-0.111120 -0.000431 0.842699 0 0 153 0.006745
-0.111156 -0.000386 0.845139 0 0 128 0.003339
-0.113249 -0.001727 0.842911 0 0 153 0.006639
-0.109103 0.000957 0.847414 0 0 128 0.002612
-0.113217 -0.001721 0.845341 0 0 128 0.002016
-0.111131 -0.000417 0.847583 0 0 128 0.002952
-0.115309 -0.003099 0.843051 0 0 153 0.004094
-0.117416 -0.004364 0.843313 0 0 153 0.004286
-0.109105 0.000722 0.852347 0 0 153 0.003993
-0.107062 0.002016 0.849733 0 0 128 0.003886
-0.104998 0.002990 0.852047 0 0 153 0.007603
-0.100631 0.002631 0.859271 0 0 128 0.003884
-0.100646 0.003464 0.856812 0 0 153 0.005844
-0.096598 0.004006 0.859046 0 0 153 0.004730
-0.096608 0.004846 0.856561 0 0 128 0.003501
-0.100679 0.004298 0.854305 0 0 153 0.006394
-0.104921 0.002247 0.854571 0 0 153 0.004905
-0.104859 0.001439 0.857122 0 0 153 0.007008
-0.092352 0.005366 0.858613 0 0 153 0.004379
-0.092079 0.006454 0.856139 0 0 153 0.005713
-0.088004 0.006448 0.858339 0 0 153 0.006283
-0.091819 0.007535 0.853675 0 0 179 0.010498
-0.094111 0.006750 0.853858 0 0 153 0.006391
-0.096382 0.005930 0.854040 0 0 153 0.005245
-0.094336 0.005660 0.856358 0 0 128 0.003498
-0.103510 -0.015827 0.799397 0 0 128 0.001094
-0.101629 -0.014326 0.800452 0 0 128 0.000639
-0.098490 -0.013285 0.799521 0 0 128 0.000605
-0.096629 -0.011697 0.800602 0 0 128 0.000625
-0.093497 -0.010650 0.799750 0 0 128 0.001152
-0.096022 -0.009445 0.803677 0 0 128 0.002229
-0.094136 -0.012830 0.796685 0 0 128 0.000738
-0.090965 -0.011884 0.795808 0 0 128 0.001406
-0.096132 -0.014276 0.795811 0 0 128 0.000561
-0.098102 -0.015645 0.794965 0 0 128 0.000547
-0.101227 -0.016581 0.795884 0 0 128 0.001245
-0.098968 -0.017413 0.792388 0 0 128 0.001154
-0.093931 -0.007892 0.804806 0 0 128 0.001278
-0.092595 -0.008603 0.802654 0 0 128 0.000801
-0.090436 -0.007059 0.803793 0 0 128 0.001106
-0.091830 -0.006306 0.805950 0 0 128 0.000969
-0.089073 -0.007848 0.801621 0 0 128 0.000802
-0.088246 -0.005482 0.804981 0 0 128 0.001287
-0.086873 -0.006312 0.802830 0 0 128 0.001389
-0.089630 -0.004681 0.807104 0 0 128 0.001219
-0.085443 -0.007100 0.800700 0 0 128 0.001409
-0.086467 -0.009192 0.797736 0 0 128 0.000981
-0.090034 -0.009917 0.798700 0 0 128 0.000933
-0.079154 -0.011321 0.789853 0 0 128 0.001433
-0.082823 -0.011785 0.791132 0 0 128 0.000715
-0.085249 -0.013022 0.790344 0 0 128 0.000743
-0.088713 -0.013434 0.791684 0 0 128 0.001316
-0.086417 -0.014967 0.787575 0 0 128 0.001459
-0.087518 -0.011424 0.794494 0 0 128 0.000873
-0.085234 -0.010104 0.795462 0 0 128 0.001015
-0.082853 -0.008772 0.796455 0 0 128 0.001323
-0.081605 -0.009691 0.794175 0 0 128 0.001476
-0.088598 -0.016269 0.786975 0 0 128 0.000706
-0.091738 -0.016874 0.788133 0 0 128 0.000406
-0.093839 -0.018087 0.787530 0 0 128 0.000530
-0.096965 -0.018656 0.788743 0 0 128 0.001010
-0.094944 -0.019950 0.785165 0 0 128 0.001133
-0.095865 -0.016813 0.791164 0 0 128 0.000571
-0.093856 -0.015461 0.791999 0 0 128 0.000471
-0.091836 -0.014061 0.792882 0 0 128 0.000716
-0.088989 -0.002498 0.810208 0 0 128 0.002328
-0.086913 -0.001093 0.811635 0 0 128 0.001722
-0.088492 -0.000546 0.813519 0 0 128 0.001550
-0.090598 -0.001984 0.812079 0 0 128 0.003038
-0.086386 0.000879 0.814998 0 0 128 0.001227
-0.090125 -0.000011 0.815413 0 0 128 0.001891
-0.088005 0.001445 0.816886 0 0 128 0.001413
-0.089577 0.001988 0.818792 0 0 128 0.002151
-0.092139 -0.001497 0.813987 0 0 128 0.002846
-0.091685 0.000476 0.817295 0 0 128 0.002375
-0.093725 -0.001030 0.815906 0 0 153 0.004078
-0.085799 0.002859 0.818406 0 0 128 0.003247
-0.087395 0.003431 0.820303 0 0 128 0.003188
-0.085129 0.004802 0.821876 0 0 153 0.007171
-0.083315 0.004107 0.819758 0 0 153 0.005604
-0.083985 0.002134 0.816283 0 0 128 0.001981
-0.081481 0.003350 0.817636 0 0 153 0.004854
-0.082105 0.001400 0.814198 0 0 128 0.002187
-0.084539 0.000169 0.812880 0 0 128 0.001016
-0.079605 0.002565 0.815539 0 0 153 0.004345
-0.093555 0.000660 0.818994 0 0 128 0.002833
-0.097114 -0.001003 0.818880 0 0 153 0.004501
-0.093395 0.002345 0.822122 0 0 128 0.003466
-0.096905 0.000663 0.821948 0 0 128 0.003127
-0.096665 0.002287 0.824985 0 0 128 0.003750
-0.100342 -0.001107 0.821794 0 0 153 0.004775
-0.093111 0.003971 0.825216 0 0 153 0.006798
-0.092741 0.005573 0.828370 0 0 204 0.012179
-0.090887 0.005463 0.826770 0 0 179 0.009100
-0.091233 0.003844 0.823593 0 0 128 0.003582
-0.089002 0.005306 0.825171 0 0 153 0.007326
-0.089327 0.003685 0.821985 0 0 128 0.003523
-0.091488 0.002192 0.820462 0 0 128 0.002612
-0.087106 0.005064 0.823520 0 0 153 0.006451
-0.084184 0.008618 0.833108 0 0 153 0.006102
-0.082122 0.008333 0.831312 0 0 153 0.004875
-0.084560 0.007490 0.829403 0 0 128 0.002746
-0.079984 0.007966 0.829456 0 0 128 0.003892
-0.082443 0.007160 0.827554 0 0 128 0.002365
-0.080226 0.006733 0.825674 0 0 128 0.002653
-0.077771 0.007520 0.827559 0 0 153 0.004218
-0.084875 0.006210 0.825651 0 0 128 0.003602
-0.082713 0.005805 0.823718 0 0 153 0.004616
-0.086818 0.006446 0.827254 0 0 153 0.004031
-0.088700 0.006639 0.828852 0 0 153 0.005471
-0.086437 0.007692 0.830947 0 0 128 0.003399
-0.088335 0.007828 0.832497 0 0 153 0.007030
-0.090545 0.006788 0.830461 0 0 179 0.008240
-0.086097 0.008768 0.834578 0 0 179 0.009404
-0.075985 0.006817 0.825448 0 0 128 0.003121
-0.073973 0.005952 0.823007 0 0 128 0.002609
-0.076629 0.005243 0.821400 0 0 128 0.001525
-0.071945 0.005018 0.820588 0 0 128 0.002538
-0.074572 0.004330 0.818980 0 0 128 0.001787
-0.077207 0.003496 0.817378 0 0 128 0.002106
-0.079053 0.004333 0.819499 0 0 128 0.002559
-0.080893 0.005098 0.821610 0 0 128 0.003449
-0.078437 0.006025 0.823542 0 0 128 0.002131
-0.100391 0.000159 0.824357 0 0 153 0.004808
-0.103781 -0.002309 0.823560 0 0 128 0.002730
-0.100333 0.001398 0.826878 0 0 153 0.005521
-0.103787 -0.001090 0.826065 0 0 128 0.002454
-0.103800 0.000164 0.828608 0 0 153 0.004631
-0.107184 -0.003495 0.825307 0 0 128 0.003427
-0.100295 0.002642 0.829453 0 0 179 0.008961
-0.100194 0.003860 0.832037 0 0 204 0.015149
-0.096518 0.004799 0.830226 0 0 204 0.012343
-0.096617 0.003578 0.827611 0 0 153 0.006513
-0.109223 -0.003791 0.827982 0 0 128 0.001245
-0.110847 -0.005699 0.826375 0 0 128 0.000709
-0.107589 -0.001831 0.829633 0 0 128 0.003106
-0.111240 -0.004102 0.830517 0 0 128 0.001783
-0.112887 -0.005971 0.828890 0 0 128 0.000832
-0.114545 -0.007762 0.827297 0 0 128 0.001286
-0.109551 -0.002198 0.832162 0 0 128 0.002529
-0.107888 -0.000242 0.833850 0 0 153 0.007329
-0.105848 -0.000040 0.831269 0 0 128 0.003700
-0.104097 0.001808 0.832948 0 0 179 0.008046
-0.100401 0.005631 0.839359 0 0 204 0.014940
-0.100360 0.005097 0.836914 0 0 204 0.012378
-0.096266 0.007150 0.838595 0 0 229 0.015880
-0.096239 0.006616 0.836122 0 0 204 0.014220
-0.100282 0.004516 0.834497 0 0 204 0.013219
-0.104181 0.002434 0.835336 0 0 153 0.007631
-0.104247 0.003032 0.837705 0 0 179 0.008404
-0.092237 0.008210 0.837335 0 0 229 0.016518
-0.092419 0.007440 0.834389 0 0 179 0.010699
-0.094488 0.006174 0.832283 0 0 179 0.009992
-0.133143 -0.013498 0.845180 0 0 153 0.003998
-0.136858 -0.015906 0.844732 0 0 128 0.002884
-0.139361 -0.017909 0.842965 0 0 153 0.004327
-0.143185 -0.020096 0.842596 0 0 179 0.009166
-0.140668 -0.019617 0.839996 0 0 153 0.005577
-0.141787 -0.018442 0.845678 0 0 153 0.004866
-0.145631 -0.020586 0.845249 0 0 179 0.008873
-0.139210 -0.016715 0.847140 0 0 128 0.002908
-0.136689 -0.014807 0.848585 0 0 153 0.004981
-0.143204 -0.022369 0.838401 0 0 128 0.001090
-0.144273 -0.022132 0.840421 0 0 128 0.001571
-0.146855 -0.024793 0.838763 0 0 128 0.001105
-0.145753 -0.025085 0.836802 0 0 128 0.000740
-0.148002 -0.024503 0.840737 0 0 128 0.001400
-0.149548 -0.027368 0.837145 0 0 128 0.001674
-0.150680 -0.027019 0.839069 0 0 128 0.002401
-0.153421 -0.029527 0.837357 0 0 179 0.009330
-0.148382 -0.027743 0.835246 0 0 128 0.001689
-0.152211 -0.029985 0.835505 0 0 153 0.007427
-0.150895 -0.030521 0.833703 0 0 128 0.003447
-0.151795 -0.026736 0.841005 0 0 128 0.002062
-0.154594 -0.029136 0.839297 0 0 179 0.011033
-0.155745 -0.028803 0.841210 0 0 179 0.010582
-0.150596 -0.024784 0.843264 0 0 128 0.002059
-0.146814 -0.022533 0.842941 0 0 128 0.003215
-0.155774 -0.025818 0.847802 0 0 128 0.003677
-0.152299 -0.024204 0.847004 0 0 128 0.003069
-0.150838 -0.022428 0.849364 0 0 153 0.004457
-0.147520 -0.020650 0.848461 0 0 179 0.007874
-0.148938 -0.022457 0.846168 0 0 153 0.005443
-0.154087 -0.026470 0.844017 0 0 153 0.004303
-0.157630 -0.028051 0.844754 0 0 204 0.012332
-0.145756 -0.019062 0.851661 0 0 128 0.003617
-0.142244 -0.017287 0.851456 0 0 128 0.002875
-0.140806 -0.016221 0.853724 0 0 128 0.003182
-0.138744 -0.015460 0.851270 0 0 153 0.004190
-0.143949 -0.018943 0.848347 0 0 153 0.004562
-0.116673 -0.009211 0.827657 0 0 128 0.000477
-0.118795 -0.010637 0.827973 0 0 128 0.000236
-0.115557 -0.006874 0.831075 0 0 128 0.001814
-0.117690 -0.008379 0.831411 0 0 128 0.000984
-0.119845 -0.009813 0.831680 0 0 128 0.000653
-0.121004 -0.012037 0.828311 0 0 128 0.000176
-0.123194 -0.013385 0.828641 0 0 128 0.000283
-0.116461 -0.006030 0.834867 0 0 128 0.002555
-0.114245 -0.004663 0.834580 0 0 128 0.001945
-0.112099 -0.003242 0.834349 0 0 128 0.002133
-0.125414 -0.014907 0.828885 0 0 128 0.000215
-0.127705 -0.016389 0.829211 0 0 128 0.000315
-0.124378 -0.012525 0.832212 0 0 128 0.001289
-0.126616 -0.014062 0.832443 0 0 128 0.000551
-0.128903 -0.015570 0.832696 0 0 128 0.000694
-0.129960 -0.017830 0.829542 0 0 128 0.000263
-0.132313 -0.019307 0.829814 0 0 128 0.000307
-0.125452 -0.011775 0.835717 0 0 128 0.002076
-0.123167 -0.010390 0.835537 0 0 128 0.001629
-0.120920 -0.008971 0.835334 0 0 128 0.001622
-0.122089 -0.011193 0.831916 0 0 128 0.000789
-0.118661 -0.007513 0.835112 0 0 128 0.001728
-0.116994 -0.005140 0.839038 0 0 128 0.002786
-0.114834 -0.003918 0.838802 0 0 128 0.002367
-0.112753 -0.002596 0.838593 0 0 128 0.003077
-0.119167 -0.006681 0.839200 0 0 128 0.001816
-0.121378 -0.008206 0.839405 0 0 128 0.001661
-0.108500 0.000381 0.838129 0 0 153 0.004650
-0.106390 0.001719 0.837914 0 0 153 0.006015
-0.110306 -0.001413 0.836232 0 0 128 0.003432
-0.104273 -0.013974 0.803769 0 0 128 0.000376
-0.106018 -0.015583 0.802507 0 0 128 0.000688
-0.102530 -0.012291 0.805008 0 0 128 0.000452
-0.105017 -0.012004 0.808082 0 0 128 0.000353
-0.106743 -0.013698 0.806839 0 0 128 0.000290
-0.108500 -0.015353 0.805571 0 0 128 0.000605
-0.102046 -0.010354 0.807808 0 0 128 0.000608
-0.101588 -0.008340 0.810598 0 0 128 0.001608
-0.098828 -0.008860 0.807146 0 0 128 0.001446
-0.099253 -0.010844 0.804326 0 0 128 0.000725
-0.109644 -0.014091 0.809496 0 0 128 0.000179
-0.111308 -0.015797 0.808075 0 0 128 0.000330
-0.108012 -0.012277 0.810877 0 0 128 0.000175
-0.110750 -0.012742 0.813310 0 0 128 0.000196
-0.112389 -0.014518 0.811913 0 0 128 0.000120
-0.114103 -0.016250 0.810531 0 0 128 0.000249
-0.107792 -0.010650 0.813466 0 0 128 0.000201
-0.107555 -0.008952 0.816022 0 0 128 0.000629
-0.104586 -0.008624 0.813344 0 0 128 0.000851
-0.104824 -0.010357 0.810726 0 0 128 0.000427
-0.100723 -0.002968 0.819023 0 0 128 0.002175
-0.101055 -0.004814 0.816243 0 0 128 0.001167
-0.097427 -0.002905 0.816040 0 0 128 0.001908
-0.097757 -0.004769 0.813212 0 0 128 0.001072
-0.101349 -0.006625 0.813429 0 0 128 0.000974
-0.104322 -0.006912 0.816112 0 0 128 0.000452
-0.104006 -0.005147 0.818840 0 0 128 0.000834
-0.094365 -0.003253 0.812815 0 0 128 0.001859
-0.092797 -0.003702 0.810903 0 0 128 0.001224
-0.094976 -0.005409 0.809764 0 0 128 0.001048
-0.091231 -0.004182 0.809006 0 0 128 0.001151
-0.093438 -0.005850 0.807851 0 0 128 0.000934
-0.095506 -0.007481 0.806732 0 0 128 0.000934
-0.098328 -0.006882 0.810168 0 0 128 0.000948
-0.115604 -0.015718 0.813608 0 0 128 0.000080
-0.117223 -0.017484 0.812173 0 0 128 0.000102
-0.114006 -0.013885 0.815026 0 0 128 0.000100
-0.117120 -0.015120 0.816561 0 0 128 0.000081
-0.118747 -0.016920 0.815170 0 0 128 0.000107
-0.120392 -0.018678 0.813720 0 0 128 0.000365
-0.114006 -0.012666 0.817186 0 0 128 0.000175
-0.113990 -0.011407 0.819368 0 0 128 0.000587
-0.110766 -0.010215 0.817746 0 0 128 0.000184
-0.110764 -0.011491 0.815513 0 0 128 0.000154
-0.122292 -0.018740 0.816325 0 0 128 0.000233
-0.123803 -0.020460 0.814951 0 0 128 0.000304
-0.120803 -0.017007 0.817695 0 0 128 0.000197
-0.124190 -0.018764 0.818846 0 0 128 0.000357
-0.125703 -0.020500 0.817501 0 0 128 0.000557
-0.127251 -0.022224 0.816124 0 0 128 0.001016
-0.122689 -0.017028 0.820162 0 0 128 0.000367
-0.121213 -0.015225 0.821519 0 0 128 0.000936
-0.119158 -0.015195 0.819071 0 0 128 0.000170
-0.117547 -0.013346 0.820474 0 0 128 0.000268
-0.112553 -0.007690 0.824838 0 0 128 0.000466
-0.114274 -0.009607 0.823340 0 0 128 0.000482
-0.110596 -0.007641 0.822288 0 0 128 0.000430
-0.108888 -0.005614 0.823780 0 0 128 0.000954
-0.112296 -0.009587 0.820810 0 0 128 0.000261
-0.115900 -0.011514 0.821912 0 0 128 0.000200
-0.117879 -0.011606 0.824372 0 0 128 0.000393
-0.119508 -0.013432 0.822913 0 0 128 0.000563
-0.105607 -0.004322 0.822098 0 0 128 0.001379
-0.107428 -0.006282 0.820703 0 0 128 0.000723
-0.107528 -0.007642 0.818417 0 0 128 0.000393
-0.125217 -0.124380 0.809598 0 0 128 0.002984
-0.122414 -0.124309 0.811459 0 0 128 0.002978
-0.124245 -0.122840 0.814518 0 0 128 0.001502
-0.121410 -0.122823 0.816156 0 0 128 0.003399
-0.119618 -0.124416 0.813216 0 0 128 0.003465
-0.123312 -0.121430 0.819115 0 0 128 0.002830
-0.118597 -0.122924 0.817793 0 0 153 0.003960
-0.120476 -0.121487 0.820655 0 0 153 0.004777
-0.117668 -0.121744 0.822197 0 0 128 0.003871
-0.116807 -0.124548 0.814903 0 0 128 0.003679
-0.115789 -0.123120 0.819385 0 0 153 0.003989
-0.114051 -0.124818 0.816562 0 0 128 0.003847
-0.122480 -0.120347 0.823524 0 0 153 0.004891
-0.119659 -0.120613 0.825005 0 0 153 0.005221
-0.121744 -0.119764 0.827820 0 0 153 0.005750
-0.124399 -0.119541 0.826066 0 0 153 0.005202
-0.125102 -0.120307 0.821738 0 0 153 0.004535
-0.126987 -0.119368 0.824314 0 0 153 0.006123
-0.127732 -0.120370 0.819919 0 0 128 0.002485
-0.125958 -0.121532 0.817247 0 0 128 0.001489
-0.128594 -0.121838 0.815265 0 0 128 0.001754
-0.129599 -0.119402 0.822552 0 0 128 0.003253
-0.130362 -0.120700 0.818038 0 0 128 0.001650
-0.132234 -0.119579 0.820839 0 0 128 0.002014
-0.126866 -0.123068 0.812429 0 0 128 0.002145
-0.110887 -0.124791 0.818297 0 0 153 0.005120
-0.112724 -0.123014 0.821348 0 0 153 0.006923
-0.109547 -0.123009 0.823003 0 0 204 0.013078
-0.107767 -0.124847 0.820025 0 0 179 0.007908
-0.111516 -0.121640 0.826036 0 0 204 0.012755
-0.106475 -0.123148 0.824693 0 0 204 0.014261
-0.108412 -0.121820 0.827694 0 0 179 0.010897
-0.104693 -0.124904 0.821725 0 0 204 0.013287
-0.110509 -0.120940 0.830767 0 0 179 0.009124
-0.112625 -0.120444 0.833623 0 0 179 0.009179
-0.113497 -0.120740 0.828816 0 0 204 0.012261
-0.115627 -0.120092 0.831633 0 0 204 0.013967
-0.116563 -0.120616 0.826891 0 0 179 0.008836
-0.114565 -0.121609 0.824101 0 0 153 0.006880
-0.118676 -0.119906 0.829713 0 0 179 0.008898
-0.123460 -0.120006 0.845057 0 0 179 0.007968
-0.120707 -0.120296 0.842356 0 0 153 0.004742
-0.123736 -0.119600 0.840124 0 0 128 0.002256
-0.126531 -0.119235 0.842803 0 0 153 0.004868
-0.120991 -0.119776 0.837418 0 0 128 0.001719
-0.126779 -0.118892 0.837972 0 0 128 0.002330
-0.124013 -0.119214 0.835278 0 0 128 0.003084
-0.127005 -0.118715 0.833173 0 0 128 0.003283
-0.129524 -0.118431 0.840628 0 0 128 0.003367
-0.129718 -0.118239 0.835829 0 0 128 0.002442
-0.132429 -0.117724 0.838485 0 0 128 0.003219
-0.121279 -0.119497 0.832576 0 0 153 0.005049
-0.124326 -0.119223 0.830508 0 0 153 0.004340
-0.118248 -0.119815 0.834523 0 0 153 0.007356
-0.115223 -0.120279 0.836526 0 0 153 0.004939
-0.117937 -0.120286 0.839435 0 0 128 0.001424
-0.134819 -0.116963 0.836528 0 0 128 0.002441
-0.132234 -0.117623 0.834087 0 0 128 0.003268
-0.134654 -0.117105 0.832176 0 0 128 0.003597
-0.137193 -0.116297 0.834625 0 0 128 0.003243
-0.132138 -0.117901 0.829738 0 0 153 0.004232
-0.137100 -0.116688 0.830326 0 0 128 0.003099
-0.134559 -0.117567 0.827841 0 0 128 0.003559
-0.137019 -0.117375 0.825927 0 0 128 0.002140
-0.139654 -0.115787 0.832786 0 0 128 0.002578
-0.139572 -0.116325 0.828510 0 0 128 0.002468
-0.142168 -0.115300 0.830983 0 0 153 0.004629
-0.132093 -0.118473 0.825335 0 0 128 0.003154
-0.134549 -0.118435 0.823361 0 0 128 0.002291
