ply
format ascii 1.0
comment VCGLIB generated
element vertex 1031
property float x
property float y
property float z
property uchar red
property uchar green
property uchar blue
property float quality
end_header
0.018437 -0.024623 0.950345 0 74 255 0.062366
0.016317 -0.024194 0.949075 0 101 255 0.067519
0.016180 -0.027001 0.952067 0 114 255 0.072573
0.015980 -0.029658 0.955005 0 127 255 0.076986
0.014029 -0.026579 0.950756 0 154 255 0.084900
0.011954 -0.029077 0.952198 0 208 255 0.100721
0.020229 -0.027555 0.954804 0 60 255 0.058164
0.019846 -0.029948 0.957909 0 87 255 0.064330
0.022340 -0.027544 0.956247 0 47 255 0.053284
0.022687 -0.025078 0.953096 0 34 255 0.049532
0.024776 -0.025002 0.954591 0 20 255 0.043995
0.025048 -0.022415 0.951393 0 7 255 0.040013
0.022933 -0.022426 0.949844 0 20 255 0.044398
0.027169 -0.022358 0.952832 0 0 255 0.036362
0.026835 -0.029173 0.964474 0 87 255 0.063894
0.029625 -0.026420 0.962904 0 20 255 0.046066
0.027640 -0.027045 0.961252 0 20 255 0.046118
0.030398 -0.024165 0.959603 0 0 255 0.035158
0.032522 -0.023413 0.961157 0 0 255 0.036674
0.028389 -0.024743 0.957921 0 0 255 0.037372
0.033199 -0.021194 0.957796 0 0 234 0.029854
0.031066 -0.021791 0.956170 0 0 234 0.030857
0.033830 -0.018946 0.954130 0 0 219 0.025614
0.035423 -0.020377 0.959390 0 0 250 0.032180
0.036126 -0.018281 0.955715 0 0 219 0.026777
0.038477 -0.017307 0.957369 0 0 234 0.030607
0.031636 -0.019315 0.952600 0 0 219 0.026645
0.023355 -0.029869 0.961207 0 60 255 0.058067
0.042169 -0.014978 0.955013 0 0 204 0.022036
0.039355 -0.016052 0.953397 0 0 204 0.019536
0.043023 -0.013704 0.950919 0 0 189 0.016207
0.045933 -0.012809 0.952669 0 0 189 0.018091
0.040133 -0.014673 0.949102 0 0 189 0.016406
0.046925 -0.011386 0.948471 0 0 174 0.015368
0.043836 -0.012273 0.946542 0 0 174 0.014645
0.049692 -0.010677 0.950306 0 0 189 0.017540
0.040911 -0.012928 0.944737 0 0 189 0.015855
0.037820 -0.015088 0.947383 0 0 189 0.018641
0.034667 -0.017227 0.950089 0 0 204 0.021523
0.036980 -0.016869 0.951625 0 0 204 0.020624
0.027329 -0.062158 0.980193 0 208 255 0.099590
0.025877 -0.061622 0.979370 15 248 233 0.112837
0.026717 -0.066490 0.978191 0 101 255 0.066817
0.025234 -0.065897 0.977215 0 127 255 0.074297
0.024403 -0.061084 0.978355 47 255 201 0.123552
0.026121 -0.070845 0.976040 0 34 255 0.047435
0.023654 -0.065381 0.976039 0 141 255 0.080927
0.024467 -0.070273 0.974894 0 47 255 0.053135
0.022745 -0.069753 0.973599 0 74 255 0.058993
0.022816 -0.060574 0.977191 80 255 168 0.133526
0.021999 -0.064867 0.974666 0 154 255 0.083670
0.021287 -0.060114 0.975754 80 255 168 0.136487
0.025354 -0.075313 0.973734 0 0 255 0.038177
0.023530 -0.074804 0.972409 0 20 255 0.046565
0.024336 -0.079945 0.971064 0 20 255 0.044370
0.026375 -0.080828 0.972545 0 7 255 0.039915
0.027205 -0.076272 0.974944 0 0 255 0.035549
0.028276 -0.081738 0.973784 0 0 255 0.035859
0.028857 -0.077195 0.976019 0 0 250 0.033232
0.027767 -0.071769 0.977088 0 7 255 0.041026
0.029279 -0.072734 0.977990 0 0 255 0.037548
0.029950 -0.082664 0.974893 0 0 250 0.034052
0.030408 -0.078167 0.976952 0 0 250 0.032035
0.031548 -0.083631 0.975836 0 0 250 0.032429
0.028231 -0.067398 0.979090 0 74 255 0.059735
0.019672 -0.059585 0.974191 90 255 157 0.137963
0.020276 -0.063921 0.973130 0 167 255 0.089045
0.018629 -0.063360 0.971465 0 167 255 0.088073
0.018106 -0.059013 0.972497 69 255 179 0.129327
0.019091 -0.067796 0.970378 0 74 255 0.060452
0.017015 -0.062809 0.969593 0 127 255 0.077637
0.017384 -0.067243 0.968537 0 60 255 0.058571
0.015747 -0.066656 0.966560 0 34 255 0.050404
0.016613 -0.058527 0.970666 26 255 222 0.116848
0.015500 -0.062319 0.967619 0 101 255 0.067675
0.015177 -0.058094 0.968629 0 221 255 0.102767
0.017739 -0.071798 0.967386 0 20 255 0.046248
0.016024 -0.071201 0.965416 0 7 255 0.042742
0.016340 -0.075820 0.964147 0 7 255 0.041079
0.018218 -0.076839 0.966137 0 34 255 0.047851
0.019568 -0.072780 0.969270 0 47 255 0.051681
0.020163 -0.077916 0.967962 0 47 255 0.051692
0.021500 -0.073796 0.970974 0 47 255 0.054166
0.020871 -0.068731 0.972099 0 74 255 0.061225
0.022252 -0.078949 0.969605 0 34 255 0.047489
0.022353 -0.089526 0.959499 0 0 174 0.012582
0.024710 -0.090968 0.961251 0 0 174 0.013237
0.022963 -0.086429 0.963452 0 0 189 0.017001
0.027083 -0.092425 0.962878 0 0 174 0.013935
0.025311 -0.087846 0.965141 0 0 189 0.016716
0.027679 -0.089258 0.966659 0 0 189 0.016632
0.029427 -0.093888 0.964414 0 0 174 0.014580
0.023648 -0.083239 0.967368 0 0 219 0.026254
0.025972 -0.084591 0.968938 0 0 219 0.025414
0.021523 -0.082201 0.965743 0 0 234 0.027598
0.019414 -0.081107 0.964007 0 0 234 0.028186
0.020871 -0.085338 0.961754 0 0 189 0.015850
0.018825 -0.084254 0.959943 0 0 189 0.016343
0.017499 -0.080014 0.962151 0 0 219 0.024954
0.020292 -0.088423 0.957647 0 0 174 0.013859
0.031533 -0.094849 0.965974 0 0 174 0.014555
0.033569 -0.096196 0.967468 0 0 189 0.017135
0.031723 -0.091076 0.969561 0 0 189 0.016931
0.035367 -0.097527 0.968841 0 0 189 0.018590
0.033629 -0.092415 0.970839 0 0 189 0.017571
0.035220 -0.093740 0.971995 0 0 204 0.021855
0.036839 -0.098825 0.970043 0 0 219 0.023509
0.031706 -0.087305 0.972838 0 0 204 0.019658
0.033410 -0.088640 0.973936 0 0 204 0.023208
0.029936 -0.086394 0.971685 0 0 204 0.021393
0.028040 -0.085512 0.970385 0 0 204 0.022884
0.029716 -0.090168 0.968150 0 0 189 0.016807
0.070216 -0.004376 0.963434 0 181 255 0.093470
0.074610 -0.003562 0.961541 0 114 255 0.070449
0.072719 -0.003997 0.959530 0 74 255 0.059569
0.077172 -0.003445 0.957505 0 7 255 0.040932
0.079282 -0.003199 0.959515 0 20 255 0.045707
0.075221 -0.003652 0.955602 0 0 255 0.038035
0.081815 -0.003122 0.955518 0 0 219 0.026504
0.079621 -0.003308 0.953460 0 0 219 0.026023
0.084060 -0.003060 0.951312 0 0 204 0.020131
0.083915 -0.002938 0.957484 0 0 234 0.030112
0.086383 -0.002837 0.953446 0 0 204 0.020232
0.088625 -0.002419 0.955683 0 0 219 0.023825
0.077509 -0.003535 0.951396 0 0 219 0.024168
0.081811 -0.003175 0.949247 0 0 204 0.020065
0.079692 -0.003201 0.947309 0 0 204 0.020909
0.071328 -0.004366 0.951703 0 0 234 0.029791
0.069035 -0.004762 0.955808 0 20 255 0.043242
0.066581 -0.005342 0.959680 0 74 255 0.062326
0.062685 -0.006200 0.955906 0 20 255 0.044003
0.093417 -0.002964 0.953904 0 0 189 0.016775
0.090730 -0.003067 0.951497 0 0 189 0.016860
0.095465 -0.003273 0.949718 0 0 189 0.015843
0.098273 -0.003356 0.952094 0 0 189 0.016268
0.092838 -0.003215 0.947431 0 0 174 0.015421
0.100516 -0.003480 0.948007 0 0 174 0.015019
0.097925 -0.003191 0.945861 0 0 174 0.014372
0.095062 -0.003066 0.943519 0 0 174 0.014106
0.092454 -0.003135 0.941282 0 0 174 0.014365
0.090622 -0.003389 0.945375 0 0 189 0.016490
0.088119 -0.003377 0.943229 0 0 189 0.016295
0.086098 -0.003394 0.947243 0 0 189 0.018087
0.088378 -0.003311 0.949283 0 0 189 0.017461
0.083880 -0.003371 0.945273 0 0 189 0.017916
0.083059 -0.002356 0.934750 0 0 158 0.011130
0.079220 -0.002897 0.936812 0 0 174 0.014191
0.081927 -0.002997 0.938830 0 0 174 0.015295
0.075528 -0.003124 0.939020 0 0 189 0.016803
0.078163 -0.003354 0.940944 0 0 189 0.018227
0.074497 -0.003364 0.943199 0 0 204 0.020396
0.071826 -0.003279 0.941247 0 0 204 0.021222
0.080870 -0.003278 0.943028 0 0 189 0.017896
0.077137 -0.003468 0.945183 0 0 204 0.020614
0.084962 -0.003118 0.941024 0 0 189 0.016387
0.089207 -0.002902 0.939008 0 0 174 0.013253
0.086154 -0.002598 0.936914 0 0 174 0.012414
0.067788 -0.004027 0.943507 0 0 219 0.024716
0.063958 -0.005048 0.945755 0 0 219 0.026980
0.066217 -0.004768 0.947673 0 0 234 0.029899
0.059878 -0.006371 0.947885 0 0 219 0.026794
0.062373 -0.005941 0.949862 0 0 234 0.029838
0.058156 -0.007344 0.951912 0 0 234 0.030951
0.055948 -0.007919 0.949984 0 0 219 0.025836
0.064579 -0.005448 0.951850 0 0 250 0.033899
0.060518 -0.006786 0.953909 0 0 255 0.036563
0.068827 -0.004567 0.949713 0 0 234 0.029893
0.072992 -0.003914 0.947481 0 0 219 0.024714
0.070427 -0.003956 0.945491 0 0 219 0.025395
0.051931 -0.010307 0.952055 0 0 204 0.020454
0.048134 -0.012308 0.954357 0 0 204 0.019601
0.050396 -0.011989 0.956050 0 0 204 0.020947
0.044403 -0.014393 0.956620 0 0 219 0.025077
0.046459 -0.013891 0.958239 0 0 234 0.028252
0.042846 -0.015851 0.960502 0 7 255 0.042228
0.040706 -0.016418 0.958963 0 0 255 0.038024
0.048707 -0.013525 0.959934 0 0 234 0.031016
0.044874 -0.015395 0.962054 0 20 255 0.046208
0.046958 -0.014986 0.963724 0 47 255 0.050979
0.050820 -0.012975 0.961649 0 0 255 0.037256
0.052591 -0.011405 0.957821 0 0 219 0.025642
0.054892 -0.010809 0.959687 0 0 250 0.032299
0.056606 -0.009100 0.955873 0 0 234 0.028787
0.054338 -0.009763 0.953936 0 0 219 0.023617
0.058895 -0.008542 0.957835 0 0 250 0.033380
0.036405 -0.021936 0.964244 0 34 255 0.048894
0.033360 -0.025087 0.965994 0 60 255 0.057952
0.030321 -0.028222 0.967661 0 127 255 0.077720
0.034002 -0.027078 0.970415 0 167 255 0.088336
0.037054 -0.023930 0.968910 0 114 255 0.072710
0.038373 -0.021283 0.965747 0 60 255 0.055956
0.040319 -0.020796 0.967209 0 74 255 0.060961
0.041510 -0.018346 0.963968 0 34 255 0.050017
0.039575 -0.018856 0.962464 0 20 255 0.043875
0.043640 -0.017880 0.965493 0 47 255 0.053452
0.040371 -0.026136 0.975853 4 234 244 0.106372
0.043639 -0.022860 0.974383 0 167 255 0.087748
0.045344 -0.020060 0.971544 0 127 255 0.074791
0.048770 -0.016823 0.970017 0 114 255 0.071019
0.050433 -0.014185 0.966883 0 87 255 0.063878
0.053816 -0.013235 0.970068 0 194 255 0.094808
0.040461 -0.023381 0.971710 0 141 255 0.081231
0.037305 -0.026468 0.973151 0 208 255 0.101105
0.057899 -0.011076 0.968394 0 141 255 0.078686
0.060259 -0.009264 0.965091 0 87 255 0.062946
0.064305 -0.006939 0.963385 0 101 255 0.070211
0.054412 -0.011983 0.965037 0 47 255 0.053730
0.017154 -0.053941 0.970741 47 255 201 0.121556
0.018674 -0.054447 0.972570 58 255 190 0.128261
0.019289 -0.049888 0.972578 101 255 147 0.144365
0.020113 -0.054878 0.974297 90 255 157 0.137117
0.020847 -0.050407 0.974219 123 255 125 0.149690
0.022310 -0.050798 0.975721 101 255 147 0.142645
0.021677 -0.055411 0.975812 90 255 157 0.140371
0.021739 -0.046015 0.973922 129 255 119 0.158484
0.023236 -0.046455 0.975441 127 255 121 0.153708
0.024463 -0.042186 0.974922 129 255 119 0.156833
0.021457 -0.042138 0.971993 123 255 125 0.149611
0.018869 -0.045836 0.970604 101 255 147 0.143302
0.016480 -0.049665 0.968890 47 255 201 0.121524
0.018460 -0.042067 0.968548 90 255 157 0.139581
0.024678 -0.056051 0.978385 69 255 179 0.129633
0.025372 -0.051120 0.978197 80 255 168 0.134615
0.026240 -0.056512 0.979384 26 255 222 0.115080
0.026952 -0.051530 0.979073 26 255 222 0.115219
0.028493 -0.051960 0.979736 0 181 255 0.092142
0.027687 -0.057031 0.980077 0 194 255 0.095820
0.028003 -0.046722 0.978601 36 255 211 0.119680
0.029618 -0.047088 0.979224 0 194 255 0.095298
0.030921 -0.042394 0.978904 4 234 244 0.108140
0.027682 -0.042237 0.977177 90 255 157 0.139449
0.036524 -0.030151 0.975344 0 181 255 0.092937
0.032679 -0.034164 0.974806 0 154 255 0.083265
0.033369 -0.030609 0.972664 0 154 255 0.083187
0.029312 -0.034869 0.972484 0 154 255 0.085175
0.028447 -0.038201 0.974822 4 234 244 0.108595
0.031755 -0.038190 0.976897 0 181 255 0.091640
0.035686 -0.034258 0.977335 0 154 255 0.085794
0.029939 -0.031356 0.970114 0 141 255 0.080204
0.025874 -0.035227 0.969801 0 167 255 0.089812
0.026403 -0.032205 0.967113 0 101 255 0.068301
0.022483 -0.035717 0.966604 0 141 255 0.079740
0.021901 -0.038612 0.969392 26 255 222 0.116478
0.025177 -0.038582 0.972366 26 255 222 0.116089
0.064627 -0.056548 0.999541 0 0 234 0.029160
0.064377 -0.060206 1.000000 0 0 234 0.028619
0.066988 -0.040606 0.999318 0 114 255 0.072219
0.066116 -0.044649 0.999772 0 60 255 0.057719
0.063568 -0.044762 0.998348 0 47 255 0.051386
0.062260 -0.049012 0.997685 0 0 255 0.035363
0.062307 -0.052973 0.997867 0 0 234 0.027697
0.060926 -0.057164 0.997458 0 0 204 0.022148
0.060789 -0.061064 0.997859 0 0 204 0.022686
0.058324 -0.061611 0.996520 0 0 204 0.023264
0.064772 -0.052660 0.999221 0 0 234 0.030972
0.066103 -0.048643 0.999813 0 7 255 0.042140
0.080619 -0.001079 0.976473 156 255 92 0.214565
0.084179 -0.000899 0.973300 112 255 136 0.147510
0.087874 -0.000878 0.970135 15 248 233 0.112985
0.090239 -0.001525 0.965000 0 74 255 0.062409
0.085320 -0.001636 0.966812 0 194 255 0.095473
0.081712 -0.001734 0.970038 80 255 168 0.132853
0.078261 -0.001809 0.973373 138 255 109 0.177691
0.075774 -0.002692 0.970125 127 255 121 0.154924
0.091965 -0.001968 0.959470 0 0 250 0.032430
0.082253 -0.002388 0.963073 0 101 255 0.067517
0.077632 -0.002935 0.964934 0 167 255 0.089331
0.072958 -0.003537 0.966784 58 255 190 0.128173
0.087179 -0.002129 0.961379 0 7 255 0.042913
0.064885 -0.133754 0.951818 0 141 255 0.081322
0.063221 -0.132714 0.950918 0 74 255 0.062330
0.065112 -0.133937 0.948072 0 74 255 0.061686
0.063480 -0.133235 0.947348 0 47 255 0.053304
0.061518 -0.132083 0.950212 0 74 255 0.059179
0.065381 -0.134440 0.944515 0 34 255 0.050293
0.061962 -0.132744 0.946792 0 47 255 0.051781
0.063866 -0.133910 0.943939 0 34 255 0.048508
0.062477 -0.133376 0.943405 0 20 255 0.045810
0.059997 -0.131628 0.949700 0 87 255 0.063183
0.060502 -0.132260 0.946262 0 47 255 0.052455
0.058558 -0.131190 0.949194 0 87 255 0.065270
0.065694 -0.135092 0.940981 0 34 255 0.048111
0.064391 -0.134539 0.940493 0 20 255 0.044943
0.066252 -0.135712 0.937481 0 20 255 0.044319
0.067694 -0.135927 0.937718 0 7 255 0.041093
0.067302 -0.135301 0.941286 0 20 255 0.043952
0.069268 -0.136153 0.938044 0 0 255 0.038435
0.068989 -0.135722 0.941716 0 20 255 0.044028
0.067080 -0.134832 0.944924 0 34 255 0.050164
0.068821 -0.135553 0.945505 0 74 255 0.059042
0.071013 -0.136617 0.938515 0 7 255 0.039614
0.070808 -0.136482 0.942360 0 47 255 0.054025
0.072831 -0.137354 0.939146 0 20 255 0.045452
0.066844 -0.134640 0.948666 0 101 255 0.067809
0.057583 -0.130086 0.948592 0 34 255 0.048124
0.059466 -0.131204 0.945665 0 0 255 0.036708
0.058509 -0.130099 0.945006 0 0 219 0.023717
0.056547 -0.128932 0.947886 0 0 234 0.031154
0.060347 -0.131298 0.942114 0 0 204 0.020782
0.057445 -0.128920 0.944260 0 0 174 0.014652
0.059296 -0.130171 0.941335 0 0 174 0.013551
0.055496 -0.127759 0.947160 0 0 204 0.020504
0.061111 -0.131384 0.938416 0 0 174 0.012489
0.062955 -0.132577 0.935362 0 0 158 0.011608
0.062265 -0.132455 0.939162 0 0 189 0.019332
0.064200 -0.133625 0.936197 0 0 189 0.018954
0.063359 -0.133516 0.939883 0 0 234 0.030607
0.061457 -0.132320 0.942799 0 0 250 0.031962
0.065234 -0.134715 0.936880 0 0 234 0.031186
0.069690 -0.135935 0.922800 0 0 158 0.008127
0.067937 -0.135238 0.925986 0 0 158 0.008393
0.069206 -0.136176 0.926904 0 0 174 0.012045
0.070925 -0.136870 0.923731 0 0 158 0.010149
0.067476 -0.135429 0.930005 0 0 174 0.014459
0.070358 -0.137117 0.927705 0 0 204 0.020568
0.068595 -0.136375 0.930756 0 0 204 0.023195
0.069676 -0.137294 0.931500 0 0 250 0.033934
0.072104 -0.137780 0.924589 0 0 189 0.016154
0.071450 -0.138017 0.928485 0 0 234 0.030110
0.073216 -0.138678 0.925378 0 0 219 0.024925
0.066880 -0.135581 0.933798 0 0 219 0.026742
0.067947 -0.136505 0.934488 0 0 255 0.037893
0.065827 -0.134547 0.933137 0 0 189 0.016147
0.064638 -0.133486 0.932343 0 0 158 0.010147
0.066279 -0.134392 0.929191 0 0 158 0.009373
0.074592 -0.138723 0.925993 0 0 219 0.024118
0.073007 -0.138185 0.928847 0 0 234 0.029224
0.074451 -0.138287 0.929490 0 0 234 0.028385
0.076120 -0.138863 0.926716 0 0 219 0.025324
0.072792 -0.137685 0.932226 0 0 250 0.031815
0.076087 -0.138664 0.930335 0 0 234 0.030377
0.074435 -0.138079 0.933036 0 0 250 0.034417
0.076073 -0.138671 0.933900 0 20 255 0.044247
0.077700 -0.139242 0.927562 0 0 219 0.026395
0.077703 -0.139272 0.931218 0 0 255 0.038893
0.079411 -0.139849 0.928564 0 0 250 0.034129
0.072808 -0.137420 0.935702 0 0 255 0.037607
0.074448 -0.138044 0.936549 0 20 255 0.044642
0.071035 -0.136955 0.935155 0 0 255 0.035471
0.069490 -0.136742 0.934824 0 0 255 0.038278
0.071236 -0.137510 0.931882 0 0 250 0.032294
0.076311 -0.002987 0.977920 157 255 90 0.215458
0.073346 -0.004893 0.980714 182 255 66 0.268296
0.069308 -0.007433 0.981815 192 255 56 0.287783
0.066368 -0.009907 0.984090 186 255 62 0.273982
0.063975 -0.010370 0.981456 184 255 64 0.271864
0.071513 -0.006958 0.984516 194 255 54 0.292320
0.068711 -0.009633 0.986681 196 255 52 0.293824
0.075597 -0.004501 0.983573 194 255 54 0.292395
0.079768 -0.002245 0.982408 175 255 73 0.251374
0.060844 -0.014180 0.982356 161 255 87 0.226399
0.058907 -0.017827 0.984511 150 255 98 0.199546
0.055657 -0.021726 0.985419 136 255 111 0.173330
0.053855 -0.025579 0.987424 133 255 115 0.164787
0.051301 -0.025414 0.985293 131 255 117 0.161143
0.058207 -0.021724 0.987546 146 255 102 0.194881
0.056446 -0.025692 0.989348 138 255 109 0.176210
0.061318 -0.017807 0.986791 154 255 94 0.208823
0.064477 -0.013730 0.986121 178 255 69 0.261262
0.061660 -0.026277 0.993273 138 255 109 0.175872
0.064703 -0.022157 0.992858 152 255 96 0.203876
0.066374 -0.017940 0.991273 167 255 81 0.234645
0.069354 -0.013852 0.990925 184 255 64 0.269786
0.071152 -0.009712 0.989245 196 255 52 0.296282
0.066952 -0.013640 0.988434 184 255 64 0.269632
0.063842 -0.017755 0.989009 169 255 79 0.241031
0.060749 -0.021780 0.989618 148 255 100 0.197479
0.059036 -0.025916 0.991303 135 255 113 0.169818
0.073741 -0.006833 0.987171 199 255 48 0.303106
0.059299 -0.030996 0.992922 47 255 201 0.121187
0.058543 -0.035704 0.993555 0 181 255 0.093046
0.056282 -0.040207 0.993404 0 87 255 0.064744
0.055308 -0.044672 0.993931 0 34 255 0.050214
0.052525 -0.044512 0.992621 0 60 255 0.056283
0.059110 -0.040292 0.994931 0 87 255 0.066035
0.058137 -0.044783 0.995458 0 34 255 0.048657
0.061236 -0.035920 0.995136 0 167 255 0.087143
0.063464 -0.031411 0.995525 69 255 179 0.130249
0.064315 -0.026612 0.995067 136 255 111 0.174346
0.066907 -0.026962 0.996820 142 255 106 0.184318
0.051233 -0.049189 0.992159 0 0 255 0.035547
0.051507 -0.053709 0.992483 0 0 219 0.024681
0.050372 -0.058346 0.992203 0 0 204 0.020441
0.050508 -0.062897 0.992565 0 0 204 0.021555
0.047859 -0.063250 0.991273 0 0 219 0.024653
0.053044 -0.058044 0.993440 0 0 189 0.019301
0.053078 -0.062557 0.993870 0 0 204 0.021898
0.054258 -0.053627 0.993759 0 0 204 0.022121
0.055449 -0.049177 0.994167 0 0 250 0.033278
0.058477 -0.057433 0.996150 0 0 204 0.021410
0.059689 -0.053229 0.996489 0 0 219 0.025429
0.059658 -0.049019 0.996306 0 0 250 0.034372
0.060846 -0.044775 0.996859 0 34 255 0.050474
0.057032 -0.053435 0.995167 0 0 204 0.022549
0.055745 -0.057874 0.994804 0 0 204 0.019769
0.055736 -0.062079 0.995182 0 0 204 0.021222
0.064459 -0.040463 0.997846 0 114 255 0.071348
0.066664 -0.036230 0.998307 0 208 255 0.100728
0.067535 -0.031750 0.998022 101 255 147 0.141331
0.063975 -0.036063 0.996738 0 194 255 0.095543
0.061657 -0.040517 0.996306 0 87 255 0.064547
0.047577 -0.029981 0.984606 26 255 222 0.114501
0.048598 -0.025536 0.983120 101 255 147 0.142409
0.043902 -0.034410 0.983900 0 154 255 0.083638
0.044827 -0.030057 0.982394 4 234 244 0.107948
0.041307 -0.034353 0.981949 0 167 255 0.087643
0.045974 -0.025719 0.980777 80 255 168 0.133619
0.040341 -0.038663 0.983441 0 114 255 0.072288
0.036763 -0.042889 0.982892 0 127 255 0.076343
0.039568 -0.043048 0.984895 0 87 255 0.065912
0.043022 -0.038854 0.985280 0 101 255 0.069649
0.046714 -0.034538 0.985978 0 167 255 0.089543
0.042219 -0.043348 0.986625 0 87 255 0.063612
0.042208 -0.029948 0.980241 4 234 244 0.106778
0.043180 -0.025759 0.978330 47 255 201 0.122668
0.038420 -0.034137 0.979662 0 181 255 0.092487
0.039424 -0.030050 0.977861 0 194 255 0.097240
0.034733 -0.038256 0.979164 0 167 255 0.089104
0.033901 -0.042608 0.980923 0 181 255 0.089931
0.037567 -0.038477 0.981297 0 141 255 0.079723
0.030452 -0.057225 0.981290 0 87 255 0.065588
0.029957 -0.062540 0.981485 0 114 255 0.073668
0.031357 -0.052023 0.981096 0 87 255 0.063592
0.034410 -0.052639 0.982781 0 20 255 0.045274
0.033501 -0.057789 0.982791 0 20 255 0.045078
0.032761 -0.063087 0.982835 0 34 255 0.048331
0.034129 -0.047404 0.981919 0 74 255 0.058949
0.036341 -0.057997 0.984358 0 0 250 0.033407
0.035531 -0.063223 0.984258 0 0 255 0.036016
0.037296 -0.052896 0.984468 0 0 255 0.035336
0.040052 -0.053221 0.986161 0 0 234 0.029413
0.039133 -0.058291 0.985996 0 0 219 0.026794
0.038304 -0.063478 0.985860 0 0 234 0.029676
0.039798 -0.048060 0.985612 0 7 255 0.040572
0.037008 -0.047785 0.983751 0 34 255 0.047109
0.050201 -0.030155 0.986563 26 255 222 0.116344
0.049240 -0.034776 0.987632 0 154 255 0.084581
0.045714 -0.039090 0.987060 0 114 255 0.070783
0.044840 -0.043629 0.988276 0 74 255 0.060096
0.048283 -0.039369 0.988718 0 101 255 0.069536
0.047375 -0.044017 0.989787 0 74 255 0.060314
0.051866 -0.035038 0.989456 0 167 255 0.089554
0.052848 -0.030311 0.988464 36 255 211 0.118868
0.042416 -0.048299 0.987257 0 0 255 0.038529
0.042590 -0.053308 0.987707 0 0 219 0.026530
0.041631 -0.058384 0.987402 0 0 204 0.021944
0.040752 -0.063550 0.987130 0 0 219 0.023489
0.043209 -0.063558 0.988639 0 0 219 0.023749
0.044074 -0.058581 0.988811 0 0 204 0.021199
0.045057 -0.053649 0.989094 0 0 219 0.025219
0.044942 -0.048607 0.988752 0 0 255 0.036605
0.047802 -0.058391 0.990914 0 0 204 0.020979
0.048892 -0.053710 0.991180 0 0 204 0.022594
0.048724 -0.048932 0.990768 0 0 250 0.034452
0.049997 -0.044250 0.991195 0 60 255 0.056894
0.045597 -0.063393 0.989925 0 0 204 0.023196
0.053558 -0.039931 0.991882 0 87 255 0.064753
0.055787 -0.035453 0.991900 0 167 255 0.089491
0.056779 -0.030653 0.991167 58 255 190 0.128390
0.050972 -0.039683 0.990320 0 87 255 0.065183
0.067624 -0.006012 0.966927 15 248 233 0.111183
0.063602 -0.008253 0.968540 0 208 255 0.097981
0.060791 -0.010034 0.971640 58 255 190 0.125354
0.056545 -0.012507 0.972979 69 255 179 0.130508
0.059283 -0.011597 0.975985 135 255 113 0.171475
0.063540 -0.009181 0.974720 140 255 108 0.182873
0.066377 -0.007374 0.971753 129 255 119 0.157405
0.070217 -0.005009 0.970235 129 255 119 0.158746
0.051846 -0.016155 0.973015 0 194 255 0.094463
0.048416 -0.019302 0.974309 0 194 255 0.094832
0.046446 -0.022466 0.976977 4 234 244 0.106475
0.049211 -0.022185 0.979586 47 255 201 0.122884
0.051206 -0.018962 0.977073 36 255 211 0.117992
0.054606 -0.015463 0.975764 58 255 190 0.127767
0.053132 -0.021752 0.983171 129 255 119 0.157673
0.056324 -0.018031 0.982117 138 255 109 0.178496
0.058378 -0.014592 0.979777 144 255 104 0.187926
0.061753 -0.010914 0.978801 163 255 85 0.227277
0.053879 -0.018409 0.979676 90 255 157 0.138540
0.066919 -0.008059 0.979019 167 255 81 0.236693
0.071123 -0.005632 0.977778 167 255 81 0.235911
0.074112 -0.003784 0.974944 154 255 94 0.207685
0.068728 -0.006431 0.974863 148 255 100 0.199049
0.071923 -0.014031 0.993206 184 255 64 0.270119
0.068943 -0.018212 0.993481 171 255 77 0.242905
0.067337 -0.022494 0.994786 156 255 92 0.212327
0.069864 -0.022991 0.996724 161 255 87 0.223202
0.044351 -0.105656 0.975413 0 74 255 0.059083
0.043543 -0.105771 0.974639 0 87 255 0.064523
0.045353 -0.109756 0.972071 0 47 255 0.054432
0.044687 -0.109885 0.971296 0 60 255 0.056787
0.042845 -0.105892 0.973861 0 87 255 0.064034
0.046558 -0.113825 0.968626 0 60 255 0.054861
0.044070 -0.109973 0.970465 0 60 255 0.056324
0.045964 -0.113892 0.967811 0 47 255 0.053794
0.045441 -0.113949 0.966912 0 47 255 0.052285
0.042184 -0.105995 0.973031 0 87 255 0.064413
0.043494 -0.110063 0.969586 0 60 255 0.055032
0.041560 -0.106093 0.972126 0 74 255 0.062283
0.047955 -0.117719 0.965019 0 60 255 0.056843
0.047412 -0.117769 0.964145 0 60 255 0.056835
0.049439 -0.121476 0.961330 0 101 255 0.067870
0.050136 -0.121559 0.962201 0 101 255 0.067757
0.048716 -0.117771 0.965848 0 60 255 0.054696
0.050864 -0.121626 0.963019 0 87 255 0.065469
0.049568 -0.117745 0.966610 0 34 255 0.049271
0.047394 -0.113806 0.969368 0 34 255 0.049699
0.048340 -0.113804 0.970114 0 20 255 0.045359
0.051717 -0.121627 0.963835 0 74 255 0.061055
0.050477 -0.117771 0.967422 0 20 255 0.046092
0.052683 -0.121697 0.964771 0 60 255 0.058007
0.046301 -0.109760 0.972817 0 34 255 0.049008
0.040864 -0.105504 0.971330 0 47 255 0.052665
0.042635 -0.109243 0.968885 0 20 255 0.045407
0.041967 -0.108664 0.967970 0 0 255 0.038327
0.040161 -0.104939 0.970425 0 20 255 0.043796
0.043738 -0.112233 0.965396 0 0 250 0.034613
0.041143 -0.108027 0.966873 0 0 250 0.032001
0.042990 -0.111572 0.964335 0 0 234 0.027929
0.039319 -0.104329 0.969353 0 0 255 0.037951
0.044890 -0.115025 0.961721 0 0 219 0.026772
0.047006 -0.118614 0.958968 0 0 234 0.028739
0.045842 -0.115967 0.962678 0 0 250 0.034975
0.047921 -0.119629 0.959897 0 7 255 0.040232
0.046655 -0.116881 0.963470 0 20 255 0.045825
0.044622 -0.113104 0.966221 0 20 255 0.043098
0.048703 -0.120570 0.960670 0 47 255 0.053193
0.053241 -0.125355 0.950224 0 0 189 0.016825
0.054356 -0.126532 0.950977 0 0 219 0.025711
0.052030 -0.124151 0.954062 0 0 219 0.027265
0.055341 -0.127705 0.951649 0 7 255 0.039172
0.053072 -0.125316 0.954707 0 0 255 0.037397
0.054072 -0.126370 0.955315 0 47 255 0.052370
0.056327 -0.128784 0.952224 0 60 255 0.055269
0.050767 -0.122886 0.957776 0 20 255 0.043190
0.051795 -0.123957 0.958359 0 60 255 0.056311
0.050009 -0.121897 0.956971 0 0 234 0.030649
0.049135 -0.120878 0.956089 0 0 204 0.020229
0.051201 -0.123118 0.953169 0 0 189 0.017228
0.056930 -0.128949 0.953117 0 60 255 0.057142
0.058522 -0.129285 0.953598 0 34 255 0.049376
0.055338 -0.126598 0.956995 0 47 255 0.052860
0.060275 -0.129736 0.954195 0 20 255 0.043276
0.057113 -0.126907 0.957490 0 7 255 0.041761
0.058992 -0.127563 0.958258 0 7 255 0.041060
0.062038 -0.130628 0.955100 0 47 255 0.051017
0.053973 -0.124160 0.960881 0 47 255 0.053410
0.055862 -0.124615 0.961516 0 7 255 0.042735
0.053138 -0.124119 0.960012 0 60 255 0.055780
0.052380 -0.124070 0.959168 0 60 255 0.057633
0.054654 -0.126526 0.956149 0 47 255 0.054049
0.037823 -0.099203 0.971187 0 0 219 0.026826
0.038738 -0.099797 0.972257 0 0 234 0.030935
0.037167 -0.094558 0.973982 0 0 219 0.024778
0.039506 -0.100373 0.973147 0 0 250 0.034316
0.038031 -0.095158 0.974849 0 0 219 0.026813
0.038901 -0.095790 0.975649 0 0 250 0.031824
0.040237 -0.100944 0.973942 0 7 255 0.040571
0.036463 -0.089926 0.976511 0 0 219 0.025658
0.037425 -0.090555 0.977269 0 0 234 0.028069
0.035830 -0.085384 0.978895 0 0 234 0.030885
0.034883 -0.084976 0.978273 0 0 250 0.031910
0.035582 -0.089518 0.975745 0 0 219 0.024267
0.033875 -0.084550 0.977542 0 0 250 0.033306
0.034577 -0.089089 0.974894 0 0 219 0.023531
0.036274 -0.094166 0.973040 0 0 219 0.023452
0.032788 -0.084104 0.976743 0 0 250 0.033505
0.041648 -0.100783 0.975573 0 7 255 0.042490
0.040373 -0.095619 0.977148 0 0 234 0.031196
0.042404 -0.100690 0.976359 0 7 255 0.041685
0.041221 -0.095570 0.977958 0 0 250 0.032070
0.042152 -0.095525 0.978857 0 0 250 0.031944
0.043244 -0.100615 0.977156 0 7 255 0.040885
0.039974 -0.090446 0.979500 0 0 234 0.027966
0.040963 -0.090424 0.980425 0 0 234 0.027534
0.039741 -0.085361 0.982024 0 0 234 0.029981
0.037726 -0.085386 0.980381 0 0 234 0.030655
0.037256 -0.068817 0.984025 0 0 204 0.021926
0.036409 -0.074265 0.982204 0 0 204 0.021423
0.034565 -0.068628 0.982537 0 0 234 0.028041
0.034047 -0.074186 0.980891 0 0 234 0.027850
0.035955 -0.079818 0.980479 0 0 204 0.023286
0.038210 -0.079861 0.982091 0 0 204 0.021552
0.038967 -0.074390 0.983936 0 0 189 0.018250
0.031921 -0.068135 0.981155 0 0 255 0.038084
0.031654 -0.073243 0.979501 0 0 250 0.032806
0.032706 -0.078875 0.978547 0 0 234 0.030568
0.033823 -0.079336 0.979192 0 0 234 0.027683
0.032829 -0.073728 0.980245 0 0 234 0.030878
0.044981 -0.099524 0.979177 0 0 250 0.034212
0.046044 -0.104346 0.977682 0 34 255 0.049951
0.043899 -0.094712 0.980587 0 0 219 0.026043
0.045765 -0.093481 0.982989 0 0 234 0.028372
0.046741 -0.098267 0.981608 0 0 255 0.035375
0.047673 -0.103092 0.980144 0 47 255 0.051803
0.043737 -0.089289 0.983085 0 0 219 0.024629
0.043696 -0.083965 0.985573 0 0 234 0.029485
0.041705 -0.084645 0.983744 0 0 234 0.027635
0.048579 -0.096839 0.983615 0 0 250 0.032147
0.049498 -0.101372 0.982487 0 20 255 0.045071
0.047680 -0.092371 0.984770 0 0 219 0.026140
0.049516 -0.090706 0.986897 0 0 219 0.027003
0.050360 -0.095137 0.985852 0 0 250 0.032584
0.051224 -0.099688 0.984777 0 20 255 0.044945
0.047695 -0.087122 0.986832 0 0 219 0.024417
0.047745 -0.081929 0.988849 0 0 234 0.030189
0.045716 -0.082922 0.987128 0 0 234 0.027554
0.045693 -0.088160 0.985065 0 0 219 0.024405
0.046749 -0.068288 0.989742 0 0 189 0.015916
0.045756 -0.073427 0.988341 0 0 174 0.013708
0.044521 -0.068500 0.988433 0 0 174 0.014789
0.043524 -0.073726 0.987021 0 0 174 0.015442
0.044681 -0.078663 0.986936 0 0 189 0.018591
0.046777 -0.077713 0.988505 0 0 189 0.018753
0.047841 -0.072573 0.989882 0 0 189 0.016914
0.042203 -0.068877 0.986932 0 0 174 0.014681
0.041239 -0.074280 0.985280 0 0 174 0.014630
0.039784 -0.068897 0.985501 0 0 189 0.017285
0.040373 -0.079798 0.983609 0 0 189 0.018169
0.042584 -0.079139 0.985391 0 0 189 0.017930
0.052398 -0.093877 0.987470 0 0 234 0.028657
0.053204 -0.098207 0.986581 0 0 255 0.038486
0.051630 -0.089646 0.988374 0 0 219 0.023796
0.053538 -0.088221 0.990000 0 0 204 0.022066
0.054293 -0.092465 0.989170 0 0 234 0.027547
0.055001 -0.096802 0.988347 0 0 255 0.037338
0.051876 -0.084731 0.990059 0 0 204 0.021917
0.052186 -0.079967 0.991775 0 0 219 0.026791
0.050019 -0.080925 0.990281 0 0 219 0.027003
0.049758 -0.085769 0.988614 0 0 219 0.024968
0.056237 -0.091378 0.990564 0 0 219 0.025423
0.056916 -0.095563 0.989757 0 0 250 0.032943
0.055666 -0.087282 0.991423 0 0 204 0.021675
0.057664 -0.086071 0.992884 0 0 204 0.022505
0.058216 -0.090186 0.992065 0 0 219 0.024080
0.058741 -0.094364 0.991215 0 0 234 0.030421
0.056142 -0.082641 0.992995 0 0 204 0.022621
0.056789 -0.078108 0.994630 0 0 219 0.026098
0.054543 -0.079020 0.993184 0 0 219 0.025177
0.054011 -0.083571 0.991596 0 0 204 0.023080
0.056632 -0.066128 0.995197 0 0 189 0.017833
0.055001 -0.070704 0.993972 0 0 189 0.017819
0.054086 -0.066637 0.993854 0 0 189 0.017952
0.052556 -0.071242 0.992622 0 0 189 0.017021
0.053535 -0.075333 0.992813 0 0 204 0.019815
0.055927 -0.074401 0.994228 0 0 189 0.018873
0.057516 -0.069790 0.995423 0 0 204 0.020102
0.051550 -0.067314 0.992460 0 0 189 0.016401
0.050192 -0.072138 0.991191 0 0 174 0.015584
0.049103 -0.067679 0.991176 0 0 189 0.016549
0.048977 -0.077011 0.990012 0 0 189 0.019473
0.051268 -0.076062 0.991425 0 0 189 0.018326
0.060164 -0.089238 0.993429 0 0 219 0.025488
0.060703 -0.093314 0.992647 0 0 234 0.030762
0.059763 -0.085242 0.994317 0 0 219 0.025383
0.061865 -0.084155 0.995737 0 0 219 0.025847
0.062177 -0.088147 0.994905 0 0 219 0.027208
0.062652 -0.092250 0.994135 0 0 234 0.030582
0.060391 -0.080768 0.995799 0 0 204 0.023432
0.061193 -0.076387 0.997333 0 0 234 0.030168
0.058908 -0.077256 0.995869 0 0 219 0.025603
0.058227 -0.081615 0.994375 0 0 204 0.023009
0.064249 -0.087258 0.996545 0 0 250 0.032490
0.064547 -0.091264 0.995706 0 0 255 0.035982
0.063924 -0.083328 0.997339 0 0 234 0.029645
0.064696 -0.078956 0.998896 0 0 250 0.033237
0.064448 -0.075130 0.999587 0 0 250 0.031704
0.062581 -0.079799 0.997298 0 0 219 0.026782
0.064350 -0.067800 0.999626 0 0 219 0.025598
0.063783 -0.064142 0.999347 0 0 219 0.024316
0.062247 -0.068370 0.998167 0 0 204 0.022854
0.062670 -0.072076 0.998444 0 0 234 0.027416
0.061465 -0.064851 0.997966 0 0 204 0.022900
0.059843 -0.069230 0.996812 0 0 204 0.021702
0.059115 -0.065424 0.996565 0 0 204 0.020503
0.058234 -0.073666 0.995652 0 0 204 0.022491
0.060485 -0.072800 0.996977 0 0 204 0.022308
0.013913 -0.061766 0.965592 0 74 255 0.061508
0.012300 -0.057477 0.964642 0 127 255 0.076116
0.012526 -0.065473 0.962520 0 7 255 0.040447
0.011003 -0.061112 0.961606 0 20 255 0.046112
0.009538 -0.064693 0.958681 0 0 255 0.038660
0.009523 -0.056902 0.960675 0 47 255 0.054319
0.010981 -0.069184 0.959542 0 0 255 0.038626
0.009540 -0.072934 0.956686 0 7 255 0.042353
0.011150 -0.073679 0.958457 0 7 255 0.040580
0.012594 -0.069857 0.961494 0 0 255 0.037782
0.012835 -0.074401 0.960390 0 7 255 0.039539
0.014277 -0.070522 0.963481 0 7 255 0.041230
0.014107 -0.066035 0.964581 0 20 255 0.045696
0.014534 -0.075138 0.962274 0 7 255 0.039237
0.008096 -0.060470 0.957857 0 20 255 0.043387
0.006804 -0.056594 0.956867 0 47 255 0.051066
0.006539 -0.064081 0.955191 0 34 255 0.050111
0.005365 -0.060141 0.954109 0 34 255 0.050761
0.003748 -0.063615 0.951707 0 60 255 0.058494
0.004143 -0.056327 0.953124 0 47 255 0.051892
0.004956 -0.067666 0.952586 0 60 255 0.056935
0.003453 -0.071336 0.950140 0 74 255 0.061626
0.006443 -0.072117 0.953356 0 47 255 0.050922
0.007941 -0.068354 0.956035 0 20 255 0.045873
0.007091 -0.083470 0.946656 0 74 255 0.062434
0.008859 -0.083881 0.947921 0 60 255 0.054763
0.007873 -0.079809 0.949699 0 47 255 0.053196
0.010625 -0.084295 0.949295 0 34 255 0.048075
0.009616 -0.080279 0.951206 0 34 255 0.047526
0.011322 -0.080803 0.952790 0 0 255 0.036584
0.012408 -0.084760 0.950769 0 0 255 0.038070
0.008647 -0.076315 0.953139 0 20 255 0.044983
0.010381 -0.076850 0.954791 0 0 255 0.036742
0.005571 -0.075474 0.949990 0 74 255 0.059330
0.004760 -0.079030 0.946915 0 101 255 0.067391
0.014153 -0.085523 0.952443 0 0 234 0.029975
0.016083 -0.086487 0.954159 0 0 219 0.023882
0.014718 -0.082343 0.956319 0 0 204 0.023185
0.018152 -0.087459 0.955899 0 0 189 0.017678
0.016731 -0.083261 0.958142 0 0 189 0.018861
0.015502 -0.079076 0.960283 0 0 219 0.025610
0.013707 -0.078366 0.958348 0 0 219 0.025933
0.012011 -0.077635 0.956533 0 0 250 0.031548
0.012995 -0.081548 0.954550 0 0 219 0.027252
0.023166 -0.032729 0.963879 0 87 255 0.062677
0.019444 -0.035779 0.963248 0 127 255 0.075090
0.019703 -0.032968 0.960602 0 101 255 0.066508
0.016157 -0.035991 0.959760 0 114 255 0.074148
0.015923 -0.038775 0.962426 0 167 255 0.089135
0.012761 -0.042189 0.961098 0 167 255 0.086265
0.015553 -0.042139 0.964907 26 255 222 0.116104
0.018894 -0.038864 0.965909 0 221 255 0.101707
0.016218 -0.032738 0.957434 0 127 255 0.074347
0.012815 -0.035771 0.956541 0 141 255 0.079911
0.012436 -0.032479 0.954426 0 167 255 0.087176
0.009350 -0.035814 0.953156 0 127 255 0.075609
0.009903 -0.039056 0.955135 0 101 255 0.068929
0.007335 -0.042552 0.953476 0 34 255 0.050237
0.010005 -0.042380 0.957297 0 87 255 0.064815
0.012883 -0.038966 0.958730 0 127 255 0.076153
0.006484 -0.052827 0.954854 0 20 255 0.043646
0.008559 -0.049195 0.956959 0 7 255 0.042665
0.009075 -0.053006 0.958716 0 20 255 0.043912
0.011182 -0.049366 0.960795 0 60 255 0.055281
0.010619 -0.045703 0.959112 0 60 255 0.056257
0.008074 -0.045953 0.955067 0 34 255 0.048570
0.006086 -0.049484 0.952948 0 34 255 0.049018
0.011760 -0.053133 0.962756 0 74 255 0.059155
0.013786 -0.049311 0.965061 0 167 255 0.089362
0.014458 -0.053590 0.966820 0 167 255 0.089716
0.016075 -0.045596 0.966974 36 255 211 0.119885
0.013238 -0.045655 0.963043 0 167 255 0.086704
0.002432 -0.059800 0.950973 0 74 255 0.059250
0.001254 -0.056299 0.950076 0 60 255 0.057888
0.000703 -0.063331 0.948858 0 87 255 0.066379
-0.000465 -0.059769 0.948048 0 87 255 0.065052
-0.002240 -0.063238 0.946211 0 114 255 0.071799
-0.001670 -0.056333 0.947322 0 74 255 0.060666
-0.000997 -0.066929 0.946940 0 114 255 0.071390
-0.002666 -0.070773 0.945361 0 87 255 0.065994
0.000398 -0.071014 0.947556 0 101 255 0.067774
0.002015 -0.067256 0.949543 0 87 255 0.064460
-0.003558 -0.059783 0.945768 0 74 255 0.062317
-0.004880 -0.056448 0.945214 0 60 255 0.054836
-0.005429 -0.063380 0.944516 0 74 255 0.061120
-0.006790 -0.059890 0.943966 0 60 255 0.055145
-0.008716 -0.063552 0.943074 0 47 255 0.051662
-0.008382 -0.056494 0.943555 0 20 255 0.045411
-0.007245 -0.067093 0.943478 0 60 255 0.057644
-0.009124 -0.071126 0.942731 0 34 255 0.049660
-0.005799 -0.070952 0.943930 0 60 255 0.057378
-0.004048 -0.066953 0.944835 0 101 255 0.067950
-0.007902 -0.088283 0.939805 0 34 255 0.049188
-0.006530 -0.083611 0.940992 0 34 255 0.049781
-0.004501 -0.087893 0.940654 0 47 255 0.052762
-0.005129 -0.079018 0.942114 0 60 255 0.056846
-0.003078 -0.083221 0.941819 0 60 255 0.058415
-0.001704 -0.078676 0.943127 0 114 255 0.072444
-0.001056 -0.087472 0.941543 0 60 255 0.056585
-0.003836 -0.074679 0.943514 0 101 255 0.069161
-0.007089 -0.074967 0.942399 0 60 255 0.057180
-0.008461 -0.079353 0.941174 0 34 255 0.048004
0.000324 -0.082995 0.943031 0 87 255 0.064281
0.002553 -0.087459 0.942798 0 74 255 0.060334
0.001491 -0.078808 0.944905 0 114 255 0.072753
0.003765 -0.083079 0.944565 0 87 255 0.066003
0.002468 -0.074909 0.947254 0 114 255 0.071067
-0.000620 -0.074649 0.945063 0 114 255 0.074019
-0.113040 -0.108782 0.884701 0 0 128 0.003021
-0.115968 -0.109197 0.882229 0 0 128 0.001862
-0.114029 -0.110760 0.880085 0 0 128 0.001709
-0.117000 -0.111349 0.877772 0 0 128 0.002040
-0.118935 -0.109747 0.879841 0 0 128 0.001803
-0.115043 -0.113051 0.875741 0 0 128 0.003591
-0.120006 -0.111997 0.875547 0 0 128 0.003795
-0.118018 -0.113757 0.873607 0 0 143 0.007022
-0.121067 -0.114529 0.871486 0 0 174 0.015171
-0.121939 -0.110336 0.877550 0 0 128 0.002563
-0.122958 -0.112732 0.873384 0 0 158 0.008187
-0.124939 -0.111012 0.875320 0 0 143 0.005390
-0.116069 -0.115499 0.871675 0 0 174 0.014154
-0.119053 -0.116246 0.869552 0 0 219 0.023975
-0.117033 -0.118071 0.867660 0 20 255 0.044179
-0.114065 -0.117596 0.869624 0 0 250 0.033664
-0.113117 -0.115051 0.873693 0 0 158 0.010647
-0.111132 -0.117089 0.871610 0 0 219 0.026559
-0.110147 -0.114629 0.875732 0 0 158 0.008819
-0.112089 -0.112647 0.877845 0 0 128 0.003010
-0.109120 -0.112298 0.880017 0 0 128 0.002986
-0.108206 -0.116639 0.873624 0 0 204 0.021711
-0.107219 -0.114245 0.877849 0 0 158 0.007978
-0.105283 -0.116286 0.875723 0 0 204 0.020404
-0.111119 -0.110476 0.882302 0 0 128 0.001903
-0.128216 -0.110869 0.873077 0 0 143 0.005646
-0.126347 -0.112622 0.871166 0 0 158 0.009826
-0.129753 -0.112591 0.869025 0 0 174 0.012766
-0.131545 -0.110838 0.870860 0 0 158 0.008018
-0.127860 -0.114388 0.867143 0 0 204 0.020600
-0.133109 -0.112597 0.866888 0 0 189 0.018280
-0.131275 -0.114385 0.865084 0 0 234 0.028229
-0.134603 -0.114319 0.863006 0 7 255 0.039242
-0.134931 -0.110825 0.868670 0 0 174 0.011849
-0.136501 -0.112569 0.864823 0 0 234 0.030053
-0.138327 -0.110846 0.866591 0 0 204 0.021034
-0.129303 -0.116141 0.863177 0 7 255 0.042294
-0.132696 -0.116073 0.861112 0 47 255 0.053509
-0.130608 -0.117821 0.859180 0 127 255 0.074297
-0.127189 -0.117982 0.861285 0 87 255 0.063620
-0.125775 -0.116187 0.865274 0 0 250 0.033443
-0.123703 -0.118019 0.863386 0 47 255 0.053600
-0.122368 -0.116202 0.867395 0 0 234 0.027764
-0.124406 -0.114426 0.869286 0 0 189 0.017049
-0.120333 -0.118035 0.865508 0 34 255 0.047146
-0.119889 -0.122012 0.849580 0 74 255 0.061940
-0.116659 -0.122390 0.851618 0 101 255 0.066434
-0.119419 -0.121940 0.854215 0 167 255 0.087151
-0.116153 -0.122181 0.856258 0 154 255 0.085378
-0.113533 -0.122752 0.853644 0 114 255 0.071095
-0.118729 -0.121169 0.858776 0 167 255 0.088302
-0.112996 -0.122394 0.858248 0 167 255 0.089727
-0.115499 -0.121306 0.860797 0 154 255 0.085077
-0.112297 -0.121386 0.862841 0 154 255 0.084420
-0.110456 -0.122965 0.855634 0 127 255 0.076586
-0.109875 -0.122547 0.860284 0 181 255 0.092899
-0.107436 -0.123250 0.857697 0 154 255 0.085010
-0.117909 -0.119797 0.863260 0 87 255 0.066101
-0.114695 -0.119856 0.865300 0 87 255 0.064667
-0.121256 -0.119733 0.861138 0 114 255 0.073830
-0.124692 -0.119612 0.859013 0 141 255 0.081388
-0.122093 -0.120992 0.856660 0 181 255 0.092957
-0.125472 -0.120705 0.854519 0 194 255 0.095956
-0.128125 -0.119395 0.856876 0 167 255 0.087859
-0.122729 -0.121566 0.852074 0 167 255 0.086354
-0.104704 -0.123106 0.859439 0 141 255 0.078255
-0.107100 -0.122148 0.862289 0 141 255 0.080792
-0.104337 -0.121976 0.864068 0 127 255 0.074671
-0.102060 -0.123031 0.861255 0 127 255 0.076663
-0.106605 -0.120470 0.866838 0 74 255 0.062072
-0.101615 -0.121879 0.865961 0 114 255 0.072464
-0.103802 -0.120290 0.868662 0 60 255 0.057620
-0.101062 -0.120252 0.870582 0 60 255 0.056658
-0.099424 -0.122996 0.863211 0 141 255 0.079123
-0.098898 -0.121912 0.867939 0 127 255 0.077022
-0.096733 -0.123008 0.865152 0 141 255 0.080083
-0.105970 -0.118424 0.871285 0 0 255 0.037635
-0.103164 -0.118291 0.873160 0 0 255 0.036856
-0.108851 -0.118858 0.869227 0 7 255 0.042879
-0.111754 -0.119382 0.867255 0 47 255 0.052080
-0.109419 -0.120881 0.864808 0 114 255 0.071007
-0.081980 -0.121759 0.876243 0 114 255 0.071706
-0.081583 -0.122820 0.871595 0 87 255 0.063940
-0.085200 -0.122058 0.873873 0 114 255 0.072142
-0.081129 -0.123389 0.866796 0 7 255 0.041977
-0.084811 -0.123153 0.869177 0 101 255 0.066482
-0.084290 -0.123624 0.864347 0 20 255 0.042974
-0.088435 -0.122439 0.871488 0 127 255 0.076426
-0.080605 -0.123414 0.861858 0 0 204 0.019723
-0.080026 -0.123260 0.856930 0 0 158 0.011569
-0.077174 -0.123426 0.858896 0 0 158 0.011188
-0.077724 -0.123491 0.863837 0 0 204 0.022485
-0.078215 -0.123434 0.868803 0 34 255 0.048339
-0.074311 -0.123475 0.860845 0 0 158 0.011708
-0.090544 -0.122512 0.869861 0 127 255 0.075560
-0.088340 -0.123233 0.866616 0 74 255 0.060730
-0.090397 -0.123263 0.865035 0 74 255 0.059813
-0.092593 -0.122654 0.868269 0 127 255 0.074606
-0.088139 -0.123438 0.861679 0 0 250 0.034736
-0.092385 -0.123311 0.863461 0 60 255 0.058461
-0.090090 -0.123360 0.860121 0 0 250 0.033061
-0.092125 -0.123359 0.858581 0 0 234 0.030319
-0.094660 -0.122814 0.866691 0 141 255 0.078693
-0.094457 -0.123481 0.861905 0 74 255 0.062208
-0.087854 -0.123093 0.856704 0 0 174 0.013499
-0.089831 -0.123051 0.855172 0 0 174 0.013678
-0.087516 -0.122624 0.851695 0 0 189 0.016556
-0.083788 -0.122944 0.854273 0 0 174 0.014029
-0.084047 -0.123284 0.859305 0 0 189 0.016115
-0.079557 -0.124539 0.837586 4 234 244 0.108525
-0.079522 -0.123211 0.841983 4 234 244 0.106991
-0.075795 -0.124578 0.839699 0 221 255 0.102998
-0.079589 -0.122656 0.846740 0 114 255 0.073782
-0.075796 -0.123307 0.844139 0 194 255 0.095627
-0.075904 -0.122963 0.849071 0 47 255 0.053176
-0.072056 -0.124767 0.841850 0 154 255 0.082353
-0.079811 -0.122799 0.851784 0 0 234 0.027598
-0.083542 -0.122513 0.849180 0 0 255 0.035613
-0.083338 -0.122626 0.844258 0 141 255 0.082012
-0.072462 -0.123457 0.846235 0 127 255 0.077348
-0.069169 -0.124854 0.843523 0 127 255 0.077458
-0.073019 -0.122933 0.850969 0 34 255 0.049100
-0.069624 -0.123539 0.847990 0 114 255 0.072915
-0.070204 -0.123069 0.852755 0 20 255 0.045526
-0.066314 -0.125003 0.845238 0 101 255 0.069596
-0.073616 -0.123017 0.855904 0 0 189 0.019005
-0.076497 -0.122991 0.853957 0 0 189 0.019512
-0.100904 -0.124751 0.826090 0 127 255 0.075741
-0.097998 -0.124534 0.827596 0 167 255 0.089691
-0.099691 -0.122735 0.830544 15 248 233 0.110417
-0.096847 -0.122736 0.832040 36 255 211 0.119487
-0.095147 -0.124377 0.829072 0 221 255 0.101734
-0.098794 -0.121703 0.835124 4 234 244 0.108975
-0.094053 -0.122739 0.833515 58 255 190 0.126903
-0.095978 -0.121846 0.836647 15 248 233 0.109921
-0.093235 -0.122058 0.838193 4 234 244 0.106828
-0.092348 -0.124320 0.830546 4 234 244 0.107791
-0.091320 -0.122894 0.835042 47 255 201 0.123624
-0.089557 -0.124389 0.832084 15 248 233 0.111948
-0.098095 -0.121517 0.839918 0 127 255 0.075733
-0.095338 -0.121846 0.841534 0 114 255 0.072156
-0.097519 -0.121978 0.845030 0 0 255 0.038334
-0.100254 -0.121619 0.843170 0 20 255 0.043578
-0.100844 -0.121286 0.838182 0 141 255 0.079263
-0.103031 -0.121355 0.841383 0 20 255 0.046740
-0.103611 -0.121111 0.836475 0 141 255 0.080333
-0.101564 -0.121648 0.833443 0 221 255 0.104739
-0.104408 -0.121653 0.831757 0 194 255 0.097065
-0.105824 -0.121058 0.839630 0 34 255 0.050165
-0.106461 -0.120973 0.834783 0 141 255 0.078278
-0.108716 -0.120898 0.837901 0 7 255 0.040159
-0.102538 -0.122901 0.828863 0 194 255 0.096305
-0.087096 -0.124334 0.833413 36 255 211 0.117388
-0.088889 -0.122800 0.836492 58 255 190 0.125725
-0.086369 -0.122858 0.837847 47 255 201 0.123894
-0.084596 -0.124305 0.834750 26 255 222 0.117182
-0.088341 -0.122160 0.841258 0 208 255 0.100641
-0.083914 -0.123053 0.839319 26 255 222 0.115943
-0.085861 -0.122350 0.842720 0 181 255 0.093447
-0.082081 -0.124354 0.836149 26 255 222 0.115872
-0.087913 -0.122199 0.846373 0 74 255 0.059594
-0.090070 -0.122427 0.849974 0 0 204 0.019802
-0.090408 -0.121973 0.844700 0 87 255 0.066377
-0.092566 -0.122262 0.848298 0 0 204 0.023336
-0.092858 -0.121902 0.843105 0 101 255 0.068488
-0.090802 -0.122025 0.839673 4 234 244 0.108717
-0.095046 -0.122051 0.846622 0 0 255 0.036080
-0.097081 -0.123313 0.860145 0 60 255 0.055781
-0.099678 -0.123146 0.858212 0 34 255 0.050563
-0.097288 -0.122933 0.855123 0 0 219 0.024891
-0.102266 -0.123119 0.856345 0 34 255 0.047607
-0.099854 -0.122794 0.853229 0 0 204 0.020997
-0.102405 -0.122854 0.851466 0 0 204 0.021909
-0.104895 -0.123150 0.854577 0 34 255 0.048185
-0.097444 -0.122397 0.850023 0 0 174 0.011936
-0.099922 -0.122412 0.848296 0 0 174 0.013143
-0.094924 -0.122554 0.851673 0 0 158 0.011621
-0.092401 -0.122747 0.853401 0 0 174 0.012171
-0.094729 -0.123109 0.856826 0 0 219 0.025957
-0.107850 -0.122914 0.852712 0 20 255 0.043031
-0.110816 -0.122570 0.850683 0 0 255 0.036104
-0.108109 -0.122153 0.847746 0 0 174 0.014407
-0.113853 -0.122302 0.848720 0 0 250 0.034536
-0.111062 -0.121801 0.845769 0 0 174 0.012751
-0.114106 -0.121520 0.843749 0 0 174 0.012995
-0.117012 -0.121945 0.846679 0 0 250 0.032160
-0.108373 -0.121353 0.842775 0 0 189 0.015681
-0.111331 -0.121052 0.840785 0 0 189 0.017146
-0.105506 -0.121745 0.844610 0 0 174 0.013892
-0.102709 -0.122041 0.846414 0 0 174 0.012965
-0.105234 -0.122527 0.849591 0 0 189 0.017872
-0.085618 -0.045517 0.947301 173 255 75 0.246657
-0.085865 -0.046473 0.945387 161 255 87 0.226442
-0.084747 -0.043444 0.943432 157 255 90 0.215596
-0.084801 -0.044363 0.941607 152 255 96 0.205584
-0.085828 -0.047379 0.943469 156 255 92 0.212254
-0.083881 -0.041110 0.939680 148 255 100 0.197375
-0.084877 -0.045232 0.939733 140 255 108 0.181465
-0.083978 -0.041975 0.937927 144 255 104 0.188484
-0.084018 -0.042783 0.936021 127 255 121 0.154011
-0.085916 -0.048255 0.941646 150 255 98 0.201062
-0.085033 -0.046050 0.937943 131 255 117 0.161108
-0.086126 -0.049233 0.939913 140 255 108 0.181894
-0.083312 -0.038622 0.936114 182 255 66 0.269345
-0.083376 -0.039231 0.934182 175 255 73 0.250851
-0.083086 -0.035708 0.932670 199 255 48 0.301398
-0.082981 -0.035227 0.934745 209 255 39 0.323201
-0.083263 -0.037980 0.938221 163 255 85 0.226995
-0.082836 -0.034766 0.936937 194 255 54 0.292493
-0.083239 -0.037478 0.940346 154 255 94 0.210164
-0.083938 -0.040604 0.941824 154 255 94 0.209350
-0.083835 -0.039958 0.943891 171 255 77 0.245786
-0.082799 -0.034298 0.939213 178 255 69 0.261677
-0.083179 -0.036907 0.942504 171 255 77 0.245865
-0.084732 -0.042878 0.945554 176 255 71 0.254923
-0.086272 -0.049945 0.938151 131 255 117 0.160676
-0.085138 -0.046576 0.936043 101 255 147 0.142458
-0.085280 -0.047220 0.934308 101 255 147 0.142347
-0.086485 -0.050749 0.936438 127 255 121 0.155341
-0.083917 -0.043725 0.932499 136 255 111 0.173381
-0.084582 -0.048130 0.933071 135 255 113 0.171701
-0.083509 -0.044322 0.931235 150 255 98 0.200274
-0.083514 -0.044962 0.929920 152 255 96 0.204229
-0.086115 -0.051778 0.934908 131 255 117 0.163531
-0.084400 -0.048843 0.931746 146 255 102 0.193857
-0.085630 -0.052712 0.933545 144 255 104 0.190727
-0.083070 -0.040475 0.929390 169 255 79 0.239530
-0.083242 -0.040949 0.928057 163 255 85 0.226904
-0.083439 -0.037100 0.926375 180 255 68 0.262487
-0.083088 -0.036879 0.927888 180 255 68 0.264143
-0.083137 -0.040160 0.930851 167 255 81 0.234438
-0.083009 -0.036624 0.929335 184 255 64 0.269722
-0.083460 -0.039786 0.932447 161 255 87 0.225274
-0.084195 -0.043143 0.934067 133 255 115 0.167576
-0.083156 -0.036264 0.930896 186 255 62 0.275651
-0.090551 -0.022012 0.923118 90 255 157 0.140039
-0.089714 -0.021527 0.925192 144 255 104 0.187721
-0.088091 -0.025240 0.924749 163 255 85 0.228370
-0.087272 -0.024957 0.926739 186 255 62 0.274666
-0.088834 -0.021069 0.927332 156 255 92 0.211238
-0.085785 -0.028811 0.926784 182 255 66 0.267750
-0.086548 -0.024521 0.928888 199 255 48 0.301999
-0.085326 -0.028416 0.928804 196 255 52 0.294701
-0.084688 -0.028051 0.931061 215 255 33 0.332256
-0.088015 -0.020551 0.929491 159 255 88 0.219969
-0.085874 -0.024105 0.931088 199 255 48 0.300805
