ply
format ascii 1.0
comment VCGLIB generated
element vertex 1030
property float x
property float y
property float z
property uchar red
property uchar green
property uchar blue
property float quality
end_header
-0.076994 -0.018637 0.891822 0 0 234 0.030970
-0.076446 -0.024926 0.895874 0 208 255 0.098613
-0.078609 -0.010933 0.884357 0 0 234 0.028678
-0.077920 -0.013553 0.886741 0 0 234 0.030152
-0.080581 -0.014360 0.885778 0 0 255 0.037067
-0.081345 -0.011658 0.883641 0 0 250 0.031933
-0.078540 -0.016446 0.888669 0 0 250 0.034397
-0.076408 -0.015760 0.889796 0 0 219 0.027300
-0.083597 -0.012196 0.883337 0 0 234 0.029831
-0.083832 -0.015239 0.885100 0 7 255 0.040719
-0.081771 -0.017515 0.887440 0 34 255 0.048061
-0.079298 -0.075797 0.919421 47 255 201 0.123917
-0.077742 -0.070821 0.919030 131 255 117 0.160965
-0.081847 -0.080861 0.918522 0 181 255 0.092075
-0.083901 -0.085413 0.917365 0 141 255 0.079544
-0.080193 -0.070913 0.918110 135 255 113 0.170322
-0.084627 -0.080564 0.917246 0 167 255 0.087479
-0.081729 -0.075938 0.918374 47 255 201 0.123314
-0.089427 -0.096395 0.909558 0 101 255 0.067598
-0.089840 -0.099673 0.907154 0 87 255 0.062573
-0.087092 -0.092905 0.912625 0 127 255 0.076946
-0.085835 -0.096000 0.911103 0 101 255 0.068666
-0.086266 -0.099237 0.908471 0 74 255 0.061963
-0.086482 -0.089360 0.914657 0 101 255 0.068054
-0.083935 -0.098973 0.909658 0 87 255 0.063078
-0.083401 -0.092364 0.914504 0 154 255 0.084979
-0.082594 -0.095521 0.912908 0 127 255 0.077526
-0.083653 -0.089009 0.916139 0 167 255 0.086282
-0.081946 -0.101464 0.906595 0 0 255 0.037339
-0.082261 -0.104221 0.902262 0 0 189 0.017779
-0.084207 -0.101652 0.905378 0 0 250 0.032469
-0.084524 -0.104459 0.901158 0 0 189 0.018517
-0.082561 -0.107320 0.898137 0 0 158 0.010662
-0.082854 -0.110656 0.894096 0 0 158 0.007947
-0.080430 -0.110554 0.895329 0 0 158 0.010129
-0.080175 -0.107186 0.899505 0 0 158 0.010778
-0.086718 -0.101919 0.903682 0 0 219 0.026541
-0.087269 -0.104769 0.898987 0 0 174 0.014525
-0.086431 -0.107624 0.895362 0 0 158 0.008928
-0.085626 -0.111008 0.892060 0 0 143 0.006943
-0.080748 -0.119225 0.881344 0 34 255 0.047903
-0.082350 -0.116600 0.884841 0 0 219 0.026529
-0.079653 -0.116436 0.886558 0 0 234 0.029857
-0.078045 -0.119019 0.883004 0 34 255 0.049706
-0.082607 -0.113570 0.889355 0 0 158 0.011700
-0.085418 -0.113973 0.887390 0 0 158 0.011187
-0.075569 -0.118923 0.884289 0 47 255 0.051575
-0.077164 -0.116261 0.887725 0 0 234 0.030959
-0.077590 -0.113423 0.892140 0 0 189 0.016764
-0.080041 -0.113506 0.890885 0 0 174 0.013306
-0.070939 -0.059223 0.916463 156 255 92 0.214558
-0.070893 -0.053940 0.913832 194 255 54 0.292897
-0.071141 -0.048736 0.911700 205 255 43 0.313229
-0.071794 -0.043998 0.909751 205 255 43 0.315354
-0.069039 -0.058476 0.917031 156 255 92 0.212411
-0.069232 -0.048104 0.912653 188 255 60 0.280318
-0.069069 -0.053209 0.914629 180 255 68 0.262569
-0.073706 -0.033097 0.903463 163 255 85 0.229160
-0.073587 -0.036403 0.905109 188 255 60 0.277651
-0.072407 -0.039918 0.907610 196 255 52 0.294629
-0.075770 -0.033596 0.901889 161 255 87 0.225095
-0.075425 -0.036942 0.903919 194 255 54 0.289766
-0.101520 0.000529 0.867744 0 60 255 0.058465
-0.103697 0.001208 0.865501 0 101 255 0.067306
-0.099389 -0.000079 0.870006 0 60 255 0.058426
-0.102799 -0.000648 0.870414 0 127 255 0.074418
-0.104913 -0.000115 0.868164 0 114 255 0.074154
-0.107120 0.000421 0.865790 0 127 255 0.075494
-0.100657 -0.001420 0.872480 0 101 255 0.069840
-0.098599 -0.002269 0.874475 0 101 255 0.066754
-0.097436 -0.001211 0.872006 0 34 255 0.047875
-0.095630 -0.002187 0.873987 0 20 255 0.045419
-0.107556 -0.000789 0.868554 0 154 255 0.083412
-0.109850 -0.000384 0.866289 0 154 255 0.082449
-0.105320 -0.001054 0.870695 0 167 255 0.087557
-0.103182 -0.001766 0.872892 0 167 255 0.087083
-0.101136 -0.002467 0.874916 0 167 255 0.086997
-0.095715 -0.008496 0.879838 0 0 204 0.020417
-0.097340 -0.006640 0.878163 0 0 234 0.028587
-0.097933 -0.004460 0.876333 0 20 255 0.043017
-0.092065 -0.008263 0.879350 0 0 189 0.016257
-0.092206 -0.006320 0.877466 0 0 189 0.017482
-0.089628 -0.008143 0.879146 0 0 189 0.016476
-0.092417 -0.004269 0.875643 0 0 204 0.023170
-0.095352 -0.004287 0.875974 0 0 250 0.032105
-0.117171 -0.003821 0.848076 0 0 204 0.020191
-0.121250 -0.006507 0.846022 0 0 189 0.017497
-0.116713 -0.003177 0.850675 0 0 219 0.024206
-0.120774 -0.005958 0.848525 0 0 189 0.019516
-0.120293 -0.005378 0.851123 0 0 204 0.020324
-0.124982 -0.008477 0.846557 0 0 204 0.021479
-0.116318 -0.002596 0.853278 0 0 234 0.029643
-0.115860 -0.002204 0.855897 0 0 255 0.035375
-0.112546 -0.000532 0.855578 0 0 255 0.036019
-0.112933 -0.001023 0.852959 0 0 234 0.028695
-0.124027 -0.007518 0.849151 0 0 219 0.023471
-0.128064 -0.009951 0.847649 0 0 219 0.025508
-0.123120 -0.006552 0.851804 0 0 219 0.026048
-0.127092 -0.009014 0.850264 0 0 219 0.025745
-0.122273 -0.005618 0.854570 0 0 250 0.032374
-0.118657 -0.003354 0.856593 0 7 255 0.040753
-0.119471 -0.004341 0.853871 0 0 234 0.029930
-0.112062 -0.000924 0.863818 0 101 255 0.067688
-0.114255 -0.001505 0.861230 0 47 255 0.054150
-0.111584 -0.000634 0.860880 0 34 255 0.049967
-0.109359 -0.000042 0.863381 0 74 255 0.061400
-0.115081 -0.001765 0.858540 0 20 255 0.043890
-0.117776 -0.003131 0.859281 0 20 255 0.045634
-0.105889 0.001142 0.863098 0 74 255 0.060879
-0.108153 0.000884 0.860531 0 47 255 0.052778
-0.110408 0.000276 0.858048 0 20 255 0.043719
-0.135753 -0.020412 0.833997 0 0 143 0.005361
-0.137539 -0.022526 0.832702 0 0 128 0.003861
-0.133936 -0.018273 0.835358 0 0 143 0.007550
-0.138228 -0.021085 0.836051 0 0 143 0.007429
-0.139693 -0.023929 0.833064 0 0 143 0.004146
-0.141880 -0.025280 0.833420 0 0 143 0.004798
-0.136379 -0.018998 0.837416 0 0 158 0.009329
-0.134470 -0.016872 0.838924 0 0 174 0.012161
-0.132130 -0.016370 0.836811 0 0 158 0.008714
-0.130289 -0.014486 0.838290 0 0 158 0.010782
-0.144333 -0.026839 0.834062 0 0 143 0.005086
-0.141906 -0.023928 0.835347 0 0 143 0.007199
-0.144356 -0.025536 0.836000 0 0 143 0.007559
-0.146841 -0.028435 0.834634 0 0 143 0.006124
-0.141874 -0.022646 0.837344 0 0 158 0.011238
-0.146822 -0.027096 0.836582 0 0 143 0.007780
-0.144311 -0.024313 0.837944 0 0 158 0.009937
-0.149351 -0.029917 0.835218 0 0 204 0.020089
-0.141783 -0.021400 0.839441 0 0 174 0.014547
-0.138065 -0.018493 0.840272 0 0 189 0.016633
-0.130499 -0.012010 0.845611 0 0 204 0.020740
-0.132909 -0.014099 0.843628 0 0 189 0.018693
-0.129747 -0.012742 0.842532 0 0 174 0.014522
-0.127364 -0.010651 0.844481 0 0 189 0.016971
-0.133714 -0.015466 0.841258 0 0 174 0.014565
-0.137273 -0.017211 0.842567 0 0 189 0.016541
-0.123403 -0.008378 0.843976 0 0 189 0.016699
-0.125632 -0.010206 0.842016 0 0 174 0.014107
-0.125914 -0.011118 0.839835 0 0 174 0.011986
-0.130004 -0.013572 0.840415 0 0 174 0.012395
-0.144532 -0.034104 0.823027 0 0 128 0.003747
-0.144514 -0.032403 0.825834 0 0 128 0.003680
-0.147059 -0.035211 0.824745 0 0 143 0.004422
-0.149386 -0.037915 0.823609 0 0 143 0.005418
-0.147048 -0.033442 0.827498 0 0 143 0.004088
-0.144249 -0.030558 0.828483 0 0 128 0.003577
-0.140261 -0.027749 0.827849 0 0 128 0.002695
-0.152103 -0.039687 0.825124 0 0 143 0.006852
-0.150981 -0.036980 0.827816 0 0 143 0.005910
-0.149042 -0.031706 0.832258 0 0 143 0.004894
-0.146510 -0.030053 0.831807 0 0 143 0.004323
-0.144037 -0.028465 0.831218 0 0 128 0.003574
-0.149595 -0.033543 0.830688 0 0 143 0.004576
-0.140124 -0.025790 0.830501 0 0 128 0.002812
-0.137930 -0.024406 0.830161 0 0 128 0.002304
-0.150809 -0.044799 0.813870 0 0 143 0.006830
-0.152695 -0.045616 0.815536 0 0 143 0.006570
-0.152509 -0.046969 0.812701 0 0 143 0.006248
-0.150946 -0.043501 0.816669 0 0 143 0.007630
-0.148937 -0.041070 0.817770 0 0 143 0.006538
-0.148953 -0.042529 0.814939 0 0 143 0.006672
-0.154963 -0.049185 0.812873 0 0 143 0.006774
-0.155343 -0.048332 0.815618 0 0 158 0.008001
-0.156971 -0.050497 0.814351 0 0 143 0.007492
-0.155637 -0.047254 0.818285 0 0 158 0.008817
-0.152895 -0.044591 0.818208 0 0 158 0.007865
-0.152992 -0.042267 0.822382 0 0 143 0.007627
-0.150588 -0.040607 0.820842 0 0 143 0.005855
-0.147117 -0.036971 0.821900 0 0 143 0.004923
-0.147092 -0.038634 0.818931 0 0 143 0.004981
-0.156938 -0.053586 0.805175 0 0 143 0.007745
-0.155648 -0.051887 0.807228 0 0 143 0.005903
-0.159778 -0.056426 0.804008 0 0 189 0.015999
-0.158296 -0.054173 0.808250 0 0 158 0.008719
-0.156762 -0.051377 0.811808 0 0 143 0.006938
-0.152697 -0.048075 0.810297 0 0 143 0.005565
-0.154360 -0.049997 0.809327 0 0 143 0.005581
-0.161314 -0.057934 0.801765 0 0 234 0.028011
-0.158150 -0.055114 0.801894 0 0 174 0.014503
0.136533 -0.006732 0.896083 0 0 234 0.030349
0.129978 -0.005083 0.894888 0 0 204 0.022992
0.137914 -0.006128 0.893318 0 0 255 0.038917
0.131387 -0.004363 0.892129 0 0 204 0.022716
0.132743 -0.003798 0.889298 0 0 250 0.033886
0.128462 -0.005291 0.897310 0 0 204 0.022443
0.145727 -0.006311 0.883226 101 255 147 0.144497
0.140223 -0.004196 0.882834 0 221 255 0.103985
0.139325 -0.004838 0.886434 0 114 255 0.072897
0.134587 -0.002872 0.882689 0 101 255 0.069314
0.140901 -0.003593 0.878927 101 255 147 0.141368
0.135287 -0.002478 0.879117 4 234 244 0.109353
0.136226 -0.002004 0.875427 123 255 125 0.151375
0.138522 -0.005405 0.889738 0 34 255 0.047677
0.133678 -0.003257 0.886054 0 47 255 0.051813
0.094743 -0.005302 0.877343 0 114 255 0.071300
0.099614 -0.004932 0.880125 0 60 255 0.058211
0.100923 -0.004985 0.877540 0 60 255 0.057100
0.104109 -0.004537 0.882676 0 20 255 0.046412
0.105544 -0.004329 0.880063 0 7 255 0.039847
0.110169 -0.003855 0.882692 0 0 234 0.029825
0.108671 -0.004189 0.885271 0 0 255 0.037008
0.107080 -0.003935 0.877508 0 0 234 0.030708
0.111754 -0.003202 0.879991 0 0 204 0.020639
0.113333 -0.002303 0.877135 0 0 189 0.018721
0.108604 -0.003111 0.874765 0 0 189 0.019243
0.102357 -0.004578 0.874950 0 7 255 0.042602
0.103764 -0.003803 0.872203 0 0 219 0.025400
0.097327 -0.005292 0.872145 0 87 255 0.063088
0.096095 -0.005505 0.874831 0 127 255 0.074847
0.089983 -0.006090 0.871422 0 181 255 0.090149
0.098735 -0.004643 0.869462 0 7 255 0.041041
0.091137 -0.005959 0.868682 0 141 255 0.080441
0.092319 -0.005448 0.865748 0 74 255 0.060151
0.088764 -0.005769 0.874025 0 154 255 0.084033
0.113255 -0.003963 0.887895 0 0 234 0.029745
0.117957 -0.004034 0.890713 0 0 219 0.024976
0.119627 -0.003712 0.888226 0 0 204 0.020616
0.123073 -0.004339 0.893800 0 0 204 0.022615
0.124670 -0.003993 0.891359 0 0 204 0.019864
0.126031 -0.003320 0.888545 0 0 204 0.020627
0.127545 -0.002678 0.885768 0 0 234 0.030139
0.121126 -0.002909 0.885462 0 0 204 0.019715
0.122733 -0.002252 0.882712 0 0 219 0.027180
0.116406 -0.002895 0.882635 0 0 189 0.018932
0.114837 -0.003645 0.885373 0 0 219 0.024385
0.117951 -0.002151 0.879806 0 0 204 0.020942
0.131506 -0.001138 0.872071 131 255 117 0.162083
0.130506 -0.001483 0.875695 26 255 222 0.114736
0.125940 -0.000888 0.872670 0 221 255 0.102097
0.126837 -0.000430 0.869041 129 255 119 0.157221
0.124733 -0.001261 0.876024 0 87 255 0.064006
0.121273 -0.000529 0.869876 0 181 255 0.091175
0.120235 -0.001032 0.873332 0 60 255 0.056386
0.115665 -0.001009 0.870792 0 20 255 0.045371
0.122427 -0.000097 0.866327 101 255 147 0.142344
0.116802 -0.000369 0.867364 0 127 255 0.077388
0.117836 0.000103 0.863973 47 255 201 0.124005
0.119048 -0.001549 0.876587 0 0 250 0.033142
0.114445 -0.001704 0.874027 0 0 219 0.025405
0.123766 -0.001621 0.879377 0 7 255 0.042387
0.128527 -0.002291 0.882490 0 34 255 0.047369
0.129537 -0.001847 0.879168 0 127 255 0.075887
0.113128 0.000016 0.861691 0 208 255 0.099543
0.111982 -0.000704 0.865037 0 47 255 0.052115
0.106979 -0.001165 0.862701 0 0 255 0.036236
0.108183 -0.000225 0.859431 0 141 255 0.079483
0.105844 -0.002238 0.865958 0 0 189 0.016159
0.101259 -0.001976 0.859697 0 0 204 0.022510
0.100472 -0.003005 0.863137 0 0 174 0.014428
0.093914 -0.004069 0.859220 0 0 204 0.020637
0.101919 -0.000815 0.856044 0 74 255 0.062215
0.094774 -0.002822 0.855649 0 0 204 0.019580
0.095724 -0.001655 0.852152 0 60 255 0.056542
0.099615 -0.003966 0.866364 0 0 219 0.025914
0.093052 -0.004931 0.862519 0 7 255 0.040298
0.104810 -0.003130 0.869145 0 0 189 0.016220
0.109667 -0.002377 0.871602 0 0 189 0.017084
0.110807 -0.001557 0.868375 0 0 219 0.026031
0.101810 -0.000075 0.851613 90 255 157 0.138003
0.108544 0.000399 0.855522 101 255 147 0.144157
0.108692 0.000790 0.851321 161 255 87 0.223465
0.113763 0.000278 0.858034 123 255 125 0.149582
0.114295 0.000566 0.854192 157 255 90 0.216403
0.119081 0.000056 0.856570 152 255 96 0.203360
0.118430 0.000169 0.860325 129 255 119 0.159099
0.114728 0.000494 0.850267 190 255 58 0.283588
0.119679 -0.000085 0.852833 182 255 66 0.268723
0.120146 -0.000450 0.849055 211 255 37 0.327080
0.115251 0.000091 0.846360 213 255 35 0.331185
0.108870 0.000840 0.846962 201 255 47 0.305252
0.109075 0.000491 0.842606 241 253 7 0.388388
0.102376 0.000543 0.843094 203 255 45 0.310896
0.102088 0.000374 0.847349 161 255 87 0.226082
0.096981 -0.000459 0.844385 156 255 92 0.213043
0.102893 0.000297 0.839057 245 249 3 0.395126
0.097787 -0.000238 0.840503 192 255 56 0.288975
0.098617 -0.000510 0.836858 236 255 12 0.375993
0.096277 -0.001019 0.848233 47 255 201 0.123227
0.122840 -0.000081 0.862621 138 255 109 0.176412
0.127336 -0.000580 0.865235 144 255 104 0.190670
0.127729 -0.000598 0.861342 165 255 83 0.231457
0.131730 -0.001003 0.868084 154 255 94 0.210221
0.132171 -0.001213 0.864224 175 255 73 0.253091
0.136589 -0.001944 0.867238 169 255 79 0.241561
0.136366 -0.001881 0.871349 148 255 100 0.198461
0.132456 -0.001449 0.860252 192 255 56 0.288754
0.136930 -0.002300 0.863178 192 255 56 0.286517
0.137023 -0.002730 0.859338 213 255 35 0.330200
0.132858 -0.002110 0.856514 213 255 35 0.328628
0.128205 -0.000965 0.857640 184 255 64 0.270914
0.128656 -0.001519 0.853830 199 255 48 0.304238
0.123956 -0.000501 0.855102 178 255 69 0.261709
0.123474 -0.000274 0.858967 152 255 96 0.206882
0.124425 -0.001067 0.851403 201 255 47 0.306711
0.135207 -0.009044 0.844112 220 255 28 0.346047
0.131354 -0.008755 0.841914 215 255 33 0.332675
0.131664 -0.006390 0.845054 213 255 35 0.329246
0.127799 -0.005988 0.842692 220 255 28 0.344647
0.127517 -0.008413 0.839592 218 255 29 0.341557
0.128009 -0.004149 0.846274 218 255 29 0.342952
0.123912 -0.005633 0.840410 220 255 28 0.346543
0.124139 -0.003648 0.843882 220 255 28 0.344300
0.120044 -0.003254 0.841577 230 255 18 0.365707
0.123634 -0.008269 0.837319 228 255 20 0.361403
0.119785 -0.005419 0.837904 241 253 7 0.386898
0.119152 -0.008149 0.834508 237 255 10 0.380921
0.124207 -0.002117 0.847509 211 255 37 0.327353
0.120063 -0.001687 0.845174 215 255 33 0.335582
0.128395 -0.002694 0.849944 203 255 45 0.309948
0.132467 -0.003292 0.852456 209 255 39 0.322102
0.132051 -0.004693 0.848765 215 255 33 0.333854
0.136216 -0.005366 0.851316 216 255 31 0.338509
0.136700 -0.003896 0.855224 215 255 33 0.332340
0.135801 -0.006969 0.847683 218 255 29 0.343491
0.112863 -0.008125 0.830570 255 229 0 0.431648
0.113490 -0.005117 0.833908 255 218 0 0.449406
0.107716 -0.005331 0.830486 255 209 0 0.467059
0.107469 -0.008728 0.827961 255 236 0 0.418263
0.107806 -0.002613 0.833749 255 205 0 0.472926
0.103490 -0.005975 0.828727 255 238 0 0.417606
0.103282 -0.003178 0.831610 255 214 0 0.460488
0.099724 -0.003966 0.830376 251 242 0 0.409502
0.103499 -0.009376 0.826604 236 255 12 0.376587
0.100071 -0.006725 0.827638 239 255 8 0.385060
0.100062 -0.009945 0.825688 218 255 29 0.342829
0.102938 -0.001101 0.834921 255 231 0 0.429657
0.099275 -0.001892 0.833344 245 249 3 0.396149
0.108319 -0.000644 0.837943 255 225 0 0.440524
0.114883 -0.001044 0.842190 241 253 7 0.387666
0.114435 -0.002785 0.837968 251 242 0 0.408721
0.140758 -0.003266 0.874623 144 255 104 0.189399
0.145555 -0.005642 0.878828 133 255 115 0.166347
0.145146 -0.004812 0.873636 156 255 92 0.212669
0.149970 -0.007660 0.878200 148 255 100 0.198499
0.149526 -0.006867 0.873240 167 255 81 0.237287
0.153796 -0.009307 0.872795 186 255 62 0.275082
0.149372 -0.006810 0.868679 180 255 68 0.262241
0.145075 -0.004741 0.869414 175 255 73 0.250580
0.145102 -0.004968 0.865120 192 255 56 0.286467
0.141042 -0.003376 0.866152 186 255 62 0.274669
0.140873 -0.003193 0.870300 163 255 85 0.227412
0.141113 -0.003797 0.862105 199 255 48 0.302242
0.159494 -0.017161 0.860553 192 255 56 0.286431
0.157426 -0.014287 0.862666 203 255 45 0.309351
0.156057 -0.015470 0.857718 205 255 43 0.312778
0.153909 -0.012415 0.859789 201 255 47 0.307290
0.154985 -0.011383 0.864640 197 255 50 0.298338
0.151816 -0.010046 0.862180 194 255 54 0.291477
0.152557 -0.013742 0.854931 205 255 43 0.316261
0.150335 -0.010825 0.857176 215 255 33 0.334501
0.149118 -0.012389 0.852577 213 255 35 0.328265
0.152855 -0.009474 0.867410 192 255 56 0.289043
0.145633 -0.011449 0.850441 224 255 24 0.352988
0.146392 -0.009617 0.854160 209 255 39 0.321469
0.142830 -0.008803 0.851923 216 255 31 0.338258
0.142162 -0.010677 0.848362 216 255 31 0.339613
0.143408 -0.006857 0.855808 222 255 26 0.347758
0.139202 -0.007900 0.849815 222 255 26 0.349326
0.139837 -0.006148 0.853572 224 255 24 0.352065
0.138637 -0.009701 0.846137 230 255 18 0.364937
0.140123 -0.004545 0.857453 222 255 26 0.348220
0.144340 -0.005770 0.860411 207 255 41 0.318654
0.148435 -0.007215 0.863211 192 255 56 0.286644
0.147584 -0.008353 0.858891 207 255 41 0.318505
0.080780 -0.143271 0.896950 0 0 174 0.014473
0.079263 -0.142343 0.900125 0 0 158 0.009774
0.077768 -0.141245 0.898770 0 0 143 0.006085
0.076210 -0.140340 0.901944 0 0 143 0.004900
0.077702 -0.141463 0.903272 0 0 143 0.007808
0.074542 -0.139329 0.900527 0 0 143 0.004019
0.074653 -0.139408 0.905054 0 0 143 0.004159
0.073023 -0.138397 0.903671 0 0 143 0.004068
0.071462 -0.137408 0.906768 0 0 143 0.004616
0.076127 -0.140578 0.906377 0 0 143 0.006561
0.073095 -0.138479 0.908170 0 0 143 0.004210
0.074544 -0.139675 0.909496 0 0 143 0.005693
0.071132 -0.137535 0.902161 0 0 143 0.003969
0.069597 -0.136521 0.905298 0 0 143 0.004623
0.067507 -0.135783 0.903764 0 0 143 0.004161
0.069054 -0.136588 0.900516 0 0 143 0.004282
0.072709 -0.138321 0.898983 0 0 128 0.003760
0.070636 -0.137320 0.897341 0 0 143 0.003938
0.074327 -0.139055 0.895801 0 0 128 0.003644
0.076153 -0.140092 0.897338 0 0 143 0.004013
0.077798 -0.140859 0.894162 0 0 143 0.004929
0.072226 -0.137992 0.894173 0 0 143 0.003918
0.075990 -0.139727 0.892630 0 0 143 0.003912
0.073904 -0.138618 0.891012 0 0 143 0.004153
0.079378 -0.142051 0.895586 0 0 158 0.008360
0.072932 -0.138528 0.912432 0 0 143 0.005032
0.071453 -0.137434 0.911234 0 0 143 0.004529
0.069870 -0.136274 0.914270 0 0 143 0.005949
0.071380 -0.137398 0.915474 0 0 143 0.005029
0.068191 -0.135253 0.912998 0 0 143 0.007320
0.068261 -0.135055 0.917368 0 0 158 0.007900
0.066574 -0.134020 0.916109 0 0 158 0.010117
0.069723 -0.136210 0.918560 0 0 143 0.005898
0.064687 -0.133159 0.914758 0 0 158 0.010685
0.062573 -0.132407 0.913191 0 0 158 0.009828
0.066348 -0.134330 0.911528 0 0 158 0.008081
0.064214 -0.133568 0.909927 0 0 143 0.007449
0.067994 -0.135450 0.908377 0 0 143 0.006163
0.069827 -0.136338 0.909850 0 0 143 0.005721
0.065862 -0.134689 0.906794 0 0 143 0.005233
0.052725 -0.130096 0.906923 0 0 234 0.030794
0.055132 -0.131144 0.908640 0 0 219 0.027073
0.056876 -0.131931 0.905240 0 0 219 0.026915
0.054538 -0.130739 0.903543 0 0 234 0.028280
0.059340 -0.132608 0.906904 0 0 204 0.020558
0.058635 -0.132758 0.901935 0 0 219 0.027222
0.061077 -0.133526 0.903627 0 0 158 0.008573
0.062782 -0.134398 0.900402 0 0 158 0.009354
0.056302 -0.131463 0.900226 0 0 234 0.027487
0.060355 -0.133576 0.898729 0 0 189 0.015643
0.058045 -0.132225 0.897007 0 0 234 0.028032
0.063514 -0.134117 0.905302 0 0 143 0.005201
0.065235 -0.135126 0.902118 0 0 143 0.005413
0.061895 -0.133066 0.908474 0 0 143 0.005796
0.060227 -0.131939 0.911712 0 0 189 0.018786
0.057683 -0.131577 0.910152 0 0 204 0.020177
0.059692 -0.132643 0.893684 0 0 174 0.012719
0.061894 -0.134179 0.895477 0 0 189 0.016073
0.063522 -0.134612 0.892214 0 0 174 0.014930
0.061289 -0.133108 0.890394 0 0 158 0.011643
0.065911 -0.135698 0.894010 0 0 158 0.010566
0.065164 -0.135020 0.888967 0 0 174 0.013706
0.067588 -0.136133 0.890767 0 0 158 0.009346
0.069278 -0.136576 0.887505 0 0 158 0.009354
0.062915 -0.133516 0.887180 0 0 158 0.011585
0.066871 -0.135444 0.885703 0 0 174 0.013420
0.064606 -0.133872 0.883947 0 0 158 0.010728
0.069955 -0.137161 0.892551 0 0 143 0.006116
0.071677 -0.137603 0.889294 0 0 143 0.005762
0.068361 -0.136537 0.895709 0 0 143 0.005974
0.066776 -0.135882 0.898886 0 0 143 0.005762
0.064343 -0.135091 0.897177 0 0 158 0.010227
0.060693 -0.132233 0.885671 0 0 158 0.011115
0.059131 -0.131737 0.888909 0 0 158 0.010227
0.057050 -0.130295 0.887412 0 0 158 0.008087
0.057501 -0.131382 0.892187 0 0 158 0.011560
0.055439 -0.129898 0.890659 0 0 158 0.008590
0.053758 -0.129478 0.893936 0 0 204 0.022894
0.055821 -0.131069 0.895483 0 0 234 0.028467
0.053343 -0.128154 0.889033 0 0 143 0.007715
0.051647 -0.127739 0.892316 0 0 189 0.019113
0.049526 -0.126041 0.890709 0 0 158 0.008157
0.051396 -0.126297 0.887436 0 0 174 0.012074
0.055122 -0.128596 0.885831 0 0 143 0.007418
0.053166 -0.126877 0.884266 0 0 174 0.014694
0.056837 -0.129126 0.882696 0 0 158 0.009159
0.058747 -0.130774 0.884203 0 0 158 0.009323
0.060474 -0.131119 0.881025 0 0 158 0.009438
0.054846 -0.127429 0.881106 0 0 189 0.016159
0.058505 -0.129475 0.879529 0 0 174 0.011898
0.056519 -0.127890 0.877943 0 0 189 0.015673
0.062478 -0.132572 0.882472 0 0 158 0.010261
0.053994 -0.130441 0.898808 0 0 234 0.030514
0.052205 -0.129762 0.902104 0 0 250 0.032602
0.049969 -0.128328 0.900595 0 0 234 0.028568
0.050342 -0.129233 0.905442 0 0 255 0.037229
0.048078 -0.127838 0.903969 0 0 250 0.033517
0.045794 -0.126350 0.902420 0 0 234 0.028220
0.043618 -0.124504 0.900718 0 0 204 0.020109
0.047789 -0.126810 0.898973 0 0 219 0.023578
0.045610 -0.124964 0.897284 0 0 189 0.019133
0.049745 -0.127128 0.895584 0 0 204 0.019991
0.051904 -0.128800 0.897220 0 0 219 0.024216
0.047582 -0.125352 0.893906 0 0 204 0.019795
0.035455 -0.117449 0.894635 0 167 255 0.088079
0.037354 -0.119350 0.896200 0 7 255 0.040847
0.039315 -0.119810 0.892779 0 34 255 0.048234
0.037373 -0.118084 0.891283 0 181 255 0.090180
0.041335 -0.121615 0.894318 0 0 250 0.032593
0.041258 -0.120706 0.889530 0 34 255 0.047275
0.043308 -0.122252 0.891001 0 0 219 0.024977
0.045291 -0.122995 0.887780 0 0 234 0.029785
0.039236 -0.118967 0.888026 0 141 255 0.080591
0.043178 -0.121551 0.886319 0 20 255 0.044509
0.041056 -0.120173 0.884867 0 141 255 0.080714
0.045422 -0.123864 0.892490 0 0 219 0.024976
0.047417 -0.124572 0.889257 0 0 189 0.016431
0.043443 -0.123420 0.895821 0 0 204 0.021082
0.041447 -0.123081 0.899256 0 0 189 0.019435
0.039388 -0.121199 0.897699 0 0 234 0.028209
0.042886 -0.120942 0.881655 0 127 255 0.078044
0.045005 -0.122193 0.883114 0 60 255 0.056088
0.046839 -0.122993 0.879946 0 60 255 0.057218
0.044701 -0.121995 0.878504 0 127 255 0.076444
0.048937 -0.124150 0.881384 0 7 255 0.039242
0.048667 -0.123877 0.876826 0 60 255 0.056585
0.050743 -0.124803 0.878242 0 7 255 0.042888
0.052523 -0.125673 0.875142 0 20 255 0.043885
0.046533 -0.123006 0.875369 0 127 255 0.078056
0.050426 -0.124784 0.873670 0 60 255 0.054800
0.048331 -0.124074 0.872206 0 114 255 0.073801
0.052767 -0.126155 0.879698 0 0 234 0.029214
0.054531 -0.126885 0.876565 0 0 234 0.027457
0.051080 -0.125454 0.882842 0 0 204 0.023266
0.049284 -0.124950 0.886017 0 0 189 0.018625
0.047135 -0.123553 0.884555 0 0 255 0.036390
0.094430 -0.142808 0.864515 0 127 255 0.077164
0.092856 -0.142870 0.869098 0 7 255 0.042447
0.090940 -0.142135 0.867388 0 34 255 0.047038
0.089464 -0.142102 0.871952 0 0 219 0.025411
0.091226 -0.143048 0.873461 0 0 219 0.025729
0.087525 -0.141238 0.870283 0 0 219 0.026251
0.087820 -0.142302 0.876296 0 0 174 0.014727
0.085996 -0.141238 0.874816 0 0 174 0.013180
0.084393 -0.141589 0.879122 0 0 158 0.009855
0.089462 -0.143401 0.877685 0 0 189 0.017596
0.086118 -0.142740 0.880530 0 0 174 0.012276
0.087643 -0.143928 0.881818 0 0 189 0.017166
0.084008 -0.140239 0.873172 0 0 174 0.013524
0.082480 -0.140461 0.877649 0 0 158 0.007886
0.080339 -0.139285 0.876108 0 0 143 0.007559
0.081885 -0.139191 0.871795 0 0 174 0.011844
0.085466 -0.140383 0.868810 0 0 234 0.028578
0.083294 -0.139335 0.867241 0 0 234 0.028487
0.086889 -0.140614 0.864182 0 60 255 0.056636
0.089017 -0.141454 0.865831 0 47 255 0.053274
0.090447 -0.141569 0.861178 0 194 255 0.094925
0.084686 -0.139361 0.862521 0 60 255 0.055093
0.088242 -0.140596 0.859404 0 221 255 0.101866
0.086094 -0.139128 0.857722 0 181 255 0.092202
0.092537 -0.142220 0.862920 0 167 255 0.086062
0.085938 -0.143582 0.885624 0 0 158 0.010397
0.084417 -0.142364 0.884183 0 0 143 0.006886
0.082761 -0.142198 0.887992 0 0 143 0.005749
0.084208 -0.143400 0.889380 0 0 158 0.009623
0.081101 -0.140988 0.886555 0 0 143 0.004185
0.081059 -0.142098 0.891800 0 0 143 0.006084
0.079436 -0.140894 0.890354 0 0 143 0.004188
0.082501 -0.143303 0.893179 0 0 158 0.010649
0.077599 -0.139679 0.888839 0 0 128 0.003319
0.075513 -0.138560 0.887369 0 0 128 0.003024
0.079244 -0.139779 0.885204 0 0 128 0.003408
0.077156 -0.138598 0.883705 0 0 128 0.002934
0.080911 -0.139998 0.881457 0 0 143 0.004305
0.082770 -0.141185 0.882827 0 0 143 0.005398
0.078782 -0.138825 0.879967 0 0 128 0.003595
0.066360 -0.133500 0.880416 0 0 143 0.005159
0.068505 -0.135220 0.882068 0 0 143 0.007673
0.070259 -0.134935 0.878475 0 0 128 0.003814
0.068143 -0.133175 0.876913 0 0 128 0.003692
0.072480 -0.136384 0.880151 0 0 143 0.004150
0.072040 -0.134673 0.874831 0 0 128 0.002565
0.074243 -0.136390 0.876446 0 0 128 0.003470
0.075962 -0.136562 0.872656 0 0 143 0.004787
0.069972 -0.132831 0.873278 0 0 143 0.004517
0.073840 -0.134647 0.871060 0 0 128 0.002628
0.071773 -0.132630 0.869497 0 0 143 0.005762
0.076508 -0.137690 0.878181 0 0 128 0.003574
0.078164 -0.138066 0.874361 0 0 143 0.007083
0.074872 -0.137552 0.881957 0 0 128 0.003050
0.073282 -0.137520 0.885644 0 0 128 0.003767
0.070844 -0.136478 0.883821 0 0 143 0.006050
0.073468 -0.132120 0.865279 0 0 158 0.007939
0.075497 -0.133896 0.866686 0 0 128 0.003489
0.077165 -0.133703 0.862216 0 0 143 0.005872
0.075098 -0.131832 0.860818 0 0 143 0.006624
0.079144 -0.135512 0.863719 0 0 158 0.008856
0.078692 -0.133710 0.857582 0 0 174 0.014461
0.080640 -0.135624 0.859116 0 0 219 0.024690
0.082132 -0.135791 0.854396 0 74 255 0.060327
0.076646 -0.132051 0.856079 0 0 158 0.010453
0.080237 -0.133885 0.852907 0 7 255 0.041810
0.078178 -0.132130 0.851364 0 0 234 0.030776
0.082598 -0.137493 0.860632 0 7 255 0.040103
0.084069 -0.137563 0.855976 0 141 255 0.080316
0.081167 -0.137691 0.865422 0 0 204 0.021538
0.079709 -0.137850 0.870006 0 0 158 0.009960
0.077594 -0.135971 0.868314 0 0 143 0.005151
0.074382 -0.130356 0.854827 0 0 158 0.011326
0.072844 -0.130272 0.859543 0 0 174 0.012979
0.070536 -0.128809 0.858230 0 0 219 0.023839
0.071222 -0.130676 0.863956 0 0 174 0.012434
0.068935 -0.129214 0.862623 0 0 204 0.021130
0.067320 -0.129946 0.866762 0 0 189 0.016546
0.069573 -0.131392 0.868125 0 0 158 0.008034
0.066671 -0.127844 0.861270 0 7 255 0.039070
0.065096 -0.128676 0.865346 0 0 219 0.024770
0.062954 -0.127441 0.863874 0 0 255 0.037013
0.064605 -0.126564 0.860063 0 47 255 0.052202
0.068350 -0.127356 0.857151 0 20 255 0.044888
0.066215 -0.126012 0.855991 0 60 255 0.057722
0.070022 -0.127226 0.852773 0 0 255 0.037590
0.072230 -0.128813 0.853793 0 0 189 0.018933
0.073854 -0.129020 0.849231 0 0 219 0.023575
0.067907 -0.125709 0.851747 0 60 255 0.058260
0.071679 -0.127414 0.848202 0 0 255 0.035638
0.069584 -0.125799 0.847247 0 20 255 0.045769
0.075980 -0.130569 0.850263 0 0 219 0.024243
0.067766 -0.131463 0.871894 0 0 143 0.006993
0.066011 -0.131778 0.875508 0 0 143 0.005530
0.063885 -0.130404 0.874075 0 0 158 0.011092
0.064211 -0.132182 0.878996 0 0 143 0.005985
0.062167 -0.130755 0.877570 0 0 143 0.007009
0.060139 -0.129256 0.876091 0 0 174 0.013464
0.058173 -0.127862 0.874552 0 0 204 0.022632
0.061856 -0.129047 0.872622 0 0 189 0.016579
0.059821 -0.127695 0.871096 0 0 234 0.027906
0.063503 -0.128809 0.869031 0 0 219 0.024159
0.065603 -0.130131 0.870479 0 0 174 0.013266
0.061419 -0.127559 0.867555 0 0 250 0.034294
0.050108 -0.124330 0.868851 0 141 255 0.078802
0.052085 -0.125103 0.870304 0 87 255 0.063634
0.053812 -0.125172 0.866899 0 87 255 0.064628
0.051902 -0.124579 0.865526 0 167 255 0.086516
0.055720 -0.126101 0.868296 0 47 255 0.051939
0.055490 -0.125361 0.863485 0 101 255 0.069561
0.057400 -0.126054 0.864843 0 74 255 0.061676
0.059004 -0.125940 0.861321 0 101 255 0.066898
0.053625 -0.124647 0.862157 0 181 255 0.090942
0.057148 -0.125259 0.860037 0 127 255 0.074632
0.055323 -0.124672 0.858743 0 181 255 0.091817
0.059309 -0.126847 0.866179 0 7 255 0.041418
0.060980 -0.126668 0.862633 0 47 255 0.053385
0.057755 -0.126985 0.869697 0 7 255 0.039353
0.056176 -0.126885 0.873159 0 0 250 0.032820
0.054158 -0.125881 0.871747 0 34 255 0.049904
0.056938 -0.123789 0.855306 0 208 255 0.101173
0.058678 -0.124222 0.856440 0 208 255 0.100540
0.060371 -0.123367 0.852810 15 248 233 0.110284
0.058578 -0.122679 0.851761 36 255 211 0.118599
0.062141 -0.124125 0.853826 0 154 255 0.083961
0.062010 -0.122606 0.849065 58 255 190 0.125088
0.063809 -0.123535 0.849937 0 194 255 0.095135
0.065642 -0.123345 0.845792 0 154 255 0.084706
0.060285 -0.121651 0.848169 90 255 157 0.138029
0.063822 -0.122106 0.845122 15 248 233 0.110434
0.062036 -0.120956 0.844337 101 255 147 0.140973
0.065774 -0.124534 0.850786 0 141 255 0.081925
0.067606 -0.124534 0.846509 0 87 255 0.065582
0.064127 -0.125030 0.854907 0 127 255 0.077077
0.062528 -0.125736 0.858859 0 87 255 0.064124
0.060565 -0.124948 0.857667 0 114 255 0.074067
0.102614 -0.013901 0.825540 188 255 60 0.277359
0.106387 -0.013279 0.826484 201 255 47 0.307036
0.105155 -0.018125 0.825855 140 255 108 0.182465
0.111191 -0.012624 0.828237 213 255 35 0.328477
0.109481 -0.017462 0.827065 148 255 100 0.197956
0.115503 -0.016685 0.829253 167 255 81 0.236435
0.117642 -0.012229 0.831524 211 255 37 0.325973
0.107726 -0.022583 0.826756 0 181 255 0.090292
0.113058 -0.021849 0.828174 47 255 201 0.122261
0.110678 -0.027127 0.827885 0 0 255 0.037908
0.106358 -0.027744 0.827011 0 0 219 0.026575
0.104087 -0.023048 0.825961 0 127 255 0.075539
0.102903 -0.028281 0.826167 0 0 234 0.028945
0.100831 -0.023436 0.825210 0 114 255 0.073713
0.101803 -0.018620 0.825215 129 255 119 0.160134
0.098729 -0.018841 0.824329 112 255 136 0.146156
0.099768 -0.028615 0.825182 0 0 250 0.032878
0.097792 -0.023633 0.824115 0 101 255 0.066729
0.096765 -0.028754 0.823825 0 0 234 0.031003
0.099509 -0.014214 0.824781 171 255 77 0.243873
0.122309 -0.012184 0.834151 201 255 47 0.305903
0.126450 -0.012075 0.836642 199 255 48 0.301077
0.125046 -0.016194 0.834028 171 255 77 0.242781
0.130281 -0.012160 0.838854 194 255 54 0.292418
0.129030 -0.016061 0.836194 171 255 77 0.242740
0.132791 -0.016087 0.838229 176 255 71 0.256516
0.134073 -0.012395 0.840990 196 255 52 0.293623
0.127380 -0.020348 0.833996 142 255 106 0.186314
0.131325 -0.020166 0.835918 154 255 94 0.209881
0.129476 -0.024594 0.834104 80 255 168 0.133896
0.125700 -0.025041 0.832555 26 255 222 0.115863
0.123581 -0.020659 0.832243 136 255 111 0.171899
0.121421 -0.025537 0.830988 0 181 255 0.093022
0.118492 -0.021172 0.830007 129 255 119 0.157354
0.120858 -0.016426 0.831835 169 255 79 0.238411
0.115853 -0.026457 0.829194 0 34 255 0.049489
0.117122 -0.046761 0.829799 0 0 250 0.033715
0.113299 -0.047571 0.828233 0 0 250 0.034644
0.115356 -0.042691 0.830075 0 7 255 0.041394
0.111392 -0.043361 0.828784 0 34 255 0.050268
0.110058 -0.048028 0.826547 0 0 234 0.027503
0.113656 -0.037957 0.829896 0 0 250 0.034151
0.108085 -0.043734 0.827405 0 47 255 0.052001
0.109705 -0.038473 0.828766 0 34 255 0.047332
0.106307 -0.038791 0.827752 0 74 255 0.060312
0.107265 -0.048170 0.825147 0 0 204 0.022077
0.105278 -0.043781 0.826049 0 20 255 0.045567
0.104830 -0.048117 0.823651 0 0 174 0.015026
0.112191 -0.032702 0.829189 0 0 189 0.016216
0.108105 -0.033187 0.828325 0 0 234 0.029105
0.117581 -0.031702 0.830486 0 0 174 0.013693
0.122829 -0.030755 0.832003 0 0 234 0.028480
0.119072 -0.036784 0.831394 0 0 189 0.017034
0.123940 -0.035709 0.832713 0 0 174 0.011719
0.126894 -0.030225 0.833404 0 34 255 0.048548
0.120444 -0.041364 0.831720 0 0 219 0.026681
0.102410 -0.048063 0.822089 0 0 158 0.009433
0.102506 -0.043933 0.824379 0 0 250 0.032946
0.100045 -0.043846 0.822784 0 0 204 0.022316
0.099991 -0.048025 0.820458 0 0 143 0.006633
0.100315 -0.039322 0.824766 0 34 255 0.047692
0.097616 -0.043774 0.821275 0 0 174 0.014801
0.097816 -0.039220 0.823253 0 0 255 0.035432
0.095295 -0.039144 0.821704 0 0 219 0.026902
0.097528 -0.047874 0.818916 0 0 143 0.005968
0.095196 -0.043559 0.819479 0 0 158 0.008352
0.095097 -0.047756 0.817199 0 0 158 0.008547
0.098361 -0.034325 0.824652 0 7 255 0.042131
0.095791 -0.034189 0.823258 0 0 250 0.032447
0.101287 -0.034150 0.826144 0 34 255 0.047572
0.104408 -0.033723 0.827289 0 7 255 0.041863
0.103168 -0.039152 0.826328 0 60 255 0.056979
0.097027 -0.052479 0.816932 0 0 174 0.012812
0.099503 -0.052508 0.818536 0 0 158 0.008236
0.098874 -0.056991 0.816784 0 0 189 0.018389
0.101932 -0.052597 0.820171 0 0 143 0.006093
0.101374 -0.057031 0.818263 0 0 174 0.013550
0.103800 -0.057023 0.819755 0 0 158 0.009534
0.104346 -0.052706 0.821666 0 0 143 0.006786
0.100693 -0.061299 0.816525 0 0 219 0.027237
0.103253 -0.061252 0.817791 0 0 219 0.024150
0.102477 -0.065454 0.816117 0 7 255 0.041092
0.100126 -0.065377 0.814955 0 20 255 0.045538
0.098352 -0.061117 0.815256 0 0 250 0.033174
0.097637 -0.065212 0.814124 0 20 255 0.045264
0.095863 -0.061002 0.814182 0 0 255 0.035205
0.096502 -0.056789 0.815546 0 0 204 0.022875
0.094071 -0.056589 0.814292 0 0 219 0.026808
0.095087 -0.065153 0.813062 0 20 255 0.045887
0.093300 -0.060852 0.813136 0 0 250 0.034584
0.092433 -0.065138 0.812245 0 7 255 0.040369
0.094667 -0.052264 0.815559 0 0 189 0.018252
0.106522 -0.052890 0.823029 0 0 158 0.009305
0.108926 -0.052866 0.824655 0 0 174 0.015151
0.108165 -0.057429 0.822402 0 0 143 0.006572
0.111621 -0.052623 0.826297 0 0 219 0.023490
0.110549 -0.057339 0.823992 0 0 158 0.008783
0.113211 -0.056985 0.825792 0 0 174 0.015090
0.114784 -0.052143 0.827935 0 0 234 0.029561
0.109756 -0.061770 0.821588 0 0 158 0.009560
0.112190 -0.061517 0.823244 0 0 143 0.007282
0.111335 -0.065906 0.820629 0 0 204 0.020782
0.109167 -0.065856 0.819367 0 0 234 0.027570
0.107607 -0.061591 0.820276 0 0 174 0.013081
0.106972 -0.065723 0.818246 0 0 250 0.032419
0.105419 -0.061477 0.819034 0 0 189 0.017562
0.105996 -0.057282 0.821014 0 0 143 0.006909
0.104792 -0.065582 0.817055 0 0 255 0.038218
0.106415 -0.083318 0.815892 0 154 255 0.084075
0.105552 -0.079057 0.816167 0 60 255 0.057851
0.102173 -0.083056 0.814899 0 101 255 0.066538
0.104581 -0.074695 0.816290 0 20 255 0.044125
0.101210 -0.078772 0.814935 0 20 255 0.046843
0.100179 -0.074286 0.814819 0 7 255 0.041799
0.097724 -0.082818 0.813959 0 47 255 0.050961
0.103636 -0.070184 0.816174 0 7 255 0.042333
0.105875 -0.070258 0.817163 0 7 255 0.039811
0.108108 -0.070321 0.818102 0 0 255 0.035575
0.106817 -0.074674 0.817168 0 20 255 0.043760
0.109094 -0.074660 0.818009 0 20 255 0.046732
0.110268 -0.070310 0.819317 0 0 234 0.030477
0.107781 -0.079029 0.816910 0 74 255 0.059945
0.096447 -0.078649 0.813748 0 7 255 0.039739
0.093033 -0.082696 0.813027 0 0 255 0.036052
0.095026 -0.074354 0.813568 0 0 250 0.031530
0.091617 -0.078533 0.812651 0 0 234 0.029351
0.090143 -0.074151 0.812118 0 0 219 0.025977
0.088242 -0.082546 0.812001 0 0 234 0.028128
0.093762 -0.069782 0.812905 0 0 250 0.033020
0.096384 -0.069768 0.813726 0 0 255 0.038114
0.098958 -0.069820 0.814475 0 7 255 0.040061
0.097657 -0.074258 0.814214 0 0 255 0.036486
0.107046 -0.120376 0.830211 69 255 179 0.131908
0.105227 -0.124104 0.833766 15 248 233 0.110974
0.103536 -0.123990 0.832020 123 255 125 0.148583
0.101673 -0.127727 0.835766 101 255 147 0.143647
0.103369 -0.127928 0.837517 15 248 233 0.109495
0.099974 -0.127326 0.834000 136 255 111 0.172298
0.099881 -0.131397 0.839610 123 255 125 0.150147
0.098158 -0.131002 0.837868 140 255 108 0.179737
0.096482 -0.134531 0.841734 150 255 98 0.200547
0.101684 -0.131680 0.841362 36 255 211 0.121036
0.098292 -0.134945 0.843506 135 255 113 0.170064
0.100148 -0.135106 0.845244 90 255 157 0.139096
0.096360 -0.130590 0.836179 156 255 92 0.212084
0.094573 -0.133953 0.840193 161 255 87 0.225947
0.092721 -0.133371 0.838527 175 255 73 0.250457
0.094651 -0.130048 0.834895 167 255 81 0.234520
0.096462 -0.126520 0.831405 157 255 90 0.218234
0.100079 -0.123444 0.829348 150 255 98 0.199913
0.103690 -0.120129 0.827515 146 255 102 0.192272
0.098452 -0.122960 0.828157 157 255 90 0.217323
0.100207 -0.119322 0.825050 165 255 83 0.232397
0.098796 -0.137139 0.850102 0 208 255 0.100066
0.096809 -0.136828 0.847905 80 255 168 0.135331
0.095471 -0.138901 0.852825 26 255 222 0.116289
0.097522 -0.139396 0.854851 0 181 255 0.092217
0.093355 -0.138091 0.850871 47 255 201 0.124475
0.094043 -0.140790 0.857926 0 221 255 0.105127
0.091948 -0.139970 0.856045 4 234 244 0.107022
0.096018 -0.141339 0.859732 0 154 255 0.085093
0.089787 -0.138947 0.854130 26 255 222 0.116348
0.087648 -0.137830 0.852755 15 248 233 0.113084
0.091294 -0.137383 0.849269 90 255 157 0.139276
0.089300 -0.136559 0.847804 127 255 121 0.152366
0.092954 -0.135825 0.844609 140 255 108 0.181659
0.094845 -0.136367 0.846205 131 255 117 0.162554
0.090971 -0.135028 0.843122 146 255 102 0.193485
0.079910 -0.131508 0.846520 0 74 255 0.060401
0.081835 -0.133113 0.847735 0 141 255 0.079291
0.083643 -0.132103 0.843193 26 255 222 0.113510
0.081766 -0.130418 0.842008 0 167 255 0.088258
0.085482 -0.133626 0.844398 80 255 168 0.134494
0.085568 -0.130869 0.838729 129 255 119 0.157805
0.087312 -0.132563 0.839875 146 255 102 0.195251
0.089242 -0.130869 0.835688 169 255 79 0.240209
0.083732 -0.128922 0.837774 15 248 233 0.112723
0.087528 -0.129226 0.834540 154 255 94 0.210441
0.085694 -0.127364 0.833584 129 255 119 0.160024
0.089104 -0.133736 0.841299 148 255 100 0.195856
0.091000 -0.132220 0.837019 176 255 71 0.255794
0.087358 -0.135220 0.846011 112 255 136 0.146201
0.085750 -0.136195 0.851061 0 194 255 0.096518
0.083744 -0.134812 0.849331 0 194 255 0.094060
0.087765 -0.124413 0.830404 123 255 125 0.151834
0.089585 -0.126017 0.830997 146 255 102 0.194329
0.091473 -0.122957 0.827970 144 255 104 0.188029
0.089735 -0.121686 0.827208 133 255 115 0.165704
0.093211 -0.124145 0.828787 154 255 94 0.207689
0.093411 -0.119916 0.825053 150 255 98 0.199504
0.095111 -0.120990 0.825862 157 255 90 0.217387
0.096945 -0.117845 0.823013 169 255 79 0.241662
0.091635 -0.118645 0.824325 136 255 111 0.172738
0.095254 -0.116806 0.822250 163 255 85 0.228238
0.093503 -0.115776 0.821484 154 255 94 0.209105
0.096712 -0.121929 0.826788 161 255 87 0.223280
0.098598 -0.118571 0.824003 167 255 81 0.236635
0.094861 -0.125530 0.829909 163 255 85 0.228907
0.092906 -0.128939 0.833361 167 255 81 0.235506
0.091254 -0.127627 0.832093 163 255 85 0.229688
0.141168 -0.045681 0.836678 0 0 158 0.010765
0.141446 -0.041021 0.837395 0 0 204 0.021171
0.135991 -0.045309 0.835440 0 0 143 0.007671
0.141813 -0.036021 0.838022 0 34 255 0.048091
0.136456 -0.040511 0.836103 0 0 174 0.012104
0.136723 -0.035369 0.836474 0 0 250 0.034526
0.130645 -0.045179 0.834092 0 0 158 0.011686
0.141951 -0.030872 0.838516 0 221 255 0.105219
0.141956 -0.025638 0.839370 135 255 113 0.170956
0.144666 -0.026160 0.840383 142 255 106 0.187271
0.144733 -0.031366 0.839628 4 234 244 0.108762
0.147530 -0.026885 0.841559 146 255 102 0.194554
0.147479 -0.031958 0.840556 26 255 222 0.113729
0.144471 -0.036470 0.838922 0 47 255 0.054403
0.147235 -0.036929 0.839783 0 101 255 0.068848
0.150109 -0.027603 0.842789 144 255 104 0.187932
0.150159 -0.032570 0.841673 47 255 201 0.121604
0.152888 -0.028314 0.844112 142 255 106 0.184217
0.144125 -0.041330 0.838215 0 0 234 0.029737
0.127728 -0.045208 0.833148 0 0 174 0.014474
0.130529 -0.040506 0.834605 0 0 158 0.010304
0.127481 -0.040560 0.833681 0 0 158 0.011649
0.124618 -0.045371 0.832182 0 0 189 0.018411
0.130553 -0.035296 0.834573 0 0 204 0.021474
0.124139 -0.040730 0.832669 0 0 189 0.015866
0.127298 -0.035500 0.833702 0 0 174 0.014744
0.121214 -0.045826 0.831182 0 0 219 0.026638
0.130147 -0.030004 0.834426 0 87 255 0.064388
0.132667 -0.024729 0.835366 112 255 136 0.146554
0.133212 -0.030084 0.835484 0 114 255 0.073161
0.135843 -0.024956 0.836763 123 255 125 0.150110
0.136433 -0.030219 0.836677 0 154 255 0.082338
0.133577 -0.035341 0.835530 0 0 219 0.025987
0.138929 -0.025279 0.838069 131 255 117 0.162004
0.137276 -0.012818 0.842573 211 255 37 0.327675
0.140754 -0.013474 0.844553 207 255 41 0.318289
0.139152 -0.016914 0.841331 182 255 66 0.266289
0.144077 -0.013992 0.846319 218 255 29 0.343614
0.142539 -0.017415 0.843029 192 255 56 0.286838
0.145976 -0.018138 0.844919 190 255 58 0.283864
0.147540 -0.015052 0.848509 205 255 43 0.313589
0.140682 -0.021191 0.840225 163 255 85 0.229055
0.144109 -0.021721 0.841961 163 255 85 0.228630
0.137553 -0.020785 0.838832 154 255 94 0.209379
0.134466 -0.020401 0.837379 152 255 96 0.206278
0.135978 -0.016502 0.839851 182 255 66 0.265770
0.150741 -0.016097 0.850348 196 255 52 0.294995
0.153945 -0.017097 0.852324 199 255 48 0.302241
0.151697 -0.019815 0.847878 190 255 58 0.281660
0.157061 -0.018406 0.854588 184 255 64 0.270346
0.154877 -0.020995 0.849843 175 255 73 0.250080
0.158157 -0.022404 0.852384 169 255 79 0.239388
0.160426 -0.020101 0.857273 184 255 64 0.270634
0.152457 -0.024129 0.846097 156 255 92 0.213672
0.155640 -0.025164 0.847957 159 255 88 0.220136
0.149573 -0.023228 0.844571 165 255 83 0.230927
0.146858 -0.022358 0.843047 175 255 73 0.250511
0.148704 -0.018934 0.846394 184 255 64 0.272972
0.118023 -0.051532 0.829486 0 0 250 0.034274
0.121661 -0.050618 0.831010 0 0 250 0.034173
0.118960 -0.056013 0.828845 0 0 219 0.026039
0.124820 -0.050276 0.832085 0 0 234 0.030294
0.122219 -0.055223 0.830333 0 0 234 0.029199
0.125174 -0.054895 0.831476 0 0 234 0.029599
0.127704 -0.050192 0.833075 0 0 219 0.026739
0.119968 -0.060266 0.827763 0 0 174 0.015132
0.122861 -0.059620 0.829205 0 0 189 0.017933
0.120871 -0.064426 0.826402 0 0 158 0.009778
0.118196 -0.065145 0.824907 0 0 158 0.010036
0.117079 -0.060979 0.826239 0 0 174 0.011900
0.115775 -0.065627 0.823391 0 0 174 0.012001
0.114516 -0.061469 0.824597 0 0 158 0.008349
0.115937 -0.056694 0.827201 0 0 204 0.019932
0.113508 -0.065800 0.822053 0 0 174 0.015121
0.132869 -0.050370 0.834695 0 0 204 0.020097
0.130018 -0.055127 0.833157 0 0 219 0.026629
0.134980 -0.055214 0.834731 0 0 204 0.021179
0.137940 -0.050578 0.836035 0 0 174 0.013010
0.129983 -0.059715 0.831890 0 0 189 0.018908
0.130069 -0.064142 0.830233 0 0 158 0.011509
0.125617 -0.064019 0.828537 0 0 158 0.011180
0.121883 -0.083062 0.823095 0 74 255 0.060391
0.121688 -0.078647 0.823899 0 0 255 0.035420
0.118209 -0.083580 0.821021 0 114 255 0.072422
0.121458 -0.074003 0.824827 0 0 204 0.020869
0.117824 -0.079153 0.821716 0 20 255 0.044733
0.117355 -0.074613 0.822468 0 0 219 0.026123
0.114453 -0.083805 0.818971 0 154 255 0.083731
0.121177 -0.069263 0.825710 0 0 174 0.014203
0.125676 -0.068842 0.827764 0 0 174 0.014872
0.125684 -0.073634 0.826749 0 0 204 0.022562
0.113764 -0.079412 0.819616 0 47 255 0.052709
0.110485 -0.083690 0.817240 0 181 255 0.093252
0.113080 -0.075006 0.820093 0 0 250 0.034518
0.114415 -0.070494 0.821656 0 0 204 0.020509
0.116623 -0.070124 0.823053 0 0 189 0.016901
0.115183 -0.074869 0.821304 0 0 234 0.028469
0.095237 -0.111888 0.819988 136 255 111 0.174414
0.098738 -0.108579 0.819227 131 255 117 0.160780
0.100367 -0.104508 0.818221 90 255 157 0.137216
0.103778 -0.101052 0.817895 80 255 168 0.134854
0.100017 -0.100302 0.816501 69 255 179 0.128966
0.104004 -0.105322 0.819552 112 255 136 0.145525
0.107368 -0.101646 0.819265 90 255 157 0.138301
0.105653 -0.105875 0.820550 69 255 179 0.132788
0.102255 -0.109728 0.820871 129 255 119 0.158735
0.103923 -0.110265 0.821831 123 255 125 0.151651
0.100421 -0.114198 0.822267 146 255 102 0.194333
0.098761 -0.113400 0.821422 144 255 104 0.189874
0.102142 -0.114774 0.823371 138 255 109 0.179052
0.101481 -0.096230 0.816475 0 194 255 0.093877
0.105122 -0.092192 0.816745 0 167 255 0.088477
0.106826 -0.087881 0.816631 0 154 255 0.085479
0.110834 -0.088119 0.818056 0 167 255 0.088623
0.108975 -0.092641 0.818118 0 194 255 0.096031
0.107176 -0.096998 0.818314 4 234 244 0.109159
0.119954 -0.088025 0.822591 0 114 255 0.072434
0.116273 -0.092794 0.821523 0 154 255 0.084531
0.114343 -0.097474 0.821577 0 194 255 0.097300
0.110898 -0.102021 0.820828 69 255 179 0.131842
0.114258 -0.102160 0.822753 4 234 244 0.105749
0.110895 -0.097235 0.819763 4 234 244 0.106918
0.112724 -0.092786 0.819752 0 181 255 0.090315
0.114566 -0.088336 0.819708 0 167 255 0.088649
0.112420 -0.106553 0.824459 0 167 255 0.087484
0.108963 -0.110916 0.824884 4 234 244 0.107452
0.107178 -0.115674 0.826748 58 255 190 0.128166
0.109064 -0.106214 0.822239 36 255 211 0.119201
0.151447 -0.115277 0.849567 0 7 255 0.042188
0.152171 -0.112012 0.847629 0 141 255 0.080764
0.148497 -0.115501 0.848932 0 0 250 0.034754
0.153114 -0.108783 0.845670 0 181 255 0.090992
0.149157 -0.112295 0.846903 0 7 255 0.039912
0.150020 -0.109107 0.844855 0 154 255 0.083760
0.145504 -0.115649 0.848301 0 0 234 0.030879
0.153920 -0.105585 0.843618 4 234 244 0.108467
0.154719 -0.102421 0.841575 58 255 190 0.127144
0.157699 -0.102389 0.842457 69 255 179 0.132117
0.156881 -0.105580 0.844495 15 248 233 0.111470
0.155988 -0.108803 0.846495 0 194 255 0.093918
0.146264 -0.112337 0.846107 0 0 255 0.036892
0.142499 -0.115789 0.847588 0 0 219 0.024026
0.147152 -0.109029 0.843896 0 34 255 0.049068
0.143228 -0.112560 0.845305 0 0 234 0.028846
0.144095 -0.109330 0.843021 0 7 255 0.040701
0.139579 -0.115949 0.846837 0 0 204 0.021272
0.148000 -0.105712 0.841700 0 101 255 0.068075
0.148812 -0.102425 0.839510 0 167 255 0.087863
0.151749 -0.102409 0.840542 47 255 201 0.124038
0.150877 -0.105750 0.842695 0 221 255 0.101961
0.159138 -0.086856 0.837104 133 255 115 0.165999
0.158061 -0.090794 0.838172 127 255 121 0.156017
0.162056 -0.087194 0.838089 133 255 115 0.165801
0.156950 -0.094694 0.839269 112 255 136 0.144930
0.160939 -0.091124 0.839158 129 255 119 0.157209
0.159752 -0.095018 0.840252 123 255 125 0.150870
0.155862 -0.098564 0.840408 90 255 157 0.137858
0.152823 -0.098572 0.839387 69 255 179 0.130652
0.153873 -0.094709 0.838266 101 255 147 0.141135
0.160286 -0.098712 0.841811 101 255 147 0.140736
0.156622 -0.048645 0.840528 0 0 255 0.037790
0.158258 -0.044588 0.842420 0 34 255 0.048195
0.153064 -0.047811 0.839578 0 0 234 0.027569
0.159724 -0.040418 0.844334 0 141 255 0.080342
0.154305 -0.043640 0.841043 0 34 255 0.049098
0.155698 -0.039242 0.842728 0 114 255 0.072068
0.149412 -0.046964 0.838623 0 0 219 0.026047
0.161122 -0.036082 0.846430 36 255 211 0.120718
0.162172 -0.031833 0.848857 135 255 113 0.168902
0.166114 -0.033683 0.851299 131 255 117 0.160718
0.164854 -0.037747 0.848470 26 255 222 0.116613
0.163219 -0.041813 0.845885 0 114 255 0.072303
0.150582 -0.042585 0.839869 0 7 255 0.042398
0.145240 -0.046259 0.837603 0 0 189 0.015855
0.151552 -0.037936 0.841154 0 114 255 0.073689
0.154426 -0.033919 0.843408 47 255 201 0.123521
0.157595 -0.030014 0.846299 136 255 111 0.175389
0.162936 -0.024654 0.855493 171 255 77 0.243735
0.162683 -0.027900 0.851776 150 255 98 0.200802
0.166736 -0.051629 0.843930 0 20 255 0.045385
0.166875 -0.047443 0.845832 0 47 255 0.052005
0.163627 -0.050553 0.842799 0 20 255 0.046536
0.163615 -0.046258 0.844498 0 34 255 0.049997
0.160307 -0.049549 0.841702 0 0 255 0.038053
0.166951 -0.043081 0.847722 0 127 255 0.076113
0.163125 -0.083030 0.838223 129 255 119 0.156552
0.091356 -0.148528 0.905073 0 114 255 0.070993
0.089655 -0.147512 0.908276 0 87 255 0.063687
0.088251 -0.147091 0.907056 0 60 255 0.054831
0.086583 -0.145976 0.910237 0 20 255 0.045500
0.087989 -0.146433 0.911479 0 60 255 0.056330
0.085338 -0.145902 0.909176 0 34 255 0.047399
0.084910 -0.144837 0.913407 0 7 255 0.040722
