ply
format ascii 1.0
comment VCGLIB generated
element vertex 1025
property float x
property float y
property float z
property uchar red
property uchar green
property uchar blue
property float quality
end_header
-0.051395 -0.063859 0.727975 0 0 158 0.010948
-0.048500 -0.062374 0.729235 0 0 174 0.015274
-0.059537 -0.067928 0.724361 0 0 158 0.008094
-0.061947 -0.068834 0.723607 0 0 143 0.007620
-0.064616 -0.068303 0.723849 0 0 158 0.008176
-0.067050 -0.069077 0.722972 0 0 158 0.009715
-0.067368 -0.066401 0.724854 0 0 174 0.013335
-0.064634 -0.065729 0.725547 0 0 158 0.010260
-0.062006 -0.066160 0.725314 0 0 158 0.008875
-0.059258 -0.065435 0.725875 0 0 158 0.009141
-0.067122 -0.060792 0.728683 0 0 189 0.018732
-0.064162 -0.060237 0.729142 0 0 174 0.015478
-0.061469 -0.060843 0.728762 0 0 174 0.013261
-0.058514 -0.060240 0.729149 0 0 174 0.012901
-0.055816 -0.060863 0.728664 0 0 174 0.014786
-0.055243 -0.058336 0.730184 0 0 189 0.018865
-0.059038 -0.062722 0.727538 0 0 158 0.010399
-0.061802 -0.063515 0.727012 0 0 158 0.011384
-0.064509 -0.062886 0.727449 0 0 174 0.012652
-0.067278 -0.063651 0.726859 0 0 174 0.015411
-0.052475 -0.058199 0.730833 0 0 189 0.015695
-0.050113 -0.059097 0.730772 0 0 174 0.015493
-0.047360 -0.058940 0.731315 0 0 189 0.017619
-0.050821 -0.061434 0.729342 0 0 174 0.013893
-0.053174 -0.060515 0.729408 0 0 174 0.014069
-0.047312 -0.036352 0.743914 0 20 255 0.044351
-0.044321 -0.036446 0.744273 0 7 255 0.042184
-0.045859 -0.038118 0.743276 0 0 250 0.035145
-0.041387 -0.036637 0.744814 0 7 255 0.039121
-0.042922 -0.038292 0.743778 0 0 250 0.031633
-0.039999 -0.038492 0.744274 0 0 250 0.031835
-0.038463 -0.036839 0.745290 0 7 255 0.041173
-0.044435 -0.039908 0.742702 0 0 234 0.028021
-0.041511 -0.040108 0.743208 0 0 219 0.026437
-0.043014 -0.041701 0.742087 0 0 219 0.024051
-0.045966 -0.041654 0.741646 0 0 219 0.023879
-0.047401 -0.039879 0.742279 0 0 234 0.030316
-0.048918 -0.041637 0.741265 0 0 219 0.025227
-0.050379 -0.039893 0.741903 0 0 250 0.032622
-0.048854 -0.038120 0.742884 0 0 255 0.037254
-0.051869 -0.038152 0.742557 0 20 255 0.043101
-0.051877 -0.041663 0.740888 0 0 234 0.027379
-0.053362 -0.039928 0.741573 0 0 255 0.036701
-0.054831 -0.041711 0.740504 0 0 250 0.034476
-0.050347 -0.036381 0.743560 0 34 255 0.048811
-0.035761 -0.037554 0.746075 0 0 250 0.033321
-0.033100 -0.038446 0.746807 0 0 219 0.027014
-0.031954 -0.040703 0.746382 0 0 189 0.018880
-0.034850 -0.043674 0.744139 0 0 174 0.013356
-0.036066 -0.041422 0.744599 0 0 189 0.016903
-0.037546 -0.043034 0.743518 0 0 174 0.013800
-0.038795 -0.040772 0.743960 0 0 204 0.020474
-0.037271 -0.039168 0.745003 0 0 219 0.024215
-0.040267 -0.042366 0.742812 0 0 189 0.018304
-0.040249 -0.049399 0.740184 0 0 158 0.009167
-0.041667 -0.047384 0.740592 0 0 158 0.010773
-0.044475 -0.046977 0.739874 0 0 174 0.011899
-0.045897 -0.044939 0.740164 0 0 189 0.017283
-0.048692 -0.048241 0.738168 0 0 174 0.012860
-0.037499 -0.046384 0.742166 0 0 158 0.010354
-0.051672 -0.048394 0.737817 0 0 174 0.012706
-0.050194 -0.046548 0.738726 0 0 189 0.016542
-0.053176 -0.046700 0.738336 0 0 189 0.017193
-0.054618 -0.048508 0.737328 0 0 174 0.014208
-0.051702 -0.044886 0.739271 0 0 189 0.019289
-0.056165 -0.046872 0.737916 0 0 189 0.018934
-0.054720 -0.045058 0.738885 0 0 219 0.023601
-0.057713 -0.045277 0.738547 0 0 219 0.024905
-0.057596 -0.048687 0.736965 0 0 189 0.016537
-0.059140 -0.047064 0.737551 0 0 219 0.023555
-0.060568 -0.048849 0.736520 0 0 204 0.022560
-0.056301 -0.043510 0.739579 0 0 234 0.030007
-0.087742 -0.026909 0.768982 0 0 143 0.005357
-0.086094 -0.024619 0.770971 0 0 143 0.005519
-0.089123 -0.024903 0.772308 0 0 143 0.006166
-0.084445 -0.022359 0.772964 0 0 143 0.005685
-0.087467 -0.022648 0.774346 0 0 143 0.006284
-0.085793 -0.020447 0.776392 0 0 143 0.006428
-0.090469 -0.022911 0.775677 0 0 143 0.007293
-0.082766 -0.020132 0.775001 0 0 143 0.006938
-0.081049 -0.017944 0.777061 0 0 158 0.008137
-0.079443 -0.019984 0.773113 0 0 158 0.008256
-0.081112 -0.022235 0.771126 0 0 143 0.006845
-0.082786 -0.024535 0.769144 0 0 143 0.005401
-0.077796 -0.022060 0.769216 0 0 158 0.008336
-0.089168 -0.020755 0.778028 0 0 143 0.006548
-0.092244 -0.021231 0.779170 0 0 143 0.007403
-0.087859 -0.018645 0.780389 0 0 143 0.006210
-0.090917 -0.019142 0.781560 0 0 143 0.006245
-0.085497 -0.017429 0.780754 0 0 143 0.006149
-0.083116 -0.016196 0.781123 0 0 143 0.006732
-0.075614 -0.012633 0.783212 0 0 143 0.007011
-0.078223 -0.013764 0.782609 0 0 143 0.006704
-0.074471 -0.013530 0.780952 0 0 143 0.007221
-0.077113 -0.014690 0.780378 0 0 143 0.007080
-0.075957 -0.015597 0.778138 0 0 158 0.008081
-0.073339 -0.014435 0.778703 0 0 158 0.008189
-0.079673 -0.015836 0.779821 0 0 143 0.007020
-0.078532 -0.016784 0.777594 0 0 143 0.007023
-0.081700 -0.014130 0.783911 0 0 143 0.005996
-0.071655 -0.016404 0.774421 0 0 158 0.009470
-0.074374 -0.017535 0.774102 0 0 158 0.009105
-0.070741 -0.017432 0.772198 0 0 158 0.010251
-0.073460 -0.018605 0.771903 0 0 158 0.009484
-0.072540 -0.019675 0.769727 0 0 158 0.010186
-0.069818 -0.018479 0.769994 0 0 158 0.011286
-0.076112 -0.019761 0.771625 0 0 158 0.008432
-0.075191 -0.020868 0.769467 0 0 158 0.008903
-0.063831 -0.017600 0.768400 0 0 174 0.013176
-0.061158 -0.016674 0.768955 0 0 174 0.013477
-0.060570 -0.017918 0.766526 0 0 174 0.014799
-0.058497 -0.015799 0.769571 0 0 174 0.012914
-0.057913 -0.017015 0.767108 0 0 174 0.015530
-0.055196 -0.016141 0.767724 0 0 189 0.017008
-0.055773 -0.014957 0.770200 0 0 174 0.014042
-0.057306 -0.018259 0.764684 0 0 204 0.019557
-0.054584 -0.017368 0.765279 0 0 204 0.020630
-0.053993 -0.018622 0.762873 0 0 219 0.025611
-0.056769 -0.019414 0.762548 0 0 204 0.022707
-0.060059 -0.019079 0.764390 0 0 189 0.017497
-0.059512 -0.020244 0.762276 0 0 204 0.020541
-0.062811 -0.019927 0.764131 0 0 189 0.016725
-0.063324 -0.018751 0.766267 0 0 174 0.015308
-0.066012 -0.019614 0.766045 0 0 174 0.014784
-0.062243 -0.021119 0.762072 0 0 189 0.018587
-0.065470 -0.020806 0.763948 0 0 189 0.016603
-0.064907 -0.022026 0.761888 0 0 189 0.018420
-0.066542 -0.018442 0.768152 0 0 174 0.013994
-0.052876 -0.014567 0.770761 0 0 158 0.011668
-0.050101 -0.014021 0.771597 0 0 158 0.011313
-0.049359 -0.015336 0.768823 0 0 174 0.013644
-0.047326 -0.013508 0.772446 0 0 158 0.011456
-0.046623 -0.014812 0.769665 0 0 174 0.014083
-0.045883 -0.016160 0.766924 0 0 189 0.017758
-0.045285 -0.017384 0.764531 0 0 204 0.022621
-0.048766 -0.016529 0.766363 0 0 189 0.017310
-0.048170 -0.017760 0.763942 0 0 204 0.022128
-0.051671 -0.016926 0.765815 0 0 189 0.018285
-0.052273 -0.015726 0.768264 0 0 174 0.014485
-0.051105 -0.018170 0.763402 0 0 204 0.022952
-0.044829 -0.023328 0.755601 0 20 255 0.043074
-0.044843 -0.021891 0.757511 0 7 255 0.039157
-0.047809 -0.022132 0.757183 0 0 255 0.037869
-0.047787 -0.023573 0.755254 0 7 255 0.042169
-0.047851 -0.020736 0.759184 0 0 250 0.032088
-0.050789 -0.022418 0.756875 0 0 255 0.037413
-0.050849 -0.021016 0.758893 0 0 250 0.032500
-0.053828 -0.021354 0.758645 0 0 250 0.033572
-0.050725 -0.023867 0.754959 0 7 255 0.042362
-0.053785 -0.022760 0.756642 0 0 255 0.038928
-0.053689 -0.024196 0.754699 0 20 255 0.044468
-0.050928 -0.019658 0.760967 0 0 234 0.027855
-0.053919 -0.019977 0.760734 0 0 234 0.028659
-0.047998 -0.019236 0.761505 0 0 219 0.026927
-0.045128 -0.018841 0.762075 0 0 234 0.027469
-0.044963 -0.020352 0.759737 0 0 250 0.032901
-0.056501 -0.024933 0.754690 0 0 255 0.038173
-0.059297 -0.024380 0.756402 0 0 234 0.030062
-0.062030 -0.025213 0.756497 0 0 219 0.025137
-0.064799 -0.024720 0.758331 0 0 204 0.019817
-0.064697 -0.027425 0.754908 0 0 219 0.024429
-0.062119 -0.022530 0.759969 0 0 204 0.021873
-0.059422 -0.021639 0.760178 0 0 219 0.023438
-0.056656 -0.020785 0.760427 0 0 219 0.025671
-0.056627 -0.022184 0.758346 0 0 234 0.030195
-0.062525 -0.028000 0.753365 0 0 234 0.029225
-0.059827 -0.027169 0.753257 0 0 250 0.034167
-0.057626 -0.027805 0.751780 0 7 255 0.041427
-0.054836 -0.027058 0.751733 0 34 255 0.046898
-0.055973 -0.029963 0.748914 0 47 255 0.051670
-0.058793 -0.030751 0.749098 0 7 255 0.042692
-0.060975 -0.030082 0.750585 0 0 250 0.034889
-0.063720 -0.030952 0.750814 0 0 234 0.028792
-0.065843 -0.030361 0.752368 0 0 204 0.023188
-0.066970 -0.033290 0.749843 0 0 219 0.024438
-0.048922 -0.026368 0.751867 0 34 255 0.050614
-0.045971 -0.026122 0.752215 0 47 255 0.051430
-0.047196 -0.029000 0.749278 0 60 255 0.056510
-0.050121 -0.029271 0.749085 0 47 255 0.054014
-0.052468 -0.028128 0.750363 0 34 255 0.050309
-0.050557 -0.033371 0.745517 0 60 255 0.056290
-0.053498 -0.033799 0.745563 0 34 255 0.049824
-0.056418 -0.034298 0.745616 0 20 255 0.046766
-0.058187 -0.033189 0.746737 0 20 255 0.046046
-0.060349 -0.036404 0.744620 0 20 255 0.043785
-0.054151 -0.031067 0.747751 0 47 255 0.052554
-0.063098 -0.037260 0.744940 0 0 250 0.032013
-0.065810 -0.038153 0.745279 0 0 219 0.025310
-0.063653 -0.034794 0.747127 0 0 250 0.032231
-0.066356 -0.035728 0.747532 0 0 219 0.024650
-0.069054 -0.036700 0.747968 0 0 189 0.018266
-0.068503 -0.039075 0.745623 0 0 204 0.020973
-0.071149 -0.040021 0.745950 0 0 189 0.017155
-0.060940 -0.033984 0.746932 0 0 255 0.037915
-0.070154 -0.063378 0.727416 0 0 189 0.017218
-0.073154 -0.065796 0.725992 0 0 189 0.017509
-0.070272 -0.066127 0.725500 0 0 174 0.013805
-0.073265 -0.068436 0.723971 0 0 174 0.015143
-0.076197 -0.068195 0.724558 0 0 189 0.019246
-0.079249 -0.070422 0.722885 0 0 219 0.027329
-0.079690 -0.067705 0.725484 0 0 219 0.025991
-0.076638 -0.065360 0.727015 0 0 204 0.019881
-0.073598 -0.062886 0.728400 0 0 204 0.019548
-0.080097 -0.065004 0.728098 0 0 204 0.023090
-0.069710 -0.068874 0.723329 0 0 158 0.011589
-0.071985 -0.071211 0.721573 0 0 174 0.011832
-0.069291 -0.071441 0.721270 0 0 158 0.009230
-0.074966 -0.072123 0.720975 0 0 189 0.015866
-0.077994 -0.073008 0.720338 0 0 204 0.022376
-0.085539 -0.077218 0.718647 0 34 255 0.049188
-0.088397 -0.078706 0.718241 0 60 255 0.057978
-0.082724 -0.075788 0.719108 0 0 234 0.030047
-0.084716 -0.073463 0.722186 0 7 255 0.040884
-0.087469 -0.075012 0.721835 0 20 255 0.043770
-0.090278 -0.076590 0.721519 0 34 255 0.049481
-0.080965 -0.073157 0.721062 0 0 219 0.025240
-0.079659 -0.075649 0.718427 0 0 204 0.023131
-0.091240 -0.075362 0.723515 0 20 255 0.045426
-0.088638 -0.072505 0.725204 0 0 255 0.037759
-0.092236 -0.074168 0.725495 0 7 255 0.039742
-0.085065 -0.070941 0.724999 0 0 255 0.037065
-0.089601 -0.071277 0.727157 0 0 250 0.031998
-0.086096 -0.069618 0.726834 0 0 250 0.032689
-0.087072 -0.068318 0.728696 0 0 234 0.029795
-0.093218 -0.073021 0.727577 0 0 250 0.032458
-0.090589 -0.070080 0.729178 0 0 219 0.027219
-0.094146 -0.071961 0.729762 0 0 219 0.024501
-0.082577 -0.068035 0.726621 0 0 204 0.022239
-0.083580 -0.066639 0.728354 0 0 204 0.019774
-0.082166 -0.070642 0.723921 0 0 219 0.024462
-0.068727 -0.041990 0.743286 0 0 204 0.021512
-0.066049 -0.041101 0.743019 0 0 219 0.026042
-0.063341 -0.040253 0.742793 0 0 234 0.029968
-0.066323 -0.044054 0.740796 0 0 219 0.025198
-0.068993 -0.044983 0.741132 0 0 204 0.020406
-0.071669 -0.045924 0.741484 0 0 174 0.014496
-0.071380 -0.042981 0.743713 0 0 174 0.014762
-0.074027 -0.044010 0.744162 0 0 158 0.011542
-0.074296 -0.046914 0.741861 0 0 158 0.011511
-0.076931 -0.047914 0.742272 0 0 158 0.008980
-0.056111 -0.037188 0.743468 0 7 255 0.041368
-0.057560 -0.038977 0.742468 0 0 255 0.037852
-0.059084 -0.040893 0.741564 0 0 250 0.032353
-0.060606 -0.042805 0.740632 0 0 219 0.026777
-0.063474 -0.043421 0.740712 0 0 219 0.026299
-0.063561 -0.049576 0.736593 0 0 204 0.020190
-0.066531 -0.050294 0.736633 0 0 204 0.020086
-0.063426 -0.046358 0.738522 0 0 219 0.024117
-0.066421 -0.047164 0.738726 0 0 204 0.022043
-0.069360 -0.047973 0.738841 0 0 204 0.021339
-0.069495 -0.051053 0.736734 0 0 189 0.019332
-0.072438 -0.051842 0.736809 0 0 204 0.019646
-0.075122 -0.052819 0.737209 0 0 174 0.014743
-0.077773 -0.053851 0.737624 0 0 158 0.010879
-0.074693 -0.049804 0.739440 0 0 174 0.014143
-0.077345 -0.050878 0.739950 0 0 158 0.009915
-0.080008 -0.051957 0.740487 0 0 143 0.006790
-0.080431 -0.054895 0.738088 0 0 158 0.007856
-0.083089 -0.055949 0.738573 0 0 143 0.005797
-0.072042 -0.048879 0.739142 0 0 189 0.016933
-0.084744 -0.026953 0.767335 0 0 143 0.004415
-0.081764 -0.026974 0.765663 0 0 143 0.004321
-0.079785 -0.024503 0.767430 0 0 143 0.006021
-0.076812 -0.024436 0.765651 0 0 143 0.007447
-0.078792 -0.026908 0.763931 0 0 143 0.005339
-0.075807 -0.026813 0.762156 0 0 143 0.006925
-0.080957 -0.029256 0.762651 0 0 128 0.003513
-0.083926 -0.029280 0.764343 0 0 128 0.003430
-0.086941 -0.029219 0.765940 0 0 143 0.004169
-0.086128 -0.031555 0.762972 0 0 128 0.002873
-0.074626 -0.022135 0.767426 0 0 158 0.008620
-0.071989 -0.020901 0.767633 0 0 158 0.009733
-0.071431 -0.022123 0.765590 0 0 158 0.010362
-0.069289 -0.019663 0.767878 0 0 174 0.012054
-0.068739 -0.020872 0.765814 0 0 174 0.012641
-0.068197 -0.022091 0.763755 0 0 174 0.013536
-0.070482 -0.024439 0.761983 0 0 158 0.010680
-0.073664 -0.024467 0.763858 0 0 158 0.008122
-0.067492 -0.028602 0.755228 0 0 189 0.016860
-0.070266 -0.028523 0.757036 0 0 158 0.010443
-0.072991 -0.029666 0.757364 0 0 143 0.007400
-0.075705 -0.029481 0.759173 0 0 143 0.005235
-0.075650 -0.032135 0.756217 0 0 143 0.005191
-0.073061 -0.027025 0.760343 0 0 158 0.008267
-0.067640 -0.024587 0.760172 0 0 174 0.014087
-0.078272 -0.033364 0.756683 0 0 128 0.002983
-0.080874 -0.033245 0.758390 0 0 128 0.002236
-0.083510 -0.034378 0.758762 0 0 128 0.001650
-0.086117 -0.034212 0.760394 0 0 128 0.001858
-0.086179 -0.036772 0.757762 0 0 128 0.001537
-0.083475 -0.031814 0.761349 0 0 128 0.002436
-0.078357 -0.029367 0.760930 0 0 143 0.004128
-0.084083 -0.037133 0.756287 0 0 128 0.001366
-0.081443 -0.036003 0.755939 0 0 128 0.001613
-0.079382 -0.036287 0.754398 0 0 128 0.002352
-0.076747 -0.035096 0.753966 0 0 128 0.003485
-0.077857 -0.038017 0.751663 0 0 128 0.003783
-0.080482 -0.039160 0.752202 0 0 128 0.001972
-0.082532 -0.038892 0.753724 0 0 128 0.001319
-0.085172 -0.039996 0.754185 0 0 128 0.000966
-0.087263 -0.039631 0.755663 0 0 128 0.001024
-0.088399 -0.042454 0.753483 0 0 128 0.001146
-0.073458 -0.032474 0.754587 0 0 143 0.007326
-0.070778 -0.031289 0.754266 0 0 158 0.010739
-0.068597 -0.031549 0.752666 0 0 189 0.016292
-0.069729 -0.034481 0.750322 0 0 189 0.015741
-0.071879 -0.034207 0.751894 0 0 158 0.010430
-0.074584 -0.035396 0.752367 0 0 143 0.006262
-0.073814 -0.041176 0.746420 0 0 158 0.011322
-0.076483 -0.042314 0.746880 0 0 143 0.006898
-0.074492 -0.039020 0.748780 0 0 158 0.008584
-0.077138 -0.040178 0.749300 0 0 143 0.004660
-0.079800 -0.041286 0.749771 0 0 128 0.002620
-0.079138 -0.043414 0.747379 0 0 143 0.004174
-0.081781 -0.044527 0.747810 0 0 128 0.002544
-0.071770 -0.037860 0.748383 0 0 174 0.012542
-0.084277 -0.045614 0.748335 0 0 128 0.001518
-0.086782 -0.046650 0.748863 0 0 128 0.000919
-0.085047 -0.043563 0.750690 0 0 128 0.001112
-0.087558 -0.044603 0.751194 0 0 128 0.000671
-0.090113 -0.045626 0.751677 0 0 128 0.000750
-0.089309 -0.047707 0.749349 0 0 128 0.000771
-0.091900 -0.048760 0.749827 0 0 128 0.000859
-0.082430 -0.042441 0.750255 0 0 128 0.001437
-0.124748 -0.124885 0.803484 0 0 143 0.006099
-0.121803 -0.125418 0.805047 0 0 143 0.005236
-0.120711 -0.126694 0.802153 0 0 143 0.006549
-0.123624 -0.126042 0.800563 0 0 143 0.007398
-0.117813 -0.127377 0.803655 0 0 143 0.006010
-0.119632 -0.127941 0.799236 0 0 143 0.007439
-0.116756 -0.128715 0.800793 0 0 143 0.007112
-0.115698 -0.130024 0.797950 0 0 158 0.009940
-0.122547 -0.127197 0.797598 0 0 158 0.008331
-0.118564 -0.129155 0.796336 0 0 158 0.009608
-0.121453 -0.128273 0.794666 0 0 158 0.009411
-0.113910 -0.129522 0.802304 0 0 143 0.007465
-0.112881 -0.130939 0.799492 0 0 158 0.010744
-0.110094 -0.131851 0.801008 0 0 174 0.012601
-0.111205 -0.130119 0.804065 0 0 143 0.007568
-0.115065 -0.127865 0.805421 0 0 143 0.005608
-0.112360 -0.128447 0.807163 0 0 143 0.005207
-0.116261 -0.126200 0.808549 0 0 143 0.005410
-0.119037 -0.125808 0.806827 0 0 143 0.005183
-0.113544 -0.126747 0.810268 0 0 143 0.005293
-0.120656 -0.129115 0.791323 0 0 158 0.009038
-0.117688 -0.130283 0.792897 0 0 158 0.010816
-0.116868 -0.131127 0.789620 0 0 158 0.010710
-0.119885 -0.129837 0.787958 0 0 158 0.008631
-0.113942 -0.132409 0.791105 0 0 174 0.014094
-0.116070 -0.131862 0.786288 0 0 158 0.010420
-0.113098 -0.133210 0.787812 0 0 174 0.013626
-0.112219 -0.133938 0.784531 0 0 174 0.013693
-0.119125 -0.130506 0.784594 0 0 158 0.008841
-0.115231 -0.132557 0.782960 0 0 158 0.010671
-0.118350 -0.131150 0.781239 0 0 158 0.009223
-0.110202 -0.134516 0.789255 0 0 189 0.018675
-0.109306 -0.135265 0.785974 0 0 189 0.017758
-0.106481 -0.136536 0.787350 0 0 219 0.024316
-0.107453 -0.135597 0.790808 0 0 204 0.022881
-0.111143 -0.133465 0.792696 0 0 189 0.017220
-0.108383 -0.134514 0.794243 0 0 204 0.021213
-0.112033 -0.132296 0.796135 0 0 174 0.014664
-0.114846 -0.131283 0.794538 0 0 174 0.012477
-0.109266 -0.133275 0.797648 0 0 189 0.017623
-0.097868 -0.138536 0.795813 0 0 255 0.037618
-0.098853 -0.137178 0.799267 0 0 250 0.031640
-0.101985 -0.136472 0.797564 0 0 234 0.029116
-0.099764 -0.135597 0.802649 0 0 204 0.022185
-0.102897 -0.134908 0.800972 0 0 204 0.020035
-0.103780 -0.133175 0.804341 0 0 158 0.011715
-0.100638 -0.133802 0.805993 0 0 174 0.012048
-0.106027 -0.134218 0.799293 0 0 189 0.019327
-0.106928 -0.132516 0.802674 0 0 158 0.011390
-0.105182 -0.135526 0.795904 0 0 219 0.024112
-0.104266 -0.136636 0.792481 0 0 219 0.026773
-0.101069 -0.137609 0.794158 0 0 250 0.031922
-0.100115 -0.138560 0.790707 0 0 250 0.032118
-0.103300 -0.137577 0.789033 0 0 234 0.028085
-0.096907 -0.139484 0.792370 0 0 255 0.036985
-0.101692 -0.131961 0.808983 0 0 143 0.005683
-0.102916 -0.129904 0.812225 0 0 174 0.012364
-0.105942 -0.129542 0.810404 0 0 143 0.004207
-0.104183 -0.127870 0.815466 0 0 174 0.015143
-0.107224 -0.127568 0.813682 0 0 174 0.014419
-0.110279 -0.127215 0.811869 0 0 143 0.005693
-0.109137 -0.128974 0.808784 0 0 143 0.004411
-0.108020 -0.130759 0.805729 0 0 143 0.006331
-0.104867 -0.131414 0.807373 0 0 143 0.006258
-0.089203 -0.050388 0.747065 0 0 128 0.000764
-0.086686 -0.049313 0.746579 0 0 128 0.001021
-0.084188 -0.048266 0.746090 0 0 128 0.001717
-0.086618 -0.051943 0.744256 0 0 128 0.001565
-0.088859 -0.052877 0.744821 0 0 128 0.001039
-0.091141 -0.053804 0.745393 0 0 128 0.000864
-0.091501 -0.051313 0.747638 0 0 128 0.000621
-0.093887 -0.052272 0.748203 0 0 128 0.000620
-0.093524 -0.054754 0.745968 0 0 128 0.000939
-0.095992 -0.055762 0.746552 0 0 128 0.001004
-0.079352 -0.046212 0.745026 0 0 143 0.005215
-0.076695 -0.045127 0.744602 0 0 143 0.007593
-0.079365 -0.048921 0.742776 0 0 143 0.005800
-0.081762 -0.049936 0.743264 0 0 128 0.003719
-0.081765 -0.047250 0.745554 0 0 128 0.002793
-0.084178 -0.050950 0.743770 0 0 128 0.002243
-0.085258 -0.056817 0.739115 0 0 143 0.004200
-0.087414 -0.057704 0.739691 0 0 128 0.003563
-0.084833 -0.053958 0.741391 0 0 128 0.003136
-0.086990 -0.054853 0.741971 0 0 128 0.002017
-0.089207 -0.055759 0.742597 0 0 128 0.001650
-0.089641 -0.058599 0.740281 0 0 128 0.002496
-0.091892 -0.059498 0.740892 0 0 128 0.002175
-0.082408 -0.052958 0.740941 0 0 143 0.004454
-0.094971 -0.059352 0.743042 0 0 128 0.001822
-0.098254 -0.059238 0.745149 0 0 128 0.001833
-0.098318 -0.061848 0.743031 0 0 128 0.002528
-0.091506 -0.056686 0.743165 0 0 128 0.001435
-0.047239 -0.108436 0.695150 0 74 255 0.058624
-0.044334 -0.109077 0.694807 0 60 255 0.056858
-0.042295 -0.111246 0.694462 0 60 255 0.057620
-0.039420 -0.111916 0.694133 0 47 255 0.052531
-0.041071 -0.114852 0.694024 0 74 255 0.059078
-0.043967 -0.114132 0.694302 0 74 255 0.060398
-0.046003 -0.111977 0.694670 0 60 255 0.057695
-0.048928 -0.111206 0.694972 0 60 255 0.058053
-0.051082 -0.109057 0.695398 0 74 255 0.060385
-0.052824 -0.111875 0.695198 0 74 255 0.059973
-0.035069 -0.111223 0.693693 0 47 255 0.051685
-0.031512 -0.111953 0.693106 0 60 255 0.055295
-0.028628 -0.114225 0.692479 0 47 255 0.051392
-0.030333 -0.117223 0.692554 0 74 255 0.062141
-0.033185 -0.114916 0.693161 0 47 255 0.053442
-0.036764 -0.114134 0.693660 0 47 255 0.054303
-0.032648 -0.123298 0.693505 0 101 255 0.068199
-0.035748 -0.120947 0.693802 0 87 255 0.063191
-0.039292 -0.120216 0.694232 0 60 255 0.058369
-0.042180 -0.117931 0.694436 0 60 255 0.055596
-0.043300 -0.121037 0.694779 0 74 255 0.061796
-0.038155 -0.117107 0.693848 0 60 255 0.055497
-0.034602 -0.117899 0.693385 0 74 255 0.059097
-0.031474 -0.120231 0.693076 0 87 255 0.062824
-0.046161 -0.120345 0.695048 0 74 255 0.060369
-0.048521 -0.118022 0.695157 0 60 255 0.057779
-0.051468 -0.117320 0.695459 0 60 255 0.056953
-0.053939 -0.114998 0.695592 0 60 255 0.055765
-0.055054 -0.118182 0.695993 0 60 255 0.056565
-0.050361 -0.114131 0.695064 0 60 255 0.057862
-0.047412 -0.114917 0.694785 0 60 255 0.056381
-0.045073 -0.117196 0.694684 0 60 255 0.057968
-0.090220 -0.141735 0.769489 0 0 143 0.006933
-0.091187 -0.141487 0.772468 0 0 143 0.007639
-0.094430 -0.140531 0.770665 0 0 143 0.007705
-0.092155 -0.141289 0.775482 0 0 158 0.008864
-0.095392 -0.140305 0.773654 0 0 158 0.008871
-0.096363 -0.140109 0.776671 0 0 158 0.011339
-0.093128 -0.141108 0.778520 0 0 174 0.012055
-0.098627 -0.139364 0.771800 0 0 158 0.010082
-0.099579 -0.139114 0.774808 0 0 158 0.011454
-0.102840 -0.138079 0.772913 0 0 174 0.012247
-0.101787 -0.138303 0.769706 0 0 158 0.011403
-0.097548 -0.139514 0.768618 0 0 158 0.008441
-0.100729 -0.138545 0.766521 0 0 158 0.011199
-0.096469 -0.139689 0.765495 0 0 143 0.007732
-0.093321 -0.140703 0.767478 0 0 143 0.006626
-0.092232 -0.140846 0.764360 0 0 143 0.006543
-0.099657 -0.138684 0.763408 0 0 158 0.010030
-0.095378 -0.139847 0.762375 0 0 158 0.007933
-0.098568 -0.138825 0.760295 0 0 158 0.010681
-0.089128 -0.141923 0.766325 0 0 143 0.006471
-0.094121 -0.140988 0.782168 0 0 189 0.019099
-0.095098 -0.140615 0.785580 0 0 219 0.025215
-0.098318 -0.139700 0.783930 0 0 204 0.023263
-0.096023 -0.140144 0.788972 0 0 250 0.032496
-0.099248 -0.139209 0.787323 0 0 234 0.028908
-0.102426 -0.138249 0.785658 0 0 219 0.025887
-0.105614 -0.137037 0.783733 0 0 204 0.020249
-0.101509 -0.138606 0.782027 0 0 204 0.019776
-0.104723 -0.137433 0.780119 0 0 189 0.016488
-0.100565 -0.138868 0.778424 0 0 174 0.014552
-0.097358 -0.139914 0.780305 0 0 189 0.016001
-0.103788 -0.137759 0.776523 0 0 174 0.013774
-0.117683 -0.131411 0.777430 0 0 143 0.007779
-0.114458 -0.133094 0.779296 0 0 158 0.010654
-0.113718 -0.133342 0.775520 0 0 158 0.009052
-0.117026 -0.131684 0.773670 0 0 158 0.008883
-0.110570 -0.134955 0.777233 0 0 174 0.012046
-0.112970 -0.133571 0.771805 0 0 158 0.009290
-0.109741 -0.135150 0.773521 0 0 158 0.009878
-0.108894 -0.135305 0.769852 0 0 158 0.009580
-0.116361 -0.131953 0.769934 0 0 158 0.011661
-0.112219 -0.133788 0.768089 0 0 158 0.011191
-0.115653 -0.132227 0.766289 0 0 189 0.016156
-0.106705 -0.136626 0.775112 0 0 174 0.012795
-0.105780 -0.136736 0.771441 0 0 158 0.010087
-0.107592 -0.136250 0.778719 0 0 174 0.014108
-0.108448 -0.135819 0.782347 0 0 189 0.016257
-0.111384 -0.134479 0.780883 0 0 174 0.012722
-0.114971 -0.132191 0.762192 0 0 204 0.019546
-0.111246 -0.134204 0.764941 0 0 174 0.014377
-0.110449 -0.134057 0.760900 0 0 174 0.015142
-0.114176 -0.132085 0.758184 0 0 219 0.023612
-0.106893 -0.135974 0.763485 0 0 174 0.012881
-0.109510 -0.133856 0.756912 0 0 189 0.016801
-0.105965 -0.135715 0.759497 0 0 158 0.010303
-0.105002 -0.135395 0.755501 0 0 158 0.011021
-0.113308 -0.131938 0.754103 0 0 250 0.031600
-0.108525 -0.133594 0.752851 0 0 189 0.019052
-0.112251 -0.131697 0.750078 0 7 255 0.039163
-0.102671 -0.137532 0.761922 0 0 174 0.011892
-0.101683 -0.137146 0.757973 0 0 158 0.008495
-0.103729 -0.137299 0.765061 0 0 158 0.011359
-0.104753 -0.137037 0.768236 0 0 158 0.010619
-0.107899 -0.135678 0.766642 0 0 158 0.011046
-0.094580 -0.137722 0.736826 0 0 204 0.021822
-0.092647 -0.138905 0.738739 0 0 189 0.017350
-0.092160 -0.139581 0.742334 0 0 174 0.013770
-0.090287 -0.140822 0.744183 0 0 174 0.014431
-0.089838 -0.141553 0.747736 0 0 174 0.015197
-0.087014 -0.142686 0.744253 0 0 204 0.021538
-0.093146 -0.139813 0.747616 0 0 174 0.012178
-0.092700 -0.140532 0.751116 0 0 174 0.012311
-0.094847 -0.139131 0.749067 0 0 158 0.010919
-0.095311 -0.138388 0.745527 0 0 158 0.011418
-0.097037 -0.137759 0.746976 0 0 158 0.011369
-0.097541 -0.137043 0.743369 0 0 174 0.014389
-0.095801 -0.137699 0.741916 0 0 174 0.013708
-0.098067 -0.136377 0.739706 0 0 189 0.019402
-0.099298 -0.136377 0.744791 0 0 174 0.013921
-0.099869 -0.135726 0.741095 0 0 204 0.022023
-0.101675 -0.135121 0.742488 0 0 219 0.023630
-0.096331 -0.136998 0.738274 0 0 204 0.020304
-0.084537 -0.143562 0.745955 0 0 189 0.019048
-0.083169 -0.144035 0.749600 0 0 174 0.014848
-0.080726 -0.144850 0.751239 0 0 174 0.015393
-0.082926 -0.144071 0.755087 0 0 158 0.011671
-0.085682 -0.143065 0.753253 0 0 158 0.010784
-0.088450 -0.142038 0.751372 0 0 158 0.011411
-0.087672 -0.142368 0.764029 0 0 143 0.006885
-0.090782 -0.141307 0.762071 0 0 143 0.006512
-0.089340 -0.141772 0.759797 0 0 143 0.007090
-0.093910 -0.140288 0.760066 0 0 158 0.007974
-0.092450 -0.140744 0.757794 0 0 158 0.009015
-0.095631 -0.139657 0.755702 0 0 174 0.011956
-0.097104 -0.139249 0.757998 0 0 158 0.011451
-0.091017 -0.141192 0.755497 0 0 158 0.009676
-0.094164 -0.140058 0.753412 0 0 174 0.011954
-0.088220 -0.142098 0.757401 0 0 158 0.008479
-0.085447 -0.143035 0.759224 0 0 143 0.007520
-0.086569 -0.142670 0.761615 0 0 143 0.006880
-0.099320 -0.137874 0.755990 0 0 158 0.008804
-0.102502 -0.136168 0.753555 0 0 158 0.010667
-0.100066 -0.136942 0.751580 0 0 158 0.010717
-0.105888 -0.134438 0.750963 0 0 189 0.017679
-0.103346 -0.135258 0.749017 0 0 189 0.015883
-0.106797 -0.133572 0.746329 0 0 250 0.031636
-0.109530 -0.132700 0.748185 0 0 255 0.038586
-0.100854 -0.136009 0.747060 0 0 174 0.013771
-0.104220 -0.134376 0.744406 0 0 219 0.026477
-0.098552 -0.137355 0.749276 0 0 158 0.010882
-0.096322 -0.138682 0.751372 0 0 158 0.009360
-0.097812 -0.138316 0.753679 0 0 158 0.010042
-0.088474 -0.082928 0.714429 0 47 255 0.051946
-0.091967 -0.084101 0.715554 0 60 255 0.056920
-0.094181 -0.086320 0.715095 0 101 255 0.068730
-0.097553 -0.087735 0.716392 0 127 255 0.077029
-0.095111 -0.089437 0.712945 0 181 255 0.092588
-0.096534 -0.084612 0.718544 0 101 255 0.068108
-0.099775 -0.086164 0.720134 0 87 255 0.066318
-0.094134 -0.082214 0.718944 0 60 255 0.058019
-0.091726 -0.079873 0.719400 0 60 255 0.054772
-0.096899 -0.092137 0.712781 0 208 255 0.100079
-0.099881 -0.094196 0.714407 0 208 255 0.100264
-0.101457 -0.097044 0.714502 4 234 244 0.107140
-0.104258 -0.099284 0.716422 4 234 244 0.109307
-0.101627 -0.100690 0.713006 69 255 179 0.129920
-0.103935 -0.095687 0.718129 0 154 255 0.083088
-0.106679 -0.097950 0.720253 0 141 255 0.080246
-0.102263 -0.092717 0.718044 0 114 255 0.072278
-0.100495 -0.089795 0.718092 0 101 255 0.067795
-0.112076 -0.095621 0.728693 0 0 255 0.038961
-0.110370 -0.092683 0.728649 0 0 250 0.034524
-0.109073 -0.093212 0.726498 0 0 255 0.038494
-0.107340 -0.090327 0.726495 0 0 234 0.028575
-0.108624 -0.089794 0.728626 0 0 219 0.024509
-0.106008 -0.090830 0.724286 0 34 255 0.049495
-0.105549 -0.087462 0.726501 0 0 255 0.036162
-0.104167 -0.087956 0.724286 0 20 255 0.043417
-0.102282 -0.085120 0.724259 0 7 255 0.042582
-0.106841 -0.086971 0.728623 0 0 250 0.031485
-0.103592 -0.084653 0.726462 0 0 250 0.033451
-0.104934 -0.084162 0.728616 0 0 234 0.028760
-0.102886 -0.088471 0.722083 0 60 255 0.057503
-0.101007 -0.085614 0.722139 0 60 255 0.055015
-0.106423 -0.094313 0.722214 0 60 255 0.055083
-0.109397 -0.096721 0.724538 0 60 255 0.055522
-0.102220 -0.081133 0.728933 0 0 219 0.023968
-0.101129 -0.082108 0.726495 0 0 234 0.029678
-0.098421 -0.079037 0.726826 0 0 219 0.026159
-0.099471 -0.078065 0.729266 0 0 204 0.019754
-0.097478 -0.080044 0.724468 0 0 255 0.036374
-0.095751 -0.076012 0.727181 0 0 219 0.026626
-0.094795 -0.077092 0.725025 0 0 250 0.034530
-0.096769 -0.075001 0.729503 0 0 204 0.020988
-0.093860 -0.078201 0.722893 0 20 255 0.043041
-0.096276 -0.080619 0.722580 0 20 255 0.042971
-0.098652 -0.083097 0.722334 0 34 255 0.047495
-0.099892 -0.082572 0.724374 0 0 255 0.038786
-0.102902 -0.124011 0.723166 0 34 255 0.048878
-0.104649 -0.120751 0.723192 0 20 255 0.043414
-0.106029 -0.122594 0.726188 0 20 255 0.045195
-0.106414 -0.117393 0.723239 0 34 255 0.050398
-0.107842 -0.119250 0.726242 0 20 255 0.043532
-0.109685 -0.115771 0.726355 0 60 255 0.056310
-0.109308 -0.121121 0.729268 0 20 255 0.044054
-0.108185 -0.113902 0.723308 0 87 255 0.063789
-0.109879 -0.110281 0.723509 0 141 255 0.081793
-0.107012 -0.111808 0.720003 0 181 255 0.090697
-0.105344 -0.115301 0.719912 0 114 255 0.071695
-0.103602 -0.118696 0.719926 0 74 255 0.059472
-0.104163 -0.113216 0.716760 0 208 255 0.098945
-0.111239 -0.120205 0.730836 0 34 255 0.050624
-0.111190 -0.117730 0.729586 0 34 255 0.049366
-0.113203 -0.116727 0.731172 0 47 255 0.052756
-0.113228 -0.119234 0.732401 0 60 255 0.055830
-0.113098 -0.114235 0.729981 0 74 255 0.059479
-0.115041 -0.115800 0.732841 0 47 255 0.054215
-0.114883 -0.113314 0.731685 0 60 255 0.057671
-0.116646 -0.112360 0.733384 0 60 255 0.055186
-0.115094 -0.118304 0.734003 0 47 255 0.054405
-0.116817 -0.114878 0.734503 0 47 255 0.051467
-0.116886 -0.117406 0.735693 0 60 255 0.056989
-0.114724 -0.110757 0.730518 0 74 255 0.062334
-0.116463 -0.109809 0.732219 0 74 255 0.060040
-0.116166 -0.107199 0.731103 0 87 255 0.063730
-0.114604 -0.107939 0.729237 0 114 255 0.072817
-0.113123 -0.111461 0.728634 0 74 255 0.061956
-0.113066 -0.108664 0.727329 0 141 255 0.079758
-0.111455 -0.112249 0.726753 0 101 255 0.068405
-0.111340 -0.115015 0.728182 0 60 255 0.056173
-0.111468 -0.109456 0.725429 0 141 255 0.079800
-0.111865 -0.099169 0.727216 0 47 255 0.052170
-0.111419 -0.102765 0.725798 0 74 255 0.061738
-0.109078 -0.100341 0.723085 0 87 255 0.065693
-0.109982 -0.103390 0.723720 0 101 255 0.067387
-0.108600 -0.104062 0.721636 0 141 255 0.081011
-0.110803 -0.106493 0.724549 0 127 255 0.076939
-0.112317 -0.105708 0.726521 0 101 255 0.070247
-0.113812 -0.104981 0.728460 0 101 255 0.068515
-0.112862 -0.102040 0.727771 0 60 255 0.058115
-0.114322 -0.101263 0.729740 0 47 255 0.051463
-0.115312 -0.104246 0.730380 0 74 255 0.061944
-0.113210 -0.098439 0.729175 0 34 255 0.048044
-0.106377 -0.101710 0.719062 0 181 255 0.090761
-0.105879 -0.105574 0.718040 0 208 255 0.097740
-0.103838 -0.103124 0.715406 4 234 244 0.109172
-0.103213 -0.106958 0.714558 15 248 233 0.111029
-0.105192 -0.109403 0.717227 0 221 255 0.102111
-0.107909 -0.107926 0.720686 0 154 255 0.085921
-0.081933 -0.090127 0.706708 0 20 255 0.046619
-0.083801 -0.091889 0.706305 0 47 255 0.053459
-0.086754 -0.092841 0.706769 0 101 255 0.067076
-0.088665 -0.094708 0.706394 0 154 255 0.083893
-0.090752 -0.092945 0.708080 0 181 255 0.093341
-0.088691 -0.090924 0.708577 0 114 255 0.073129
-0.085758 -0.090016 0.708133 0 60 255 0.055662
-0.083685 -0.088120 0.708671 0 34 255 0.046896
-0.089210 -0.098053 0.705479 0 154 255 0.085103
-0.090646 -0.100451 0.705625 0 181 255 0.092516
-0.093205 -0.102245 0.706629 0 221 255 0.103832
-0.094520 -0.104730 0.706877 26 255 222 0.114916
-0.096894 -0.103411 0.708417 69 255 179 0.131968
-0.095466 -0.100702 0.708201 26 255 222 0.115694
-0.092900 -0.098904 0.707251 0 208 255 0.099447
-0.091353 -0.096325 0.707184 0 181 255 0.093262
-0.099083 -0.098594 0.711573 47 255 201 0.121481
-0.097528 -0.095764 0.711497 15 248 233 0.110271
-0.094744 -0.093871 0.710344 0 208 255 0.101291
-0.093016 -0.091179 0.710466 0 194 255 0.094250
-0.095195 -0.097341 0.709181 15 248 233 0.109631
-0.099359 -0.102046 0.710640 80 255 168 0.135702
-0.092025 -0.088239 0.712149 0 114 255 0.073823
-0.089820 -0.086071 0.712639 0 74 255 0.061712
-0.086644 -0.085055 0.711948 0 47 255 0.051627
-0.087784 -0.088018 0.710195 0 74 255 0.062103
-0.102040 -0.125950 0.724905 0 0 255 0.036175
-0.103860 -0.125224 0.726207 0 7 255 0.041859
-0.103018 -0.127174 0.727931 0 0 250 0.033225
-0.101255 -0.127906 0.726574 0 0 234 0.031096
-0.104834 -0.126448 0.729243 0 0 255 0.035916
-0.102229 -0.129127 0.729579 0 0 234 0.030977
-0.104055 -0.128444 0.730896 0 0 250 0.033061
-0.103233 -0.130401 0.732590 0 0 250 0.033818
-0.100496 -0.129839 0.728207 0 0 234 0.030039
-0.101479 -0.131069 0.731212 0 0 250 0.031995
-0.099731 -0.131793 0.729838 0 0 250 0.032090
-0.105825 -0.127725 0.732302 0 0 255 0.036691
-0.105043 -0.129740 0.733943 0 0 255 0.036652
-0.106882 -0.129055 0.735309 0 20 255 0.043232
-0.108110 -0.125114 0.732266 0 7 255 0.039708
-0.107020 -0.123832 0.729257 0 7 255 0.040229
-0.098376 -0.133218 0.731653 0 0 204 0.022642
-0.100193 -0.132548 0.733013 0 0 219 0.024678
-0.098836 -0.133999 0.734838 0 0 204 0.021794
-0.097073 -0.134677 0.733418 0 0 204 0.020010
-0.100639 -0.133334 0.736213 0 0 204 0.022408
-0.097561 -0.135486 0.736563 0 0 189 0.018376
-0.099315 -0.134814 0.737990 0 0 204 0.020517
-0.095792 -0.136181 0.735156 0 0 204 0.019908
-0.101122 -0.134188 0.739386 0 0 204 0.021169
-0.102926 -0.133588 0.740738 0 0 204 0.023275
-0.102372 -0.132671 0.737631 0 0 219 0.023571
-0.104180 -0.132030 0.738989 0 0 219 0.025508
-0.103669 -0.131196 0.735817 0 0 234 0.028768
-0.101903 -0.131855 0.734426 0 0 219 0.024431
-0.105550 -0.130532 0.737136 0 0 234 0.029874
-0.113143 -0.130048 0.747765 0 7 255 0.039786
-0.110910 -0.131080 0.746422 0 0 255 0.038096
-0.111781 -0.129439 0.744099 0 7 255 0.039304
-0.113932 -0.128440 0.745495 0 7 255 0.040952
-0.109556 -0.130410 0.742723 0 0 255 0.037823
-0.112608 -0.127829 0.741752 0 20 255 0.046556
-0.110418 -0.128781 0.740383 0 7 255 0.041853
-0.111242 -0.127205 0.738040 0 47 255 0.052089
-0.114835 -0.126788 0.743176 0 20 255 0.046338
-0.113538 -0.126173 0.739397 0 47 255 0.054661
-0.115611 -0.125193 0.740869 0 60 255 0.056009
-0.108208 -0.129697 0.739035 0 0 255 0.038016
-0.109004 -0.128156 0.736702 0 34 255 0.049077
-0.106857 -0.131263 0.740824 0 0 234 0.030166
-0.105460 -0.132825 0.742667 0 0 234 0.029157
-0.108137 -0.131982 0.744558 0 0 250 0.032019
-0.114470 -0.122175 0.736658 0 60 255 0.056070
-0.116275 -0.121305 0.738266 0 47 255 0.051172
-0.112556 -0.123094 0.735054 0 47 255 0.053217
-0.110251 -0.124125 0.733683 0 7 255 0.041910
0.012327 -0.145175 0.708359 152 255 96 0.205637
0.015086 -0.144867 0.706077 163 255 85 0.227701
0.010296 -0.144553 0.705657 150 255 98 0.200066
0.013046 -0.144260 0.703405 175 255 73 0.250612
0.008494 -0.143744 0.703089 152 255 96 0.206942
0.011537 -0.143305 0.700987 175 255 73 0.252857
0.006950 -0.142745 0.700629 152 255 96 0.203827
0.010019 -0.142325 0.698522 182 255 66 0.267111
-0.047208 -0.140157 0.710217 0 7 255 0.042206
-0.050688 -0.138880 0.709460 0 0 255 0.038260
-0.045303 -0.139329 0.708239 0 34 255 0.047373
-0.048772 -0.138095 0.707435 0 20 255 0.046392
-0.046856 -0.137238 0.705474 0 60 255 0.055565
-0.052280 -0.136803 0.706720 0 7 255 0.040877
-0.043425 -0.138447 0.706292 0 60 255 0.055811
-0.041521 -0.137523 0.704369 0 87 255 0.064255
-0.040141 -0.139389 0.706882 0 60 255 0.057704
-0.042031 -0.140332 0.708817 0 47 255 0.054448
-0.043911 -0.141213 0.710765 0 34 255 0.047702
-0.038769 -0.141287 0.709396 0 60 255 0.056041
-0.050008 -0.135866 0.704949 0 34 255 0.047403
-0.053358 -0.134138 0.704264 0 7 255 0.041645
-0.047761 -0.134869 0.703237 0 60 255 0.056761
-0.051061 -0.133147 0.702495 0 34 255 0.050569
-0.048786 -0.132138 0.700787 0 87 255 0.065085
-0.054428 -0.131429 0.701796 0 47 255 0.052299
-0.045528 -0.133809 0.701570 0 87 255 0.064054
-0.043283 -0.132731 0.699941 0 114 255 0.073032
-0.042413 -0.135136 0.702154 0 87 255 0.063545
-0.044644 -0.136217 0.703787 0 60 255 0.058215
-0.029183 -0.134164 0.697669 0 167 255 0.088794
-0.032407 -0.134998 0.699349 0 141 255 0.081304
-0.028464 -0.136194 0.699588 0 154 255 0.083435
-0.035578 -0.135847 0.701039 0 127 255 0.077803
-0.031700 -0.137054 0.701271 0 127 255 0.076499
-0.034877 -0.137889 0.702993 0 114 255 0.072402
-0.027733 -0.138256 0.701503 0 141 255 0.081873
-0.038616 -0.136693 0.702712 0 101 255 0.069018
-0.039499 -0.134307 0.700523 0 114 255 0.073192
-0.036484 -0.133435 0.698861 0 141 255 0.081328
-0.030624 -0.139001 0.703472 0 114 255 0.071760
-0.026425 -0.139874 0.703710 0 114 255 0.072764
-0.033463 -0.139759 0.705466 0 87 255 0.065938
-0.029356 -0.140626 0.705701 0 87 255 0.066300
-0.032225 -0.141420 0.707713 0 87 255 0.065876
-0.025107 -0.141519 0.705941 0 114 255 0.071428
-0.036204 -0.140550 0.707436 0 74 255 0.062315
-0.037579 -0.138650 0.704936 0 101 255 0.066426
0.002402 -0.136279 0.691655 180 255 68 0.263762
0.002016 -0.134322 0.690295 175 255 73 0.252597
0.001604 -0.132391 0.688936 173 255 75 0.247328
0.001642 -0.130097 0.687977 180 255 68 0.263920
0.005563 -0.141557 0.698343 161 255 87 0.225406
0.008858 -0.141037 0.696427 178 255 69 0.261214
0.004389 -0.140214 0.696238 167 255 81 0.237455
0.007705 -0.139719 0.694329 184 255 64 0.271119
0.003442 -0.138724 0.694316 167 255 81 0.237875
-0.025357 -0.133440 0.696249 0 181 255 0.090540
-0.029410 -0.131819 0.696262 0 154 255 0.085446
-0.021583 -0.132688 0.694883 0 194 255 0.094216
-0.025616 -0.131112 0.694849 0 194 255 0.095748
-0.021808 -0.130370 0.693449 0 208 255 0.098463
-0.029652 -0.129448 0.694825 0 181 255 0.090301
-0.017824 -0.131911 0.693535 4 234 244 0.106653
-0.014113 -0.131126 0.692168 47 255 201 0.123798
-0.013832 -0.133209 0.693550 47 255 201 0.121163
-0.017551 -0.134021 0.694909 4 234 244 0.105663
-0.021326 -0.134801 0.696262 0 208 255 0.099386
-0.013553 -0.135316 0.694923 47 255 201 0.122952
-0.025613 -0.128680 0.693689 0 167 255 0.089498
-0.029270 -0.126752 0.693908 0 154 255 0.082921
-0.021596 -0.127866 0.692558 0 167 255 0.086484
-0.025233 -0.125992 0.692760 0 141 255 0.079759
-0.017727 -0.128265 0.691878 0 208 255 0.100260
-0.013876 -0.128648 0.691217 26 255 222 0.117036
-0.002306 -0.129757 0.688811 157 255 90 0.215002
-0.006249 -0.129435 0.689630 148 255 100 0.195691
-0.006307 -0.131749 0.690591 144 255 104 0.191248
-0.002380 -0.132065 0.689783 161 255 87 0.224109
-0.010193 -0.130267 0.690915 123 255 125 0.150491
-0.009959 -0.127820 0.689941 112 255 136 0.147921
-0.002030 -0.134073 0.691156 161 255 87 0.223344
-0.006023 -0.133822 0.691982 144 255 104 0.188574
-0.005634 -0.135780 0.693331 148 255 100 0.196448
-0.001636 -0.136027 0.692507 157 255 90 0.218459
-0.009778 -0.134555 0.693451 112 255 136 0.147735
-0.010086 -0.132475 0.692093 123 255 125 0.149459
0.003021 -0.142725 0.701475 138 255 109 0.179522
-0.000064 -0.143156 0.703521 101 255 147 0.141050
0.004611 -0.143722 0.703946 131 255 117 0.163615
0.001524 -0.144176 0.706010 101 255 147 0.141745
-0.003155 -0.143611 0.705565 4 234 244 0.109308
-0.006177 -0.144065 0.707588 0 167 255 0.087979
-0.008014 -0.142911 0.705176 0 167 255 0.089748
-0.004957 -0.142471 0.703153 36 255 211 0.118356
-0.001857 -0.142027 0.701123 123 255 125 0.150448
-0.009820 -0.141826 0.702765 0 194 255 0.095733
0.006589 -0.144596 0.706496 135 255 113 0.168071
0.003859 -0.144863 0.708650 80 255 168 0.135591
0.008611 -0.145182 0.709218 135 255 113 0.170547
0.001156 -0.145151 0.710815 15 248 233 0.110195
-0.003884 -0.144723 0.710269 0 154 255 0.083006
-0.001148 -0.144461 0.708132 15 248 233 0.110844
-0.013591 -0.145030 0.713815 0 60 255 0.055107
-0.018641 -0.144579 0.713297 0 47 255 0.054678
-0.011134 -0.144703 0.711745 0 60 255 0.057498
-0.016172 -0.144305 0.711205 0 60 255 0.058230
-0.013688 -0.143994 0.709142 0 87 255 0.062862
-0.021166 -0.143911 0.710685 0 74 255 0.062078
-0.008669 -0.144396 0.709679 0 101 255 0.068173
-0.006313 -0.145073 0.712347 0 114 255 0.071752
-0.018302 -0.143405 0.708679 0 74 255 0.062040
-0.023157 -0.142700 0.708315 0 87 255 0.064205
-0.015488 -0.142880 0.706710 0 87 255 0.064047
-0.020281 -0.142184 0.706314 0 101 255 0.069345
-0.017472 -0.141695 0.704338 0 127 255 0.075076
-0.012637 -0.142366 0.704738 0 127 255 0.077833
-0.010848 -0.143459 0.707158 0 114 255 0.071238
-0.000929 -0.137736 0.694278 154 255 94 0.210849
-0.004975 -0.137567 0.695125 135 255 113 0.171621
-0.004238 -0.139230 0.696885 135 255 113 0.168034
-0.000205 -0.139400 0.696043 152 255 96 0.203682
-0.008597 -0.138238 0.696817 101 255 147 0.143852
-0.012181 -0.138895 0.698479 15 248 233 0.112217
-0.012880 -0.137102 0.696703 26 255 222 0.113877
-0.009253 -0.136431 0.695011 123 255 125 0.148530
0.000960 -0.140795 0.698162 142 255 106 0.186425
-0.003010 -0.140691 0.698988 131 255 117 0.161375
-0.006391 -0.141264 0.700873 47 255 201 0.124383
-0.010982 -0.140349 0.700621 0 208 255 0.099468
-0.007609 -0.139794 0.698753 69 255 179 0.130751
-0.021841 -0.140886 0.704043 0 114 255 0.073354
-0.018642 -0.140224 0.702190 0 141 255 0.078358
-0.023148 -0.139253 0.701822 0 127 255 0.077981
-0.019881 -0.138606 0.699954 0 167 255 0.086215
-0.015407 -0.139566 0.700338 0 181 255 0.092831
-0.014226 -0.141026 0.702479 0 154 255 0.083900
-0.024142 -0.137536 0.699801 0 141 255 0.079317
-0.020579 -0.136807 0.698154 0 167 255 0.088568
-0.024845 -0.135519 0.697891 0 154 255 0.085424
-0.017060 -0.136059 0.696524 4 234 244 0.105493
-0.016379 -0.137853 0.698323 0 194 255 0.097152
-0.027704 -0.142105 0.708052 0 101 255 0.067199
-0.030294 -0.142692 0.710169 0 74 255 0.058684
-0.025706 -0.143312 0.710384 0 60 255 0.057461
-0.028385 -0.143884 0.712564 0 74 255 0.062167
-0.032750 -0.143270 0.712299 0 60 255 0.058526
-0.035088 -0.143835 0.714392 0 60 255 0.057038
-0.036918 -0.142550 0.711908 0 47 255 0.053980
-0.034639 -0.141997 0.709820 0 74 255 0.058861
-0.023378 -0.144261 0.712847 0 60 255 0.056097
-0.025847 -0.144562 0.715160 0 47 255 0.053466
-0.020846 -0.144961 0.715467 0 60 255 0.055850
-0.028169 -0.144861 0.717444 0 47 255 0.053304
-0.032728 -0.144465 0.717041 0 47 255 0.050925
-0.030632 -0.144185 0.714815 0 60 255 0.054770
-0.040405 -0.144542 0.719520 0 7 255 0.041319
-0.037856 -0.144538 0.718729 0 20 255 0.045844
-0.040206 -0.143878 0.715965 0 34 255 0.049126
-0.042745 -0.143884 0.716764 0 20 255 0.046086
-0.036488 -0.144194 0.716575 0 34 255 0.048157
-0.034143 -0.144841 0.719228 0 20 255 0.046871
-0.044599 -0.142519 0.714159 0 7 255 0.039844
-0.041997 -0.142576 0.713480 0 20 255 0.046240
-0.040395 -0.141956 0.711419 0 34 255 0.049284
-0.038564 -0.143226 0.713933 0 47 255 0.051594
-0.063474 -0.141526 0.718603 0 0 189 0.018761
-0.063518 -0.142570 0.720861 0 0 189 0.018114
-0.060999 -0.144462 0.724024 0 0 204 0.022786
-0.063581 -0.143611 0.723116 0 0 189 0.019280
-0.063640 -0.144676 0.725379 0 0 204 0.023345
-0.066269 -0.142682 0.722064 0 0 189 0.017886
-0.066220 -0.141631 0.719804 0 0 189 0.017751
-0.066171 -0.140636 0.717512 0 0 204 0.021677
-0.068920 -0.140761 0.718707 0 0 204 0.022161
-0.056474 -0.145475 0.726476 0 0 204 0.021876
-0.056161 -0.146137 0.728779 0 0 219 0.024241
-0.058696 -0.146411 0.730191 0 0 219 0.024782
-0.059024 -0.145733 0.727902 0 0 204 0.022092
-0.060674 -0.145161 0.726301 0 0 204 0.020706
-0.063458 -0.146816 0.733210 0 0 219 0.026181
-0.063941 -0.146143 0.730839 0 0 219 0.023719
-0.065652 -0.145552 0.729228 0 0 219 0.024493
-0.066129 -0.144851 0.726898 0 0 219 0.024231
-0.068617 -0.145034 0.728358 0 0 219 0.026955
-0.063177 -0.145361 0.727741 0 0 204 0.022184
-0.061514 -0.145948 0.729345 0 0 204 0.023201
-0.061062 -0.146619 0.731707 0 0 219 0.025153
-0.068680 -0.143922 0.725962 0 0 204 0.021020
-0.071282 -0.142945 0.724979 0 0 204 0.019990
-0.068742 -0.142839 0.723553 0 0 189 0.017840
-0.071388 -0.141887 0.722557 0 0 189 0.019452
-0.071478 -0.140853 0.720116 0 0 204 0.022308
-0.074056 -0.140961 0.721504 0 0 219 0.024535
-0.068841 -0.141775 0.721140 0 0 189 0.018193
-0.066182 -0.143743 0.724486 0 0 204 0.019981
-0.051764 -0.130395 0.700436 0 47 255 0.054389
-0.054953 -0.128181 0.699980 0 34 255 0.048874
-0.049153 -0.129344 0.699132 0 74 255 0.061726
-0.052266 -0.127153 0.698650 0 60 255 0.055290
-0.049619 -0.126084 0.697391 0 87 255 0.063566
-0.055465 -0.124963 0.698181 0 47 255 0.053706
-0.046549 -0.128232 0.697911 0 87 255 0.064524
-0.043958 -0.127119 0.696726 0 101 255 0.067105
-0.043633 -0.129929 0.698344 0 87 255 0.065597
-0.046207 -0.131037 0.699537 0 87 255 0.063635
-0.052363 -0.124023 0.697246 0 60 255 0.057046
-0.055266 -0.121570 0.697082 0 34 255 0.050696
-0.049312 -0.123038 0.696369 0 60 255 0.057999
-0.052133 -0.120614 0.696171 0 60 255 0.056603
-0.046450 -0.123544 0.696039 0 74 255 0.059664
-0.043626 -0.124069 0.695753 0 74 255 0.061427
-0.033015 -0.126136 0.694421 0 114 255 0.073065
-0.036658 -0.125554 0.694932 0 101 255 0.069878
-0.037043 -0.128265 0.695853 0 114 255 0.073002
-0.033404 -0.128840 0.695359 0 154 255 0.083388
-0.040362 -0.126329 0.695835 0 114 255 0.070357
-0.040025 -0.123283 0.694872 0 87 255 0.063568
-0.033098 -0.131422 0.696827 0 154 255 0.082689
-0.036709 -0.131058 0.697404 0 127 255 0.075455
-0.040057 -0.131896 0.698684 0 114 255 0.073157
-0.040376 -0.129089 0.697086 0 114 255 0.074071
-0.079012 -0.109128 0.700301 0 74 255 0.059884
-0.076822 -0.107658 0.699707 0 47 255 0.054092
-0.076979 -0.105023 0.699857 0 60 255 0.058422
-0.074713 -0.103653 0.699332 0 74 255 0.059670
-0.074631 -0.106235 0.699107 0 60 255 0.056438
-0.072441 -0.104852 0.698476 0 87 255 0.063741
-0.074157 -0.108636 0.698908 0 60 255 0.054941
-0.076304 -0.110092 0.699562 0 47 255 0.053260
-0.078489 -0.111568 0.700192 0 74 255 0.059774
-0.075739 -0.112532 0.699435 0 60 255 0.057794
-0.074584 -0.101460 0.699918 0 60 255 0.056769
-0.071665 -0.098190 0.700403 0 47 255 0.051174
-0.068506 -0.100195 0.699125 0 60 255 0.054932
-0.070948 -0.101115 0.699321 0 47 255 0.052032
-0.065074 -0.102150 0.698148 0 47 255 0.053754
-0.067529 -0.103029 0.698285 0 60 255 0.054936
-0.069893 -0.105979 0.697911 0 74 255 0.061105
-0.066155 -0.105646 0.697450 0 74 255 0.058915
-0.068014 -0.108908 0.697499 0 60 255 0.056893
-0.070145 -0.110237 0.698055 0 60 255 0.055234
-0.072289 -0.111582 0.698610 0 47 255 0.052798
-0.070061 -0.114316 0.698242 0 47 255 0.053923
-0.072044 -0.107312 0.698410 0 60 255 0.056805
-0.055897 -0.132668 0.703514 0 0 255 0.038972
-0.057383 -0.133868 0.705231 0 0 250 0.035071
-0.054803 -0.135318 0.705981 0 0 255 0.036177
-0.056282 -0.136503 0.707695 0 0 250 0.034636
-0.058879 -0.135049 0.706946 0 0 250 0.032337
-0.060383 -0.136202 0.708680 0 0 234 0.028848
-0.061438 -0.133413 0.706167 0 0 234 0.029259
-0.059917 -0.132235 0.704414 0 0 255 0.036462
-0.058408 -0.131027 0.702699 0 7 255 0.041288
-0.062504 -0.130639 0.703593 0 0 255 0.038680
-0.053459 -0.137729 0.708657 0 0 250 0.032247
-0.054683 -0.138676 0.710568 0 0 234 0.028636
-0.051883 -0.139845 0.711381 0 0 234 0.031017
-0.058749 -0.138389 0.711526 0 0 219 0.023650
-0.057503 -0.137431 0.709619 0 0 219 0.026909
-0.063473 -0.138260 0.712937 0 0 204 0.020278
-0.063526 -0.136091 0.709561 0 0 234 0.027628
-0.065853 -0.137103 0.711891 0 0 219 0.024770
-0.061079 -0.139451 0.713913 0 0 204 0.020283
-0.067200 -0.134522 0.709132 0 0 234 0.028568
-0.066139 -0.133201 0.707450 0 0 234 0.028363
-0.065087 -0.131851 0.705740 0 0 234 0.030824
-0.068179 -0.131651 0.706558 0 0 234 0.030344
-0.067149 -0.130351 0.704830 0 0 255 0.037270
-0.062481 -0.134749 0.707865 0 0 234 0.027695
-0.094291 -0.135575 0.731139 0 0 189 0.018980
-0.095585 -0.134121 0.729407 0 0 204 0.022233
-0.096923 -0.132688 0.727622 0 0 234 0.030835
-0.094090 -0.133627 0.725404 0 0 250 0.032669
-0.091550 -0.136435 0.728852 0 0 204 0.021179
-0.091704 -0.137476 0.731663 0 0 204 0.020482
-0.091877 -0.138556 0.734478 0 0 204 0.022189
-0.089180 -0.139427 0.732119 0 0 219 0.026376
-0.098610 -0.128849 0.724281 0 0 250 0.031776
-0.099433 -0.126935 0.722594 0 0 255 0.036453
-0.100266 -0.125008 0.720885 0 34 255 0.048988
-0.097586 -0.126020 0.718653 0 47 255 0.054547
-0.096658 -0.127909 0.720413 0 7 255 0.040752
-0.095725 -0.129786 0.722154 0 0 250 0.031811
-0.096308 -0.131216 0.724901 0 0 234 0.028517
-0.092424 -0.127426 0.715052 0 47 255 0.054084
-0.091439 -0.129235 0.716816 0 7 255 0.039640
-0.091905 -0.130764 0.719363 0 0 250 0.031665
-0.091071 -0.132596 0.720991 0 0 234 0.029876
-0.091554 -0.134177 0.723520 0 0 250 0.031897
-0.088993 -0.134752 0.721583 0 0 250 0.033699
