ply
format ascii 1.0
comment VCGLIB generated
element vertex 1000
property float x
property float y
property float z
property uchar red
property uchar green
property uchar blue
property float quality
end_header
-0.356419 -0.885058 6.274440 0 0 223 0.977828
-0.360553 -0.894350 6.199530 0 73 255 0.946915
-0.374870 -0.888585 6.227530 0 13 255 0.962902
-0.399637 -0.886389 6.250900 0 0 219 0.979421
-0.414046 -0.885549 6.279540 0 0 151 0.994186
-0.434277 -0.886571 6.268440 0 0 155 0.993440
-0.419742 -0.886713 6.239430 0 0 223 0.978629
-0.395081 -0.889181 6.216470 0 17 255 0.961965
-0.380680 -0.895004 6.188310 0 73 255 0.946823
-0.356244 -0.905192 6.166930 0 69 255 0.947841
-0.376543 -0.905957 6.155780 0 65 255 0.948473
-0.417775 -0.882636 6.313890 0 0 196 0.984610
-0.431453 -0.878266 6.342130 0 0 255 0.970850
-0.455019 -0.873932 6.364250 0 53 255 0.952514
-0.468226 -0.866445 6.390560 0 109 255 0.936330
-0.488376 -0.866714 6.379760 0 101 255 0.938083
-0.475240 -0.874524 6.353260 0 49 255 0.953427
-0.451742 -0.878884 6.331320 0 0 251 0.971942
-0.438028 -0.882480 6.302550 0 0 187 0.986081
-0.524751 -0.867568 6.359980 0 77 255 0.944691
-0.511836 -0.875207 6.333250 0 33 255 0.957216
-0.489268 -0.881073 6.310850 0 0 255 0.971310
-0.475558 -0.883865 6.282140 0 0 192 0.985340
-0.452669 -0.887010 6.258360 0 0 155 0.993339
-0.471104 -0.887263 6.248190 0 0 155 0.993516
-0.457342 -0.883295 6.292310 0 0 196 0.984840
-0.470984 -0.879709 6.320740 0 0 255 0.971265
-0.493552 -0.875175 6.343630 0 49 255 0.953356
-0.506506 -0.866984 6.369800 0 89 255 0.941931
-0.456514 -0.887355 6.219030 0 0 178 0.988222
-0.432864 -0.889898 6.195480 0 25 255 0.959463
-0.418193 -0.895493 6.167100 0 93 255 0.940130
-0.395031 -0.906872 6.145610 0 65 255 0.948200
-0.413244 -0.906987 6.135160 0 85 255 0.942521
-0.400023 -0.895746 6.177740 0 73 255 0.946360
-0.414369 -0.889616 6.205660 0 21 255 0.960647
-0.438229 -0.887124 6.229380 0 0 223 0.978135
-0.868040 -0.721177 6.469470 0 13 255 0.963108
-0.849892 -0.714288 6.484330 0 41 255 0.955971
-0.833030 -0.731580 6.467180 0 5 255 0.965513
-0.851386 -0.738029 6.451650 0 0 251 0.972112
-0.822987 -0.716433 6.491110 0 57 255 0.951036
-0.796488 -0.719460 6.498970 0 109 255 0.936229
-0.813043 -0.701320 6.510920 0 81 255 0.943546
-0.839633 -0.698020 6.503290 0 25 255 0.959731
-0.840149 -0.748552 6.439250 0 0 214 0.980164
-0.828300 -0.757993 6.425730 0 0 173 0.988949
-0.810408 -0.752432 6.442860 0 0 210 0.981668
-0.816435 -0.767991 6.412310 0 0 155 0.993763
-0.798444 -0.761807 6.429230 0 0 164 0.991276
-0.786653 -0.771714 6.415570 0 0 146 0.995553
-0.804565 -0.778005 6.398470 0 0 142 0.996760
-0.781145 -0.756593 6.446470 0 0 210 0.980897
-0.768950 -0.766313 6.432850 0 0 169 0.990830
-0.751356 -0.761025 6.450070 0 0 192 0.985757
-0.762818 -0.750750 6.463080 0 0 251 0.972143
-0.792248 -0.745994 6.458980 0 0 233 0.975848
-0.774149 -0.740411 6.475560 0 21 255 0.960654
-0.803372 -0.735982 6.471420 0 17 255 0.962437
-0.821813 -0.741961 6.455240 0 0 246 0.973205
-0.785407 -0.729715 6.487540 0 57 255 0.950931
-0.685603 -0.718649 6.528440 0 81 255 0.943992
-0.697713 -0.707279 6.536600 0 121 255 0.932104
-0.713316 -0.718417 6.520610 0 81 255 0.943753
-0.725388 -0.706420 6.527720 0 85 255 0.942899
-0.709976 -0.694527 6.543010 0 105 255 0.936645
-0.741191 -0.718706 6.512860 0 89 255 0.941214
-0.737775 -0.694589 6.534290 0 81 255 0.943944
-0.753285 -0.706615 6.519600 0 81 255 0.944195
-0.765278 -0.693949 6.525680 0 45 255 0.953821
-0.722006 -0.682050 6.548990 0 101 255 0.938530
-0.749486 -0.681239 6.539030 0 45 255 0.953965
-0.733810 -0.669085 6.553850 0 73 255 0.946679
-0.769042 -0.718354 6.505550 0 89 255 0.942005
-0.780890 -0.706567 6.512300 0 73 255 0.946713
-0.757697 -0.729457 6.494360 0 57 255 0.950492
-0.746288 -0.740001 6.482130 0 0 255 0.968201
-0.729914 -0.729121 6.501090 0 37 255 0.957094
-0.718416 -0.739433 6.488360 0 0 255 0.970708
-0.734899 -0.750189 6.469230 0 0 219 0.979054
-0.701979 -0.729082 6.508480 0 25 255 0.960444
-0.765427 -0.662426 6.546600 0 1 255 0.966265
-0.748932 -0.650769 6.557740 0 5 255 0.965360
-0.781765 -0.674304 6.535740 0 21 255 0.960851
-0.797202 -0.687993 6.523170 0 41 255 0.955163
-0.457989 -0.195148 6.566710 0 97 255 0.939517
-0.446714 -0.171744 6.557610 0 113 255 0.934174
-0.434051 -0.192179 6.582780 0 169 255 0.917316
-0.434887 -0.148239 6.547900 0 145 255 0.924628
-0.422805 -0.168592 6.574130 0 201 255 0.907813
-0.410742 -0.145289 6.563670 0 217 255 0.901393
-0.410166 -0.190414 6.597800 0 221 255 0.900271
-0.422618 -0.125028 6.536320 0 169 255 0.918087
-0.410245 -0.101799 6.524640 0 193 255 0.909875
-0.436847 -0.102305 6.507310 0 157 255 0.921729
-0.449221 -0.126205 6.518230 0 105 255 0.936633
-0.461644 -0.149417 6.529480 0 89 255 0.941261
-0.463357 -0.104558 6.488590 0 97 255 0.939830
-0.396223 -0.168689 6.589820 3 233 245 0.896683
-0.384668 -0.189656 6.612240 29 255 219 0.884922
-0.382091 -0.147217 6.580480 0 225 251 0.898896
-0.370604 -0.169015 6.602740 3 233 245 0.896352
-0.356339 -0.148558 6.592040 0 181 255 0.913142
-0.359197 -0.191134 6.623630 6 237 242 0.895880
-0.367434 -0.127450 6.568090 0 161 255 0.919435
-0.352378 -0.106445 6.554990 0 137 255 0.927835
-0.381415 -0.103302 6.540870 0 181 255 0.913164
-0.396639 -0.124180 6.553620 0 221 255 0.900514
-0.335942 -0.036690 6.462090 0 0 228 0.976719
-0.352765 -0.034798 6.454310 0 0 251 0.971597
-0.355231 -0.053103 6.479090 0 0 251 0.971350
-0.371616 -0.050878 6.470910 0 9 255 0.964385
-0.369743 -0.032851 6.446270 0 1 255 0.966265
-0.373866 -0.069258 6.495560 0 33 255 0.958239
-0.388018 -0.049153 6.461940 0 17 255 0.961679
-0.390135 -0.067290 6.486390 0 49 255 0.953456
-0.406500 -0.065873 6.476790 0 61 255 0.950238
-0.386168 -0.031532 6.437930 0 13 255 0.962923
-0.404585 -0.048131 6.453150 0 33 255 0.957342
-0.402791 -0.030651 6.429220 0 29 255 0.959046
-0.392085 -0.085287 6.510630 0 105 255 0.937560
-0.408387 -0.083922 6.500960 0 105 255 0.936550
-0.363282 -0.087477 6.525800 0 77 255 0.944966
-0.344674 -0.071146 6.509550 0 0 255 0.967453
-0.417995 -0.030175 6.421260 0 45 255 0.954078
-0.433500 -0.048333 6.437410 0 37 255 0.956493
-0.433148 -0.029984 6.413150 0 49 255 0.953667
-0.433489 -0.066690 6.461340 0 49 255 0.953263
-0.448176 -0.049532 6.427600 0 5 255 0.964869
-0.448345 -0.067573 6.451600 0 37 255 0.956784
-0.463463 -0.068109 6.441710 0 13 255 0.962700
-0.447971 -0.030976 6.404440 0 25 255 0.959930
-0.463361 -0.049948 6.419240 0 9 255 0.963844
-0.463192 -0.032079 6.396420 0 17 255 0.961974
-0.448448 -0.085860 6.475360 0 61 255 0.949883
-0.463498 -0.086530 6.465330 0 37 255 0.956228
-0.533199 -0.210530 6.505210 13 245 235 0.893095
-0.528167 -0.187912 6.494020 0 0 228 0.977577
-0.516677 -0.206756 6.519870 19 253 229 0.889732
-0.522084 -0.164492 6.482780 0 0 201 0.982855
-0.510906 -0.183175 6.508120 0 0 201 0.983220
-0.504995 -0.158977 6.496240 0 0 210 0.980920
-0.499869 -0.203017 6.533740 0 201 255 0.906579
-0.515395 -0.140293 6.469600 0 0 201 0.983648
-0.508192 -0.114424 6.456790 0 0 237 0.975460
-0.527226 -0.119962 6.444690 0 0 210 0.981413
-0.534548 -0.144927 6.457440 0 0 210 0.981314
-0.540936 -0.169023 6.469130 0 0 251 0.972229
-0.546764 -0.124880 6.433440 0 0 214 0.979816
-0.491630 -0.179193 6.523960 0 0 242 0.974066
-0.478968 -0.198905 6.550560 0 13 255 0.962869
-0.483017 -0.154567 6.513240 0 1 255 0.966078
-0.470582 -0.174206 6.540550 0 45 255 0.954306
-0.473263 -0.129957 6.501000 0 29 255 0.958387
-0.485773 -0.109295 6.472630 0 17 255 0.962315
-0.495847 -0.134258 6.484830 0 0 246 0.972736
-0.487317 -0.054857 6.406270 0 0 246 0.972602
-0.488263 -0.035907 6.384710 0 0 255 0.970321
-0.485879 -0.073859 6.427500 0 0 237 0.974513
-0.511261 -0.077773 6.414530 0 0 228 0.976856
-0.512532 -0.058900 6.394110 0 0 237 0.974861
-0.513800 -0.038866 6.374390 0 0 255 0.970925
-0.497309 -0.093979 6.442690 0 0 237 0.974760
-0.533045 -0.063902 6.384990 0 0 228 0.977552
-0.535890 -0.043359 6.367140 0 0 242 0.973860
-0.530632 -0.083116 6.404030 0 0 219 0.978824
-0.552392 -0.088358 6.395020 0 0 228 0.977532
-0.555183 -0.068177 6.377750 0 0 228 0.977251
-0.557911 -0.047604 6.360340 0 0 237 0.975459
-0.538561 -0.104511 6.418170 0 0 214 0.979773
-0.519363 -0.098700 6.429660 0 0 219 0.979697
-0.634179 -0.191408 6.433900 125 255 122 0.839400
-0.617562 -0.209222 6.452000 190 255 58 0.804629
-0.607088 -0.229359 6.471680 255 238 0 0.765573
-0.636429 -0.170628 6.418030 19 253 229 0.889607
-0.637615 -0.147614 6.403330 0 97 255 0.939816
-0.659494 -0.151918 6.403630 0 125 255 0.930556
-0.597975 -0.205137 6.455250 132 255 116 0.836224
-0.589029 -0.224319 6.475140 171 255 77 0.816007
-0.606302 -0.186249 6.437260 42 255 206 0.879211
-0.607180 -0.164691 6.421930 0 157 255 0.921366
-0.607607 -0.140267 6.407820 0 53 255 0.952182
-0.636517 -0.062447 6.348730 0 0 201 0.983663
-0.636807 -0.086550 6.362030 0 0 219 0.978910
-0.654138 -0.064746 6.348400 0 0 201 0.983651
-0.637372 -0.108684 6.375530 0 0 255 0.967197
-0.654404 -0.089036 6.361620 0 0 205 0.982829
-0.654864 -0.110822 6.374390 0 0 251 0.971863
-0.671890 -0.066419 6.348980 0 0 196 0.983981
-0.637707 -0.129065 6.389110 0 45 255 0.954782
-0.615015 -0.123114 6.391990 0 21 255 0.961589
-0.678681 -0.092800 6.362970 0 0 187 0.986411
-0.695880 -0.070416 6.351530 0 0 205 0.982022
-0.531577 -0.702885 6.599600 0 213 255 0.903481
-0.533798 -0.675412 6.615580 3 233 245 0.896038
-0.542443 -0.649226 6.626420 38 255 209 0.880571
-0.542748 -0.620543 6.637910 32 255 216 0.884755
-0.548883 -0.592176 6.643190 38 255 209 0.880709
-0.533692 -0.588581 6.650040 67 255 180 0.867643
-0.558110 -0.623397 6.630510 13 245 235 0.892853
-0.564707 -0.595718 6.635830 29 255 219 0.885145
-0.559543 -0.651887 6.618120 9 241 238 0.894231
-0.559710 -0.679116 6.602440 0 197 255 0.908746
-0.549842 -0.704914 6.590010 0 185 255 0.912923
-0.568569 -0.706991 6.580710 0 165 255 0.918353
-0.528133 -0.555266 6.647880 0 157 255 0.921229
-0.528525 -0.522060 6.641610 0 177 255 0.914527
-0.521720 -0.485895 6.636120 74 255 174 0.865625
-0.520554 -0.451546 6.628090 119 255 129 0.843951
-0.540864 -0.492052 6.630580 71 255 177 0.866434
-0.550397 -0.527933 6.634920 0 217 255 0.901275
-0.550405 -0.560763 6.639640 0 149 255 0.923200
-0.550317 -0.462160 6.619030 216 255 32 0.789639
-0.561736 -0.498297 6.624510 138 255 109 0.833912
-0.566765 -0.532399 6.629430 29 255 219 0.885535
-0.576644 -0.567253 6.628550 0 149 255 0.924172
-0.583957 -0.600096 6.626320 0 205 255 0.905868
-0.595053 -0.630002 6.611000 0 153 255 0.922788
-0.589477 -0.656572 6.601390 0 161 255 0.920022
-0.591737 -0.683199 6.585650 0 145 255 0.925472
-0.584745 -0.708723 6.571950 0 141 255 0.926329
-0.601199 -0.710344 6.563510 0 125 255 0.930798
-0.575538 -0.681121 6.594550 0 177 255 0.915260
-0.574054 -0.626069 6.622260 0 197 255 0.908206
-0.532929 -0.725626 6.570190 0 41 255 0.956023
-0.534280 -0.748932 6.541000 0 0 228 0.977370
-0.551469 -0.727447 6.561320 0 33 255 0.957977
-0.553170 -0.750194 6.532310 0 0 237 0.975436
-0.535924 -0.772965 6.512340 0 0 205 0.982048
-0.537198 -0.797483 6.483960 0 0 233 0.975700
-0.517231 -0.796924 6.493750 0 0 242 0.973989
-0.515928 -0.771865 6.521970 0 0 210 0.981653
-0.514813 -0.747714 6.551280 0 0 242 0.973807
-0.497314 -0.796331 6.503850 0 0 246 0.973252
-0.569425 -0.728936 6.551590 0 21 255 0.961322
-0.570597 -0.751225 6.522430 0 0 219 0.979369
-0.585865 -0.730442 6.543470 0 5 255 0.965454
-0.586866 -0.752340 6.514220 0 0 214 0.979868
-0.571792 -0.774129 6.493720 0 0 192 0.985496
-0.572659 -0.797804 6.465270 0 0 192 0.984993
-0.554975 -0.797774 6.474670 0 0 219 0.979522
-0.554270 -0.773721 6.503390 0 0 201 0.983112
-0.527523 -0.852139 6.389730 0 37 255 0.957121
-0.530688 -0.835183 6.420230 0 1 255 0.966170
-0.509308 -0.851598 6.399630 0 53 255 0.951876
-0.512679 -0.835480 6.430740 0 21 255 0.961263
-0.533868 -0.816699 6.451580 0 0 237 0.975332
-0.551637 -0.817089 6.442600 0 0 223 0.978228
-0.548518 -0.835859 6.411500 0 0 255 0.968054
-0.490206 -0.851702 6.409680 0 65 255 0.949273
-0.492298 -0.834491 6.439970 0 13 255 0.963011
-0.470053 -0.851316 6.420500 0 65 255 0.948254
-0.472380 -0.834488 6.451250 0 21 255 0.961208
-0.494777 -0.816359 6.471630 0 0 246 0.972962
-0.514769 -0.816580 6.461720 0 0 237 0.974869
-0.612028 -0.857583 6.342690 0 13 255 0.963505
-0.637176 -0.844253 6.356460 0 0 237 0.975129
-0.649255 -0.826167 6.381750 0 0 178 0.988580
-0.674347 -0.811397 6.395740 0 0 151 0.994824
-0.648491 -0.804321 6.419050 0 0 151 0.994125
-0.675584 -0.834157 6.359230 0 0 201 0.983439
-0.701101 -0.819563 6.373240 0 0 160 0.992903
-0.662046 -0.849496 6.337170 0 0 251 0.971464
-0.648087 -0.863619 6.315260 0 37 255 0.956400
-0.657488 -0.780435 6.445550 0 0 155 0.993067
-0.673500 -0.792611 6.426480 0 0 146 0.995103
-0.682711 -0.769756 6.453230 0 0 164 0.991231
-0.666572 -0.759104 6.473440 0 0 187 0.985910
-0.699025 -0.781346 6.433940 0 0 151 0.994253
-0.692109 -0.748888 6.480910 0 0 210 0.980919
-0.708538 -0.759804 6.461330 0 0 183 0.987037
-0.676031 -0.738409 6.501230 0 0 242 0.973772
-0.725121 -0.770816 6.441860 0 0 169 0.990484
-0.725560 -0.788572 6.410570 0 0 137 0.996943
-0.699749 -0.800018 6.403210 0 0 142 0.996565
-0.792014 -0.792744 6.379500 0 0 133 0.998015
-0.777883 -0.805240 6.362820 0 0 133 0.997988
-0.761194 -0.800975 6.376920 0 0 133 0.997913
-0.764074 -0.818295 6.346920 0 0 146 0.995056
-0.747507 -0.814009 6.360780 0 0 146 0.995704
-0.733771 -0.827381 6.344720 0 0 173 0.989837
-0.750190 -0.831493 6.331220 0 0 183 0.987423
-0.730982 -0.810068 6.374690 0 0 142 0.996470
-0.717427 -0.823173 6.358700 0 0 164 0.991686
-0.743223 -0.794509 6.393500 0 0 137 0.997761
-0.755817 -0.779742 6.412980 0 0 142 0.996256
-0.773831 -0.785843 6.396010 0 0 137 0.997895
-0.736562 -0.848213 6.309330 0 0 251 0.972089
-0.721304 -0.860397 6.290350 0 33 255 0.958089
-0.706278 -0.859005 6.301160 0 29 255 0.958362
-0.705645 -0.871127 6.270780 0 69 255 0.947211
-0.690803 -0.869462 6.281570 0 57 255 0.950813
-0.675990 -0.868573 6.292770 0 61 255 0.950296
-0.689793 -0.854783 6.315070 0 1 255 0.966275
-0.703689 -0.839314 6.336890 0 0 214 0.979890
-0.720101 -0.843550 6.322870 0 0 223 0.978031
-0.435160 -0.692357 6.641810 0 197 255 0.908254
-0.438659 -0.718352 6.613410 0 65 255 0.948912
-0.460271 -0.694906 6.631310 0 213 255 0.903163
-0.442253 -0.744085 6.584930 0 0 255 0.970226
-0.463893 -0.719908 6.602900 0 65 255 0.949042
-0.467642 -0.745329 6.574170 0 0 255 0.969649
-0.485382 -0.697343 6.620480 0 221 255 0.901038
-0.445723 -0.769823 6.555900 0 0 233 0.975727
-0.449090 -0.794818 6.527020 0 0 251 0.971487
-0.423827 -0.794287 6.539720 0 0 255 0.969396
-0.420470 -0.768959 6.568480 0 0 251 0.972016
-0.417177 -0.742774 6.597550 0 1 255 0.965980
-0.398493 -0.793912 6.551960 0 1 255 0.966370
-0.488184 -0.721821 6.591250 0 57 255 0.951470
-0.508380 -0.700068 6.610370 0 217 255 0.902192
-0.491034 -0.746428 6.561820 0 0 251 0.971686
-0.511701 -0.723712 6.580820 0 49 255 0.952903
-0.494190 -0.771340 6.532440 0 0 214 0.980499
-0.473149 -0.795759 6.515460 0 0 255 0.970935
-0.470429 -0.770576 6.544420 0 0 228 0.977517
-0.447739 -0.850641 6.431280 0 61 255 0.950170
-0.447866 -0.833663 6.462180 0 21 255 0.961424
-0.424776 -0.850192 6.444100 0 61 255 0.949562
-0.424968 -0.833353 6.475340 0 33 255 0.957848
-0.448205 -0.814771 6.493770 0 0 251 0.971896
-0.472465 -0.815585 6.482730 0 0 255 0.970671
-0.400323 -0.849632 6.456270 0 65 255 0.948472
-0.399146 -0.832719 6.487150 0 33 255 0.957546
-0.375976 -0.848943 6.469720 0 81 255 0.944031
-0.375094 -0.832521 6.501240 0 53 255 0.951704
-0.398583 -0.814105 6.519120 0 5 255 0.964900
-0.424109 -0.814421 6.506860 0 0 255 0.968840
-0.464864 -0.223002 6.572930 0 61 255 0.949828
-0.471683 -0.250801 6.579030 96 255 151 0.854074
-0.485672 -0.226090 6.556990 109 255 138 0.848166
-0.492326 -0.253008 6.563340 245 249 3 0.770383
-0.477857 -0.279535 6.585380 203 255 45 0.797298
-0.484292 -0.308410 6.592860 255 171 0 0.720668
-0.465320 -0.305630 6.606290 187 255 61 0.806040
-0.458621 -0.275751 6.599390 25 255 222 0.887443
-0.451749 -0.246944 6.592920 0 165 255 0.918187
-0.446051 -0.301980 6.619510 0 205 255 0.906382
-0.504011 -0.229553 6.542450 161 255 87 0.821188
-0.507859 -0.256169 6.550030 255 230 0 0.759879
-0.520994 -0.232273 6.528100 209 255 38 0.794050
-0.523581 -0.258001 6.536810 255 201 0 0.741223
-0.510415 -0.283294 6.559690 255 216 0 0.750521
-0.512139 -0.312571 6.571690 255 190 0 0.733323
-0.498378 -0.310323 6.581910 255 193 0 0.735613
-0.496016 -0.281146 6.571550 255 223 0 0.755252
-0.501973 -0.445374 6.633820 113 255 135 0.846577
-0.499362 -0.411359 6.619080 151 255 96 0.825945
-0.492239 -0.375265 6.608020 209 255 38 0.792868
-0.484588 -0.407877 6.625390 119 255 129 0.843987
-0.477439 -0.371871 6.616280 174 255 74 0.813994
-0.486326 -0.441855 6.638840 19 253 229 0.889402
-0.487524 -0.341343 6.599450 248 245 0 0.768125
-0.500871 -0.343177 6.589800 245 249 3 0.770770
-0.505576 -0.377640 6.599830 203 255 45 0.798179
-0.468672 -0.438542 6.646110 0 153 255 0.922562
-0.467398 -0.405211 6.633450 3 233 245 0.896344
-0.458989 -0.369683 6.627110 0 205 255 0.905879
-0.448337 -0.401048 6.642190 0 0 164 0.991498
-0.440392 -0.365539 6.636870 0 0 160 0.992870
-0.449381 -0.434503 6.653860 0 0 173 0.988982
-0.452028 -0.334941 6.622700 0 197 255 0.908576
-0.470802 -0.338219 6.610430 219 255 29 0.788272
-0.638511 -0.284866 6.509600 255 53 0 0.619580
-0.633930 -0.311911 6.529160 255 45 0 0.611251
-0.620005 -0.342264 6.549440 255 64 0 0.631686
-0.618723 -0.311866 6.528280 255 71 0 0.636408
-0.644297 -0.259701 6.490220 255 90 0 0.657755
-0.619143 -0.404784 6.578460 255 78 0 0.646994
-0.623675 -0.432860 6.590450 255 90 0 0.657074
-0.630068 -0.460022 6.600530 255 134 0 0.694862
-0.612964 -0.374138 6.564190 255 78 0 0.647061
-0.592557 -0.470069 6.607610 255 208 0 0.746509
-0.587161 -0.438153 6.594640 255 167 0 0.719302
-0.589776 -0.406517 6.580060 255 119 0 0.681541
-0.589510 -0.373366 6.564770 255 97 0 0.664383
-0.597510 -0.341322 6.549500 255 101 0 0.667941
-0.606411 -0.436522 6.592410 255 119 0 0.681659
-0.612207 -0.466216 6.603940 255 171 0 0.722987
-0.595754 -0.308899 6.528250 255 86 0 0.653939
-0.611104 -0.282081 6.507800 255 101 0 0.665318
-0.621611 -0.257344 6.488690 255 116 0 0.678806
-0.572186 -0.401243 6.580460 255 145 0 0.702223
-0.569744 -0.434763 6.597000 255 227 0 0.758477
-0.575612 -0.468758 6.611950 238 255 9 0.775161
-0.567478 -0.366111 6.565420 255 127 0 0.689630
-0.565443 -0.331852 6.550970 255 123 0 0.683892
-0.581388 -0.337752 6.549840 255 93 0 0.659282
-0.553750 -0.429854 6.600030 255 216 0 0.750434
-0.551277 -0.394184 6.583420 255 178 0 0.727277
-0.547646 -0.357812 6.568570 255 138 0 0.697371
-0.546579 -0.322824 6.554380 255 149 0 0.706963
-0.574869 -0.244203 6.494350 251 241 0 0.766620
-0.571706 -0.270028 6.511760 255 160 0 0.713972
-0.591887 -0.249681 6.490610 255 190 0 0.735476
-0.568595 -0.299084 6.530470 255 123 0 0.684483
-0.554465 -0.293031 6.533990 255 153 0 0.708514
-0.593837 -0.277210 6.507910 255 149 0 0.705175
-0.613487 -0.499528 6.608150 245 249 3 0.770853
-0.635206 -0.527984 6.606010 151 255 96 0.825803
-0.633303 -0.494744 6.603710 255 216 0 0.751927
-0.656629 -0.555223 6.600980 61 255 187 0.871651
-0.676888 -0.581116 6.594930 0 137 255 0.927869
-0.662192 -0.591848 6.596700 0 105 255 0.937646
-0.642895 -0.565747 6.602750 0 209 255 0.904552
-0.622433 -0.537970 6.607850 87 255 161 0.859759
-0.647089 -0.601847 6.597850 0 57 255 0.950550
-0.658207 -0.511683 6.601370 245 249 3 0.771982
-0.688691 -0.568035 6.594490 0 229 248 0.897887
-0.735893 -0.628981 6.567260 0 0 255 0.969152
-0.721422 -0.606838 6.576660 0 37 255 0.956899
-0.707850 -0.625968 6.572920 0 1 255 0.966041
-0.721217 -0.647505 6.562760 0 5 255 0.965688
-0.699231 -0.594166 6.585660 0 97 255 0.938856
-0.700700 -0.665645 6.558870 0 57 255 0.950515
-0.691372 -0.636216 6.574010 0 25 255 0.960322
-0.689406 -0.678900 6.554580 0 61 255 0.949647
-0.679744 -0.649519 6.570190 0 33 255 0.958047
-0.668260 -0.662281 6.565390 0 33 255 0.957447
-0.677350 -0.690665 6.547820 0 49 255 0.953336
-0.669359 -0.619334 6.585390 0 29 255 0.959388
-0.658228 -0.633063 6.581800 0 33 255 0.958135
-0.685411 -0.609149 6.584370 0 53 255 0.952477
-0.506099 -0.481773 6.639920 29 255 219 0.886082
-0.512265 -0.517800 6.646550 0 137 255 0.927911
-0.507810 -0.550247 6.655170 0 153 255 0.921908
-0.512927 -0.584239 6.658020 64 255 184 0.869028
-0.492856 -0.579808 6.665210 48 255 200 0.876391
-0.489301 -0.546280 6.661190 0 133 255 0.928589
-0.493636 -0.513652 6.652490 0 13 255 0.962899
-0.489384 -0.478398 6.645490 0 97 255 0.939518
-0.523535 -0.616699 6.646760 55 255 193 0.874488
-0.523262 -0.646106 6.635380 38 255 209 0.880870
-0.510348 -0.672084 6.626150 3 233 245 0.896082
-0.488558 -0.668929 6.635410 6 237 242 0.894604
-0.501564 -0.642017 6.644710 45 255 203 0.878925
-0.502967 -0.612747 6.655020 51 255 196 0.875023
-0.439896 -0.662559 6.655560 0 225 251 0.899412
-0.455159 -0.634166 6.662990 25 255 222 0.887516
-0.457715 -0.603886 6.671180 3 233 245 0.896779
-0.470426 -0.575093 6.672900 22 255 226 0.888460
-0.447877 -0.570347 6.679950 0 205 255 0.906270
-0.480623 -0.608081 6.663590 29 255 219 0.886135
-0.478892 -0.638112 6.653980 42 255 206 0.880068
-0.463840 -0.665537 6.646100 6 237 242 0.895431
-0.445371 -0.536792 6.674830 0 73 255 0.946379
-0.452697 -0.504605 6.665190 0 0 242 0.974302
-0.450390 -0.469970 6.659150 0 0 187 0.986841
-0.469816 -0.474132 6.651760 0 0 196 0.984489
-0.473712 -0.509492 6.658550 0 0 255 0.968837
-0.466931 -0.541245 6.668260 0 97 255 0.939792
0.020017 0.017493 6.421750 0 0 142 0.995943
0.039335 0.017693 6.430530 0 0 151 0.994556
0.027010 0.007550 6.452020 0 0 137 0.997378
0.007506 0.007979 6.443310 0 0 137 0.997691
0.046733 0.007273 6.460760 0 0 142 0.996871
0.014484 -0.000944 6.474130 0 0 133 0.998371
0.034008 -0.001763 6.482940 0 0 133 0.998004
0.021332 -0.009666 6.505450 0 0 133 0.998839
-0.005075 -0.000049 6.465610 0 0 133 0.998593
0.001657 -0.008155 6.497100 0 0 133 0.998368
-0.017793 -0.007256 6.488350 0 0 133 0.998168
0.053734 -0.002772 6.491310 0 0 137 0.997180
0.040848 -0.010737 6.514110 0 0 133 0.998725
0.060630 -0.012233 6.522550 0 0 133 0.998058
0.074914 -0.004269 6.500650 0 0 146 0.995382
0.067760 0.006762 6.470330 0 0 142 0.996237
0.088747 0.006274 6.479990 0 0 146 0.995151
0.081384 0.017898 6.450200 0 0 155 0.993215
0.060353 0.017720 6.440170 0 0 151 0.993978
0.102436 0.018182 6.460370 0 0 164 0.991897
-0.030748 -0.018140 6.510590 0 0 133 0.998023
-0.012943 -0.018481 6.519010 0 0 133 0.998225
-0.026195 -0.028928 6.541510 0 0 146 0.995417
-0.043948 -0.028333 6.533010 0 0 146 0.995363
-0.008179 -0.029660 6.549580 0 0 142 0.996603
-0.039373 -0.038180 6.563610 0 0 169 0.990322
-0.021722 -0.039594 6.571550 0 0 164 0.991229
-0.034794 -0.048280 6.593210 0 0 223 0.977737
-0.056844 -0.038218 6.554950 0 0 169 0.990296
-0.052258 -0.048214 6.584430 0 0 219 0.978714
-0.069517 -0.048201 6.575840 0 0 223 0.978426
-0.003778 -0.040396 6.579990 0 0 160 0.992935
-0.017181 -0.049524 6.601840 0 0 205 0.982498
0.000706 -0.051090 6.610140 0 0 196 0.983890
0.015581 -0.042416 6.588770 0 0 146 0.995562
0.011225 -0.030828 6.558600 0 0 137 0.997539
0.030602 -0.032683 6.566960 0 0 133 0.998605
0.026316 -0.020983 6.536290 0 0 128 0.998985
0.006641 -0.019692 6.527620 0 0 133 0.998684
0.045799 -0.022367 6.544730 0 0 133 0.998815
0.070606 -0.045345 6.615570 0 0 137 0.997416
0.087576 -0.035509 6.593730 0 0 133 0.998042
0.067379 -0.033830 6.584910 0 0 133 0.998356
0.104854 -0.025668 6.571510 0 0 142 0.996116
0.084583 -0.024232 6.562540 0 0 137 0.997539
0.101123 -0.013554 6.540910 0 0 142 0.996344
0.121563 -0.014297 6.549870 0 0 146 0.995153
0.064342 -0.022893 6.553520 0 0 133 0.998448
0.080888 -0.012902 6.531730 0 0 137 0.997273
0.049147 -0.033419 6.575780 0 0 133 0.998671
0.033980 -0.043363 6.597670 0 0 142 0.996418
0.052440 -0.044422 6.606620 0 0 137 0.997278
0.037120 -0.054024 6.628430 0 0 173 0.989363
0.018919 -0.052127 6.619370 0 0 187 0.986302
0.055404 -0.055624 6.637340 0 0 164 0.991345
0.135841 -0.003526 6.529440 0 0 146 0.995049
0.150929 0.008889 6.511060 0 0 151 0.994081
0.129400 0.008046 6.500120 0 0 151 0.994404
0.165314 0.021621 6.493700 0 0 192 0.985584
0.144124 0.020748 6.482230 0 0 178 0.988217
0.122679 0.019640 6.470820 0 0 169 0.990088
0.109030 0.007065 6.489980 0 0 151 0.994934
0.095203 -0.004023 6.510280 0 0 146 0.995327
0.115565 -0.003784 6.519890 0 0 146 0.995234
0.201238 0.000805 6.097540 0 0 146 0.995746
0.192284 0.008982 6.114290 0 0 160 0.992255
0.215441 0.009221 6.125760 0 0 164 0.991820
0.206353 0.016738 6.142570 0 0 183 0.987586
0.183066 0.016522 6.131190 0 0 178 0.988161
0.229253 0.016353 6.154130 0 0 183 0.987825
0.196786 0.023407 6.159820 0 0 196 0.984397
0.219828 0.023378 6.171150 0 0 196 0.984264
0.209942 0.029619 6.188610 0 0 205 0.981832
0.173419 0.023173 6.148540 0 0 192 0.985511
0.186882 0.029551 6.177510 0 0 201 0.982920
0.163441 0.029066 6.166310 0 0 196 0.984265
0.242535 0.022806 6.182520 0 0 196 0.984751
0.232868 0.029474 6.200020 0 0 210 0.981065
0.255696 0.028949 6.211510 0 0 210 0.980993
0.265384 0.022207 6.194590 0 0 192 0.985458
0.251918 0.015758 6.165970 0 0 178 0.988870
0.274548 0.014933 6.178090 0 0 169 0.990156
0.260893 0.008332 6.149700 0 0 155 0.993300
0.238239 0.008951 6.137780 0 0 160 0.992406
0.247023 0.001090 6.121600 0 0 146 0.995732
0.283506 0.007288 6.161930 0 0 151 0.994545
0.269728 0.000409 6.133600 0 0 142 0.996293
0.292369 -0.000488 6.145770 0 0 142 0.996615
0.224307 0.001181 6.109520 0 0 146 0.995586
0.152978 0.032097 6.185330 0 0 173 0.989537
0.175836 0.032766 6.195780 0 0 178 0.987979
0.165320 0.035698 6.214940 0 0 164 0.991776
0.142613 0.034993 6.204440 0 0 155 0.993229
0.187861 0.036128 6.225370 0 0 169 0.990487
0.154867 0.038665 6.233930 0 0 155 0.993637
0.177391 0.039171 6.244560 0 0 160 0.992427
0.132475 0.038110 6.223410 0 0 151 0.994225
0.199994 0.039421 6.255510 0 0 164 0.991784
0.222955 0.039434 6.267020 0 0 164 0.990983
0.210926 0.036296 6.236820 0 0 173 0.989789
0.233798 0.036185 6.248460 0 0 178 0.988765
0.221901 0.033096 6.218340 0 0 187 0.985978
0.198835 0.033023 6.206970 0 0 183 0.987145
0.244859 0.032774 6.229860 0 0 192 0.985219
0.293575 0.039791 6.304230 0 0 187 0.986283
0.305435 0.036015 6.285770 0 0 201 0.983633
0.281077 0.036508 6.272610 0 0 196 0.984824
0.317147 0.031766 6.267560 0 0 210 0.981336
0.292747 0.032602 6.254520 0 0 210 0.981742
0.304390 0.028090 6.236750 0 0 219 0.979405
0.328670 0.026926 6.249930 0 0 214 0.979810
0.268412 0.032916 6.241680 0 0 205 0.982785
0.280056 0.028787 6.224020 0 0 214 0.979806
0.257459 0.036519 6.260390 0 0 183 0.986979
0.246639 0.039863 6.279150 0 0 173 0.989410
0.270070 0.040008 6.291740 0 0 183 0.987837
0.338063 0.019353 6.233200 0 0 183 0.987101
0.347534 0.011269 6.217370 0 0 155 0.993140
0.323103 0.012854 6.203790 0 0 164 0.991883
0.356739 0.003087 6.201620 0 0 142 0.996654
0.332420 0.004800 6.188130 0 0 142 0.996174
0.341556 -0.002752 6.172430 0 0 142 0.996598
0.365938 -0.004575 6.185720 0 0 142 0.996115
0.307880 0.006173 6.174750 0 0 146 0.995293
0.317043 -0.001497 6.158980 0 0 142 0.996737
0.298848 0.014154 6.190800 0 0 169 0.990748
0.289579 0.021788 6.207170 0 0 192 0.985249
0.313930 0.020718 6.220040 0 0 187 0.986013
-0.058587 -0.889320 6.325820 0 1 255 0.966727
-0.071618 -0.879988 6.349940 0 5 255 0.964996
-0.096773 -0.875921 6.370430 0 0 246 0.972876
-0.110148 -0.873674 6.397500 0 0 192 0.985607
-0.135551 -0.874701 6.420360 0 0 192 0.985113
-0.111740 -0.872331 6.430860 0 0 196 0.984129
-0.134022 -0.875754 6.387170 0 0 187 0.986635
-0.159371 -0.876310 6.409440 0 0 178 0.988631
-0.120440 -0.877721 6.359090 0 0 251 0.972126
-0.106861 -0.883432 6.332960 0 13 255 0.963710
-0.081841 -0.891872 6.314030 0 5 255 0.965680
-0.105413 -0.893460 6.301900 0 5 255 0.964917
-0.124559 -0.869965 6.458820 0 0 251 0.971477
-0.149655 -0.868603 6.482600 0 69 255 0.947524
-0.162607 -0.864522 6.511100 0 169 255 0.917073
-0.187698 -0.858988 6.534120 32 255 216 0.884753
-0.164171 -0.857061 6.544660 42 255 206 0.879160
-0.186254 -0.865547 6.500620 0 141 255 0.925787
-0.211257 -0.859851 6.522960 0 225 251 0.899300
-0.173358 -0.869984 6.471920 0 45 255 0.954298
-0.160239 -0.872949 6.443440 0 0 233 0.975974
-0.233510 -0.867548 6.479270 0 109 255 0.935743
-0.220188 -0.871807 6.450400 0 17 255 0.962010
-0.195489 -0.874073 6.427110 0 0 205 0.982240
-0.182727 -0.877429 6.398410 0 0 169 0.990600
-0.196701 -0.870975 6.461260 0 29 255 0.958300
-0.209840 -0.866477 6.489580 0 117 255 0.933605
-0.234740 -0.860941 6.512300 0 217 255 0.902026
-0.180823 -0.877777 6.364690 0 0 187 0.986874
-0.166997 -0.880565 6.336590 0 0 255 0.971128
-0.141721 -0.885231 6.315620 0 25 255 0.959666
-0.128449 -0.895132 6.289990 0 13 255 0.963511
-0.143807 -0.878930 6.347800 0 0 255 0.970662
-0.157390 -0.876900 6.375580 0 0 187 0.986253
0.115106 -0.827016 6.432930 116 255 132 0.844840
0.088410 -0.828296 6.452260 35 255 213 0.882348
0.087629 -0.827425 6.485430 0 181 255 0.913362
0.060806 -0.831516 6.506800 0 85 255 0.942936
0.061723 -0.832048 6.472780 0 141 255 0.926522
0.034984 -0.836993 6.494850 0 45 255 0.953985
0.062411 -0.834639 6.439170 0 213 255 0.903531
0.088790 -0.833056 6.419820 74 255 174 0.865512
0.115161 -0.834023 6.401830 125 255 122 0.839952
0.088780 -0.843149 6.389930 38 255 209 0.881607
0.059376 -0.828600 6.541430 0 57 255 0.951179
0.033049 -0.828007 6.564250 0 65 255 0.948581
0.019397 -0.823418 6.592260 0 105 255 0.936839
0.005841 -0.817205 6.620320 0 149 255 0.924191
-0.019146 -0.823170 6.610040 0 157 255 0.921858
-0.005623 -0.829095 6.581320 0 81 255 0.944589
0.008062 -0.833539 6.552490 0 33 255 0.958223
0.034148 -0.833394 6.529500 0 17 255 0.961779
-0.067963 -0.837842 6.590120 9 241 238 0.893921
-0.054419 -0.843497 6.560550 0 113 255 0.934561
-0.028767 -0.843983 6.536780 0 25 255 0.959897
-0.015324 -0.846811 6.507450 0 0 223 0.978097
0.010300 -0.844597 6.484130 0 9 255 0.964334
-0.014388 -0.852136 6.473660 0 0 183 0.987247
0.009169 -0.839339 6.518300 0 0 246 0.972596
-0.030050 -0.836569 6.571590 0 105 255 0.937292
-0.043424 -0.830516 6.600130 0 197 255 0.908351
-0.001096 -0.851022 6.445450 0 9 255 0.964424
0.024831 -0.848191 6.423820 0 93 255 0.940960
0.038170 -0.852353 6.398680 0 105 255 0.936890
0.063892 -0.853906 6.380010 0 157 255 0.921874
0.038932 -0.864189 6.370030 0 77 255 0.945738
0.062966 -0.842193 6.408770 0 209 255 0.905175
0.036399 -0.838992 6.461020 0 77 255 0.945404
0.013367 -0.861072 6.389060 0 65 255 0.948375
-0.000008 -0.856667 6.413990 0 45 255 0.954488
-0.025620 -0.858610 6.435640 0 0 255 0.967499
-0.038782 -0.858807 6.463410 0 0 192 0.985537
-0.063525 -0.864001 6.452280 0 0 196 0.983965
-0.050250 -0.864216 6.424410 0 0 201 0.983838
-0.024626 -0.863202 6.403380 0 33 255 0.957920
-0.011267 -0.867893 6.378000 0 61 255 0.949705
0.014445 -0.872817 6.359760 0 57 255 0.950753
-0.010330 -0.879341 6.348600 0 65 255 0.948571
-0.039536 -0.854096 6.497450 0 0 237 0.974936
-0.053034 -0.851112 6.526200 0 45 255 0.954912
-0.078376 -0.850847 6.550210 0 177 255 0.915002
-0.091954 -0.845400 6.579840 61 255 187 0.870524
-0.116457 -0.850150 6.567750 48 255 200 0.876731
-0.102758 -0.856118 6.538350 0 189 255 0.911725
-0.077169 -0.856954 6.514970 0 65 255 0.948712
-0.063967 -0.859971 6.486390 0 0 255 0.970721
-0.138740 -0.861876 6.522310 0 185 255 0.912767
-0.125449 -0.865971 6.493470 0 81 255 0.944329
-0.100294 -0.866381 6.470000 0 0 255 0.970771
-0.087513 -0.868722 6.441880 0 0 201 0.982894
-0.101294 -0.862103 6.504070 0 77 255 0.944762
-0.140231 -0.854162 6.556380 48 255 200 0.876877
-0.086234 -0.870248 6.408660 0 0 196 0.984636
-0.072786 -0.872795 6.381680 0 0 246 0.972667
-0.047459 -0.875845 6.361850 0 73 255 0.946802
-0.034286 -0.884822 6.337480 0 69 255 0.947302
-0.048735 -0.868528 6.392770 0 41 255 0.955983
-0.068350 -0.821502 6.622520 13 245 235 0.892365
-0.068168 -0.802411 6.653220 9 241 238 0.893209
-0.043773 -0.813803 6.631750 0 197 255 0.908076
-0.043747 -0.794204 6.661220 0 185 255 0.912927
-0.067762 -0.780497 6.680880 0 229 248 0.898073
-0.067045 -0.756488 6.706550 0 221 255 0.900012
-0.091399 -0.763797 6.700150 45 255 203 0.878602
-0.092271 -0.787362 6.672720 35 255 213 0.882787
-0.092887 -0.808603 6.643740 42 255 206 0.880548
-0.116562 -0.769811 6.691440 77 255 171 0.864314
-0.019247 -0.806928 6.640620 0 161 255 0.920443
-0.019010 -0.788139 6.668860 0 149 255 0.923919
0.005754 -0.800850 6.650090 0 141 255 0.926205
-0.018120 -0.767381 6.694580 0 129 255 0.929684
-0.042006 -0.750165 6.712690 0 149 255 0.924091
-0.043117 -0.773104 6.687910 0 145 255 0.925064
-0.066628 -0.671491 6.757710 0 61 255 0.949739
-0.059443 -0.699133 6.743820 0 89 255 0.942100
-0.084302 -0.703440 6.738240 0 117 255 0.933305
-0.091719 -0.675578 6.752060 0 97 255 0.939144
-0.063815 -0.728258 6.725880 0 129 255 0.929886
-0.038408 -0.722303 6.731740 0 93 255 0.940945
-0.116869 -0.681415 6.746870 0 161 255 0.919605
-0.109280 -0.710747 6.733180 0 201 255 0.906908
-0.134253 -0.715222 6.726410 0 225 251 0.899576
-0.142173 -0.686248 6.740460 0 193 255 0.909264
-0.113302 -0.741356 6.714200 48 255 200 0.877051
-0.088500 -0.734132 6.720360 0 201 255 0.906684
-0.343469 -0.172079 6.614220 0 169 255 0.917665
-0.333342 -0.193605 6.634550 0 193 255 0.909663
-0.327165 -0.153270 6.603040 0 93 255 0.940247
-0.316949 -0.174881 6.623830 0 105 255 0.937497
-0.299789 -0.156221 6.611560 0 33 255 0.958195
-0.306845 -0.196606 6.643500 0 121 255 0.932520
-0.309803 -0.134371 6.590050 0 37 255 0.956608
-0.292094 -0.115007 6.576010 0 0 255 0.967083
-0.322497 -0.109954 6.566870 0 77 255 0.945207
-0.339822 -0.129821 6.579890 0 121 255 0.931763
-0.288611 -0.178513 6.632850 0 37 255 0.956142
-0.279717 -0.199875 6.652680 0 73 255 0.946621
-0.269957 -0.161130 6.619970 0 0 242 0.973791
-0.261173 -0.181809 6.640610 0 0 255 0.969733
-0.242292 -0.163544 6.627530 0 0 223 0.978660
-0.252113 -0.202665 6.660510 0 13 255 0.963372
-0.251241 -0.142262 6.607090 0 0 219 0.978696
-0.232669 -0.121680 6.594890 0 0 219 0.979141
-0.262225 -0.118890 6.585370 0 0 228 0.977166
-0.281039 -0.138098 6.598590 0 0 251 0.971778
-0.204139 -0.047017 6.516310 0 0 214 0.980195
-0.220636 -0.046464 6.510210 0 0 210 0.981025
-0.227301 -0.065319 6.531510 0 0 196 0.983919
-0.243446 -0.064062 6.525260 0 0 192 0.985424
-0.236861 -0.045370 6.503620 0 0 205 0.982584
-0.249279 -0.083079 6.545940 0 0 196 0.984625
-0.259479 -0.062593 6.518930 0 0 196 0.984143
-0.265448 -0.081647 6.539750 0 0 192 0.985140
-0.281386 -0.079237 6.533990 0 0 196 0.984246
-0.253282 -0.044655 6.496980 0 0 201 0.983802
-0.275752 -0.061360 6.512340 0 0 196 0.984212
-0.269535 -0.043459 6.489920 0 0 201 0.983434
-0.270858 -0.099646 6.560790 0 0 205 0.982612
-0.286942 -0.097309 6.555200 0 0 219 0.979454
-0.241102 -0.102327 6.570740 0 0 205 0.982524
-0.219645 -0.083939 6.556920 0 0 210 0.981504
-0.286239 -0.041754 6.483420 0 0 201 0.983368
-0.307526 -0.057705 6.499960 0 0 210 0.981133
-0.302693 -0.039709 6.476550 0 0 210 0.981698
-0.311717 -0.075884 6.523130 0 0 219 0.978855
-0.324034 -0.055617 6.493110 0 0 228 0.977537
-0.328344 -0.073266 6.516690 0 0 251 0.971725
-0.319564 -0.038280 6.469460 0 0 223 0.978436
-0.332298 -0.091356 6.539570 0 13 255 0.962793
-0.081876 -0.062056 6.596240 0 0 251 0.971413
-0.065968 -0.061448 6.604820 0 0 255 0.968463
-0.078254 -0.076021 6.625000 0 53 255 0.952412
-0.094316 -0.077123 6.616200 0 21 255 0.960874
-0.062549 -0.074765 6.634180 0 61 255 0.950073
-0.090128 -0.092259 6.644520 0 81 255 0.944251
-0.074651 -0.090833 6.653620 0 109 255 0.936066
-0.085066 -0.109130 6.670740 0 129 255 0.929676
-0.105506 -0.094428 6.635280 0 53 255 0.952225
-0.100287 -0.111214 6.661770 0 93 255 0.940122
-0.115479 -0.113189 6.652180 0 61 255 0.949664
-0.058651 -0.089853 6.662460 0 125 255 0.931119
-0.069527 -0.107941 6.680340 0 161 255 0.920150
-0.054050 -0.106511 6.689760 0 197 255 0.908731
-0.041244 -0.089959 6.671710 0 129 255 0.929953
-0.045207 -0.074771 6.642990 0 53 255 0.951898
-0.027516 -0.075921 6.651620 0 41 255 0.955337
-0.031209 -0.061766 6.622830 0 0 255 0.967587
-0.048715 -0.061019 6.613900 0 5 255 0.964928
-0.013509 -0.062675 6.631410 0 0 255 0.970816
-0.122377 -0.136876 6.665810 0 13 255 0.963389
-0.114643 -0.158388 6.686680 0 1 255 0.966840
-0.119853 -0.182174 6.697920 0 0 255 0.970372
-0.110652 -0.203719 6.717190 0 0 255 0.970673
-0.139160 -0.205680 6.701060 0 0 246 0.973247
-0.091599 -0.179400 6.715180 0 9 255 0.964321
-0.082462 -0.201322 6.734390 0 13 255 0.963689
-0.076766 -0.177528 6.725220 0 45 255 0.954608
-0.085454 -0.155104 6.705190 0 53 255 0.952047
-0.070387 -0.153983 6.714700 0 81 255 0.944319
-0.078442 -0.130681 6.693820 0 117 255 0.933813
-0.093558 -0.132729 6.684110 0 85 255 0.943442
-0.062836 -0.129805 6.703180 0 157 255 0.920708
-0.034653 -0.175461 6.754700 0 121 255 0.932113
-0.027014 -0.151137 6.745230 0 193 255 0.909787
-0.041794 -0.152002 6.734660 0 145 255 0.925045
-0.017554 -0.127862 6.733550 6 237 242 0.895208
-0.032909 -0.128369 6.723370 0 209 255 0.905052
-0.021936 -0.106115 6.709510 3 233 245 0.897102
-0.005485 -0.106990 6.718550 0 209 255 0.904478
-0.037868 -0.106287 6.699690 0 225 251 0.899231
-0.054649 -0.199439 6.754000 0 65 255 0.948230
0.008072 -0.093162 6.698970 0 89 255 0.941985
0.023564 -0.080181 6.679140 0 1 255 0.966292
0.005350 -0.077994 6.670310 0 29 255 0.959226
0.039133 -0.067994 6.658370 0 0 196 0.984349
0.021163 -0.065613 6.649610 0 0 228 0.977274
0.003125 -0.064033 6.640480 0 0 242 0.973633
-0.011296 -0.076086 6.661510 0 53 255 0.951643
-0.024971 -0.090055 6.681330 0 137 255 0.927901
-0.008399 -0.091163 6.690590 0 125 255 0.930721
-0.148627 -0.184743 6.681640 0 0 251 0.971846
-0.142976 -0.162231 6.669340 0 0 251 0.972378
-0.151767 -0.140520 6.648600 0 0 251 0.971684
-0.145305 -0.117037 6.635560 0 0 255 0.967117
-0.174402 -0.120516 6.619580 0 0 242 0.973842
-0.179758 -0.143497 6.633720 0 0 242 0.973696
-0.171717 -0.164358 6.654700 0 0 242 0.974315
-0.176647 -0.186278 6.668650 0 0 237 0.975209
-0.167625 -0.206731 6.688730 0 0 242 0.973660
-0.196096 -0.206420 6.677740 0 0 237 0.975292
-0.121972 -0.095508 6.626520 0 33 255 0.958138
-0.110780 -0.077926 6.607810 0 21 255 0.961440
-0.127528 -0.078633 6.599440 0 1 255 0.966627
-0.098737 -0.062503 6.588210 0 0 255 0.970947
-0.115810 -0.062261 6.580270 0 0 255 0.971147
-0.103856 -0.048022 6.559970 0 0 223 0.977880
-0.086687 -0.048071 6.567980 0 0 223 0.978693
-0.132768 -0.063062 6.572140 0 0 242 0.973825
-0.120721 -0.048033 6.551850 0 0 219 0.979382
-0.137546 -0.048229 6.544220 0 0 214 0.979900
-0.157910 -0.081810 6.584520 0 0 246 0.973174
-0.152110 -0.099491 6.610470 0 0 255 0.969525
-0.197347 -0.064563 6.543620 0 0 219 0.979634
-0.190220 -0.083103 6.569770 0 0 223 0.977790
-0.211976 -0.103014 6.582120 0 0 219 0.979194
-0.203398 -0.121728 6.606500 0 0 228 0.977060
-0.182649 -0.101355 6.595160 0 0 237 0.975259
-0.174256 -0.082499 6.577160 0 0 233 0.975954
-0.164672 -0.064338 6.557650 0 0 228 0.976956
-0.181085 -0.064269 6.550680 0 0 228 0.976712
-0.171004 -0.047162 6.530390 0 0 214 0.980709
-0.154395 -0.047571 6.537340 0 0 219 0.979045
-0.187671 -0.047195 6.523450 0 0 214 0.979760
-0.223857 -0.143128 6.615700 0 0 223 0.977804
-0.214811 -0.164616 6.636760 0 0 228 0.976793
-0.233347 -0.184184 6.648740 0 0 237 0.975542
-0.224286 -0.204721 6.669060 0 0 255 0.971231
-0.205537 -0.185825 6.657490 0 0 233 0.975629
-0.142439 -0.230471 6.711360 0 0 237 0.975502
-0.132646 -0.254494 6.728200 0 0 228 0.976707
-0.137901 -0.278234 6.739880 0 0 223 0.978615
-0.129127 -0.301829 6.756750 0 0 251 0.972191
-0.157282 -0.300480 6.746240 0 0 255 0.970296
-0.109511 -0.278916 6.750590 0 0 233 0.976220
-0.100903 -0.302508 6.766940 0 0 246 0.973006
-0.103899 -0.254261 6.741050 0 0 242 0.973513
-0.099824 -0.229151 6.732740 0 0 246 0.973357
-0.159310 -0.326377 6.751680 0 0 228 0.976933
-0.148126 -0.353029 6.762540 0 0 223 0.977669
-0.150901 -0.379440 6.768320 0 0 237 0.974583
-0.124544 -0.379461 6.777710 0 0 246 0.972464
-0.121138 -0.353720 6.772560 0 0 233 0.975645
-0.117953 -0.328303 6.766900 0 0 237 0.974568
-0.071127 -0.380672 6.797920 0 29 255 0.958938
-0.066745 -0.355306 6.793970 0 13 255 0.962880
-0.076383 -0.329542 6.783680 0 0 255 0.968932
-0.072860 -0.303399 6.779310 0 0 255 0.970481
-0.093760 -0.354669 6.782730 0 0 255 0.969843
-0.097578 -0.380129 6.787610 0 0 255 0.968329
-0.053577 -0.279484 6.778190 0 0 255 0.969164
-0.048759 -0.253503 6.773240 0 0 251 0.972038
-0.058448 -0.227160 6.759020 0 0 255 0.968177
-0.075748 -0.254052 6.756100 0 0 242 0.973977
-0.080585 -0.279069 6.763470 0 0 246 0.972395
-0.246474 -0.673741 6.723670 29 255 219 0.885879
-0.250408 -0.704815 6.702660 0 213 255 0.902700
-0.270445 -0.676667 6.714480 29 255 219 0.884954
-0.253842 -0.735127 6.679540 0 205 255 0.905326
-0.274333 -0.707474 6.692600 0 205 255 0.906113
-0.277529 -0.736969 6.668480 0 173 255 0.915811
-0.294442 -0.679347 6.704430 13 245 235 0.892158
-0.256576 -0.763960 6.654260 0 193 255 0.909422
-0.258575 -0.791274 6.627050 0 193 255 0.910237
-0.235263 -0.789918 6.638510 0 229 248 0.897668
-0.233115 -0.761947 6.665170 0 225 251 0.899175
-0.230136 -0.732379 6.689730 0 225 251 0.899517
-0.212209 -0.787833 6.650000 32 255 216 0.884247
-0.297918 -0.709540 6.681790 0 181 255 0.913291
-0.318174 -0.681761 6.694280 0 229 248 0.897332
-0.300643 -0.738774 6.656840 0 141 255 0.925856
-0.321441 -0.710977 6.671030 0 161 255 0.920195
-0.323826 -0.739734 6.645310 0 125 255 0.931490
-0.341827 -0.683944 6.683710 0 229 248 0.897857
-0.302801 -0.766261 6.630400 0 129 255 0.930397
-0.304801 -0.792735 6.603530 0 153 255 0.922000
-0.281719 -0.792147 6.615590 0 177 255 0.914886
-0.279773 -0.765191 6.642500 0 165 255 0.918373
-0.258033 -0.847294 6.532380 0 189 255 0.911203
-0.257863 -0.830928 6.563760 0 165 255 0.919050
-0.234880 -0.846902 6.543820 0 205 255 0.905356
-0.234879 -0.830203 6.575580 0 189 255 0.911306
-0.258207 -0.812595 6.595310 0 161 255 0.920282
-0.281271 -0.812934 6.583740 0 125 255 0.930702
-0.281216 -0.831351 6.552210 0 137 255 0.927288
-0.211330 -0.845659 6.554700 0 221 255 0.900275
-0.211561 -0.829246 6.586920 0 221 255 0.900659
-0.188025 -0.844480 6.566370 25 255 222 0.887573
-0.188526 -0.827458 6.598530 16 249 232 0.891414
-0.212024 -0.810181 6.618730 6 237 242 0.895813
-0.234984 -0.811478 6.606900 0 189 255 0.910478
-0.281352 -0.847051 6.521130 0 161 255 0.920126
-0.304624 -0.831530 6.540460 0 117 255 0.933826
-0.304531 -0.813261 6.571670 0 105 255 0.937261
-0.327812 -0.793029 6.590900 0 105 255 0.937456
-0.327670 -0.813167 6.559250 0 73 255 0.946482
-0.350823 -0.793507 6.577920 0 69 255 0.947806
-0.327585 -0.831573 6.527350 0 85 255 0.943262
-0.304580 -0.847286 6.508590 0 129 255 0.930110
-0.325659 -0.766963 6.618710 0 105 255 0.937428
-0.346783 -0.740224 6.633930 0 97 255 0.939911
-0.344766 -0.712338 6.659960 0 137 255 0.927341
-0.365262 -0.685720 6.673550 0 221 255 0.900955
-0.367872 -0.713602 6.648960 0 121 255 0.932546
-0.388177 -0.687790 6.662950 0 193 255 0.910356
-0.369761 -0.741165 6.621360 0 57 255 0.950706
-0.348587 -0.767364 6.605840 0 49 255 0.952733
-0.414645 -0.716292 6.626100 0 77 255 0.944922
-0.393615 -0.741730 6.610300 0 33 255 0.957438
-0.395922 -0.768207 6.581100 0 0 255 0.967617
-0.374621 -0.793695 6.564730 0 21 255 0.960658
-0.372232 -0.767603 6.594170 0 29 255 0.959026
-0.391102 -0.715053 6.637260 0 89 255 0.941203
-0.411697 -0.690131 6.652430 0 197 255 0.908973
-0.375029 -0.813642 6.533340 0 25 255 0.960181
-0.351758 -0.831908 6.515040 0 73 255 0.946164
-0.351957 -0.848117 6.483010 0 89 255 0.941258
-0.328445 -0.847650 6.496400 0 117 255 0.933437
-0.351065 -0.813507 6.545900 0 45 255 0.954086
-0.430043 -0.430345 6.662370 0 0 173 0.989261
-0.429080 -0.397711 6.652100 0 0 155 0.993213
-0.419888 -0.362986 6.648280 0 0 160 0.992481
-0.409628 -0.393983 6.661910 0 0 155 0.993173
-0.400209 -0.359832 6.658170 0 0 164 0.991560
-0.410318 -0.426653 6.671270 0 0 173 0.989602
-0.411731 -0.329505 6.645890 0 0 192 0.985246
-0.403659 -0.297055 6.644450 0 5 255 0.965876
-0.424715 -0.299495 6.632340 0 0 242 0.973960
-0.432308 -0.331716 6.634090 0 0 173 0.989074
-0.390113 -0.423028 6.680630 0 0 178 0.988237
-0.388998 -0.391491 6.671990 0 0 160 0.992762
-0.378446 -0.358068 6.668950 0 0 169 0.990590
-0.368337 -0.388621 6.681550 0 0 164 0.991875
-0.357692 -0.355523 6.678020 0 0 169 0.990172
-0.369344 -0.419688 6.690180 0 0 183 0.987214
-0.368256 -0.325852 6.666970 0 0 205 0.982037
-0.359110 -0.294617 6.665850 0 25 255 0.959837
-0.381437 -0.295478 6.655670 0 21 255 0.960729
-0.390424 -0.327146 6.656640 0 0 201 0.983021
-0.370281 -0.216496 6.629170 0 141 255 0.925817
-0.381351 -0.242589 6.634080 0 77 255 0.944704
-0.395840 -0.215934 6.616790 0 157 255 0.920723
-0.406173 -0.242510 6.620650 0 65 255 0.948685
-0.392245 -0.269819 6.638870 0 25 255 0.960338
-0.370020 -0.268614 6.650080 0 41 255 0.955627
-0.358599 -0.241842 6.644760 0 85 255 0.943502
-0.419025 -0.217728 6.602820 0 105 255 0.937055
-0.427945 -0.245252 6.608090 0 25 255 0.960333
-0.443132 -0.219306 6.588110 0 61 255 0.949919
-0.436873 -0.273414 6.613900 0 0 242 0.973903
-0.415519 -0.270666 6.626490 0 5 255 0.965836
-0.226420 -0.701290 6.712560 0 221 255 0.900086
-0.206342 -0.728742 6.700450 13 245 235 0.892488
-0.209670 -0.759435 6.676150 19 253 229 0.889031
-0.188642 -0.784664 6.661730 64 255 184 0.868900
-0.186064 -0.755417 6.686900 35 255 213 0.882370
-0.165067 -0.780504 6.672170 77 255 171 0.862980
-0.182915 -0.725158 6.709820 19 253 229 0.890013
-0.202667 -0.698003 6.721890 6 237 242 0.895424
-0.222338 -0.670474 6.732780 35 255 213 0.883280
-0.198531 -0.666347 6.740510 16 249 232 0.891745
-0.188657 -0.807249 6.631050 25 255 222 0.886329
-0.164892 -0.824269 6.611060 45 255 203 0.877885
-0.164546 -0.842299 6.578260 48 255 200 0.876879
-0.140791 -0.838325 6.589920 51 255 196 0.875386
-0.141157 -0.820277 6.622040 58 255 190 0.872132
-0.165075 -0.803677 6.642260 51 255 196 0.876144
-0.092572 -0.828062 6.613150 51 255 196 0.874847
-0.116794 -0.814848 6.634040 64 255 184 0.869404
-0.116834 -0.793251 6.663630 55 255 193 0.873406
-0.140766 -0.775791 6.682510 87 255 161 0.858709
-0.141111 -0.798607 6.653760 64 255 184 0.870336
-0.116721 -0.834038 6.601450 64 255 184 0.869437
-0.137734 -0.745432 6.706280 42 255 206 0.880200
-0.158494 -0.719901 6.719090 6 237 242 0.894701
-0.166448 -0.691108 6.733990 6 237 242 0.895309
-0.173949 -0.662114 6.748020 0 229 248 0.898172
-0.162146 -0.750844 6.697040 38 255 209 0.880811
-0.171083 -0.230272 6.700600 0 0 233 0.976395
-0.175101 -0.253366 6.713160 0 0 219 0.979038
-0.204257 -0.251855 6.702650 0 0 228 0.976891
-0.199992 -0.229060 6.690310 0 0 233 0.975643
-0.193783 -0.275533 6.719940 0 0 237 0.975097
-0.211822 -0.298269 6.725170 0 0 255 0.967701
-0.184940 -0.299567 6.736490 0 0 255 0.967571
-0.166273 -0.276847 6.729980 0 0 228 0.976633
-0.227627 -0.227543 6.682110 0 0 255 0.970358
-0.230881 -0.250636 6.693840 0 0 242 0.973649
-0.258153 -0.248728 6.683910 0 0 255 0.968587
-0.255309 -0.225411 6.672920 0 9 255 0.964201
-0.247334 -0.273278 6.699440 0 0 255 0.969736
-0.263207 -0.296411 6.704060 0 0 255 0.967434
