ply
format ascii 1.0
comment VCGLIB generated
element vertex 1051
property float x
property float y
property float z
property uchar red
property uchar green
property uchar blue
property float quality
end_header
0.047486 -0.942862 6.229310 173 0 0 0.996520
0.023178 -0.948877 6.217490 169 0 0 0.996750
0.101030 -0.961518 6.194460 255 34 0 0.988551
0.127097 -0.969460 6.176320 255 97 0 0.981720
0.098213 -0.944558 6.223560 205 0 0 0.993993
0.124467 -0.953929 6.205960 255 38 0 0.987847
0.096035 -0.928213 6.252560 183 0 0 0.995766
0.071470 -0.935708 6.241190 178 0 0 0.996106
0.166056 -0.966722 6.161760 255 93 0 0.982219
0.193249 -0.966685 6.142110 255 116 0 0.979614
0.208419 -0.968636 6.115820 255 145 0 0.976586
0.235380 -0.964493 6.096020 255 171 0 0.973650
0.212646 -0.973193 6.082530 255 171 0 0.973476
0.230842 -0.958323 6.128460 255 127 0 0.978463
0.256855 -0.950994 6.108490 255 123 0 0.979097
0.215771 -0.955388 6.153720 255 97 0 0.981656
0.200806 -0.951272 6.179290 255 78 0 0.983635
0.226427 -0.964916 6.056310 255 97 0 0.981895
0.252089 -0.952066 6.037970 255 82 0 0.983207
0.266366 -0.940916 6.012870 255 78 0 0.983801
0.288472 -0.930994 6.027680 255 53 0 0.986298
0.274742 -0.941871 6.052160 255 67 0 0.984838
0.260862 -0.950737 6.077020 255 119 0 0.979540
0.331372 -0.907398 6.057260 255 38 0 0.988151
0.317877 -0.916896 6.081120 255 45 0 0.987421
0.293154 -0.931201 6.097900 255 45 0 0.987248
0.279485 -0.937855 6.122340 255 82 0 0.983507
0.296186 -0.929076 6.066360 255 30 0 0.988814
0.310214 -0.918945 6.042390 255 27 0 0.988940
0.275999 -0.930590 6.154160 251 16 0 0.990368
0.261521 -0.927732 6.178900 251 16 0 0.990223
0.235382 -0.930702 6.197290 228 0 0 0.991989
0.238265 -0.941597 6.165840 255 34 0 0.988328
0.253304 -0.944362 6.140570 255 75 0 0.984021
0.165906 -0.553832 5.650870 160 0 0 0.997338
0.161764 -0.531957 5.645710 155 0 0 0.997672
0.170782 -0.508404 5.649270 151 0 0 0.998085
0.167186 -0.484294 5.643680 146 0 0 0.998457
0.193782 -0.482539 5.660520 142 0 0 0.998661
0.195847 -0.506007 5.665520 151 0 0 0.998134
0.186328 -0.529834 5.662160 155 0 0 0.997678
0.189005 -0.551504 5.666560 160 0 0 0.997330
0.180703 -0.574083 5.662470 164 0 0 0.997231
0.203102 -0.571597 5.678940 160 0 0 0.997438
0.148585 -0.462149 5.635010 142 0 0 0.998904
0.143209 -0.437812 5.631830 137 0 0 0.999193
0.158359 -0.437183 5.641580 137 0 0 0.999032
0.138149 -0.412718 5.628150 133 0 0 0.999418
0.153767 -0.411870 5.637440 133 0 0 0.999379
0.149129 -0.385745 5.632480 137 0 0 0.999173
0.133242 -0.386455 5.624000 133 0 0 0.999320
0.169109 -0.411318 5.646240 133 0 0 0.999333
0.164893 -0.384775 5.641240 137 0 0 0.999107
0.180417 -0.383914 5.649410 137 0 0 0.999020
0.186567 -0.434878 5.656660 137 0 0 0.999164
0.176144 -0.460256 5.651340 137 0 0 0.999049
0.242566 -0.377853 5.679390 151 0 0 0.997962
0.243950 -0.404686 5.682440 142 0 0 0.998905
0.230932 -0.431787 5.679070 137 0 0 0.999250
0.232606 -0.456030 5.681500 133 0 0 0.999321
0.220925 -0.480583 5.675220 142 0 0 0.998640
0.247984 -0.478343 5.690650 142 0 0 0.998954
0.204600 -0.458822 5.667050 137 0 0 0.999255
0.201817 -0.434082 5.664220 137 0 0 0.999229
0.199304 -0.408785 5.660430 137 0 0 0.999247
0.214737 -0.407539 5.668060 137 0 0 0.999086
0.212062 -0.381390 5.663910 151 0 0 0.998251
0.196591 -0.382530 5.656520 146 0 0 0.998464
0.227585 -0.379567 5.671490 155 0 0 0.997777
0.248172 -0.502137 5.695610 142 0 0 0.998791
0.236652 -0.526666 5.692020 151 0 0 0.998067
0.237775 -0.548402 5.696510 155 0 0 0.997683
0.226938 -0.570015 5.694020 155 0 0 0.997593
0.251105 -0.568594 5.708380 160 0 0 0.997463
0.213489 -0.549749 5.682660 155 0 0 0.997596
0.211446 -0.528164 5.677330 155 0 0 0.997856
0.222465 -0.504480 5.680770 146 0 0 0.998424
0.386710 -0.387088 5.750800 146 0 0 0.998522
0.404016 -0.384905 5.759130 142 0 0 0.998804
0.401947 -0.413627 5.759010 146 0 0 0.998514
0.421342 -0.382836 5.768100 137 0 0 0.999021
0.419151 -0.411800 5.767410 142 0 0 0.998752
0.436294 -0.410365 5.776320 137 0 0 0.999002
0.438572 -0.380839 5.776650 137 0 0 0.999245
0.417386 -0.439419 5.767760 146 0 0 0.998495
0.434657 -0.438201 5.776280 142 0 0 0.998796
0.433052 -0.465310 5.777010 142 0 0 0.998648
0.416809 -0.465902 5.769720 146 0 0 0.998479
0.401028 -0.440947 5.760600 146 0 0 0.998553
0.400491 -0.466773 5.761920 151 0 0 0.998268
0.384773 -0.442047 5.753120 146 0 0 0.998546
0.385634 -0.415206 5.751840 146 0 0 0.998555
0.369159 -0.417167 5.744290 142 0 0 0.998657
0.384049 -0.467624 5.754960 146 0 0 0.998559
0.368393 -0.443813 5.746470 142 0 0 0.998851
0.367618 -0.468586 5.747640 142 0 0 0.998724
0.370259 -0.389096 5.743320 142 0 0 0.998819
0.456077 -0.379203 5.784110 137 0 0 0.999190
0.474455 -0.377062 5.792320 137 0 0 0.999128
0.471042 -0.407177 5.790900 137 0 0 0.999018
0.493028 -0.375079 5.800340 137 0 0 0.999048
0.489457 -0.405283 5.798800 142 0 0 0.998908
0.486360 -0.434645 5.797030 142 0 0 0.998621
0.484843 -0.462378 5.796830 146 0 0 0.998286
0.469012 -0.436007 5.790350 142 0 0 0.998742
0.467692 -0.463238 5.790160 151 0 0 0.998250
0.451796 -0.437075 5.783130 142 0 0 0.998673
0.453748 -0.408860 5.783560 137 0 0 0.999011
0.450385 -0.464120 5.783660 146 0 0 0.998372
0.473986 -0.544640 5.808750 142 0 0 0.998688
0.455178 -0.567973 5.805830 142 0 0 0.998681
0.460159 -0.518607 5.798870 142 0 0 0.998694
0.441016 -0.543129 5.796870 137 0 0 0.999012
0.427333 -0.517422 5.786760 137 0 0 0.998978
0.422115 -0.566238 5.793830 142 0 0 0.998938
0.446292 -0.492232 5.788630 142 0 0 0.998911
0.463587 -0.491701 5.795330 142 0 0 0.998755
0.480847 -0.491436 5.801560 142 0 0 0.998674
0.477416 -0.518649 5.805290 146 0 0 0.998550
0.408051 -0.542240 5.783720 137 0 0 0.999221
0.390948 -0.565366 5.779840 142 0 0 0.998771
0.394010 -0.517178 5.772920 137 0 0 0.999179
0.376445 -0.541850 5.770220 137 0 0 0.999173
0.362684 -0.517891 5.759460 137 0 0 0.999127
0.359896 -0.564708 5.765650 146 0 0 0.998548
0.380558 -0.492961 5.760610 137 0 0 0.999283
0.397219 -0.492471 5.767670 137 0 0 0.999153
0.413799 -0.492343 5.774620 137 0 0 0.999146
0.410739 -0.517350 5.779810 137 0 0 0.999129
0.345410 -0.541747 5.754960 137 0 0 0.999143
0.331105 -0.564823 5.750800 151 0 0 0.997966
0.331692 -0.519060 5.743820 137 0 0 0.999170
0.316880 -0.543001 5.740300 142 0 0 0.998931
0.303350 -0.521088 5.729870 137 0 0 0.998959
0.302913 -0.565650 5.736710 155 0 0 0.997875
0.318227 -0.496254 5.731820 133 0 0 0.999333
0.305755 -0.473016 5.719680 137 0 0 0.999219
0.336549 -0.470335 5.733150 142 0 0 0.998788
0.349294 -0.494538 5.746810 133 0 0 0.999369
0.288697 -0.544139 5.725010 146 0 0 0.998531
0.276610 -0.566962 5.722350 160 0 0 0.997458
0.275069 -0.522598 5.713650 146 0 0 0.998594
0.262744 -0.546252 5.710840 151 0 0 0.998198
0.275585 -0.499830 5.709640 142 0 0 0.998954
0.276702 -0.475733 5.704760 137 0 0 0.999012
0.258530 -0.375791 5.686380 164 0 0 0.997193
0.274438 -0.400917 5.695750 151 0 0 0.998104
0.274174 -0.373898 5.694260 160 0 0 0.997342
0.274257 -0.426833 5.698620 142 0 0 0.998639
0.290049 -0.399311 5.703620 151 0 0 0.998242
0.289943 -0.425518 5.706160 146 0 0 0.998525
0.305721 -0.423816 5.714330 142 0 0 0.998809
0.289687 -0.371695 5.702100 160 0 0 0.997548
0.305600 -0.397161 5.711640 146 0 0 0.998354
0.305212 -0.369677 5.710600 151 0 0 0.998076
0.289912 -0.450343 5.708790 137 0 0 0.999066
0.305449 -0.449538 5.717300 137 0 0 0.999130
0.260722 -0.453220 5.695100 137 0 0 0.999280
0.321596 -0.367108 5.717910 155 0 0 0.997731
0.337373 -0.392832 5.726250 151 0 0 0.998016
0.338081 -0.364768 5.726070 155 0 0 0.997846
0.336317 -0.420240 5.727630 146 0 0 0.998326
0.353774 -0.391239 5.734810 146 0 0 0.998309
0.352699 -0.418576 5.735980 146 0 0 0.998438
0.354639 -0.362512 5.734690 151 0 0 0.998211
0.351710 -0.445018 5.737920 142 0 0 0.998678
0.371757 -0.588749 5.779170 146 0 0 0.998292
0.383759 -0.611993 5.792070 155 0 0 0.997773
0.402423 -0.589814 5.793220 146 0 0 0.998417
0.414224 -0.613864 5.805450 155 0 0 0.997826
0.395772 -0.635705 5.803140 169 0 0 0.996587
0.407635 -0.658960 5.814220 192 0 0 0.994836
0.379295 -0.657114 5.802060 192 0 0 0.994788
0.367163 -0.633778 5.790250 169 0 0 0.996719
0.355053 -0.610146 5.778590 155 0 0 0.997700
0.350673 -0.654758 5.791090 164 0 0 0.997163
0.433354 -0.591023 5.806660 151 0 0 0.998199
0.444392 -0.616502 5.818400 160 0 0 0.997504
0.466119 -0.593598 5.818640 155 0 0 0.997897
0.456040 -0.641112 5.827840 164 0 0 0.996938
0.437397 -0.662010 5.825640 201 0 0 0.994203
0.425822 -0.637936 5.816180 169 0 0 0.996843
0.417846 -0.726269 5.856790 196 0 0 0.994537
0.423690 -0.704392 5.845570 201 0 0 0.994215
0.396025 -0.701784 5.835400 173 0 0 0.996379
0.390686 -0.724063 5.846530 187 0 0 0.995420
0.415719 -0.681542 5.830440 183 0 0 0.995766
0.445525 -0.685011 5.840310 201 0 0 0.994413
0.364232 -0.722816 5.836770 183 0 0 0.995656
0.368479 -0.700202 5.825040 164 0 0 0.996895
0.342098 -0.698825 5.815030 183 0 0 0.995561
0.338486 -0.722382 5.826360 187 0 0 0.995149
0.359383 -0.677219 5.808840 160 0 0 0.997469
0.387617 -0.679245 5.819290 173 0 0 0.996310
0.185055 -0.959507 5.922540 255 101 0 0.981450
0.170237 -0.970013 5.949260 255 60 0 0.985831
0.144023 -0.981840 5.969890 246 12 0 0.990669
0.128092 -0.989992 5.997590 246 12 0 0.990698
0.100907 -0.999067 6.018570 255 38 0 0.988054
0.122487 -0.995098 6.031880 255 49 0 0.986765
0.106451 -0.993549 5.984440 223 0 0 0.992421
0.078770 -1.001770 6.005540 242 8 0 0.990945
0.122939 -0.985980 5.956430 242 8 0 0.991126
0.139145 -0.977358 5.929000 255 34 0 0.988403
0.165051 -0.964832 5.908470 255 101 0 0.981523
0.144320 -0.970173 5.894890 255 71 0 0.984544
0.105755 -0.995398 6.059970 255 27 0 0.989083
0.077930 -0.995817 6.081300 246 12 0 0.990612
0.061755 -0.992695 6.107990 255 23 0 0.989359
0.039403 -0.996213 6.094990 251 16 0 0.990416
0.055782 -0.999387 6.068090 237 4 0 0.991260
0.072807 -1.000020 6.040510 233 1 0 0.991591
-0.016397 -1.004090 6.060660 219 0 0 0.992681
0.011316 -1.004720 6.041000 210 0 0 0.993581
0.028028 -1.005700 6.013720 201 0 0 0.994068
0.056427 -1.004280 5.992370 214 0 0 0.993067
0.034225 -1.007110 5.978900 205 0 0 0.994058
0.050387 -1.003120 6.027270 214 0 0 0.993165
0.033521 -1.002040 6.054830 223 0 0 0.992610
0.017198 -0.999653 6.081380 242 8 0 0.991076
0.051285 -1.000820 5.951520 183 0 0 0.995570
0.079531 -0.993079 5.930160 196 0 0 0.994628
0.096469 -0.985846 5.902380 242 8 0 0.991121
0.123892 -0.975528 5.880940 255 67 0 0.984927
0.102708 -0.980366 5.867770 255 53 0 0.986374
0.117822 -0.981598 5.915730 251 16 0 0.990197
0.101296 -0.989655 5.943360 214 0 0 0.993088
0.084376 -0.996763 5.971260 205 0 0 0.993853
-0.039244 -1.006500 6.046730 210 0 0 0.993494
-0.022527 -1.009090 6.020060 205 0 0 0.993937
-0.045906 -1.010920 6.006530 187 0 0 0.995376
-0.062425 -1.008790 6.032930 210 0 0 0.993696
-0.017064 -1.011130 5.986150 183 0 0 0.995573
-0.011366 -1.012900 5.952340 183 0 0 0.995600
0.011440 -1.010240 5.965600 196 0 0 0.994741
0.005653 -1.008530 5.999910 192 0 0 0.994914
-0.085634 -1.011270 6.018640 201 0 0 0.994185
-0.068869 -1.014010 5.992180 187 0 0 0.995406
-0.052003 -1.014990 5.965610 173 0 0 0.996279
-0.034533 -1.015970 5.938530 178 0 0 0.996080
0.020293 -1.001520 5.856710 192 0 0 0.994890
0.038911 -0.996884 5.828970 255 19 0 0.989772
0.001914 -1.005990 5.884420 173 0 0 0.996450
0.024035 -1.001340 5.898100 173 0 0 0.996366
0.042312 -0.996399 5.870100 196 0 0 0.994426
0.060415 -0.991007 5.842110 255 34 0 0.988529
-0.005006 -1.008900 5.918450 164 0 0 0.996988
-0.028297 -1.012460 5.905180 164 0 0 0.997161
0.064524 -0.992163 5.882420 228 0 0 0.992218
0.081768 -0.985729 5.854640 255 45 0 0.987119
0.046680 -0.997762 5.910620 183 0 0 0.995679
0.029122 -1.003980 5.938220 178 0 0 0.996145
0.118589 -0.789721 5.640150 183 0 0 0.995745
0.117447 -0.757596 5.629750 155 0 0 0.997664
0.123692 -0.724100 5.628120 146 0 0 0.998601
0.121917 -0.694298 5.617610 160 0 0 0.997420
0.137211 -0.689003 5.635370 151 0 0 0.998161
0.138441 -0.717924 5.645410 142 0 0 0.998647
0.133031 -0.751842 5.646440 155 0 0 0.997679
0.133891 -0.783083 5.656210 178 0 0 0.996122
0.127383 -0.818379 5.657860 246 12 0 0.990680
0.142442 -0.811203 5.674230 223 0 0 0.992270
0.107946 -0.667764 5.603220 146 0 0 0.998581
0.100975 -0.639228 5.596560 146 0 0 0.998517
0.103669 -0.610864 5.598990 151 0 0 0.998248
0.121181 -0.607000 5.616740 155 0 0 0.997689
0.117997 -0.635446 5.614840 151 0 0 0.998264
0.123626 -0.662857 5.620640 142 0 0 0.998677
0.160092 -0.599964 5.653530 173 0 0 0.996436
0.153752 -0.627051 5.652070 173 0 0 0.996414
0.157020 -0.653121 5.658200 155 0 0 0.997711
0.153457 -0.683224 5.654090 146 0 0 0.998417
0.169973 -0.677377 5.672590 151 0 0 0.998137
0.140487 -0.658286 5.640110 146 0 0 0.998557
0.135171 -0.631165 5.633570 160 0 0 0.997434
0.140494 -0.604017 5.636160 164 0 0 0.997061
0.171008 -0.704912 5.682160 146 0 0 0.998445
0.164518 -0.738381 5.682320 151 0 0 0.998254
0.165479 -0.768822 5.691090 164 0 0 0.996930
0.158649 -0.804303 5.691150 223 0 0 0.992409
0.174118 -0.796355 5.708680 205 0 0 0.993772
0.149853 -0.776146 5.673940 169 0 0 0.996707
0.148818 -0.745280 5.664020 151 0 0 0.997990
0.154677 -0.711793 5.664120 142 0 0 0.998648
0.191255 -0.964938 5.962870 255 67 0 0.984813
0.205367 -0.953576 5.937050 255 97 0 0.981802
0.176564 -0.974546 5.989430 255 41 0 0.987656
0.197443 -0.969191 6.002780 255 53 0 0.986619
0.211926 -0.958742 5.976790 255 56 0 0.985908
0.225730 -0.947117 5.951500 255 90 0 0.982608
0.171909 -0.980758 6.023220 255 49 0 0.986838
0.166923 -0.985991 6.057100 255 108 0 0.980782
0.145013 -0.990922 6.044530 255 75 0 0.984046
0.149639 -0.985917 6.010530 255 30 0 0.988676
0.233167 -0.952118 5.991070 255 64 0 0.985332
0.246742 -0.940545 5.966210 255 93 0 0.982076
0.219489 -0.962920 6.016170 255 64 0 0.985180
0.204750 -0.972499 6.042960 255 82 0 0.983235
0.189890 -0.980428 6.069770 255 149 0 0.976165
0.143247 -0.974765 6.150310 255 93 0 0.982009
0.158810 -0.978373 6.123640 255 97 0 0.981972
0.135230 -0.984812 6.111940 255 71 0 0.984506
0.119196 -0.980944 6.138550 255 67 0 0.984774
0.162907 -0.983366 6.090650 255 93 0 0.982040
0.185892 -0.977022 6.103150 255 127 0 0.978558
0.096414 -0.986510 6.126480 255 49 0 0.986683
0.112635 -0.989715 6.099410 255 49 0 0.986955
0.128781 -0.991192 6.072140 255 53 0 0.986531
0.343730 -0.587951 5.765080 155 0 0 0.997914
0.327805 -0.609890 5.765480 155 0 0 0.997895
0.339044 -0.632254 5.778390 155 0 0 0.997699
0.323818 -0.654018 5.779590 151 0 0 0.997960
0.311960 -0.631619 5.766270 155 0 0 0.997790
0.297153 -0.653845 5.767810 164 0 0 0.996921
0.299191 -0.609544 5.752420 155 0 0 0.997904
0.315102 -0.587789 5.751020 151 0 0 0.997994
0.333240 -0.676211 5.798030 160 0 0 0.997252
0.317011 -0.699449 5.803880 196 0 0 0.994747
0.314366 -0.723981 5.814310 210 0 0 0.993701
0.312327 -0.750005 5.823940 196 0 0 0.994667
0.288888 -0.753351 5.810340 201 0 0 0.994167
0.290078 -0.726053 5.801130 214 0 0 0.993265
0.291376 -0.700321 5.791550 233 1 0 0.991704
0.307056 -0.676163 5.786220 183 0 0 0.995614
0.245576 -0.764230 5.779080 201 0 0 0.994414
0.245761 -0.735203 5.770840 219 0 0 0.992915
0.257074 -0.705789 5.770070 242 8 0 0.990922
0.258001 -0.680146 5.759950 237 4 0 0.991171
0.272569 -0.655289 5.755030 183 0 0 0.995596
0.248723 -0.657610 5.741240 205 0 0 0.993720
0.282088 -0.677585 5.773980 219 0 0 0.992658
0.267772 -0.730394 5.786820 219 0 0 0.992701
0.267006 -0.758533 5.795330 201 0 0 0.994303
0.248154 -0.634081 5.734220 205 0 0 0.993890
0.261250 -0.611041 5.732870 169 0 0 0.996538
0.262289 -0.589408 5.724060 151 0 0 0.997977
0.288262 -0.588441 5.737680 151 0 0 0.998028
0.285158 -0.631655 5.754270 169 0 0 0.996788
0.182177 -0.761416 5.709590 160 0 0 0.997350
0.180930 -0.731182 5.700870 155 0 0 0.997644
0.188610 -0.698945 5.701020 164 0 0 0.997024
0.188078 -0.671922 5.690840 160 0 0 0.997410
0.206661 -0.666634 5.708310 178 0 0 0.995837
0.206281 -0.692510 5.718460 192 0 0 0.994991
0.198204 -0.724053 5.718930 173 0 0 0.996375
0.198792 -0.753177 5.727440 164 0 0 0.996907
0.190385 -0.787897 5.726730 187 0 0 0.995255
0.207436 -0.779480 5.744440 183 0 0 0.995695
0.175723 -0.648443 5.677190 173 0 0 0.996523
0.172905 -0.622842 5.670330 183 0 0 0.995668
0.181476 -0.597058 5.671420 183 0 0 0.995825
0.202724 -0.594029 5.687430 178 0 0 0.996095
0.193015 -0.618975 5.687830 201 0 0 0.994363
0.194608 -0.643536 5.694330 192 0 0 0.995072
0.238132 -0.590955 5.711000 160 0 0 0.997339
0.237245 -0.612767 5.719430 192 0 0 0.994890
0.225941 -0.637141 5.719730 214 0 0 0.993122
0.226909 -0.661785 5.725480 201 0 0 0.994270
0.214347 -0.615474 5.704150 201 0 0 0.994110
0.236221 -0.684557 5.744980 237 4 0 0.991481
0.235816 -0.710988 5.754160 242 8 0 0.990964
0.225952 -0.742087 5.754420 201 0 0 0.994247
0.226114 -0.771673 5.762140 187 0 0 0.995400
0.216309 -0.717122 5.736880 205 0 0 0.993918
0.107539 -0.967409 5.835410 255 30 0 0.988665
0.112122 -0.954057 5.803480 255 56 0 0.986022
0.087022 -0.973644 5.822330 255 30 0 0.988780
0.092183 -0.961224 5.790120 255 49 0 0.986982
0.116550 -0.940510 5.771800 255 82 0 0.983430
0.120308 -0.925330 5.740930 255 141 0 0.977052
0.137871 -0.917309 5.755530 255 145 0 0.976689
0.134626 -0.933037 5.786140 255 86 0 0.982828
0.131121 -0.947590 5.817400 255 56 0 0.986183
0.154650 -0.909070 5.771130 255 108 0 0.980460
0.066584 -0.979824 5.809390 255 23 0 0.989538
0.073349 -0.968312 5.776750 255 34 0 0.988408
0.045417 -0.986627 5.796240 251 16 0 0.990354
0.079512 -0.956093 5.744460 255 86 0 0.983030
0.102794 -0.933620 5.726660 255 141 0 0.976953
0.097952 -0.948364 5.757980 255 90 0 0.982459
0.122897 -0.848457 5.673570 233 1 0 0.991746
0.117922 -0.877445 5.689870 255 27 0 0.989298
0.133738 -0.870619 5.705200 255 30 0 0.988843
0.138380 -0.841486 5.689230 228 0 0 0.991958
0.119546 -0.902018 5.714960 255 64 0 0.985486
0.102562 -0.910515 5.700240 255 82 0 0.983365
0.154119 -0.833063 5.706090 205 0 0 0.993919
0.149664 -0.862129 5.721290 242 8 0 0.990846
0.165482 -0.854360 5.738630 223 0 0 0.992590
0.169762 -0.825193 5.723630 196 0 0 0.994594
0.152345 -0.886171 5.745910 255 53 0 0.986520
0.135935 -0.894603 5.730320 255 75 0 0.984331
0.187086 -0.943252 5.892140 255 56 0 0.985974
0.188596 -0.927034 5.861920 255 45 0 0.987316
0.167430 -0.949871 5.877450 255 60 0 0.985873
0.169278 -0.934088 5.846890 255 60 0 0.985886
0.189141 -0.910475 5.832730 255 49 0 0.986992
0.189171 -0.892963 5.803890 255 60 0 0.985881
0.207328 -0.884715 5.820860 255 27 0 0.988992
0.207750 -0.902987 5.848910 255 27 0 0.988974
0.207562 -0.920325 5.877720 255 30 0 0.988872
0.226033 -0.876134 5.837580 237 4 0 0.991280
0.147738 -0.955724 5.862760 255 64 0 0.985307
0.150461 -0.940653 5.831690 255 67 0 0.985066
0.127570 -0.961643 5.848900 255 60 0 0.985735
0.152747 -0.925253 5.801050 255 78 0 0.983866
0.172019 -0.901103 5.787030 255 82 0 0.983264
0.170796 -0.917850 5.816880 255 56 0 0.986084
0.186070 -0.816422 5.741330 187 0 0 0.995368
0.181850 -0.844966 5.755760 214 0 0 0.993336
0.198852 -0.836709 5.773670 196 0 0 0.994442
0.203134 -0.808427 5.759200 183 0 0 0.995635
0.185564 -0.868951 5.779640 237 4 0 0.991267
0.168782 -0.877975 5.762670 255 34 0 0.988200
0.221758 -0.799826 5.776720 192 0 0 0.995123
0.217077 -0.827774 5.791140 196 0 0 0.994675
0.236667 -0.820376 5.808360 201 0 0 0.994411
0.241386 -0.792024 5.793890 201 0 0 0.994208
0.221757 -0.852006 5.814350 205 0 0 0.994021
0.203254 -0.860662 5.797310 214 0 0 0.993090
0.318570 -0.773172 5.846340 219 0 0 0.992964
0.312557 -0.797826 5.862350 223 0 0 0.992298
0.295138 -0.826994 5.870440 210 0 0 0.993660
0.288807 -0.854408 5.885220 210 0 0 0.993443
0.266783 -0.861210 5.869960 210 0 0 0.993505
0.272682 -0.833366 5.855450 201 0 0 0.994131
0.289906 -0.803256 5.848410 219 0 0 0.992654
0.295717 -0.777231 5.832560 214 0 0 0.993315
0.289684 -0.873430 5.912540 210 0 0 0.993671
0.279319 -0.894909 5.932730 210 0 0 0.993425
0.258078 -0.920236 5.945230 255 23 0 0.989602
0.236810 -0.927029 5.929870 255 30 0 0.988914
0.257683 -0.902187 5.917370 214 0 0 0.993024
0.268009 -0.880210 5.897310 210 0 0 0.993509
0.206595 -0.937664 5.907540 255 45 0 0.987122
0.227192 -0.914003 5.893890 251 16 0 0.990369
0.226875 -0.895663 5.865450 237 4 0 0.991302
0.246221 -0.868605 5.854080 219 0 0 0.992647
0.246923 -0.887904 5.881770 214 0 0 0.993128
0.241750 -0.845039 5.831710 196 0 0 0.994573
0.257782 -0.814041 5.825160 201 0 0 0.994169
0.262350 -0.785556 5.810570 214 0 0 0.993199
0.210162 -0.149289 5.716350 255 19 0 0.989847
0.216171 -0.177652 5.708060 192 0 0 0.994943
0.198797 -0.181677 5.698100 192 0 0 0.994823
0.203938 -0.210587 5.691230 160 0 0 0.997452
0.221198 -0.206757 5.700900 160 0 0 0.997395
0.186281 -0.214335 5.681730 155 0 0 0.997624
0.208135 -0.239441 5.685470 137 0 0 0.999048
0.190921 -0.242478 5.675850 142 0 0 0.998927
0.195602 -0.269484 5.670100 142 0 0 0.998908
0.225288 -0.235996 5.694920 137 0 0 0.999029
0.212778 -0.266663 5.679390 137 0 0 0.998980
0.229560 -0.264207 5.689170 133 0 0 0.999309
0.173484 -0.245191 5.666450 142 0 0 0.998852
0.178349 -0.271695 5.660690 146 0 0 0.998545
0.160824 -0.273894 5.651600 146 0 0 0.998568
0.155028 -0.247261 5.657020 142 0 0 0.998948
0.167936 -0.217291 5.671890 155 0 0 0.997738
0.149451 -0.220058 5.662090 155 0 0 0.997870
0.161873 -0.188641 5.677780 192 0 0 0.995052
0.180429 -0.185198 5.687890 192 0 0 0.994966
0.173841 -0.156335 5.695330 255 19 0 0.989760
0.143295 -0.191801 5.667790 187 0 0 0.995438
0.155259 -0.159985 5.684930 251 16 0 0.990277
0.136584 -0.163628 5.674580 251 16 0 0.990323
0.192189 -0.152610 5.705800 255 23 0 0.989506
0.232696 -0.294077 5.686030 133 0 0 0.999597
0.217043 -0.297043 5.677640 133 0 0 0.999471
0.220761 -0.325766 5.674870 137 0 0 0.999244
0.236277 -0.323025 5.683360 133 0 0 0.999453
0.205261 -0.328014 5.666680 137 0 0 0.999088
0.224205 -0.353599 5.672520 142 0 0 0.998793
0.208857 -0.355488 5.664800 142 0 0 0.998818
0.239578 -0.351072 5.680540 142 0 0 0.998788
0.192937 -0.357617 5.657130 142 0 0 0.998943
0.175983 -0.358286 5.649150 137 0 0 0.999068
0.188211 -0.329851 5.657620 137 0 0 0.999065
0.170984 -0.331216 5.649380 137 0 0 0.999263
0.183143 -0.301213 5.659270 137 0 0 0.999294
0.200328 -0.299073 5.668310 133 0 0 0.999348
0.165892 -0.302796 5.650180 137 0 0 0.999169
0.110852 -0.361841 5.614760 133 0 0 0.999521
0.128203 -0.361540 5.624390 133 0 0 0.999497
0.121776 -0.335199 5.623040 133 0 0 0.999301
0.104315 -0.335900 5.613810 133 0 0 0.999423
0.139052 -0.334336 5.632860 133 0 0 0.999388
0.114879 -0.307888 5.622630 137 0 0 0.999022
0.132201 -0.306402 5.632300 137 0 0 0.999095
0.125574 -0.278199 5.632030 146 0 0 0.998416
0.097470 -0.309438 5.612670 137 0 0 0.999101
0.107984 -0.280418 5.622390 146 0 0 0.998428
0.090521 -0.281992 5.612550 146 0 0 0.998457
0.149743 -0.305119 5.641790 137 0 0 0.999174
0.143113 -0.275977 5.641820 146 0 0 0.998493
0.155041 -0.333106 5.640900 137 0 0 0.999263
0.160193 -0.359712 5.640760 137 0 0 0.999260
0.144173 -0.360900 5.632390 137 0 0 0.999255
0.083319 -0.257317 5.616500 142 0 0 0.998705
0.101768 -0.255369 5.627180 142 0 0 0.998785
0.094980 -0.229140 5.630840 155 0 0 0.997714
0.076346 -0.231331 5.620840 155 0 0 0.997911
0.113719 -0.226844 5.641350 155 0 0 0.997653
0.087928 -0.202475 5.635450 183 0 0 0.995505
0.106715 -0.199429 5.646100 187 0 0 0.995272
0.098856 -0.171789 5.651950 251 16 0 0.990118
0.069275 -0.205160 5.625070 178 0 0 0.995853
0.080303 -0.175191 5.640670 255 23 0 0.989497
0.061728 -0.178318 5.629450 255 27 0 0.989120
0.125358 -0.196184 5.657200 183 0 0 0.995648
0.117641 -0.167909 5.663260 255 19 0 0.989968
0.131662 -0.223542 5.651590 155 0 0 0.997677
0.137281 -0.250086 5.646670 142 0 0 0.998840
0.119466 -0.252961 5.637010 142 0 0 0.998765
0.345051 -0.154356 5.778400 201 0 0 0.994171
0.349009 -0.182090 5.768250 183 0 0 0.995671
0.331172 -0.185211 5.758520 183 0 0 0.995720
0.351525 -0.211095 5.759320 164 0 0 0.996929
0.333446 -0.214332 5.749790 164 0 0 0.997089
0.335086 -0.243705 5.741790 155 0 0 0.997585
0.353219 -0.240835 5.751300 160 0 0 0.997545
0.315331 -0.217671 5.740490 160 0 0 0.997374
0.317002 -0.246973 5.732750 155 0 0 0.997900
0.298844 -0.250510 5.724150 146 0 0 0.998518
0.296105 -0.221185 5.731050 151 0 0 0.998036
0.312111 -0.188275 5.748330 183 0 0 0.995784
0.292988 -0.191863 5.738630 173 0 0 0.996265
0.307799 -0.159977 5.757380 210 0 0 0.993610
0.326514 -0.156920 5.767820 205 0 0 0.993744
0.320565 -0.130092 5.778130 255 23 0 0.989601
0.288876 -0.163358 5.747350 205 0 0 0.993918
0.302027 -0.133118 5.767600 255 23 0 0.989540
0.283168 -0.136215 5.757290 255 19 0 0.989741
0.339017 -0.127335 5.788940 251 16 0 0.990091
0.354052 -0.273297 5.747370 133 0 0 0.999428
0.353972 -0.304436 5.742620 133 0 0 0.999496
0.337078 -0.307415 5.734080 133 0 0 0.999553
0.353963 -0.334632 5.738690 133 0 0 0.999313
0.337162 -0.337329 5.730170 137 0 0 0.999267
0.320687 -0.339685 5.721850 137 0 0 0.999176
0.303151 -0.342047 5.713160 137 0 0 0.999189
0.319181 -0.310268 5.725230 133 0 0 0.999558
0.301402 -0.312798 5.716460 133 0 0 0.999534
0.317936 -0.279185 5.728830 133 0 0 0.999464
0.335874 -0.276306 5.737910 133 0 0 0.999433
0.299988 -0.282288 5.720350 133 0 0 0.999639
0.256263 -0.349432 5.688880 142 0 0 0.998738
0.253173 -0.320916 5.691510 133 0 0 0.999352
0.270014 -0.318688 5.700480 133 0 0 0.999498
0.250080 -0.291231 5.694460 133 0 0 0.999524
0.267151 -0.288351 5.703170 133 0 0 0.999539
0.264624 -0.257239 5.706140 142 0 0 0.998705
0.247193 -0.260700 5.697560 137 0 0 0.999020
0.284097 -0.285286 5.711780 133 0 0 0.999521
0.281723 -0.253925 5.715040 142 0 0 0.998706
0.285794 -0.315701 5.708260 133 0 0 0.999481
0.287452 -0.344906 5.704940 137 0 0 0.999034
0.271848 -0.347212 5.696750 142 0 0 0.998881
0.243975 -0.232473 5.703920 142 0 0 0.998766
0.239900 -0.203125 5.710170 164 0 0 0.996911
0.258229 -0.199824 5.719790 169 0 0 0.996706
0.235007 -0.173980 5.717650 201 0 0 0.994277
0.253430 -0.170362 5.727440 205 0 0 0.993864
0.247248 -0.142281 5.736230 255 34 0 0.988512
0.228950 -0.145711 5.726170 255 30 0 0.988892
0.271601 -0.167029 5.737470 205 0 0 0.993837
0.265279 -0.139081 5.746610 255 30 0 0.988806
0.275727 -0.195673 5.728970 173 0 0 0.996298
0.278885 -0.224836 5.721670 155 0 0 0.997887
0.261517 -0.228716 5.712640 151 0 0 0.998267
0.188788 -0.009063 6.070230 128 0 0 0.999723
0.198001 -0.018427 6.053900 137 0 0 0.999034
0.177412 -0.018827 6.042260 137 0 0 0.999175
0.207516 -0.026545 6.036770 155 0 0 0.997635
0.186898 -0.027046 6.025200 151 0 0 0.998231
0.196806 -0.033482 6.007270 164 0 0 0.997184
0.217370 -0.032880 6.018760 164 0 0 0.997003
0.165945 -0.027844 6.013690 151 0 0 0.998247
0.175856 -0.034507 5.995810 164 0 0 0.997106
0.154727 -0.035740 5.984260 164 0 0 0.997117
0.144876 -0.028849 6.002570 151 0 0 0.998166
0.156347 -0.019390 6.031220 133 0 0 0.999392
0.135214 -0.020270 6.020210 133 0 0 0.999312
0.146920 -0.009731 6.048160 128 0 0 0.999774
0.167965 -0.009321 6.059090 128 0 0 0.999773
0.125755 -0.010494 6.037070 128 0 0 0.999821
0.227696 -0.039538 6.000240 183 0 0 0.995751
0.238271 -0.043546 5.981000 173 0 0 0.996445
0.217830 -0.044619 5.969250 173 0 0 0.996487
0.249308 -0.045233 5.960730 146 0 0 0.998396
0.228880 -0.046379 5.948880 146 0 0 0.998464
0.240343 -0.046442 5.927680 133 0 0 0.999432
0.260733 -0.045247 5.939580 133 0 0 0.999467
0.208188 -0.047954 5.937120 146 0 0 0.998352
0.219681 -0.048237 5.915960 133 0 0 0.999506
0.198784 -0.050096 5.904270 133 0 0 0.999566
0.187053 -0.049484 5.925670 146 0 0 0.998398
0.196923 -0.045914 5.957870 173 0 0 0.996296
0.175743 -0.047549 5.946360 173 0 0 0.996203
0.186104 -0.041476 5.977390 183 0 0 0.995696
0.207075 -0.040270 5.988830 178 0 0 0.995905
0.164972 -0.042900 5.965870 183 0 0 0.995679
0.122076 -0.055793 5.858020 133 0 0 0.999460
0.110459 -0.054771 5.879600 142 0 0 0.998941
0.129892 -0.053351 5.890300 137 0 0 0.998999
0.118557 -0.050940 5.911290 164 0 0 0.997229
0.099226 -0.052189 5.900300 164 0 0 0.997165
0.137786 -0.049632 5.922310 160 0 0 0.997318
0.107782 -0.045969 5.931400 169 0 0 0.996642
0.126940 -0.044805 5.942690 169 0 0 0.996682
0.116566 -0.037179 5.961910 155 0 0 0.997701
0.088533 -0.047074 5.920150 169 0 0 0.996621
0.097423 -0.038258 5.950570 155 0 0 0.997805
0.078373 -0.039417 5.939160 155 0 0 0.997768
0.146072 -0.043755 5.953810 173 0 0 0.996360
0.135787 -0.036364 5.973060 160 0 0 0.997551
0.156910 -0.048219 5.934250 164 0 0 0.997070
0.168130 -0.050668 5.913920 142 0 0 0.998703
0.149119 -0.052036 5.902000 142 0 0 0.998948
0.160718 -0.052626 5.881040 133 0 0 0.999494
0.179861 -0.051244 5.892590 133 0 0 0.999510
0.141550 -0.054180 5.869410 133 0 0 0.999467
0.068314 -0.031915 5.958390 142 0 0 0.998634
0.087458 -0.031196 5.969000 146 0 0 0.998615
0.077786 -0.022063 5.987410 133 0 0 0.999583
0.058702 -0.023012 5.976840 133 0 0 0.999543
0.096969 -0.021390 5.997860 133 0 0 0.999580
0.068544 -0.012227 6.005160 128 0 0 0.999818
0.087667 -0.011561 6.015520 128 0 0 0.999804
0.049486 -0.013195 5.994700 128 0 0 0.999830
0.106772 -0.011118 6.025940 128 0 0 0.999826
0.116178 -0.020724 6.009080 133 0 0 0.999488
0.125818 -0.029409 5.991500 146 0 0 0.998412
0.106602 -0.030134 5.980260 146 0 0 0.998607
0.184208 -0.129807 5.718740 255 27 0 0.989211
0.165936 -0.133148 5.708050 255 38 0 0.987962
0.156875 -0.113184 5.722160 255 53 0 0.986455
0.147458 -0.136833 5.697400 255 34 0 0.988492
0.138597 -0.116510 5.711340 255 49 0 0.986702
0.120041 -0.120147 5.700490 255 45 0 0.987159
0.128781 -0.140605 5.686820 255 34 0 0.988435
0.128584 -0.099349 5.726570 255 60 0 0.985743
0.110411 -0.102601 5.715370 255 56 0 0.985964
0.100055 -0.087765 5.731640 255 64 0 0.985380
0.117890 -0.084884 5.742570 255 60 0 0.985538
0.146554 -0.096481 5.737240 255 71 0 0.984523
0.135604 -0.082281 5.753610 255 60 0 0.985789
0.164385 -0.093611 5.747920 255 71 0 0.984565
0.174757 -0.110332 5.732560 255 53 0 0.986597
0.192361 -0.107595 5.743110 255 45 0 0.987073
0.153289 -0.079678 5.764560 255 56 0 0.986196
0.181854 -0.091057 5.758820 255 60 0 0.985873
0.170773 -0.077188 5.775600 255 56 0 0.986265
0.201880 -0.127138 5.729000 255 23 0 0.989644
0.110185 -0.144399 5.676320 255 23 0 0.989498
0.091473 -0.148641 5.664640 255 27 0 0.989013
0.083050 -0.127717 5.679030 255 34 0 0.988479
0.072828 -0.152691 5.653060 255 27 0 0.989287
0.064459 -0.131997 5.667140 255 30 0 0.988919
0.046254 -0.135517 5.654930 255 41 0 0.987508
0.054332 -0.156381 5.641610 255 30 0 0.988891
0.055794 -0.113010 5.682130 255 49 0 0.986747
0.037638 -0.116861 5.669790 255 49 0 0.986698
0.028491 -0.100206 5.685610 255 64 0 0.985216
0.046260 -0.097180 5.697090 255 64 0 0.985466
0.073977 -0.109627 5.693310 255 53 0 0.986370
0.064218 -0.093964 5.708670 255 64 0 0.985416
0.092243 -0.106100 5.704350 255 60 0 0.985645
0.101511 -0.123952 5.689750 255 41 0 0.987434
0.082180 -0.090925 5.720120 255 64 0 0.985514
-0.012539 -0.066542 5.769770 142 0 0 0.998847
0.004116 -0.065271 5.780830 137 0 0 0.999050
0.015100 -0.071396 5.760780 155 0 0 0.997902
0.032169 -0.069651 5.771620 151 0 0 0.998049
0.020913 -0.063952 5.791960 137 0 0 0.999199
0.043422 -0.075993 5.751220 183 0 0 0.995492
0.049264 -0.067967 5.782400 151 0 0 0.998236
0.060635 -0.073934 5.761760 183 0 0 0.995602
0.077766 -0.071714 5.772090 187 0 0 0.995185
0.037925 -0.062398 5.802850 137 0 0 0.999223
0.066234 -0.066008 5.792970 151 0 0 0.998110
0.054651 -0.061194 5.813900 133 0 0 0.999336
0.071713 -0.081331 5.741680 233 1 0 0.991589
0.088943 -0.078802 5.751740 237 4 0 0.991469
0.054090 -0.083820 5.729580 237 4 0 0.991206
0.036322 -0.086655 5.717710 242 8 0 0.991078
0.025903 -0.078274 5.738880 192 0 0 0.995095
0.008610 -0.080399 5.726530 196 0 0 0.994459
0.018709 -0.089273 5.705780 246 12 0 0.990471
-0.001983 -0.073103 5.748030 160 0 0 0.997368
0.071523 -0.059626 5.824680 133 0 0 0.999324
0.083363 -0.064231 5.804790 151 0 0 0.998235
0.100465 -0.062470 5.815500 151 0 0 0.997940
0.088409 -0.058222 5.835630 133 0 0 0.999351
0.112530 -0.067408 5.795110 187 0 0 0.995151
0.117533 -0.060817 5.826360 151 0 0 0.998002
0.129804 -0.065282 5.805570 192 0 0 0.995008
0.146960 -0.063203 5.816070 192 0 0 0.994777
0.105282 -0.057033 5.846860 133 0 0 0.999386
0.134517 -0.059120 5.837240 151 0 0 0.998054
0.141775 -0.071483 5.785320 242 8 0 0.990955
0.158978 -0.069198 5.795560 246 12 0 0.990601
0.124190 -0.073866 5.774070 242 8 0 0.990845
0.106594 -0.076264 5.762860 237 4 0 0.991454
0.095103 -0.069483 5.783540 183 0 0 0.995546
-0.068993 -0.018582 5.926430 128 0 0 0.999859
-0.052013 -0.017901 5.935870 128 0 0 0.999861
-0.042382 -0.027257 5.916760 128 0 0 0.999750
-0.035003 -0.017065 5.945420 128 0 0 0.999840
-0.025392 -0.026655 5.926330 128 0 0 0.999731
-0.008180 -0.025989 5.935950 128 0 0 0.999737
-0.017842 -0.016094 5.955030 128 0 0 0.999804
-0.015563 -0.035395 5.907060 137 0 0 0.999218
0.001597 -0.034888 5.916560 137 0 0 0.999185
0.011831 -0.042055 5.896610 142 0 0 0.998783
-0.004948 -0.042724 5.886280 142 0 0 0.998912
-0.032136 -0.036039 5.896620 133 0 0 0.999345
-0.021646 -0.043366 5.876000 137 0 0 0.999052
-0.048534 -0.036679 5.886190 133 0 0 0.999474
-0.058797 -0.028032 5.906360 128 0 0 0.999800
-0.074993 -0.028647 5.895980 128 0 0 0.999852
-0.038118 -0.043804 5.865670 137 0 0 0.999260
-0.064690 -0.037131 5.875800 133 0 0 0.999602
-0.054290 -0.044152 5.855320 133 0 0 0.999470
-0.085208 -0.019446 5.916020 128 0 0 0.999845
-0.001366 -0.014930 5.965760 128 0 0 0.999799
0.015586 -0.014281 5.975490 128 0 0 0.999813
0.024812 -0.023946 5.957560 128 0 0 0.999693
0.032602 -0.013655 5.985170 128 0 0 0.999826
0.041784 -0.023467 5.967230 133 0 0 0.999609
0.051325 -0.032365 5.948880 142 0 0 0.998748
0.061682 -0.040203 5.928470 151 0 0 0.997970
0.034700 -0.033315 5.938040 142 0 0 0.998940
0.044954 -0.040784 5.917780 146 0 0 0.998340
0.018176 -0.034039 5.927330 137 0 0 0.999091
0.008270 -0.024954 5.946740 128 0 0 0.999719
0.028310 -0.041431 5.907340 146 0 0 0.998575
0.093665 -0.055521 5.869530 137 0 0 0.999137
0.076801 -0.056545 5.858100 133 0 0 0.999301
0.065635 -0.053358 5.879650 151 0 0 0.998026
0.060054 -0.057603 5.846840 133 0 0 0.999443
0.049044 -0.054154 5.868070 146 0 0 0.998458
0.032515 -0.054929 5.856480 142 0 0 0.998697
0.043398 -0.058650 5.835620 133 0 0 0.999505
0.038403 -0.048849 5.888730 155 0 0 0.997909
0.021927 -0.049548 5.876880 151 0 0 0.998232
0.055117 -0.048283 5.899150 160 0 0 0.997507
0.071825 -0.047663 5.909640 164 0 0 0.997048
0.082456 -0.052745 5.890010 155 0 0 0.997614
0.026357 -0.059755 5.825930 133 0 0 0.999515
0.009641 -0.060706 5.814750 133 0 0 0.999609
-0.001327 -0.056594 5.836700 142 0 0 0.998894
-0.006934 -0.061715 5.803510 128 0 0 0.999674
-0.017758 -0.057284 5.825400 137 0 0 0.999184
-0.033912 -0.057896 5.813920 133 0 0 0.999464
-0.023350 -0.062586 5.792090 128 0 0 0.999689
-0.028296 -0.051430 5.846530 142 0 0 0.998805
-0.044230 -0.051918 5.835050 137 0 0 0.999205
-0.011697 -0.051025 5.856720 146 0 0 0.998491
0.005151 -0.050279 5.866770 146 0 0 0.998364
0.015598 -0.055783 5.846600 142 0 0 0.998792
0.272593 -0.047486 5.918240 146 0 0 0.998442
0.283653 -0.049803 5.896690 192 0 0 0.994930
0.264093 -0.051167 5.884650 196 0 0 0.994420
0.294574 -0.053276 5.875080 255 30 0 0.988793
0.275008 -0.055012 5.863320 255 34 0 0.988316
0.285548 -0.061477 5.842860 255 97 0 0.981884
0.305166 -0.059654 5.854370 255 90 0 0.982460
0.255386 -0.057101 5.851740 255 34 0 0.988334
0.265914 -0.063795 5.831470 255 93 0 0.982168
0.246023 -0.066562 5.820200 255 78 0 0.983898
0.234678 -0.059624 5.840460 255 27 0 0.989094
0.243511 -0.053261 5.873280 196 0 0 0.994653
0.222813 -0.055319 5.861850 192 0 0 0.994803
0.231532 -0.050912 5.895020 146 0 0 0.998444
0.252041 -0.049178 5.906690 146 0 0 0.998449
0.210785 -0.052529 5.883320 146 0 0 0.998474
0.315356 -0.072395 5.836210 255 75 0 0.984349
0.324031 -0.087885 5.818850 255 64 0 0.985319
0.305543 -0.090541 5.807880 255 64 0 0.985400
0.331905 -0.106442 5.803190 255 41 0 0.987734
0.313480 -0.109071 5.792340 255 41 0 0.987434
0.294838 -0.111927 5.781710 255 30 0 0.988570
0.275052 -0.114749 5.770930 255 30 0 0.988795
0.285880 -0.092809 5.796860 255 64 0 0.985397
0.266077 -0.095757 5.785810 255 60 0 0.985901
0.276197 -0.076960 5.813500 255 75 0 0.984296
0.295833 -0.074516 5.824800 255 75 0 0.984056
0.256334 -0.079768 5.802360 255 67 0 0.985019
0.221149 -0.124068 5.739040 255 38 0 0.987820
0.211664 -0.104499 5.753410 255 64 0 0.985256
0.230512 -0.101625 5.763890 255 60 0 0.985720
0.201135 -0.088010 5.769230 255 67 0 0.984961
0.220006 -0.085212 5.779980 255 71 0 0.984641
0.208847 -0.071360 5.797470 255 82 0 0.983530
0.189944 -0.074127 5.786420 255 75 0 0.984130
0.238581 -0.082570 5.790920 255 71 0 0.984675
0.227572 -0.068803 5.808700 255 82 0 0.983367
0.248365 -0.098556 5.774730 255 56 0 0.985972
0.257318 -0.117687 5.759980 255 30 0 0.988585
0.239379 -0.120736 5.749370 255 41 0 0.987591
0.178522 -0.066476 5.806040 255 23 0 0.989662
0.166451 -0.060740 5.826920 201 0 0 0.994351
0.185657 -0.058737 5.838050 205 0 0 0.993997
0.153940 -0.057021 5.848410 155 0 0 0.997907
0.173217 -0.055324 5.859690 151 0 0 0.997983
0.192279 -0.053738 5.871020 151 0 0 0.998128
0.204453 -0.056699 5.849680 201 0 0 0.994081
0.216206 -0.061595 5.828890 255 27 0 0.989258
0.197384 -0.063997 5.817590 255 23 0 0.989468
0.051058 -0.208169 5.613270 192 0 0 0.995079
0.058172 -0.233936 5.609300 160 0 0 0.997472
0.039956 -0.236382 5.597990 164 0 0 0.997046
0.065166 -0.259395 5.605530 146 0 0 0.998564
0.046981 -0.261543 5.594590 146 0 0 0.998285
0.054083 -0.285737 5.590670 155 0 0 0.997905
0.072315 -0.284255 5.601570 151 0 0 0.998176
0.028809 -0.263458 5.584000 146 0 0 0.998290
0.035928 -0.287297 5.580360 155 0 0 0.997850
0.017726 -0.288636 5.570880 146 0 0 0.998363
0.009167 -0.265737 5.573670 146 0 0 0.998344
0.020210 -0.239121 5.587230 164 0 0 0.997208
0.000712 -0.241861 5.576530 164 0 0 0.996951
0.011552 -0.214896 5.590340 192 0 0 0.994831
0.031180 -0.211697 5.601720 192 0 0 0.995040
0.021888 -0.187290 5.605750 246 12 0 0.990477
-0.007896 -0.217868 5.579680 192 0 0 0.994806
0.002476 -0.190919 5.594240 255 23 0 0.989662
-0.016523 -0.194423 5.583110 255 19 0 0.989950
0.041592 -0.182998 5.617560 246 12 0 0.990521
0.081393 -0.310438 5.603130 137 0 0 0.999037
0.088293 -0.337024 5.603960 133 0 0 0.999381
0.072032 -0.337471 5.595420 133 0 0 0.999535
0.094884 -0.362162 5.605670 133 0 0 0.999589
0.078650 -0.362839 5.596540 128 0 0 0.999654
0.062480 -0.362926 5.587620 128 0 0 0.999709
0.043992 -0.363517 5.577650 128 0 0 0.999670
0.053704 -0.338445 5.584990 133 0 0 0.999566
0.035167 -0.339033 5.575830 133 0 0 0.999629
0.044801 -0.312946 5.582960 137 0 0 0.999229
0.063222 -0.312174 5.592610 137 0 0 0.999044
0.026560 -0.313828 5.572980 133 0 0 0.999346
-0.016185 -0.366588 5.541870 142 0 0 0.998876
0.000146 -0.365118 5.552120 137 0 0 0.999139
-0.010738 -0.342054 5.549590 137 0 0 0.999081
-0.027232 -0.344008 5.540120 146 0 0 0.998510
0.005784 -0.340424 5.559190 137 0 0 0.999287
-0.021391 -0.318937 5.546830 137 0 0 0.999184
-0.004873 -0.316896 5.555920 133 0 0 0.999381
-0.014808 -0.293110 5.551130 146 0 0 0.998308
-0.037487 -0.321105 5.536990 137 0 0 0.999010
-0.031016 -0.295621 5.541860 142 0 0 0.998745
-0.047099 -0.298359 5.532560 137 0 0 0.999086
0.011781 -0.314878 5.565040 133 0 0 0.999389
0.001316 -0.290955 5.560940 146 0 0 0.998285
0.020371 -0.339663 5.567660 133 0 0 0.999510
0.029215 -0.363897 5.569150 133 0 0 0.999546
0.014659 -0.364421 5.560520 133 0 0 0.999412
-0.061267 -0.276082 5.531950 142 0 0 0.998627
-0.038737 -0.273413 5.544090 151 0 0 0.998037
-0.053355 -0.250843 5.544300 160 0 0 0.997304
-0.075278 -0.253567 5.531200 164 0 0 0.997157
-0.031026 -0.248117 5.556660 169 0 0 0.996701
-0.067652 -0.228227 5.543510 196 0 0 0.994707
-0.045680 -0.224880 5.556530 196 0 0 0.994762
-0.060287 -0.202373 5.556650 242 8 0 0.990868
-0.089027 -0.231315 5.529560 192 0 0 0.994853
-0.081640 -0.205940 5.542610 255 19 0 0.989794
-0.102593 -0.209169 5.527820 255 30 0 0.988680
-0.023480 -0.221488 5.569010 205 0 0 0.994027
-0.038762 -0.198652 5.569720 251 16 0 0.990189
-0.015179 -0.245087 5.566300 173 0 0 0.996529
-0.007013 -0.268169 5.563770 151 0 0 0.998068
-0.023069 -0.270659 5.554290 151 0 0 0.998235
-0.098096 -0.262684 5.513030 155 0 0 0.997624
-0.084898 -0.284917 5.515220 142 0 0 0.998726
-0.070767 -0.306611 5.515330 137 0 0 0.999102
-0.094129 -0.314987 5.497090 137 0 0 0.999174
-0.108303 -0.300007 5.494110 137 0 0 0.999111
-0.110129 -0.273689 5.502010 151 0 0 0.997980
-0.122043 -0.284612 5.490300 146 0 0 0.998396
-0.123368 -0.258251 5.496860 173 0 0 0.996380
-0.111927 -0.247276 5.508950 173 0 0 0.996247
-0.125117 -0.231815 5.503920 219 0 0 0.992787
-0.135463 -0.269148 5.485490 160 0 0 0.997424
-0.136746 -0.242722 5.491790 223 0 0 0.992518
-0.148401 -0.253454 5.479780 210 0 0 0.993549
-0.113751 -0.220586 5.516230 246 12 0 0.990756
-0.049020 -0.348885 5.524250 142 0 0 0.998664
-0.038170 -0.370873 5.526030 142 0 0 0.998755
-0.060764 -0.377056 5.508130 137 0 0 0.999147
-0.072633 -0.356602 5.505310 142 0 0 0.998948
-0.072247 -0.332007 5.511320 137 0 0 0.999120
-0.095273 -0.391318 5.477610 128 0 0 0.999650
-0.098704 -0.368450 5.482490 133 0 0 0.999500
-0.110454 -0.350257 5.477590 133 0 0 0.999627
-0.112541 -0.325909 5.480380 137 0 0 0.999013
-0.130506 -0.336982 5.463090 146 0 0 0.998272
-0.092295 -0.339418 5.494640 133 0 0 0.999487
-0.077906 -0.383058 5.493570 133 0 0 0.999444
-0.145204 -0.323992 5.459400 142 0 0 0.998935
-0.150291 -0.303402 5.464240 142 0 0 0.998865
-0.164588 -0.290092 5.459000 151 0 0 0.998085
-0.168456 -0.268948 5.461930 183 0 0 0.995530
-0.188116 -0.284348 5.442480 201 0 0 0.994306
-0.126800 -0.310879 5.477350 137 0 0 0.999142
0.033912 -0.160549 5.631150 246 12 0 0.990757
0.014312 -0.165205 5.618530 246 12 0 0.990602
0.006280 -0.144303 5.632870 246 12 0 0.990450
-0.004851 -0.169492 5.606470 242 8 0 0.990825
-0.012635 -0.148805 5.619960 255 19 0 0.990056
-0.031084 -0.153244 5.607690 246 12 0 0.990653
-0.023507 -0.173383 5.594220 255 23 0 0.989495
-0.021024 -0.129598 5.635230 251 16 0 0.990336
-0.039355 -0.134022 5.621960 251 16 0 0.990225
-0.047885 -0.115886 5.637630 255 38 0 0.987863
-0.029261 -0.112353 5.649580 255 38 0 0.988048
-0.001818 -0.125565 5.646610 255 23 0 0.989499
-0.010497 -0.108526 5.661560 255 38 0 0.987959
0.017806 -0.121329 5.658190 255 34 0 0.988373
0.026100 -0.139762 5.643720 255 30 0 0.988861
0.008720 -0.104423 5.673480 255 45 0 0.987171
-0.043886 -0.175956 5.586780 223 0 0 0.992588
-0.065288 -0.180223 5.572650 228 0 0 0.992185
-0.071163 -0.158734 5.590510 210 0 0 0.993409
-0.086236 -0.184046 5.558060 233 1 0 0.991538
-0.091844 -0.162854 5.575230 214 0 0 0.993233
-0.112172 -0.166171 5.559830 233 1 0 0.991575
-0.106895 -0.187169 5.542960 246 12 0 0.990658
-0.098168 -0.142431 5.594560 205 0 0 0.993897
-0.118364 -0.146000 5.578200 223 0 0 0.992276
-0.125128 -0.126508 5.598270 233 1 0 0.991602
-0.106303 -0.124490 5.608330 233 1 0 0.991606
-0.078990 -0.139898 5.603710 214 0 0 0.993333
-0.087203 -0.121985 5.618220 242 8 0 0.990910
-0.059446 -0.137035 5.612800 233 1 0 0.991554
-0.051354 -0.156144 5.598900 228 0 0 0.992046
-0.067712 -0.119093 5.627890 255 23 0 0.989603
-0.159337 -0.078475 5.688890 146 0 0 0.998371
-0.141108 -0.077564 5.698460 142 0 0 0.998778
-0.131820 -0.087389 5.676070 151 0 0 0.998013
-0.113275 -0.085690 5.685260 155 0 0 0.997739
-0.122717 -0.076155 5.707680 142 0 0 0.998772
-0.104056 -0.096177 5.663190 178 0 0 0.995995
-0.094496 -0.083718 5.694330 160 0 0 0.997372
-0.085096 -0.093663 5.671950 187 0 0 0.995189
-0.065656 -0.090900 5.680430 210 0 0 0.993490
-0.104257 -0.074668 5.717040 146 0 0 0.998597
-0.075543 -0.081382 5.703290 169 0 0 0.996856
-0.085566 -0.072906 5.726370 146 0 0 0.998433
-0.075964 -0.105390 5.650280 219 0 0 0.992855
-0.056472 -0.102320 5.658500 242 8 0 0.990907
-0.095387 -0.108065 5.639970 210 0 0 0.993348
-0.114462 -0.110473 5.629530 205 0 0 0.994049
-0.123011 -0.098210 5.652290 173 0 0 0.996520
-0.141703 -0.099846 5.641320 178 0 0 0.995844
-0.133253 -0.112392 5.618780 210 0 0 0.993397
-0.150440 -0.088794 5.664830 160 0 0 0.997450
-0.067941 -0.071694 5.736980 142 0 0 0.998727
-0.058076 -0.079624 5.716530 155 0 0 0.997634
-0.039737 -0.077630 5.726790 155 0 0 0.997650
-0.049917 -0.070236 5.747660 142 0 0 0.998862
-0.029706 -0.085861 5.706320 183 0 0 0.995507
-0.020952 -0.075462 5.737300 160 0 0 0.997558
-0.010717 -0.083264 5.716330 192 0 0 0.995113
-0.031383 -0.068520 5.758690 142 0 0 0.998912
-0.000886 -0.092570 5.696020 228 0 0 0.992179
-0.019876 -0.096030 5.683450 228 0 0 0.991973
-0.038289 -0.099368 5.671040 233 1 0 0.991734
-0.047919 -0.088559 5.693460 192 0 0 0.995113
-0.169429 -0.071733 5.710890 133 0 0 0.999495
-0.151403 -0.071058 5.720120 128 0 0 0.999671
-0.161586 -0.064340 5.741870 128 0 0 0.999884
-0.179755 -0.065005 5.732690 128 0 0 0.999876
-0.143472 -0.063689 5.751220 128 0 0 0.999854
-0.171823 -0.057348 5.763450 128 0 0 0.999904
-0.153605 -0.056675 5.772870 128 0 0 0.999838
-0.163651 -0.048533 5.794250 128 0 0 0.999886
-0.189969 -0.057692 5.754210 128 0 0 0.999944
-0.181941 -0.049214 5.784720 128 0 0 0.999912
-0.200324 -0.049569 5.775280 128 0 0 0.999875
-0.135311 -0.055684 5.782280 128 0 0 0.999819
-0.145376 -0.047643 5.803680 128 0 0 0.999860
-0.127000 -0.046545 5.813250 128 0 0 0.999821
-0.116931 -0.054749 5.792180 128 0 0 0.999770
-0.125191 -0.062761 5.760770 128 0 0 0.999830
-0.106708 -0.061829 5.770470 128 0 0 0.999791
-0.114744 -0.069025 5.739030 128 0 0 0.999687
-0.133067 -0.070098 5.729590 128 0 0 0.999713
-0.096277 -0.067623 5.748460 128 0 0 0.999658
-0.211044 -0.042891 5.795480 128 0 0 0.999939
-0.192644 -0.042285 5.805380 128 0 0 0.999939
-0.203420 -0.035101 5.825760 128 0 0 0.999945
-0.221934 -0.035730 5.815820 128 0 0 0.999959
-0.185132 -0.034162 5.835640 128 0 0 0.999918
-0.214382 -0.027271 5.846120 128 0 0 0.999961
-0.195897 -0.026291 5.855960 128 0 0 0.999946
-0.233012 -0.027950 5.836190 128 0 0 0.999960
-0.177476 -0.024927 5.865710 128 0 0 0.999954
-0.158823 -0.023610 5.875000 128 0 0 0.999933
-0.166790 -0.033182 5.845130 128 0 0 0.999918
-0.148270 -0.031966 5.854580 128 0 0 0.999927
-0.156088 -0.040790 5.824460 128 0 0 0.999887
-0.174392 -0.041630 5.814890 128 0 0 0.999910
-0.137612 -0.039693 5.833950 128 0 0 0.999890
-0.103634 -0.020761 5.905520 128 0 0 0.999886
-0.093479 -0.029801 5.885480 128 0 0 0.999838
-0.111817 -0.030820 5.874820 128 0 0 0.999851
-0.083248 -0.038086 5.865280 133 0 0 0.999635
-0.101678 -0.038801 5.854650 128 0 0 0.999717
-0.091321 -0.045748 5.834060 128 0 0 0.999655
-0.072860 -0.045009 5.844750 133 0 0 0.999532
-0.119636 -0.039293 5.844100 128 0 0 0.999816
-0.109312 -0.046314 5.823580 128 0 0 0.999738
-0.130227 -0.031487 5.864610 128 0 0 0.999887
-0.140732 -0.022940 5.885060 128 0 0 0.999935
-0.122364 -0.021906 5.895270 128 0 0 0.999922
-0.062494 -0.052867 5.823400 133 0 0 0.999379
-0.052330 -0.059213 5.802490 133 0 0 0.999488
-0.070505 -0.060200 5.790940 133 0 0 0.999629
-0.042049 -0.064191 5.780900 128 0 0 0.999692
-0.060350 -0.065567 5.769640 128 0 0 0.999697
-0.078252 -0.066635 5.758360 128 0 0 0.999672
-0.088762 -0.061156 5.780660 128 0 0 0.999691
-0.099071 -0.054437 5.802430 133 0 0 0.999576
-0.081002 -0.053763 5.812810 133 0 0 0.999463
-0.170840 -0.089277 5.658520 155 0 0 0.997756
-0.162145 -0.100542 5.635050 169 0 0 0.996597
-0.182684 -0.100612 5.628420 160 0 0 0.997473
-0.153682 -0.113062 5.612930 187 0 0 0.995137
-0.174259 -0.113125 5.606280 169 0 0 0.996560
-0.166360 -0.126949 5.585420 192 0 0 0.995114
-0.145698 -0.126999 5.592250 205 0 0 0.993959
-0.195440 -0.112816 5.598830 173 0 0 0.996279
-0.187523 -0.126548 5.577780 187 0 0 0.995263
-0.209502 -0.125755 5.569460 192 0 0 0.995105
-0.216023 -0.113551 5.590240 164 0 0 0.996952
-0.202328 -0.101561 5.620580 160 0 0 0.997357
-0.222881 -0.102189 5.611900 160 0 0 0.997286
-0.209554 -0.091327 5.643240 146 0 0 0.998460
-0.189985 -0.090483 5.651050 146 0 0 0.998468
-0.197304 -0.081179 5.674400 137 0 0 0.999124
-0.229777 -0.091814 5.634640 151 0 0 0.998122
-0.216801 -0.081899 5.666640 137 0 0 0.999013
-0.236913 -0.082307 5.658330 142 0 0 0.998846
-0.178145 -0.079944 5.681770 142 0 0 0.998761
-0.143238 -0.140157 5.574190 219 0 0 0.992657
-0.137150 -0.159833 5.555430 214 0 0 0.993336
-0.162371 -0.153099 5.550360 205 0 0 0.993708
-0.131847 -0.180621 5.538430 205 0 0 0.993895
-0.156686 -0.173342 5.532780 196 0 0 0.994486
