ply
format ascii 1.0
comment Seamless Cloth Simulation with High Geometric Fidelity 
comment Mon Apr 29 11:12:40 2019
element vertex 999
property float x
property float y
property float z
property float quality
property uchar red
property uchar green
property uchar blue
end_header
0.827527 -1.00049 6.22603 0.977524 255 0 255 
0.818969 -1.01896 6.2582 0.978426 255 0 255 
0.832008 -1.0197 6.26239 0.977931 255 0 255 
0.805376 -1.018 6.25413 0.978434 255 0 255 
0.809872 -1.03629 6.29031 0.975869 255 0 255 
0.79622 -1.0354 6.28644 0.975707 255 0 255 
0.823167 -1.03713 6.29414 0.974583 255 0 255 
0.853769 -1.01659 6.26684 0.982761 255 0 255 
0.862631 -0.998481 6.23515 0.981251 255 0 255 
0.871254 -0.979658 6.203 0.974512 255 0 255 
0.893041 -0.976972 6.20805 0.977523 255 0 255 
0.885783 -0.995091 6.23852 0.982873 255 0 255 
0.878801 -1.01279 6.26866 0.983647 255 0 255 
0.859101 -1.03151 6.2977 0.981479 255 0 255 
0.839885 -1.05022 6.32673 0.971325 255 0 255 
0.864797 -1.04632 6.32809 0.974929 255 0 255 
0.867761 -0.954942 6.17486 0.984232 255 0 255 
0.87637 -0.927575 6.14769 0.988659 255 0 255 
0.895628 -0.899899 6.12439 0.990312 255 0 255 
0.918333 -0.899459 6.13187 0.990475 255 0 255 
0.897733 -0.926219 6.1544 0.990526 255 0 255 
0.889577 -0.95238 6.18007 0.986915 255 0 255 
0.963246 -0.896472 6.14702 0.990717 255 0 255 
0.943755 -0.922077 6.16828 0.992519 255 0 255 
0.935887 -0.945922 6.19165 0.990465 255 0 255 
0.916512 -0.97206 6.21269 0.981803 255 0 255 
0.940695 -0.967991 6.21711 0.981341 255 0 255 
0.911948 -0.950232 6.18672 0.989054 255 0 255 
0.920324 -0.924486 6.16144 0.991647 255 0 255 
0.940656 -0.89852 6.14029 0.991697 255 0 255 
0.935139 -0.985121 6.24511 0.985689 255 0 255 
0.916099 -1.00492 6.27281 0.987061 255 0 255 
0.910624 -1.02158 6.30035 0.984308 255 0 255 
0.891632 -1.04053 6.3279 0.977474 255 0 255 
0.919064 -1.03543 6.32775 0.97447 255 0 255 
0.883387 -1.02728 6.30042 0.983792 255 0 255 
0.909904 -0.990439 6.24285 0.98627 255 0 255 
0.936906 -1.01619 6.30356 0.985187 255 0 255 
0.942184 -0.999242 6.27608 0.987876 255 0 255 
0.960097 -0.979344 6.25165 0.989668 255 0 255 
0.9658 -0.962278 6.22397 0.98538 255 0 255 
0.990832 -0.957146 6.23062 0.987477 255 0 255 
0.985705 -0.973593 6.25672 0.990342 255 0 255 
0.967501 -0.993193 6.28096 0.990014 255 0 255 
0.962822 -1.00966 6.30688 0.987086 255 0 255 
0.945098 -1.02906 6.33099 0.979029 255 0 255 
0.971392 -1.02326 6.33433 0.979971 255 0 255 
0.960173 -0.942509 6.19868 0.990704 255 0 255 
0.967644 -0.91874 6.17542 0.992542 255 0 255 
0.988225 -0.893988 6.15668 0.992449 255 0 255 
1.01318 -0.890573 6.16494 0.992876 255 0 255 
0.992536 -0.914941 6.18365 0.993916 255 0 255 
0.985333 -0.937276 6.20563 0.992356 255 0 255 
1.06267 -0.882843 6.18341 0.993311 255 0 255 
1.04247 -0.906555 6.20056 0.993964 255 0 255 
1.03516 -0.927603 6.22149 0.993656 255 0 255 
1.01571 -0.951537 6.23828 0.989942 255 0 255 
1.04072 -0.946169 6.24603 0.989964 255 0 255 
1.00999 -0.933004 6.21365 0.993247 255 0 255 
1.01752 -0.910877 6.19192 0.994447 255 0 255 
1.03792 -0.887181 6.17461 0.993237 255 0 255 
1.03515 -0.961895 6.27082 0.992341 255 0 255 
1.0176 -0.981104 6.29283 0.992279 255 0 255 
1.01246 -0.997126 6.31755 0.991264 255 0 255 
0.995435 -1.01652 6.33956 0.983748 255 0 255 
1.01925 -1.01017 6.34452 0.985136 255 0 255 
0.988353 -1.00387 6.31223 0.989205 255 0 255 
0.993092 -0.987309 6.2864 0.99124 255 0 255 
1.01059 -0.967992 6.26428 0.992085 255 0 255 
1.03569 -0.991323 6.32359 0.990042 255 0 255 
1.04087 -0.975021 6.29905 0.992835 255 0 255 
1.05785 -0.956449 6.2781 0.991839 255 0 255 
1.06329 -0.940596 6.25335 0.9893 255 0 255 
1.08577 -0.935166 6.26046 0.987827 255 0 255 
1.08002 -0.950323 6.28446 0.991043 255 0 255 
1.0635 -0.969062 6.30555 0.991492 255 0 255 
1.05774 -0.984677 6.32927 0.990423 255 0 255 
1.04129 -1.0037 6.35012 0.985759 255 0 255 
1.06338 -0.99745 6.35562 0.98516 255 0 255 
1.05908 -0.92318 6.22965 0.99309 255 0 255 
1.0663 -0.902038 6.20879 0.993526 255 0 255 
1.0852 -0.879344 6.19209 0.992046 255 0 255 
1.10813 -0.874855 6.20015 0.990098 255 0 255 
1.0893 -0.89759 6.21685 0.992361 255 0 255 
1.08173 -0.917576 6.23702 0.992192 255 0 255 
1.15187 -0.867544 6.21508 0.985128 255 0 255 
1.13302 -0.889105 6.23134 0.98927 255 0 255 
1.12571 -0.908409 6.25098 0.987513 255 0 255 
1.10761 -0.930329 6.26713 0.988105 255 0 255 
1.12939 -0.925644 6.27356 0.983954 255 0 255 
1.10404 -0.913323 6.24443 0.990524 255 0 255 
1.11143 -0.893188 6.22432 0.991641 255 0 255 
1.12993 -0.871643 6.20787 0.987943 255 0 255 
1.12307 -0.940404 6.29669 0.987114 255 0 255 
1.10656 -0.9584 6.31721 0.988943 255 0 255 
1.10079 -0.973712 6.34035 0.98698 255 0 255 
1.08448 -0.992032 6.3609 0.984057 255 0 255 
1.10584 -0.98681 6.36599 0.980516 255 0 255 
1.07957 -0.979291 6.33511 0.989224 255 0 255 
1.08537 -0.963463 6.31153 0.99126 255 0 255 
1.10159 -0.945616 6.29087 0.989902 255 0 255 
1.12267 -0.969815 6.3455 0.98382 255 0 255 
1.12844 -0.954074 6.32248 0.985868 255 0 255 
1.14573 -0.937385 6.30211 0.982885 255 0 255 
1.15188 -0.922443 6.27908 0.981874 255 0 255 
1.15047 -0.950826 6.32712 0.981529 255 0 255 
1.14433 -0.96622 6.34962 0.980433 255 0 255 
1.12736 -0.983543 6.37017 0.97922 255 0 255 
1.14798 -0.905099 6.25747 0.985406 255 0 255 
1.15522 -0.885615 6.2379 0.986639 255 0 255 
1.1746 -0.865433 6.22177 0.981967 255 0 255 
1.17997 -0.826033 6.1846 0.976162 255 0 255 
0.638662 -0.82343 5.99154 0.977055 255 0 255 
0.62638 -0.843474 6.01569 0.983953 255 0 255 
0.611872 -0.836394 6.0067 0.984212 255 0 255 
0.614068 -0.864027 6.03979 0.9874 255 0 255 
0.599648 -0.856714 6.03091 0.986578 255 0 255 
0.587166 -0.876923 6.05513 0.984925 255 0 255 
0.601856 -0.8842 6.06422 0.987031 255 0 255 
0.585428 -0.849347 6.02195 0.986437 255 0 255 
0.573074 -0.869649 6.04611 0.98643 255 0 255 
0.558775 -0.862346 6.03714 0.985969 255 0 255 
0.583299 -0.8246 5.9922 0.984483 255 0 255 
0.610014 -0.81162 5.97694 0.978241 255 0 255 
0.636349 -0.798551 5.9621 0.96358 255 0 255 
0.607606 -0.786982 5.94801 0.967424 255 0 255 
0.589352 -0.896879 6.09108 0.990426 255 0 255 
0.577599 -0.910133 6.11947 0.992037 255 0 255 
0.562483 -0.901748 6.10901 0.99177 255 0 255 
0.566003 -0.923346 6.14812 0.99312 255 0 255 
0.550563 -0.914746 6.13772 0.99299 255 0 255 
0.535381 -0.906454 6.12707 0.992188 255 0 255 
0.520731 -0.898881 6.1183 0.990813 255 0 255 
0.547789 -0.894247 6.10004 0.991436 255 0 255 
0.533442 -0.887167 6.09105 0.989699 255 0 255 
0.560165 -0.881986 6.07295 0.989328 255 0 255 
0.574815 -0.889421 6.08198 0.990161 255 0 255 
0.546198 -0.874763 6.06399 0.989735 255 0 255 
0.464138 -0.879226 6.08224 0.98247 255 0 255 
0.490882 -0.871799 6.06405 0.984686 255 0 255 
0.50382 -0.85959 6.03842 0.98534 255 0 255 
0.5308 -0.852195 6.02074 0.985116 255 0 255 
0.503015 -0.842441 6.00473 0.982642 255 0 255 
0.531427 -0.869469 6.05473 0.988225 255 0 255 
0.519058 -0.881905 6.08158 0.98871 255 0 255 
0.506054 -0.893952 6.10896 0.989392 255 0 255 
0.491522 -0.888901 6.09967 0.986977 255 0 255 
0.51488 -0.824122 5.98379 0.983636 255 0 255 
0.540684 -0.809892 5.96961 0.983141 255 0 255 
0.552575 -0.791564 5.94885 0.978581 255 0 255 
0.578531 -0.777657 5.93511 0.969171 255 0 255 
0.550085 -0.768693 5.92272 0.966048 255 0 255 
0.581253 -0.80095 5.9618 0.978371 255 0 255 
0.557017 -0.838215 6.00644 0.986291 255 0 255 
0.72427 -0.604348 5.89684 0.971717 255 0 255 
0.714643 -0.635602 5.90114 0.967752 255 0 255 
0.689946 -0.663234 5.90007 0.959144 255 0 255 
0.680139 -0.693698 5.90553 0.944747 255 0 255 
0.650021 -0.686093 5.89453 0.95326 255 0 255 
0.658776 -0.657166 5.88978 0.965769 255 0 255 
0.683744 -0.629941 5.89015 0.968122 255 0 255 
0.692312 -0.600205 5.88605 0.976527 255 0 255 
0.684715 -0.723478 5.92396 0.956443 255 0 255 
0.673193 -0.750458 5.93909 0.969123 255 0 255 
0.64788 -0.77185 5.94683 0.967378 255 0 255 
0.618372 -0.761913 5.93415 0.968567 255 0 255 
0.644108 -0.741071 5.92616 0.967182 255 0 255 
0.654797 -0.715739 5.9126 0.960155 255 0 255 
0.55984 -0.744955 5.91058 0.968981 255 0 255 
0.584877 -0.724533 5.9037 0.972538 255 0 255 
0.594549 -0.700567 5.89189 0.970329 255 0 255 
0.619444 -0.679651 5.88474 0.961092 255 0 255 
0.588574 -0.672829 5.87547 0.96799 255 0 255 
0.625222 -0.707522 5.90152 0.965622 255 0 255 
0.614733 -0.732714 5.91422 0.968484 255 0 255 
0.589652 -0.752943 5.92156 0.969595 255 0 255 
0.596051 -0.645732 5.87087 0.976788 255 0 255 
0.620235 -0.620175 5.87007 0.978682 255 0 255 
0.62759 -0.592007 5.86515 0.981659 255 0 255 
0.660799 -0.595305 5.87499 0.977639 255 0 255 
0.652326 -0.624926 5.87959 0.97206 255 0 255 
0.628388 -0.651145 5.87913 0.968385 255 0 255 
0.524553 -0.784258 5.93568 0.974263 255 0 255 
0.512965 -0.802646 5.95585 0.978629 255 0 255 
0.487649 -0.818355 5.96972 0.979428 255 0 255 
0.476088 -0.837097 5.99054 0.979828 255 0 255 
0.449628 -0.831844 5.97699 0.977743 255 0 255 
0.46042 -0.813113 5.95722 0.977477 255 0 255 
0.484998 -0.796975 5.94331 0.978551 255 0 255 
0.496163 -0.778166 5.92445 0.975418 255 0 255 
0.521426 -0.762593 5.91109 0.964411 255 0 255 
0.492491 -0.756236 5.90057 0.968193 255 0 255 
0.476774 -0.85248 6.02232 0.982181 255 0 255 
0.463837 -0.864865 6.04823 0.979439 255 0 255 
0.438034 -0.874433 6.06656 0.977419 255 0 255 
0.425774 -0.886733 6.09241 0.977154 255 0 255 
0.401071 -0.884163 6.07604 0.974565 255 0 255 
0.413226 -0.870875 6.05148 0.97342 255 0 255 
0.437929 -0.859938 6.03337 0.97445 255 0 255 
0.450281 -0.847183 6.00831 0.979344 255 0 255 
0.353957 -0.889012 6.04504 0.975201 255 0 255 
0.365758 -0.874456 6.0218 0.975215 255 0 255 
0.389194 -0.858798 6.00523 0.975167 255 0 255 
0.400733 -0.844171 5.98183 0.976615 255 0 255 
0.424599 -0.830028 5.96435 0.975868 255 0 255 
0.399874 -0.829213 5.95177 0.976479 255 0 255 
0.425226 -0.84464 5.99476 0.978239 255 0 255 
0.413144 -0.858052 6.01934 0.974914 255 0 255 
0.389451 -0.872186 6.03643 0.974045 255 0 255 
0.377423 -0.885914 6.06058 0.975402 255 0 255 
0.409303 -0.808827 5.93327 0.978396 255 0 255 
0.432024 -0.789997 5.92077 0.97807 255 0 255 
0.441405 -0.770118 5.90262 0.977661 255 0 255 
0.464775 -0.752397 5.88995 0.970906 255 0 255 
0.436824 -0.74908 5.87887 0.975308 255 0 255 
0.468687 -0.773606 5.91323 0.975518 255 0 255 
0.458303 -0.792698 5.93196 0.977476 255 0 255 
0.43501 -0.810809 5.94506 0.977064 255 0 255 
-0.430105 -1.06277 5.64828 0.998527 255 0 255 
-0.437992 -1.05926 5.67179 0.999168 255 0 255 
-0.46139 -1.05567 5.66307 0.999643 255 0 255 
-0.46931 -1.05337 5.68673 0.99961 255 0 255 
-0.445939 -1.05642 5.69545 0.999253 255 0 255 
-0.492731 -1.0511 5.67807 0.999515 255 0 255 
-0.477084 -1.05165 5.71049 0.999392 255 0 255 
-0.500461 -1.04959 5.70184 0.999448 255 0 255 
-0.50826 -1.04842 5.72551 0.998208 255 0 255 
-0.453794 -1.05412 5.71914 0.998736 255 0 255 
-0.484929 -1.05004 5.73414 0.998076 255 0 255 
-0.461599 -1.05215 5.74274 0.997037 255 0 255 
-0.52382 -1.04823 5.69321 0.99927 255 0 255 
-0.531573 -1.04737 5.71697 0.997473 255 0 255 
-0.554774 -1.04657 5.70837 0.995653 255 0 255 
-0.548193 -1.04808 5.68572 0.997614 255 0 255 
-0.517201 -1.05026 5.67058 0.999472 255 0 255 
-0.54161 -1.05023 5.66312 0.998053 255 0 255 
-0.510548 -1.05277 5.64803 0.999418 255 0 255 
-0.485984 -1.05384 5.65554 0.999505 255 0 255 
-0.47933 -1.05703 5.63312 0.999519 255 0 255 
-0.534909 -1.05219 5.64053 0.998286 255 0 255 
-0.503891 -1.05548 5.6256 0.999364 255 0 255 
-0.528239 -1.05473 5.61825 0.998221 255 0 255 
-0.454731 -1.05936 5.64068 0.999475 255 0 255 
-0.471161 -1.04835 5.76875 0.99536 255 0 255 
-0.492598 -1.04593 5.75892 0.997102 255 0 255 
-0.502055 -1.04249 5.78479 0.993997 255 0 255 
-0.480448 -1.04439 5.79451 0.992181 255 0 255 
-0.523484 -1.04073 5.77509 0.995141 255 0 255 
-0.511248 -1.0382 5.81042 0.990384 255 0 255 
-0.532692 -1.03671 5.80085 0.99077 255 0 255 
-0.541614 -1.03128 5.82633 0.987335 255 0 255 
-0.489671 -1.0396 5.82005 0.988772 255 0 255 
-0.520167 -1.03246 5.83583 0.987033 255 0 255 
-0.498642 -1.03393 5.84544 0.985285 255 0 255 
-0.554146 -1.03562 5.79123 0.990971 255 0 255 
-0.563088 -1.03055 5.81668 0.985654 255 0 255 
-0.584444 -1.03005 5.8072 0.98382 255 0 255 
-0.577346 -1.03554 5.78285 0.986425 255 0 255 
-0.546755 -1.04017 5.76671 0.993359 255 0 255 
-0.569878 -1.03972 5.75818 0.990439 255 0 255 
-0.539216 -1.04386 5.7419 0.996063 255 0 255 
-0.515889 -1.04466 5.7504 0.997222 255 0 255 
-0.562401 -1.04329 5.7333 0.993823 255 0 255 
-0.679231 -1.01793 5.7613 0.977646 255 0 255 
-0.672681 -1.02272 5.73683 0.981945 255 0 255 
-0.648287 -1.026 5.74833 0.985387 255 0 255 
-0.641633 -1.02969 5.72364 0.989904 255 0 255 
-0.66591 -1.02634 5.71217 0.986828 255 0 255 
-0.617206 -1.03296 5.73517 0.991447 255 0 255 
-0.634643 -1.03234 5.69892 0.99382 255 0 255 
-0.610339 -1.03581 5.71036 0.99486 255 0 255 
-0.603272 -1.03859 5.68548 0.996717 255 0 255 
-0.658923 -1.02914 5.68738 0.990688 255 0 255 
-0.627465 -1.03501 5.67405 0.995892 255 0 255 
-0.651746 -1.03199 5.66256 0.993131 255 0 255 
-0.586053 -1.03965 5.72181 0.994838 255 0 255 
-0.579002 -1.04237 5.69689 0.996779 255 0 255 
-0.593553 -1.03625 5.74664 0.991699 255 0 255 
-0.600952 -1.03207 5.77134 0.987944 255 0 255 
-0.624579 -1.02883 5.75986 0.987698 255 0 255 
-0.63173 -1.0237 5.7844 0.983776 255 0 255 
-0.608105 -1.02687 5.79583 0.984009 255 0 255 
-0.655382 -1.02068 5.77296 0.98187 255 0 255 
-0.644734 -1.03341 5.64036 0.995155 255 0 255 
-0.620783 -1.03639 5.65151 0.997374 255 0 255 
-0.613845 -1.03805 5.62925 0.997892 255 0 255 
-0.637769 -1.03509 5.61826 0.99595 255 0 255 
-0.58996 -1.04144 5.64032 0.998528 255 0 255 
-0.607 -1.03967 5.60723 0.997986 255 0 255 
-0.583135 -1.0432 5.61821 0.998485 255 0 255 
-0.576236 -1.04536 5.59628 0.99832 255 0 255 
-0.630832 -1.03675 5.59647 0.996112 255 0 255 
-0.600114 -1.04201 5.58552 0.997732 255 0 255 
-0.623845 -1.03869 5.5748 0.996038 255 0 255 
-0.559188 -1.04738 5.62921 0.998775 255 0 255 
-0.552338 -1.04973 5.6071 0.99872 255 0 255 
-0.56579 -1.04536 5.65167 0.998723 255 0 255 
-0.572419 -1.04366 5.67428 0.998343 255 0 255 
-0.596623 -1.03982 5.66286 0.998203 255 0 255 
-0.378142 -1.03094 5.89166 0.990959 255 0 255 
-0.393094 -1.02135 5.91843 0.991951 255 0 255 
-0.419001 -1.01074 5.9391 0.994144 255 0 255 
-0.433471 -0.999135 5.96503 0.995414 255 0 255 
-0.459053 -0.987603 5.98561 0.996697 255 0 255 
-0.436714 -0.987125 5.99651 0.996675 255 0 255 
-0.456015 -0.999943 5.95412 0.995544 255 0 255 
-0.481273 -0.98821 5.97463 0.996177 255 0 255 
-0.443471 -1.01207 5.92871 0.993108 255 0 255 
-0.430807 -1.02313 5.90291 0.990214 255 0 255 
-0.404599 -1.03202 5.88164 0.989623 255 0 255 
-0.430974 -1.03359 5.87156 0.987317 255 0 255 
-0.450459 -0.972179 6.02203 0.998741 255 0 255 
-0.474662 -0.957815 6.04203 0.997965 255 0 255 
-0.488456 -0.944043 6.06783 0.995472 255 0 255 
-0.509285 -0.944621 6.05638 0.995443 255 0 255 
-0.496174 -0.958311 6.03078 0.997836 255 0 255 
-0.483178 -0.972854 6.0054 0.998613 255 0 255 
-0.575129 -0.943568 6.02092 0.994156 255 0 255 
-0.548867 -0.958229 6.00317 0.997698 255 0 255 
-0.537007 -0.97313 5.9783 0.998476 255 0 255 
-0.510409 -0.987638 5.96041 0.997005 255 0 255 
-0.539641 -0.988029 5.9467 0.996012 255 0 255 
-0.507991 -0.973363 5.99245 0.998539 255 0 255 
-0.520818 -0.958517 6.0178 0.997756 255 0 255 
-0.533819 -0.944343 6.04317 0.99446 255 0 255 
-0.529666 -1.00095 5.92176 0.992912 255 0 255 
-0.512912 -1.00049 5.92815 0.994499 255 0 255 
-0.502778 -1.01288 5.90329 0.991182 255 0 255 
-0.519465 -1.01307 5.89678 0.989568 255 0 255 
-0.486007 -1.01257 5.9096 0.992506 255 0 255 
-0.492218 -1.02365 5.87783 0.988802 255 0 255 
-0.475515 -1.02364 5.88429 0.989987 255 0 255 
-0.464775 -1.03325 5.85844 0.987731 255 0 255 
-0.509248 -1.0245 5.87151 0.986124 255 0 255 
-0.481712 -1.03334 5.85188 0.986798 255 0 255 
-0.458705 -1.0237 5.89082 0.990073 255 0 255 
-0.447962 -1.03338 5.86501 0.987963 255 0 255 
-0.483681 -1.00078 5.94215 0.994289 255 0 255 
-0.735723 -0.933586 5.93115 0.996729 255 0 255 
-0.713394 -0.935547 5.94259 0.977904 255 0 255 
-0.703864 -0.949432 5.91895 0.998268 255 0 255 
-0.726331 -0.947835 5.90762 0.998236 255 0 255 
-0.681786 -0.951822 5.9304 0.998136 255 0 255 
-0.694624 -0.964027 5.89561 0.998185 255 0 255 
-0.67242 -0.966518 5.90724 0.998344 255 0 255 
-0.663107 -0.98059 5.88383 0.995834 255 0 255 
-0.717063 -0.961821 5.8839 0.997407 255 0 255 
-0.685491 -0.978205 5.87218 0.995245 255 0 255 
-0.708026 -0.976113 5.86043 0.993574 255 0 255 
-0.65021 -0.96874 5.91868 0.998413 255 0 255 
-0.640688 -0.982513 5.89525 0.99635 255 0 255 
-0.618529 -0.984908 5.90672 0.995813 255 0 255 
-0.62907 -0.97041 5.93109 0.998148 255 0 255 
-0.660496 -0.953158 5.94265 0.980283 255 0 255 
-0.639493 -0.955139 5.9551 0.980024 255 0 255 
-0.671074 -0.938677 5.96715 0.976934 255 0 255 
-0.692045 -0.937198 5.95499 0.977428 255 0 255 
-0.650094 -0.940659 5.97949 0.976961 255 0 255 
-0.701377 -0.988837 5.83633 0.987723 255 0 255 
-0.677756 -0.991285 5.84756 0.99094 255 0 255 
-0.670742 -1.00282 5.82318 0.985619 255 0 255 
-0.694362 -0.999835 5.81181 0.983296 255 0 255 
-0.647119 -1.00569 5.83445 0.986953 255 0 255 
-0.663378 -1.01272 5.79826 0.981875 255 0 255 
-0.639772 -1.01585 5.80973 0.982843 255 0 255 
-0.68714 -1.00984 5.78672 0.978565 255 0 255 
-0.616124 -1.01843 5.82097 0.984975 255 0 255 
-0.593522 -1.02109 5.83278 0.984304 255 0 255 
-0.624643 -1.00799 5.84627 0.987879 255 0 255 
-0.602149 -1.01038 5.85796 0.987057 255 0 255 
-0.632936 -0.996197 5.87109 0.991446 255 0 255 
-0.655245 -0.993521 5.85932 0.991958 255 0 255 
-0.610478 -0.998396 5.88266 0.991015 255 0 255 
-0.529287 -1.02316 5.86126 0.988454 255 0 255 
-0.539505 -1.01213 5.8867 0.990723 255 0 255 
-0.559471 -1.01121 5.87656 0.991604 255 0 255 
-0.549513 -1.00004 5.91177 0.993924 255 0 255 
-0.569313 -0.999181 5.90181 0.994141 255 0 255 
-0.579071 -0.98588 5.9265 0.997172 255 0 255 
-0.559344 -0.986779 5.93656 0.996987 255 0 255 
-0.589315 -0.998566 5.89181 0.993616 255 0 255 
-0.598934 -0.985402 5.9166 0.996611 255 0 255 
-0.580883 -1.01061 5.86726 0.990298 255 0 255 
-0.572254 -1.02162 5.84232 0.987118 255 0 255 
-0.550781 -1.02232 5.85177 0.988206 255 0 255 
-0.570221 -0.972217 5.96065 0.998704 255 0 255 
-0.581833 -0.956892 5.98538 0.997451 255 0 255 
-0.600524 -0.956441 5.9749 0.979246 255 0 255 
-0.593704 -0.94265 6.01035 0.975205 255 0 255 
-0.612228 -0.941729 5.99962 0.975218 255 0 255 
-0.630842 -0.941395 5.98926 0.976331 255 0 255 
-0.62011 -0.955662 5.96497 0.97981 255 0 255 
-0.60952 -0.9709 5.9409 0.998625 255 0 255 
-0.589805 -0.971279 5.95064 0.998841 255 0 255 
0.204261 -0.81774 5.3225 0.92594 255 0 255 
0.202918 -0.83756 5.33044 0.918904 255 0 255 
0.201049 -0.857652 5.3384 0.911361 255 0 255 
0.199258 -0.877777 5.34632 0.889644 255 0 255 
0.116126 -0.712436 5.28472 0.942899 255 0 255 
0.120693 -0.730618 5.29992 0.956511 255 0 255 
0.139254 -0.732243 5.29311 0.953387 255 0 255 
0.143609 -0.751942 5.30821 0.959961 255 0 255 
0.124988 -0.749935 5.31508 0.967309 255 0 255 
0.162263 -0.754304 5.30128 0.957759 255 0 255 
0.147484 -0.772106 5.32246 0.966179 255 0 255 
0.16567 -0.773527 5.31522 0.956741 255 0 255 
0.168665 -0.79268 5.32886 0.951487 255 0 255 
0.128781 -0.769786 5.32929 0.962058 255 0 255 
0.150554 -0.790465 5.33595 0.952513 255 0 255 
0.132391 -0.788699 5.34321 0.953632 255 0 255 
0.184046 -0.775293 5.30777 0.950171 255 0 255 
0.18724 -0.795367 5.32145 0.941547 255 0 255 
0.182135 -0.756868 5.29428 0.957964 255 0 255 
0.179284 -0.738453 5.28042 0.945024 255 0 255 
0.159444 -0.7353 5.28673 0.958843 255 0 255 
0.155873 -0.717559 5.2725 0.936076 255 0 255 
0.176065 -0.720049 5.2655 0.943258 255 0 255 
0.136247 -0.715008 5.27866 0.944264 255 0 255 
0.131884 -0.809831 5.35262 0.952125 255 0 255 
0.149375 -0.811317 5.34506 0.951949 255 0 255 
0.148771 -0.832373 5.35359 0.941615 255 0 255 
0.130962 -0.831554 5.36142 0.951763 255 0 255 
0.166101 -0.833214 5.34611 0.93697 255 0 255 
0.147449 -0.853282 5.36222 0.932847 255 0 255 
0.165138 -0.85415 5.35421 0.923466 255 0 255 
0.163735 -0.875708 5.36245 0.890973 255 0 255 
0.130152 -0.852031 5.36995 0.9317 255 0 255 
0.146156 -0.874277 5.37031 0.894663 255 0 255 
0.128465 -0.873942 5.37816 0.912732 255 0 255 
0.182616 -0.855284 5.3464 0.915682 255 0 255 
0.181378 -0.876303 5.3545 0.88918 255 0 255 
0.184371 -0.83519 5.33845 0.922032 255 0 255 
0.186093 -0.815548 5.32989 0.943678 255 0 255 
0.16753 -0.813009 5.33756 0.94547 255 0 255 
0.134828 -1.0546 5.20371 0.902944 255 0 255 
0.116798 -1.05672 5.18269 0.916863 255 0 255 
0.100717 -1.05661 5.16169 0.925833 255 0 255 
0.0751651 -1.05698 5.16803 0.942644 255 0 255 
0.0585645 -1.05725 5.18433 0.949621 255 0 255 
0.0919694 -1.05708 5.18904 0.938928 255 0 255 
0.0752951 -1.05725 5.20572 0.939657 255 0 255 
0.0421021 -1.05755 5.20083 0.957098 255 0 255 
0.0255062 -1.0577 5.21736 0.964657 255 0 255 
0.00559787 -1.0568 5.19578 0.972048 255 0 255 
0.0220712 -1.05653 5.17951 0.964403 255 0 255 
0.0386576 -1.0564 5.16337 0.955621 255 0 255 
-0.0141863 -1.05619 5.17447 0.971342 255 0 255 
0.1113 -1.05527 5.21034 0.916207 255 0 255 
0.0972073 -1.05319 5.22722 0.924267 255 0 255 
0.130025 -1.04979 5.23128 0.896504 255 0 255 
0.115702 -1.04751 5.24814 0.895816 255 0 255 
0.0828729 -1.05101 5.24393 0.930085 255 0 255 
0.0690753 -1.04873 5.26059 0.938309 255 0 255 
0.046883 -1.05329 5.23885 0.956332 255 0 255 
0.0611684 -1.05545 5.22224 0.95225 255 0 255 
-0.0259927 -1.05106 5.28388 0.965357 255 0 255 
-0.0128836 -1.05265 5.26708 0.969072 255 0 255 
-0.0507233 -1.05411 5.26154 0.977046 255 0 255 
2.5638e-05 -1.05443 5.25047 0.970182 255 0 255 
-0.0375243 -1.0558 5.24477 0.978111 255 0 255 
-0.0243655 -1.05774 5.22842 0.975116 255 0 255 
-0.0750744 -1.05735 5.23945 0.976962 255 0 255 
0.0128679 -1.05603 5.23379 0.969552 255 0 255 
0.0341452 -1.05165 5.25538 0.958991 255 0 255 
0.0217554 -1.04992 5.27209 0.960518 255 0 255 
-0.0595334 -1.05714 5.22293 0.977139 255 0 255 
-0.0974561 -1.05577 5.21762 0.981098 255 0 255 
-0.0444508 -1.05687 5.20667 0.976492 255 0 255 
-0.0818863 -1.05578 5.20131 0.978914 255 0 255 
-0.0667837 -1.05559 5.1852 0.974506 255 0 255 
-0.119286 -1.05487 5.19606 0.975749 255 0 255 
-0.0292964 -1.05652 5.19049 0.975904 255 0 255 
-0.00923678 -1.05733 5.21202 0.974607 255 0 255 
0.150141 -1.04184 5.25096 0.868867 255 0 255 
0.137878 -1.03717 5.26716 0.865084 255 0 255 
0.156798 -1.02501 5.28527 0.836477 255 0 255 
0.125503 -1.03218 5.28334 0.871209 255 0 255 
0.113446 -1.02718 5.29923 0.879473 255 0 255 
0.0914804 -1.03811 5.27982 0.915097 255 0 255 
0.103371 -1.04288 5.2641 0.907237 255 0 255 
0.176614 -1.00788 5.29994 0.809188 255 0 255 
0.164253 -1.00028 5.31491 0.830383 255 0 255 
0.152645 -0.992188 5.32947 0.825634 255 0 255 
0.132665 -1.01001 5.31461 0.869679 255 0 255 
0.144676 -1.01758 5.29974 0.855567 255 0 255 
0.0705598 -0.998412 5.35894 0.904781 255 0 255 
0.0813264 -1.00572 5.34414 0.898861 255 0 255 
0.0475039 -1.01579 5.34255 0.927266 255 0 255 
0.0921465 -1.0127 5.32892 0.900364 255 0 255 
0.0583845 -1.02304 5.32779 0.924636 255 0 255 
0.0692499 -1.02987 5.31262 0.912513 255 0 255 
0.0242856 -1.03271 5.32578 0.936796 255 0 255 
0.102789 -1.02016 5.31418 0.888257 255 0 255 
0.122582 -1.00265 5.32962 0.874886 255 0 255 
0.112129 -0.994882 5.34459 0.858898 255 0 255 
0.0357013 -1.03693 5.30949 0.944487 255 0 255 
-0.00151075 -1.04218 5.30482 0.960304 255 0 255 
0.0470724 -1.0407 5.29296 0.946608 255 0 255 
0.0104061 -1.04611 5.28854 0.9627 255 0 255 
0.0582 -1.04475 5.27669 0.938806 255 0 255 
0.08044 -1.0341 5.29642 0.914948 255 0 255 
0.194533 -0.954187 5.33571 0.836796 255 0 255 
0.181266 -0.942501 5.34846 0.836667 255 0 255 
0.166863 -0.967542 5.33925 0.836442 255 0 255 
0.179884 -0.978979 5.3267 0.83405 255 0 255 
0.19038 -0.910866 5.34792 0.868563 255 0 255 
0.136547 -0.908978 5.37149 0.888949 255 0 255 
0.11771 -0.909887 5.37947 0.897085 255 0 255 
0.154919 -0.90834 5.36386 0.882705 255 0 255 
0.144039 -0.943023 5.36434 0.860014 255 0 255 
0.12544 -0.943587 5.37204 0.858776 255 0 255 
0.106371 -0.94453 5.37991 0.88122 255 0 255 
0.167994 -0.925688 5.35627 0.869627 255 0 255 
0.10934 -0.970055 5.36229 0.878444 255 0 255 
0.088421 -0.971935 5.36973 0.895488 255 0 255 
0.12954 -0.9683 5.35495 0.86152 255 0 255 
0.140931 -0.980429 5.34254 0.849953 255 0 255 
0.155617 -0.955575 5.35174 0.840369 255 0 255 
0.142417 -0.694985 5.24193 0.929517 255 0 255 
0.162107 -0.697504 5.23609 0.933016 255 0 255 
0.147601 -0.676288 5.20458 0.906504 255 0 255 
0.134382 -0.684211 5.22618 0.923862 255 0 255 
0.12659 -0.673504 5.2104 0.903381 255 0 255 
0.11349 -0.681386 5.23193 0.935951 255 0 255 
0.121358 -0.692192 5.2478 0.941243 255 0 255 
0.099625 -0.689481 5.25321 0.946619 255 0 255 
0.104942 -0.670961 5.21557 0.915841 255 0 255 
0.0917116 -0.679042 5.23742 0.941769 255 0 255 
0.0835089 -0.66859 5.22153 0.928934 255 0 255 
0.108033 -0.70057 5.2689 0.948132 255 0 255 
0.149907 -0.66938 5.16966 0.87555 255 0 255 
0.131395 -0.660735 5.14029 0.859203 255 0 255 
0.109648 -0.657748 5.1457 0.876067 255 0 255 
0.0977669 -0.659505 5.16612 0.890647 255 0 255 
0.0752294 -0.657094 5.17143 0.907991 255 0 255 
0.0629014 -0.659281 5.19183 0.928299 255 0 255 
0.0420573 -0.651217 5.16208 0.918347 255 0 255 
0.12933 -0.666774 5.17522 0.897079 255 0 255 
0.0550748 -0.653548 5.14451 0.901278 255 0 255 
0.0774521 -0.655726 5.13908 0.881737 255 0 255 
0.0896888 -0.658941 5.12124 0.862703 255 0 255 
0.111833 -0.661546 5.11583 0.848055 255 0 255 
0.092223 -0.663363 5.09159 0.841721 255 0 255 
0.0692149 -0.660329 5.09711 0.848062 255 0 255 
0.0568883 -0.657054 5.11467 0.882362 255 0 255 
0.0334973 -0.654675 5.11997 0.902261 255 0 255 
0.0203545 -0.652587 5.13761 0.924403 255 0 255 
-0.000757737 -0.653758 5.11368 0.922492 255 0 255 
0.11528 -0.666657 5.08463 0.839027 255 0 255 
0.0873028 -0.680888 5.05609 0.835197 255 0 255 
0.0731826 -0.672559 5.07242 0.863689 255 0 255 
0.0539678 -0.682183 5.05337 0.864514 255 0 255 
0.0302683 -0.678754 5.05887 0.890792 255 0 255 
0.0166901 -0.671478 5.07373 0.913313 255 0 255 
-0.00740692 -0.668935 5.07921 0.919144 255 0 255 
-0.0217136 -0.662699 5.0944 0.937712 255 0 255 
-0.0416261 -0.67087 5.07606 0.929755 255 0 255 
0.0134511 -0.660226 5.0985 0.910762 255 0 255 
0.0366428 -0.662394 5.09289 0.891979 255 0 255 
0.0503725 -0.669531 5.07781 0.877254 255 0 255 
0.651261 -0.121034 5.97768 0.956612 255 0 255 
0.647559 -0.102638 5.99466 0.95424 255 0 255 
0.625611 -0.103722 5.98453 0.958667 255 0 255 
0.629327 -0.122168 5.96726 0.961784 255 0 255 
0.621372 -0.086835 6.00293 0.957548 255 0 255 
0.603546 -0.105188 5.97435 0.965424 255 0 255 
0.59939 -0.0884888 5.99275 0.963364 255 0 255 
0.577093 -0.0900138 5.98277 0.968194 255 0 255 
0.607224 -0.123193 5.95708 0.96666 255 0 255 
0.581376 -0.106525 5.96417 0.969108 255 0 255 
0.585069 -0.124631 5.94674 0.969294 255 0 255 
0.594795 -0.0734881 6.01181 0.963985 255 0 255 
0.572628 -0.0752393 6.00163 0.967528 255 0 255 
0.567759 -0.0621466 6.02139 0.970806 255 0 255 
0.59125 -0.0607644 6.03285 0.966397 255 0 255 
0.618098 -0.0721304 6.02332 0.961176 255 0 255 
0.614554 -0.0593002 6.04427 0.960589 255 0 255 
0.641347 -0.070737 6.03472 0.954158 255 0 255 
0.644592 -0.085476 6.0144 0.95359 255 0 255 
0.637789 -0.0577134 6.05584 0.952818 255 0 255 
0.564102 -0.125911 5.93655 0.970415 255 0 255 
0.559079 -0.107826 5.95291 0.969309 255 0 255 
0.537971 -0.109252 5.94282 0.970773 255 0 255 
0.543078 -0.127263 5.92626 0.972856 255 0 255 
0.532566 -0.0926602 5.96 0.969416 255 0 255 
0.51678 -0.110863 5.93267 0.972825 255 0 255 
0.511352 -0.0941882 5.94999 0.971369 255 0 255 
0.489976 -0.0957922 5.94 0.973585 255 0 255 
0.521953 -0.12882 5.91599 0.974359 255 0 255 
0.495521 -0.112465 5.92261 0.975368 255 0 255 
0.500658 -0.130481 5.90584 0.976254 255 0 255 
0.505504 -0.0791526 5.96801 0.970187 255 0 255 
0.484163 -0.080783 5.95797 0.972544 255 0 255 
0.477861 -0.0674563 5.97674 0.974251 255 0 255 
0.500598 -0.0660464 5.98786 0.972862 255 0 255 
0.528053 -0.0777448 5.97914 0.969219 255 0 255 
0.52312 -0.0646345 5.99898 0.971353 255 0 255 
0.550366 -0.076498 5.99043 0.968948 255 0 255 
0.554954 -0.0912923 5.97131 0.967592 255 0 255 
0.545486 -0.0633493 6.01022 0.970504 255 0 255 
0.446959 -0.0383647 6.05639 0.995909 255 0 255 
0.470863 -0.0372829 6.06847 0.99517 255 0 255 
0.477464 -0.0430339 6.04764 0.991005 255 0 255 
0.501229 -0.0417929 6.05962 0.990083 255 0 255 
0.494652 -0.0362246 6.08042 0.994438 255 0 255 
0.507716 -0.0485655 6.039 0.984797 255 0 255 
0.524806 -0.0407301 6.07153 0.989328 255 0 255 
0.531351 -0.0474089 6.0508 0.984722 255 0 255 
0.554792 -0.0462051 6.0626 0.983792 255 0 255 
0.518246 -0.0352121 6.09235 0.993649 255 0 255 
0.548126 -0.0398562 6.08362 0.989017 255 0 255 
0.541598 -0.0344604 6.10439 0.993314 255 0 255 
0.537989 -0.0545968 6.02985 0.977904 255 0 255 
0.5615 -0.0535852 6.04152 0.974674 255 0 255 
0.515451 -0.056162 6.01894 0.978192 255 0 255 
0.492818 -0.057476 6.00788 0.980683 255 0 255 
0.485115 -0.0499915 6.02785 0.985996 255 0 255 
0.462305 -0.0515618 6.01685 0.988041 255 0 255 
0.470075 -0.0589362 5.99687 0.983869 255 0 255 
0.454581 -0.044648 6.03673 0.992599 255 0 255 
0.566148 -0.0334887 6.11657 0.991409 255 0 255 
0.571705 -0.0382546 6.09494 0.984778 255 0 255 
0.596002 -0.0366624 6.10735 0.982218 255 0 255 
0.590453 -0.0323143 6.12915 0.99005 255 0 255 
0.60154 -0.0428851 6.08557 0.974396 255 0 255 
0.620643 -0.0353165 6.12019 0.978996 255 0 255 
0.625928 -0.04141 6.09832 0.971255 255 0 255 
0.615468 -0.0305735 6.14213 0.986599 255 0 255 
0.631405 -0.0487387 6.07639 0.961214 255 0 255 
0.608085 -0.0505815 6.06475 0.968137 255 0 255 
0.58483 -0.0519933 6.05321 0.97268 255 0 255 
0.578303 -0.0443024 6.07398 0.979033 255 0 255 
0.415017 -0.768419 5.89075 0.978915 255 0 255 
0.406187 -0.788536 5.90903 0.979005 255 0 255 
0.38509 -0.809741 5.92088 0.977551 255 0 255 
0.376445 -0.830792 5.93932 0.976315 255 0 255 
0.35198 -0.832554 5.92578 0.976507 255 0 255 
0.360198 -0.810166 5.90841 0.979959 255 0 255 
0.380995 -0.788338 5.89706 0.980624 255 0 255 
0.389261 -0.767219 5.87931 0.980879 255 0 255 
0.410684 -0.747366 5.8677 0.978754 255 0 255 
0.38427 -0.745971 5.85583 0.980713 255 0 255 
0.377083 -0.845966 5.96836 0.977535 255 0 255 
0.365789 -0.86167 5.99131 0.975863 255 0 255 
0.342771 -0.879356 6.00733 0.975498 255 0 255 
0.331325 -0.894991 6.03041 0.971801 255 0 255 
0.307888 -0.900763 6.01511 0.971079 255 0 255 
0.319355 -0.884052 5.99276 0.976338 255 0 255 
0.342485 -0.865404 5.97745 0.976853 255 0 255 
0.353502 -0.848475 5.95504 0.977428 255 0 255 
0.261853 -0.913683 5.98533 0.970619 255 0 255 
0.272758 -0.895357 5.9634 0.980006 255 0 255 
0.295376 -0.874992 5.94888 0.981717 255 0 255 
0.306262 -0.856342 5.92711 0.980602 255 0 255 
0.328426 -0.835774 5.9123 0.97899 255 0 255 
0.304854 -0.839748 5.89839 0.980089 255 0 255 
0.329611 -0.852411 5.94118 0.97918 255 0 255 
0.318921 -0.869954 5.96331 0.979728 255 0 255 
0.296327 -0.890525 5.97833 0.977212 255 0 255 
0.285193 -0.907767 6.00045 0.966992 255 0 255 
0.312402 -0.815522 5.88148 0.982081 255 0 255 
0.332101 -0.791441 5.87138 0.98204 255 0 255 
0.339462 -0.768594 5.85442 0.983662 255 0 255 
0.359224 -0.745885 5.8439 0.983489 255 0 255 
0.334382 -0.746452 5.83103 0.984896 255 0 255 
0.364116 -0.767709 5.86693 0.98269 255 0 255 
0.356154 -0.789268 5.8846 0.980816 255 0 255 
0.336456 -0.813069 5.89497 0.979941 255 0 255 
0.272645 -0.0454773 5.95975 0.998537 255 0 255 
0.293992 -0.0440479 5.97175 0.997734 255 0 255 
0.302894 -0.0506036 5.95289 0.995773 255 0 255 
0.324063 -0.0496736 5.96497 0.994868 255 0 255 
0.31512 -0.0431248 5.98394 0.997697 255 0 255 
0.332983 -0.0565022 5.94586 0.991133 255 0 255 
0.345122 -0.0488921 5.97703 0.994884 255 0 255 
0.354057 -0.0557187 5.95787 0.991101 255 0 255 
0.37509 -0.055142 5.96976 0.991392 255 0 255 
0.336166 -0.0424528 5.99608 0.997373 255 0 255 
0.366091 -0.0483768 5.98917 0.994449 255 0 255 
0.35722 -0.0417634 6.00819 0.9974 255 0 255 
0.363034 -0.0632111 5.93855 0.984399 255 0 255 
0.383968 -0.0626596 5.95064 0.985235 255 0 255 
0.392898 -0.0713389 5.93126 0.975681 255 0 255 
0.372944 -0.0719572 5.91948 0.974449 255 0 255 
0.342953 -0.0639762 5.92681 0.983869 255 0 255 
0.352917 -0.0727928 5.90774 0.974393 255 0 255 
0.322882 -0.0648844 5.91499 0.9836 255 0 255 
0.312807 -0.0574279 5.93426 0.991139 255 0 255 
0.292592 -0.0586395 5.92242 0.991404 255 0 255 
0.332872 -0.073604 5.89589 0.973489 255 0 255 
0.302685 -0.0660023 5.90324 0.984169 255 0 255 
0.312716 -0.0746767 5.88414 0.974095 255 0 255 
0.282615 -0.0518396 5.94124 0.996042 255 0 255 
0.379721 -0.0407996 6.02039 0.997092 255 0 255 
0.387496 -0.0473369 6.00066 0.993995 255 0 255 
0.40996 -0.0462719 6.01271 0.993578 255 0 255 
0.402209 -0.0398756 6.03244 0.996778 255 0 255 
0.417863 -0.0530694 5.9927 0.987996 255 0 255 
0.432305 -0.045438 6.02474 0.992789 255 0 255 
0.440161 -0.0521981 6.00472 0.987701 255 0 255 
0.424597 -0.0390444 6.04442 0.99615 255 0 255 
0.447913 -0.0596843 5.98477 0.983197 255 0 255 
0.456736 -0.0682992 5.96543 0.973783 255 0 255 
0.426706 -0.0605437 5.9734 0.983237 255 0 255 
0.435573 -0.069229 5.95406 0.974617 255 0 255 
0.40544 -0.061558 5.96197 0.984392 255 0 255 
0.396557 -0.0540089 5.98121 0.989555 255 0 255 
0.414317 -0.0701965 5.94265 0.974688 255 0 255 
0.480868 -0.13144 5.89517 0.977009 255 0 255 
0.474479 -0.113388 5.91107 0.974755 255 0 255 
0.454546 -0.114373 5.90044 0.975616 255 0 255 
0.461029 -0.132445 5.88444 0.976534 255 0 255 
0.447783 -0.0977851 5.91714 0.973948 255 0 255 
0.434606 -0.115491 5.88978 0.975987 255 0 255 
0.427772 -0.0988407 5.90652 0.973576 255 0 255 
0.407671 -0.0999525 5.89589 0.97589 255 0 255 
0.441121 -0.133567 5.8737 0.976397 255 0 255 
0.414557 -0.116669 5.87912 0.976652 255 0 255 
0.421085 -0.134714 5.86296 0.97646 255 0 255 
0.420603 -0.0836448 5.92383 0.973102 255 0 255 
0.400479 -0.0848107 5.91331 0.974763 255 0 255 
0.441886 -0.0826398 5.93525 0.972582 255 0 255 
0.462983 -0.0816869 5.94671 0.973098 255 0 255 
0.46892 -0.0967445 5.92856 0.972986 255 0 255 
0.402295 -0.135667 5.85164 0.974978 255 0 255 
0.394615 -0.117423 5.8673 0.975832 255 0 255 
0.375779 -0.118439 5.85601 0.974619 255 0 255 
0.38341 -0.136615 5.84046 0.973959 255 0 255 
0.367722 -0.101576 5.87233 0.974729 255 0 255 
0.356869 -0.119393 5.84483 0.973419 255 0 255 
0.348829 -0.102481 5.86115 0.973757 255 0 255 
0.329837 -0.103607 5.84998 0.974465 255 0 255 
0.364514 -0.137842 5.82934 0.974654 255 0 255 
0.337888 -0.120412 5.83377 0.972749 255 0 255 
0.345549 -0.139051 5.81829 0.975931 255 0 255 
0.340431 -0.0872862 5.87801 0.972915 255 0 255 
0.321387 -0.0882816 5.86688 0.973493 255 0 255 
0.360488 -0.0863209 5.88975 0.973468 255 0 255 
0.380456 -0.0855338 5.9016 0.9734 255 0 255 
0.38773 -0.100689 5.88411 0.97533 255 0 255 
0.523873 -0.151465 5.90046 0.982023 255 0 255 
0.544959 -0.149947 5.91082 0.981149 255 0 255 
0.546522 -0.173809 5.89604 0.98677 255 0 255 
0.565975 -0.1485 5.92119 0.979696 255 0 255 
0.567487 -0.172566 5.90658 0.986636 255 0 255 
0.588235 -0.171211 5.91731 0.986817 255 0 255 
0.586832 -0.147331 5.93171 0.97964 255 0 255 
0.568624 -0.19749 5.89267 0.989582 255 0 255 
0.589302 -0.196436 5.90368 0.990731 255 0 255 
0.590254 -0.221604 5.89044 0.991941 255 0 255 
0.570794 -0.222207 5.88059 0.990917 255 0 255 
0.548991 -0.198327 5.88318 0.989567 255 0 255 
0.551262 -0.223033 5.87089 0.990185 255 0 255 
0.529327 -0.199391 5.87376 0.990195 255 0 255 
0.526727 -0.175246 5.88679 0.987252 255 0 255 
0.506813 -0.176467 5.87767 0.98864 255 0 255 
0.531626 -0.224257 5.86135 0.989954 255 0 255 
0.509505 -0.200689 5.8645 0.990634 255 0 255 
0.511757 -0.225625 5.85194 0.990102 255 0 255 
0.503917 -0.152914 5.89141 0.983888 255 0 255 
0.607598 -0.146777 5.94047 0.976873 255 0 255 
0.629592 -0.145325 5.95101 0.973238 255 0 255 
0.629356 -0.169732 5.93574 0.981332 255 0 255 
0.651481 -0.144372 5.96156 0.969635 255 0 255 
0.651282 -0.168786 5.94647 0.979867 255 0 255 
0.650579 -0.194744 5.93246 0.989254 255 0 255 
0.651237 -0.220036 5.92011 0.992706 255 0 255 
0.630224 -0.195007 5.92278 0.989686 255 0 255 
0.630897 -0.220508 5.91035 0.992624 255 0 255 
0.609774 -0.19583 5.91325 0.99054 255 0 255 
0.60884 -0.170651 5.92651 0.984474 255 0 255 
0.610608 -0.221015 5.90039 0.992426 255 0 255 
0.642566 -0.33135 5.87767 0.994791 255 0 255 
0.643842 -0.305272 5.88708 0.996761 255 0 255 
0.62505 -0.305113 5.87825 0.996092 255 0 255 
0.623736 -0.331033 5.86891 0.99382 255 0 255 
0.626195 -0.277923 5.88797 0.996407 255 0 255 
0.606059 -0.304965 5.86948 0.995504 255 0 255 
0.607364 -0.277701 5.87905 0.995757 255 0 255 
0.588417 -0.277633 5.87024 0.995186 255 0 255 
0.604642 -0.330977 5.86013 0.993039 255 0 255 
0.587067 -0.304814 5.86077 0.995245 255 0 255 
0.585288 -0.331247 5.85184 0.993346 255 0 255 
0.608248 -0.250087 5.88893 0.995449 255 0 255 
0.589419 -0.250064 5.88023 0.995017 255 0 255 
0.62855 -0.249554 5.89904 0.996096 255 0 255 
0.648692 -0.249296 5.90935 0.996922 255 0 255 
0.646286 -0.277827 5.89847 0.99764 255 0 255 
0.566434 -0.332049 5.84353 0.993385 255 0 255 
0.56725 -0.305893 5.851 0.994161 255 0 255 
0.548469 -0.306731 5.84271 0.993983 255 0 255 
0.547485 -0.332825 5.83539 0.993645 255 0 255 
0.549095 -0.279406 5.85052 0.993602 255 0 255 
0.529559 -0.307667 5.83469 0.994507 255 0 255 
0.530379 -0.280438 5.84227 0.993707 255 0 255 
0.511515 -0.281389 5.8343 0.994297 255 0 255 
0.528173 -0.333986 5.82778 0.994716 255 0 255 
0.510315 -0.308955 5.8271 0.995554 255 0 255 
0.508806 -0.335468 5.82048 0.996371 255 0 255 
0.530665 -0.252811 5.8508 0.992513 255 0 255 
0.511909 -0.253851 5.84265 0.993183 255 0 255 
0.550467 -0.251426 5.86037 0.99297 255 0 255 
0.570007 -0.250318 5.87012 0.9935 255 0 255 
0.568852 -0.278458 5.86022 0.994269 255 0 255 
0.607838 -0.028573 6.16219 0.994748 255 0 255 
0.582531 -0.0302656 6.1491 0.996353 255 0 255 
0.574913 -0.0279375 6.16833 0.998724 255 0 255 
0.55805 -0.0313848 6.13675 0.997083 255 0 255 
0.550378 -0.0286792 6.1559 0.998686 255 0 255 
0.525775 -0.0296755 6.14391 0.998682 255 0 255 
0.533544 -0.0323368 6.12449 0.997594 255 0 255 
0.5426 -0.0263616 6.17519 0.99866 255 0 255 
0.518079 -0.0268591 6.16294 0.998327 255 0 255 
0.510569 -0.0234138 6.18153 0.997618 255 0 255 
0.535448 -0.0237418 6.19446 0.997703 255 0 255 
0.567643 -0.026122 6.18833 0.998848 255 0 255 
0.560615 -0.024038 6.20785 0.997832 255 0 255 
0.593858 -0.0253581 6.20238 0.999079 255 0 255 
0.600853 -0.026834 6.18247 0.998371 255 0 255 
0.587206 -0.0237078 6.22204 0.998232 255 0 255 
0.509609 -0.0329418 6.11206 0.99776 255 0 255 
0.486011 -0.0336421 6.10013 0.99806 255 0 255 
0.477604 -0.0306196 6.11914 0.998746 255 0 255 
0.46218 -0.0344484 6.08818 0.998413 255 0 255 
0.453763 -0.0311683 6.10725 0.998841 255 0 255 
0.429799 -0.0317354 6.09512 0.99887 255 0 255 
0.438215 -0.035287 6.0761 0.998825 255 0 255 
0.44559 -0.0272131 6.12558 0.998382 255 0 255 
0.421751 -0.0275226 6.11344 0.998385 255 0 255 
0.413955 -0.0222535 6.13097 0.998352 255 0 255 
0.438293 -0.0223866 6.14376 0.99819 255 0 255 
0.469943 -0.0271265 6.13817 0.998287 255 0 255 
0.462548 -0.0226896 6.15645 0.998035 255 0 255 
0.494124 -0.0269582 6.15059 0.998286 255 0 255 
0.501826 -0.0301147 6.13147 0.998698 255 0 255 
0.486674 -0.0229822 6.16898 0.997808 255 0 255 
0.412908 -0.00906319 6.19426 0.998461 255 0 255 
0.437024 -0.010485 6.20753 0.997916 255 0 255 
0.445307 -0.0155836 6.19077 0.99693 255 0 255 
0.460892 -0.0121743 6.22072 0.99713 255 0 255 
0.469238 -0.0168624 6.20388 0.99621 255 0 255 
0.493104 -0.0183368 6.21691 0.995167 255 0 255 
0.484697 -0.0139979 6.2339 0.99585 255 0 255 
0.477845 -0.0205732 6.18658 0.996572 255 0 255 
0.501689 -0.021663 6.19955 0.995632 255 0 255 
0.453841 -0.0196726 6.17386 0.99702 255 0 255 
0.429678 -0.0189587 6.16109 0.997359 255 0 255 
0.421211 -0.0145228 6.17791 0.997514 255 0 255 
0.396947 -0.0136984 6.16497 0.997903 255 0 255 
0.405374 -0.0184006 6.14819 0.997655 255 0 255 
0.388683 -0.00796347 6.18126 0.998802 255 0 255 
0.509644 -0.0157101 6.24711 0.994727 255 0 255 
0.534946 -0.0174029 6.261 0.99269 255 0 255 
0.543287 -0.0207801 6.24347 0.993117 255 0 255 
0.561889 -0.0184188 6.27587 0.991784 255 0 255 
0.570169 -0.0214491 6.25828 0.992663 255 0 255 
0.5787 -0.0230923 6.24026 0.99524 255 0 255 
0.551852 -0.0229975 6.2259 0.994982 255 0 255 
0.526643 -0.0223651 6.21256 0.99526 255 0 255 
0.518048 -0.0196782 6.23005 0.994118 255 0 255 
0.249135 -0.907739 6.24329 0.984968 255 0 255 
0.262393 -0.911098 6.21884 0.981639 255 0 255 
0.288173 -0.910705 6.20236 0.97897 255 0 255 
0.301337 -0.91233 6.17733 0.977735 255 0 255 
0.327204 -0.910814 6.16042 0.976232 255 0 255 
0.302487 -0.916362 6.14413 0.977329 255 0 255 
0.326551 -0.907292 6.1938 0.977945 255 0 255 
0.352169 -0.906698 6.17692 0.977168 255 0 255 
0.314204 -0.905786 6.21855 0.977383 255 0 255 
0.301839 -0.90381 6.24283 0.979074 255 0 255 
0.275887 -0.90253 6.259 0.982165 255 0 255 
0.302866 -0.899428 6.27512 0.981267 255 0 255 
0.315344 -0.910639 6.1196 0.975302 255 0 255 
0.340114 -0.902038 6.10279 0.975215 255 0 255 
0.352831 -0.894858 6.07775 0.975012 255 0 255 
0.37642 -0.891959 6.09357 0.973404 255 0 255 
0.364018 -0.898248 6.11863 0.973086 255 0 255 
0.351848 -0.903683 6.14368 0.974274 255 0 255 
0.401313 -0.898295 6.14403 0.973462 255 0 255 
0.389887 -0.903206 6.16969 0.978839 255 0 255 
0.378591 -0.907553 6.19518 0.980037 255 0 255 
0.400972 -0.891422 6.10985 0.974423 255 0 255 
0.380059 -0.907485 6.22939 0.98077 255 0 255 
0.368838 -0.90611 6.25426 0.983041 255 0 255 
0.354622 -0.904908 6.245 0.980459 255 0 255 
0.357589 -0.904409 6.27889 0.983064 255 0 255 
0.343159 -0.903135 6.26948 0.983142 255 0 255 
0.331871 -0.901396 6.29385 0.986272 255 0 255 
0.345998 -0.902888 6.30309 0.987771 255 0 255 
0.328776 -0.902262 6.26025 0.981419 255 0 255 
0.317306 -0.899844 6.28448 0.984471 255 0 255 
0.353246 -0.905522 6.21105 0.978121 255 0 255 
0.161058 -0.852366 6.40201 0.951699 255 0 255 
0.187619 -0.857346 6.38711 0.951942 255 0 255 
0.200074 -0.865048 6.36485 0.967523 255 0 255 
0.226301 -0.873222 6.35055 0.977052 255 0 255 
0.198301 -0.876107 6.33531 0.976995 255 0 255 
0.227892 -0.864079 6.38049 0.969562 255 0 255 
0.254254 -0.872845 6.36627 0.976942 255 0 255 
0.215662 -0.857358 6.40269 0.964801 255 0 255 
0.203142 -0.85209 6.42532 0.970262 255 0 255 
0.210974 -0.88368 6.31261 0.979707 255 0 255 
0.237181 -0.889083 6.29763 0.979527 255 0 255 
0.24987 -0.897304 6.27449 0.982185 255 0 255 
0.27678 -0.893358 6.29027 0.979653 255 0 255 
0.264707 -0.886041 6.31314 0.977554 255 0 255 
0.252621 -0.878975 6.33579 0.976532 255 0 255 
0.334143 -0.897139 6.32618 0.988344 255 0 255 
0.322556 -0.891676 6.34876 0.986333 255 0 255 
0.307585 -0.889364 6.33957 0.984793 255 0 255 
0.310756 -0.886576 6.37137 0.987843 255 0 255 
0.295911 -0.883505 6.36209 0.987262 255 0 255 
0.283979 -0.878397 6.38472 0.98702 255 0 255 
0.298749 -0.881944 6.39398 0.990264 255 0 255 
0.280931 -0.880789 6.35293 0.981739 255 0 255 
0.269079 -0.875192 6.37538 0.982624 255 0 255 
0.293243 -0.886933 6.3302 0.982763 255 0 255 
0.305222 -0.893083 6.30736 0.983767 255 0 255 
0.319677 -0.895214 6.31678 0.985194 255 0 255 
0.286372 -0.875305 6.41629 0.990119 255 0 255 
0.274083 -0.869641 6.43854 0.987698 255 0 255 
0.259255 -0.865214 6.42936 0.982699 255 0 255 
0.261247 -0.865239 6.4612 0.989074 255 0 255 
0.24672 -0.860138 6.4518 0.985352 255 0 255 
0.231805 -0.856185 6.44252 0.977165 255 0 255 
0.244539 -0.861081 6.41976 0.976059 255 0 255 
0.256938 -0.867628 6.39755 0.978816 255 0 255 
0.271628 -0.871144 6.40685 0.983921 255 0 255 
0.523797 -0.363365 5.8244 0.997439 255 0 255 
0.543159 -0.362157 5.83182 0.996807 255 0 255 
0.538853 -0.390671 5.82808 0.99711 255 0 255 
0.562377 -0.360988 5.83953 0.996307 255 0 255 
0.558047 -0.389873 5.8357 0.997098 255 0 255 
0.577626 -0.388572 5.84315 0.996589 255 0 255 
0.581541 -0.36035 5.84751 0.996194 255 0 255 
0.554265 -0.417787 5.83143 0.996668 255 0 255 
0.573603 -0.416762 5.83879 0.996617 255 0 255 
0.569939 -0.444541 5.83424 0.99439 255 0 255 
0.552115 -0.444928 5.82771 0.994646 255 0 255 
0.536293 -0.418347 5.8249 0.997001 255 0 255 
0.534167 -0.445325 5.82149 0.995439 255 0 255 
0.51862 -0.418799 5.8183 0.997207 255 0 255 
0.521028 -0.391407 5.82146 0.997421 255 0 255 
0.503488 -0.391726 5.81448 0.997377 255 0 255 
0.51644 -0.445626 5.81504 0.995609 255 0 255 
0.500891 -0.41933 5.81178 0.997399 255 0 255 
0.498717 -0.446033 5.80895 0.996436 255 0 255 
0.506124 -0.363814 5.81743 0.997606 255 0 255 
0.599336 -0.360814 5.85501 0.996177 255 0 255 
0.618682 -0.360662 5.86325 0.996216 255 0 255 
0.613508 -0.389331 5.85769 0.996599 255 0 255 
0.637915 -0.360264 5.8715 0.996256 255 0 255 
0.632962 -0.389001 5.86577 0.996688 255 0 255 
0.627911 -0.417432 5.85977 0.995902 255 0 255 
0.624462 -0.444641 5.85417 0.993403 255 0 255 
0.609975 -0.416932 5.85254 0.99609 255 0 255 
0.60657 -0.444267 5.84707 0.992939 255 0 255 
0.591958 -0.416776 5.84546 0.995755 255 0 255 
0.595838 -0.388762 5.85019 0.996134 255 0 255 
0.588117 -0.44439 5.84074 0.994226 255 0 255 
0.605934 -0.532874 5.85112 0.991811 255 0 255 
0.584573 -0.559735 5.84518 0.984165 255 0 255 
0.593565 -0.503857 5.84656 0.994554 255 0 255 
0.572031 -0.531255 5.84078 0.992599 255 0 255 
0.55987 -0.502214 5.83535 0.995093 255 0 255 
0.550723 -0.55752 5.83578 0.988059 255 0 255 
0.581571 -0.474298 5.84093 0.995354 255 0 255 
0.599822 -0.474302 5.84704 0.99497 255 0 255 
0.618175 -0.474237 5.85302 0.994675 255 0 255 
0.611976 -0.503563 5.85207 0.994015 255 0 255 
0.53737 -0.530339 5.83041 0.994487 255 0 255 
0.517608 -0.555879 5.82608 0.990817 255 0 255 
0.524065 -0.502521 5.82416 0.996031 255 0 255 
0.504369 -0.528942 5.81977 0.995266 255 0 255 
0.49126 -0.501546 5.81268 0.996378 255 0 255 
0.484668 -0.553851 5.81546 0.992441 255 0 255 
0.51116 -0.474491 5.81699 0.996554 255 0 255 
0.528985 -0.474203 5.82283 0.996316 255 0 255 
0.546897 -0.473965 5.82872 0.995812 255 0 255 
0.541894 -0.502468 5.82974 0.99563 255 0 255 
0.495054 -0.581063 5.82735 0.992234 255 0 255 
0.505226 -0.608097 5.83857 0.991333 255 0 255 
0.527947 -0.583297 5.83726 0.990674 255 0 255 
0.538107 -0.610647 5.84796 0.990045 255 0 255 
0.515301 -0.635154 5.84894 0.987531 255 0 255 
0.52551 -0.66236 5.8581 0.980451 255 0 255 
0.494829 -0.658949 5.8476 0.981744 255 0 255 
0.484436 -0.63193 5.83838 0.988401 255 0 255 
0.474104 -0.605168 5.82771 0.991899 255 0 255 
0.464352 -0.655587 5.83667 0.983812 255 0 255 
0.560337 -0.586432 5.84684 0.988974 255 0 255 
0.569933 -0.615043 5.85739 0.987964 255 0 255 
0.593983 -0.589121 5.85589 0.985598 255 0 255 
0.563697 -0.641453 5.8623 0.982304 255 0 255 
0.557131 -0.667576 5.86699 0.97423 255 0 255 
0.530149 -0.739001 5.90007 0.970967 255 0 255 
0.538952 -0.715256 5.88971 0.97771 255 0 255 
0.509219 -0.708925 5.87936 0.980591 255 0 255 
0.501039 -0.732711 5.88964 0.97509 255 0 255 
