ply
format ascii 1.0
comment VCGLIB generated
element vertex 975
property float x
property float y
property float z
property uchar red
property uchar green
property uchar blue
property float quality
end_header
-0.569878 -0.190620 5.548420 0 221 255 0.013590
-0.583120 -0.209024 5.537750 0 197 255 0.010063
-0.561061 -0.208657 5.524500 0 173 255 0.007736
-0.597855 -0.226522 5.530170 0 169 255 0.007068
-0.619568 -0.225582 5.542640 0 181 255 0.008294
-0.641202 -0.223695 5.553630 0 197 255 0.010055
-0.634190 -0.241977 5.533310 0 157 255 0.006218
-0.554900 -0.173122 5.559210 0 213 255 0.012708
-0.535751 -0.163356 5.559200 0 197 255 0.010303
-0.530501 -0.172542 5.545090 0 193 255 0.009584
-0.515464 -0.153528 5.559260 0 197 255 0.010515
-0.510517 -0.162667 5.544830 0 205 255 0.011355
-0.505679 -0.172044 5.530100 0 205 255 0.011396
-0.522128 -0.190376 5.519570 0 177 255 0.008183
-0.546528 -0.190958 5.534670 0 185 255 0.008829
-0.496879 -0.219513 5.472100 0 213 255 0.012280
-0.518112 -0.220501 5.486180 0 173 255 0.007728
-0.538107 -0.229436 5.490460 0 141 255 0.004871
-0.558564 -0.228652 5.504320 0 149 255 0.005364
-0.557209 -0.247946 5.484550 0 121 255 0.003551
-0.540301 -0.210281 5.510300 0 169 255 0.007016
-0.499887 -0.190731 5.505310 0 209 255 0.011789
-0.576519 -0.257301 5.489290 0 133 255 0.004193
-0.595579 -0.256569 5.501440 0 137 255 0.004423
-0.614369 -0.264572 5.504500 0 125 255 0.003824
-0.633105 -0.262556 5.515680 0 129 255 0.004115
-0.633019 -0.282032 5.497780 0 129 255 0.003944
-0.615006 -0.245173 5.522140 0 141 255 0.004931
-0.578701 -0.227750 5.517530 0 157 255 0.005929
-0.618123 -0.284904 5.487900 0 125 255 0.003843
-0.599069 -0.276712 5.485230 0 129 255 0.003906
-0.584209 -0.278308 5.474440 0 121 255 0.003634
-0.564790 -0.269472 5.470110 0 105 255 0.002763
-0.572542 -0.290109 5.454740 0 97 255 0.002426
-0.591699 -0.299031 5.459410 0 121 255 0.003486
-0.606364 -0.297748 5.470070 0 129 255 0.003959
-0.625428 -0.306018 5.473200 0 137 255 0.004513
-0.640448 -0.303361 5.483250 0 145 255 0.005015
-0.648200 -0.324343 5.467630 0 157 255 0.006202
-0.540559 -0.249683 5.471990 0 113 255 0.003136
-0.520899 -0.240005 5.468110 0 165 255 0.006736
-0.504393 -0.240170 5.456020 0 197 255 0.010204
-0.512335 -0.260877 5.441020 0 177 255 0.008096
-0.528636 -0.260611 5.452950 0 133 255 0.004327
-0.548626 -0.270470 5.457960 0 89 255 0.001983
-0.543782 -0.308052 5.416580 0 181 255 0.008423
-0.563693 -0.318260 5.420510 0 125 255 0.003699
-0.548040 -0.294246 5.433510 0 97 255 0.002430
-0.567868 -0.304349 5.438040 0 85 255 0.001843
-0.587000 -0.313549 5.441840 0 113 255 0.003071
-0.583029 -0.327580 5.424780 0 105 255 0.002646
-0.601961 -0.336896 5.428060 0 129 255 0.004101
-0.527649 -0.284611 5.429440 0 157 255 0.006086
-0.619526 -0.345909 5.431660 0 153 255 0.005751
-0.637371 -0.354016 5.435260 0 177 255 0.007947
-0.624711 -0.331816 5.448640 0 153 255 0.005656
-0.642168 -0.340025 5.451620 0 173 255 0.007686
-0.659949 -0.347626 5.454100 0 181 255 0.008557
-0.654639 -0.362387 5.438050 0 197 255 0.010077
-0.673068 -0.370441 5.440700 0 201 255 0.010686
-0.606044 -0.323042 5.445580 0 137 255 0.004452
-0.884632 -0.913185 5.832110 74 255 174 0.037879
-0.864181 -0.914340 5.845440 103 255 145 0.050564
-0.857941 -0.926759 5.824390 113 255 135 0.056134
-0.878435 -0.923295 5.810420 93 255 155 0.045997
-0.837508 -0.930541 5.837730 125 255 122 0.062736
-0.852466 -0.937764 5.803250 122 255 126 0.060839
-0.832279 -0.943264 5.817390 132 255 116 0.067891
-0.827623 -0.954278 5.796920 145 255 103 0.075998
-0.872691 -0.932467 5.788590 103 255 145 0.050140
-0.847163 -0.946944 5.782410 116 255 132 0.057800
-0.866934 -0.939458 5.767180 103 255 145 0.050825
-0.812592 -0.948730 5.830460 138 255 109 0.072812
-0.808314 -0.961412 5.811150 161 255 87 0.088672
-0.789104 -0.967908 5.824390 161 255 87 0.088329
-0.793579 -0.951322 5.845220 125 255 122 0.064253
-0.817706 -0.931829 5.851890 122 255 126 0.062323
-0.798328 -0.933957 5.865960 106 255 142 0.051680
-0.823955 -0.915119 5.874560 103 255 145 0.050254
-0.844304 -0.914932 5.860530 109 255 138 0.054510
-0.804410 -0.916679 5.887960 103 255 145 0.050874
-0.863315 -0.943730 5.742580 80 255 167 0.040399
-0.843383 -0.953991 5.757420 96 255 151 0.047070
-0.839486 -0.958237 5.733340 55 255 193 0.029407
-0.860229 -0.946218 5.717710 22 255 225 0.020118
-0.819638 -0.970155 5.747460 84 255 164 0.041446
-0.835163 -0.961527 5.709230 0 217 255 0.013281
-0.814779 -0.973842 5.723050 45 255 203 0.026598
-0.809592 -0.977326 5.698870 25 255 222 0.020755
-0.856867 -0.948232 5.692650 0 177 255 0.007893
-0.830749 -0.964476 5.684550 0 189 255 0.009320
-0.853845 -0.950460 5.667670 0 169 255 0.007276
-0.795466 -0.985558 5.735650 90 255 158 0.044331
-0.790208 -0.988914 5.711130 77 255 171 0.038266
-0.771742 -0.999228 5.722260 116 255 132 0.058536
-0.777458 -0.994826 5.748480 142 255 106 0.073078
-0.800882 -0.979982 5.761560 122 255 126 0.062062
-0.782477 -0.988804 5.774880 180 255 67 0.105190
-0.805171 -0.972191 5.786990 158 255 90 0.086729
-0.824135 -0.963401 5.772500 122 255 126 0.060778
-0.786506 -0.980071 5.800370 196 255 51 0.119828
-0.712129 -1.019860 5.793900 255 227 0 0.200010
-0.716525 -1.010240 5.820120 255 234 0 0.191604
-0.739085 -1.005270 5.805120 248 245 0 0.177263
-0.719689 -0.995704 5.844070 219 255 29 0.142634
-0.742527 -0.992077 5.829810 216 255 32 0.141412
-0.744779 -0.975467 5.852940 155 255 93 0.082666
-0.721811 -0.977851 5.866280 145 255 103 0.076302
-0.764521 -0.987427 5.815240 206 255 42 0.130556
-0.767200 -0.971817 5.838950 161 255 87 0.087492
-0.761100 -0.997611 5.790040 219 255 29 0.144371
-0.756616 -1.004170 5.763450 193 255 55 0.114831
-0.734752 -1.012580 5.778870 238 255 9 0.165103
-0.729504 -1.016950 5.751950 200 255 48 0.124104
-0.751087 -1.008280 5.736850 158 255 90 0.086489
-0.706624 -1.024660 5.767350 235 255 13 0.161121
-0.725281 -0.958465 5.885010 77 255 171 0.039036
-0.730264 -0.936673 5.905630 77 255 171 0.038590
-0.752309 -0.936985 5.892070 84 255 164 0.040844
-0.735952 -0.915110 5.926440 164 255 84 0.090316
-0.758272 -0.916164 5.913850 145 255 103 0.076037
-0.780708 -0.917074 5.900290 125 255 122 0.062765
-0.775644 -0.935779 5.879100 93 255 155 0.045929
-0.771172 -0.954381 5.859220 113 255 135 0.055996
-0.748569 -0.957182 5.872640 90 255 158 0.044929
-0.654879 -0.380877 5.421730 0 209 255 0.011996
-0.637830 -0.372372 5.418550 0 193 255 0.009668
-0.620205 -0.363724 5.415320 0 165 255 0.006972
-0.638545 -0.390247 5.401520 0 201 255 0.010570
-0.653774 -0.398165 5.405330 0 213 255 0.012237
-0.669560 -0.405925 5.409150 6 237 242 0.016151
-0.670967 -0.388589 5.425250 0 213 255 0.012394
-0.688401 -0.396522 5.428510 0 213 255 0.012446
-0.686873 -0.414122 5.412920 29 255 219 0.021855
-0.706062 -0.423282 5.416240 29 255 219 0.021809
-0.585934 -0.346084 5.407470 0 133 255 0.004307
-0.566713 -0.336700 5.403880 0 161 255 0.006551
-0.587957 -0.363643 5.390440 0 153 255 0.005636
-0.604828 -0.372837 5.394290 0 141 255 0.004848
-0.603144 -0.355161 5.411450 0 137 255 0.004637
-0.621849 -0.381789 5.398160 0 173 255 0.007620
-0.633884 -0.421966 5.363320 0 169 255 0.007173
-0.647737 -0.429970 5.367750 0 181 255 0.008547
-0.628660 -0.402330 5.380220 0 173 255 0.007715
-0.642703 -0.410202 5.384470 0 189 255 0.009475
-0.657781 -0.418380 5.389000 0 225 251 0.014274
-0.662252 -0.438322 5.372080 3 233 245 0.015536
-0.677710 -0.446504 5.376770 58 255 190 0.030712
-0.611562 -0.393335 5.376720 0 149 255 0.005283
-0.699547 -0.448206 5.392310 67 255 180 0.034708
-0.725810 -0.450424 5.405980 51 255 196 0.029053
-0.727506 -0.469386 5.392670 80 255 167 0.040274
-0.673391 -0.426462 5.392930 38 255 209 0.024412
-0.315717 -0.787377 5.042890 35 255 213 0.023732
-0.295181 -0.791488 5.042540 16 249 232 0.018659
-0.281295 -0.807335 5.042150 6 237 242 0.016395
-0.261197 -0.812082 5.041820 9 241 238 0.017393
-0.273779 -0.834143 5.040230 32 255 216 0.022391
-0.294007 -0.829359 5.040450 32 255 216 0.023271
-0.307731 -0.813396 5.041650 19 253 229 0.019332
-0.328404 -0.808331 5.041610 29 255 219 0.022101
-0.344199 -0.792662 5.043410 48 255 200 0.028041
-0.357956 -0.813876 5.042470 42 255 206 0.025800
-0.229134 -0.806735 5.040240 13 245 235 0.017842
-0.202718 -0.812920 5.036400 6 237 242 0.016590
-0.180753 -0.831684 5.031490 13 245 235 0.017504
-0.193025 -0.853348 5.031430 32 255 216 0.023144
-0.215263 -0.834752 5.037070 22 255 225 0.020434
-0.242162 -0.828525 5.039830 25 255 222 0.021359
-0.210832 -0.898899 5.034230 132 255 116 0.067510
-0.235501 -0.880461 5.037980 113 255 135 0.055686
-0.262263 -0.875046 5.040080 93 255 155 0.045237
-0.282761 -0.857609 5.041520 77 255 171 0.038270
-0.291704 -0.881457 5.041670 125 255 122 0.063047
-0.253111 -0.851031 5.039730 55 255 193 0.030279
-0.226536 -0.857025 5.037070 55 255 193 0.030181
-0.201635 -0.875747 5.033380 71 255 177 0.035927
-0.311876 -0.876770 5.042200 125 255 122 0.063400
-0.327953 -0.859513 5.042700 109 255 138 0.053617
-0.349291 -0.854987 5.044150 87 255 161 0.043277
-0.367430 -0.837858 5.044750 67 255 180 0.034179
-0.377450 -0.861713 5.046480 100 255 148 0.049146
-0.340089 -0.830335 5.042410 55 255 193 0.029542
-0.318637 -0.835940 5.041550 51 255 196 0.029264
-0.303094 -0.852674 5.041510 77 255 171 0.038599
-0.664292 -1.021750 5.598250 0 209 255 0.011616
-0.670502 -1.021070 5.618290 0 229 248 0.015234
-0.693323 -1.016550 5.605060 13 245 235 0.017970
-0.676814 -1.021010 5.639740 25 255 222 0.020794
-0.699853 -1.015790 5.625810 32 255 216 0.022920
-0.706397 -1.015330 5.647330 55 255 193 0.030128
-0.683688 -1.021390 5.661620 51 255 196 0.028661
-0.722048 -1.010900 5.611710 64 255 184 0.033444
-0.728469 -1.009850 5.632820 74 255 174 0.037400
-0.750242 -1.004030 5.618240 100 255 148 0.049073
-0.744022 -1.005770 5.596070 103 255 145 0.050055
-0.715551 -1.012070 5.590040 58 255 190 0.031205
-0.737830 -1.007710 5.575090 109 255 138 0.053683
-0.708918 -1.012870 5.569880 67 255 180 0.035085
-0.686638 -1.016890 5.583890 0 229 248 0.015130
-0.680090 -1.017230 5.563740 22 255 225 0.020417
-0.731990 -1.008240 5.555210 113 255 135 0.055365
-0.702551 -1.013090 5.550120 80 255 167 0.040572
-0.725937 -1.008010 5.535450 103 255 145 0.050912
-0.657481 -1.022410 5.577120 0 221 255 0.013344
-0.690197 -1.023650 5.688960 87 255 161 0.042734
-0.696247 -1.025060 5.714690 135 255 113 0.068597
-0.718763 -1.018130 5.700260 122 255 126 0.060676
-0.701372 -1.025840 5.740990 187 255 61 0.110225
-0.724440 -1.018160 5.725850 161 255 87 0.088107
-0.745916 -1.010210 5.711390 132 255 116 0.067600
-0.766610 -1.000350 5.695570 106 255 142 0.052472
-0.740280 -1.009830 5.684570 109 255 138 0.053617
-0.761487 -1.001070 5.669370 100 255 148 0.049666
-0.734555 -1.009420 5.658640 90 255 158 0.043727
-0.712850 -1.016320 5.673590 84 255 164 0.041967
-0.755913 -1.002050 5.643910 100 255 148 0.048861
-0.852316 -0.950258 5.639650 0 193 255 0.009610
-0.827493 -0.966566 5.657560 0 213 255 0.012189
-0.824917 -0.967403 5.630290 9 241 238 0.016756
-0.851444 -0.951118 5.612250 0 221 255 0.013908
-0.801269 -0.981710 5.645500 51 255 196 0.028320
-0.822622 -0.968906 5.603960 32 255 216 0.022552
-0.797861 -0.982501 5.619310 64 255 184 0.033937
-0.794199 -0.984189 5.593760 87 255 161 0.043360
-0.850522 -0.953393 5.586100 19 253 229 0.019690
-0.820566 -0.971051 5.578230 67 255 180 0.034557
-0.849121 -0.956344 5.561260 64 255 184 0.033633
-0.775770 -0.994016 5.632380 93 255 155 0.046310
-0.770938 -0.995081 5.606740 106 255 142 0.051995
-0.780669 -0.992402 5.658360 84 255 164 0.041880
-0.785310 -0.990954 5.684460 77 255 171 0.038566
-0.805098 -0.979570 5.672130 32 255 216 0.023179
-0.848288 -0.957166 5.533970 96 255 151 0.046864
-0.815988 -0.975134 5.557470 93 255 155 0.045846
-0.813231 -0.974491 5.530860 103 255 145 0.051449
-0.845220 -0.956791 5.507940 119 255 129 0.058706
-0.783894 -0.990327 5.551220 109 255 138 0.054203
-0.808202 -0.972531 5.504160 113 255 135 0.055209
-0.779321 -0.987813 5.525180 93 255 155 0.046533
-0.773775 -0.983749 5.498360 77 255 171 0.038743
-0.840724 -0.954937 5.480800 138 255 109 0.071369
-0.801851 -0.969017 5.477050 119 255 129 0.060478
-0.833161 -0.951715 5.453580 142 255 106 0.074375
-0.753832 -1.001290 5.543560 109 255 138 0.053306
-0.748753 -0.996816 5.518030 84 255 164 0.041155
-0.759589 -1.000140 5.563740 122 255 126 0.060996
-0.765204 -0.997745 5.584830 119 255 129 0.059141
-0.789296 -0.987647 5.571920 106 255 142 0.053209
-0.704673 -0.988706 5.367750 51 255 196 0.028575
-0.690173 -0.999231 5.382820 51 255 196 0.028659
-0.685351 -1.005460 5.411190 55 255 193 0.029812
-0.671133 -1.015620 5.425770 67 255 180 0.034363
-0.667035 -1.021460 5.452910 84 255 164 0.041075
-0.646594 -1.030570 5.426760 87 255 161 0.042976
-0.691257 -1.008560 5.451110 67 255 180 0.034142
-0.687231 -1.014540 5.476290 90 255 158 0.044049
-0.702904 -1.004210 5.460560 58 255 190 0.031232
-0.707274 -0.997056 5.434380 45 255 203 0.026617
-0.719326 -0.993606 5.444390 45 255 203 0.027184
-0.723712 -0.985964 5.417170 58 255 190 0.031312
-0.711763 -0.990322 5.406950 55 255 193 0.029981
-0.728214 -0.978583 5.389030 61 255 187 0.032803
-0.735424 -0.982217 5.426600 64 255 184 0.032960
-0.740593 -0.974634 5.398670 77 255 171 0.038083
-0.752688 -0.971523 5.407800 77 255 171 0.039270
-0.716428 -0.982988 5.378720 55 255 193 0.029727
-0.626857 -1.038060 5.439500 93 255 155 0.045869
-0.616359 -1.040150 5.466580 87 255 161 0.043043
-0.597392 -1.045430 5.477990 67 255 180 0.034657
-0.614267 -1.037740 5.504770 61 255 187 0.032176
-0.635201 -1.031770 5.492410 74 255 174 0.037665
-0.655837 -1.024940 5.479270 90 255 158 0.044579
-0.647656 -1.024860 5.562410 9 241 238 0.016886
-0.670463 -1.019820 5.549600 32 255 216 0.023039
-0.660721 -1.022420 5.535400 42 255 206 0.025402
-0.693135 -1.015340 5.535790 67 255 180 0.034157
-0.683455 -1.017330 5.521460 80 255 167 0.039481
-0.707097 -1.010940 5.506370 93 255 155 0.046165
-0.716686 -1.009620 5.520920 93 255 155 0.046506
-0.673747 -1.019780 5.506750 84 255 164 0.042018
-0.697239 -1.012490 5.491680 93 255 155 0.046583
-0.653139 -1.024580 5.520020 61 255 187 0.032243
-0.632480 -1.029700 5.531950 38 255 209 0.024703
-0.640250 -1.026980 5.547290 22 255 225 0.020560
-0.732738 -1.000340 5.505820 80 255 167 0.040675
-0.756452 -0.987404 5.486880 61 255 187 0.031817
-0.739187 -0.991311 5.474600 61 255 187 0.031758
-0.781858 -0.973731 5.465890 96 255 151 0.047651
-0.763558 -0.978262 5.454440 67 255 180 0.034636
-0.789866 -0.963928 5.432220 119 255 129 0.059433
-0.811042 -0.958843 5.442960 132 255 116 0.067033
-0.745781 -0.981608 5.442160 58 255 190 0.031628
-0.770585 -0.967784 5.419990 93 255 155 0.045338
-0.729497 -0.992473 5.459820 45 255 203 0.026495
-0.713025 -1.002440 5.476040 77 255 171 0.038769
-0.723102 -1.001520 5.491300 84 255 164 0.041322
-0.678148 -0.599707 5.195800 171 255 77 0.095381
-0.703336 -0.608105 5.203620 213 255 35 0.134586
-0.719520 -0.623609 5.200140 245 249 3 0.176614
-0.741466 -0.634036 5.209370 255 230 0 0.195371
-0.727963 -0.644155 5.184510 255 230 0 0.194620
-0.732156 -0.613521 5.224940 216 255 32 0.141003
-0.752331 -0.625665 5.237460 180 255 67 0.104359
-0.715346 -0.596703 5.227860 200 255 48 0.122595
-0.697684 -0.580302 5.231110 180 255 67 0.104159
-0.740491 -0.662266 5.182840 255 208 0 0.228440
-0.759493 -0.676219 5.194300 255 197 0 0.242437
-0.770020 -0.695364 5.194810 255 197 0 0.242976
-0.787077 -0.709871 5.208750 255 230 0 0.197311
-0.772318 -0.719070 5.183330 255 171 0 0.278705
-0.782597 -0.687589 5.222840 225 255 22 0.149933
-0.800430 -0.702342 5.240040 206 255 42 0.129594
-0.771353 -0.668118 5.222420 219 255 29 0.144690
-0.759293 -0.648885 5.222350 222 255 25 0.147589
-0.839352 -0.691226 5.310510 174 255 74 0.098500
-0.826051 -0.673090 5.310650 145 255 103 0.075749
-0.816243 -0.675224 5.293860 151 255 96 0.080179
-0.803034 -0.657939 5.293590 116 255 132 0.057346
-0.812725 -0.655223 5.310500 113 255 135 0.056242
-0.793078 -0.659783 5.274430 122 255 126 0.060919
-0.789294 -0.640125 5.292300 100 255 148 0.049397
-0.779648 -0.641595 5.273000 93 255 155 0.045686
-0.765701 -0.622697 5.270600 80 255 167 0.040254
-0.798801 -0.638516 5.309730 96 255 151 0.047986
-0.773953 -0.622118 5.289170 87 255 161 0.042412
-0.784018 -0.620555 5.307270 87 255 161 0.043590
-0.771851 -0.642738 5.253930 138 255 109 0.072579
-0.758900 -0.623687 5.253030 109 255 138 0.054426
-0.797109 -0.680340 5.256830 171 255 77 0.095472
-0.818190 -0.696230 5.277280 184 255 64 0.108710
-0.762732 -0.600472 5.305620 74 255 174 0.036750
-0.755573 -0.604457 5.286270 64 255 184 0.033802
-0.734936 -0.582403 5.285340 67 255 180 0.034891
-0.740811 -0.578509 5.304420 61 255 187 0.032181
-0.731316 -0.586576 5.267850 84 255 164 0.041324
-0.715484 -0.559831 5.285690 90 255 158 0.043830
-0.711700 -0.565175 5.270550 113 255 135 0.056043
-0.720047 -0.554924 5.302730 64 255 184 0.033647
-0.708028 -0.571047 5.255350 145 255 103 0.077138
-0.725369 -0.588536 5.253910 138 255 109 0.071309
-0.742294 -0.606092 5.253190 132 255 116 0.067892
-0.748340 -0.604964 5.269040 67 255 180 0.034400
-0.766727 -0.882260 5.259010 64 255 184 0.033677
-0.779300 -0.858461 5.257720 96 255 151 0.048160
-0.787238 -0.872103 5.280410 103 255 145 0.051152
-0.793165 -0.834019 5.256680 158 255 90 0.086012
-0.801431 -0.847947 5.279410 145 255 103 0.076357
-0.816766 -0.822884 5.279660 200 255 48 0.121596
-0.811093 -0.862435 5.301790 151 255 96 0.080791
-0.807435 -0.809233 5.256400 213 255 35 0.137592
-0.821049 -0.784328 5.259140 222 255 25 0.148116
-0.801747 -0.794772 5.231520 216 255 32 0.140954
-0.788662 -0.819247 5.230910 187 255 61 0.110322
-0.775318 -0.843636 5.232500 125 255 122 0.064331
-0.783657 -0.804961 5.207890 219 255 29 0.142781
-0.827353 -0.856183 5.312490 164 255 84 0.089820
-0.827786 -0.837885 5.303410 171 255 77 0.096584
-0.846187 -0.830125 5.314490 158 255 90 0.085852
-0.845187 -0.848816 5.323030 167 255 80 0.094605
-0.846521 -0.812047 5.307020 155 255 93 0.083052
-0.862148 -0.824095 5.327140 138 255 109 0.071838
-0.861561 -0.806097 5.319860 135 255 113 0.069201
-0.876239 -0.800468 5.332990 151 255 96 0.080639
-0.862225 -0.841901 5.334310 171 255 77 0.095265
-0.876957 -0.818118 5.339680 138 255 109 0.072383
-0.876943 -0.836203 5.346760 180 255 67 0.104184
-0.860819 -0.788203 5.312810 161 255 87 0.087549
-0.874892 -0.783231 5.326120 167 255 80 0.093308
-0.872160 -0.765466 5.319660 180 255 67 0.105638
-0.859286 -0.768907 5.305080 190 255 58 0.112737
-0.847117 -0.792043 5.297910 193 255 55 0.114906
-0.846787 -0.772855 5.290320 206 255 42 0.127938
-0.832553 -0.797781 5.283620 216 255 32 0.139712
-0.830451 -0.818049 5.293390 196 255 51 0.119597
-0.833472 -0.778597 5.274950 222 255 25 0.146022
-0.837580 -0.712414 5.297310 187 255 61 0.109195
-0.833581 -0.734355 5.283470 200 255 48 0.121561
-0.816495 -0.719082 5.263080 196 255 51 0.119766
-0.822928 -0.738374 5.265780 180 255 67 0.103003
-0.813402 -0.742756 5.247870 206 255 42 0.127992
-0.828811 -0.758676 5.270000 209 255 38 0.132929
-0.840977 -0.753474 5.286910 209 255 38 0.133947
-0.852844 -0.749763 5.301790 203 255 45 0.127395
-0.845269 -0.730615 5.299380 200 255 48 0.121114
-0.856935 -0.726916 5.314630 184 255 64 0.108419
-0.865211 -0.746267 5.316880 184 255 64 0.108340
-0.847540 -0.709169 5.312610 180 255 67 0.105559
-0.799163 -0.726658 5.228510 225 255 22 0.152499
-0.796410 -0.751851 5.218530 235 255 13 0.160759
-0.784678 -0.735211 5.199970 255 216 0 0.216688
-0.780459 -0.761512 5.192610 255 227 0 0.202677
-0.791717 -0.778251 5.211380 235 255 13 0.161867
-0.808486 -0.768369 5.238130 222 255 25 0.145468
-0.626002 -0.650229 5.137750 87 255 161 0.043231
-0.641457 -0.662251 5.135460 109 255 138 0.054660
-0.665990 -0.668424 5.139270 158 255 90 0.084704
-0.681025 -0.680971 5.136600 171 255 77 0.095657
-0.697786 -0.668002 5.148970 209 255 38 0.132518
-0.681980 -0.654457 5.152860 196 255 51 0.119762
-0.658378 -0.648879 5.149490 138 255 109 0.072239
-0.641119 -0.635784 5.152940 109 255 138 0.054629
-0.684922 -0.704452 5.129700 167 255 80 0.093727
-0.695540 -0.721181 5.130660 171 255 77 0.095812
-0.714565 -0.732823 5.137780 225 255 22 0.151793
-0.723203 -0.749917 5.139350 209 255 38 0.133035
-0.740888 -0.739618 5.150030 255 216 0 0.214533
-0.731209 -0.720945 5.148770 255 197 0 0.240529
-0.712989 -0.709143 5.142400 232 255 16 0.156901
-0.701730 -0.691549 5.142200 222 255 25 0.145858
-0.755978 -0.705385 5.173210 255 164 0 0.295518
-0.745983 -0.686348 5.173140 255 190 0 0.251591
-0.726738 -0.673829 5.165130 255 230 0 0.197403
-0.714272 -0.655564 5.166560 245 249 3 0.173063
-0.729927 -0.697577 5.156250 255 204 0 0.231451
-0.758098 -0.728934 5.166150 255 160 0 0.302165
-0.706269 -0.635685 5.179080 229 255 19 0.156059
-0.689585 -0.620877 5.182680 209 255 38 0.131106
-0.665348 -0.614241 5.177680 155 255 93 0.083630
-0.674593 -0.634487 5.164680 177 255 71 0.100284
-0.759675 -0.896743 5.272750 45 255 203 0.026757
-0.771344 -0.891165 5.281810 58 255 190 0.031638
-0.764775 -0.905578 5.295610 42 255 206 0.025337
-0.753321 -0.911008 5.285960 35 255 213 0.023338
-0.776904 -0.900683 5.304230 77 255 171 0.038283
-0.758697 -0.919794 5.308700 42 255 206 0.025784
-0.770922 -0.915455 5.317630 71 255 177 0.036113
-0.764972 -0.930026 5.331130 67 255 180 0.034092
-0.747587 -0.925060 5.298960 29 255 219 0.022294
-0.753517 -0.934160 5.321750 35 255 213 0.024128
-0.742130 -0.939565 5.311850 22 255 225 0.020377
-0.783222 -0.911217 5.327000 103 255 145 0.050237
-0.777536 -0.926430 5.340110 93 255 155 0.045591
-0.790805 -0.922498 5.349140 122 255 126 0.060806
-0.800378 -0.892884 5.324890 135 255 113 0.070426
-0.793143 -0.882114 5.302830 113 255 135 0.056313
-0.732358 -0.950854 5.326340 16 249 232 0.018299
-0.744367 -0.946020 5.336100 19 253 229 0.019296
-0.734727 -0.957894 5.350600 22 255 225 0.020357
-0.722812 -0.963054 5.340280 25 255 222 0.020953
-0.746663 -0.953469 5.360300 38 255 209 0.024691
-0.725421 -0.970438 5.364660 42 255 206 0.026158
-0.737264 -0.965526 5.374960 51 255 196 0.029249
-0.713574 -0.975710 5.354500 42 255 206 0.026124
-0.749461 -0.961930 5.384310 67 255 180 0.034419
-0.761720 -0.958724 5.393310 80 255 167 0.040464
-0.758432 -0.949443 5.369980 58 255 190 0.031485
-0.770982 -0.945959 5.379060 90 255 158 0.045103
-0.767488 -0.937597 5.355090 71 255 177 0.036375
-0.755558 -0.941476 5.345760 45 255 203 0.026327
-0.780876 -0.934002 5.363960 113 255 135 0.055180
-0.842050 -0.937162 5.435370 142 255 106 0.073522
-0.822945 -0.945325 5.428520 148 255 100 0.079423
-0.830844 -0.931011 5.410350 161 255 87 0.087455
-0.849360 -0.923354 5.417860 167 255 80 0.094126
-0.812133 -0.937867 5.402480 171 255 77 0.096292
-0.837836 -0.917481 5.391970 180 255 67 0.103811
-0.818911 -0.923856 5.384160 161 255 87 0.088844
-0.826008 -0.910479 5.365800 164 255 84 0.091582
-0.857473 -0.909029 5.400080 187 255 61 0.111486
-0.846034 -0.903487 5.373630 177 255 71 0.100789
-0.864027 -0.895653 5.382940 203 255 45 0.126411
-0.800725 -0.929648 5.375960 142 255 106 0.073405
-0.806938 -0.917020 5.357940 148 255 100 0.077955
-0.790666 -0.942347 5.390750 145 255 103 0.075253
-0.780066 -0.955083 5.405740 116 255 132 0.057928
-0.800872 -0.950855 5.417550 142 255 106 0.074766
-0.855747 -0.871565 5.353100 196 255 51 0.119499
-0.870752 -0.865829 5.364270 213 255 35 0.137642
-0.838456 -0.878758 5.342570 171 255 77 0.095368
-0.818048 -0.886208 5.334100 158 255 90 0.084815
0.138028 -1.042010 5.133060 13 245 235 0.017877
0.160544 -1.038050 5.114390 19 253 229 0.019365
0.122466 -1.037840 5.113830 9 241 238 0.017232
0.145205 -1.034090 5.095060 13 245 235 0.018048
0.108587 -1.032260 5.094830 16 249 232 0.018506
0.133693 -1.027600 5.077220 25 255 222 0.020862
0.097107 -1.025560 5.076100 22 255 225 0.019826
0.122946 -1.021250 5.057990 38 255 209 0.025048
-0.316643 -1.021810 5.150670 80 255 167 0.040561
-0.342877 -1.012300 5.144830 77 255 171 0.038955
-0.303000 -1.016920 5.135800 106 255 142 0.052158
-0.328990 -1.008110 5.129090 109 255 138 0.054355
-0.315626 -1.002700 5.114530 132 255 116 0.066838
-0.356165 -0.998127 5.123900 103 255 145 0.050825
-0.290561 -1.010940 5.121020 113 255 135 0.056167
-0.277622 -1.004300 5.107080 119 255 129 0.059882
-0.266313 -1.017300 5.126630 93 255 155 0.046115
-0.279128 -1.023860 5.140840 87 255 161 0.043614
-0.291955 -1.029870 5.155360 90 255 158 0.043652
-0.255630 -1.030510 5.145900 71 255 177 0.035830
-0.339491 -0.992606 5.110400 142 255 106 0.073977
-0.365710 -0.979515 5.104870 145 255 103 0.075771
-0.323547 -0.985780 5.097520 167 255 80 0.092395
-0.348711 -0.973091 5.091370 174 255 74 0.099300
-0.332286 -0.965634 5.078640 203 255 45 0.124390
-0.375057 -0.959800 5.086200 161 255 87 0.086955
-0.307997 -0.977765 5.085110 177 255 71 0.102890
-0.291913 -0.969788 5.074260 177 255 71 0.101302
-0.284713 -0.987469 5.090430 151 255 96 0.081246
-0.300483 -0.995398 5.101850 142 255 106 0.074885
-0.182312 -0.979641 5.056420 171 255 77 0.096792
-0.208483 -0.985517 5.070340 180 255 67 0.105303
-0.177184 -0.993328 5.071140 148 255 100 0.078800
-0.233110 -0.991981 5.083160 151 255 96 0.081873
-0.203129 -0.999738 5.084050 142 255 106 0.074993
-0.227531 -1.006300 5.097530 119 255 129 0.060298
-0.171382 -1.007240 5.084600 116 255 132 0.057935
-0.256353 -0.998405 5.095220 132 255 116 0.068155
-0.263557 -0.981397 5.079140 158 255 90 0.086715
-0.240454 -0.974651 5.067700 180 255 67 0.105358
-0.194611 -1.012860 5.100390 106 255 142 0.052005
-0.161469 -1.017740 5.101090 80 255 167 0.039464
-0.216959 -1.018800 5.116220 84 255 164 0.041240
-0.185209 -1.023590 5.117550 67 255 180 0.034980
-0.207966 -1.029640 5.133960 58 255 190 0.031307
-0.151317 -1.028230 5.118360 51 255 196 0.029102
-0.237331 -1.024950 5.131460 67 255 180 0.035330
-0.247994 -1.011800 5.112380 100 255 148 0.049762
0.060700 -0.983060 5.008470 106 255 142 0.051974
0.056755 -0.970068 4.998760 142 255 106 0.074235
0.052322 -0.957436 4.989250 171 255 77 0.096327
0.051214 -0.942049 4.982760 142 255 106 0.073973
0.086323 -1.017680 5.058790 38 255 209 0.024245
0.113479 -1.012420 5.042760 48 255 200 0.028043
0.076878 -1.008720 5.043250 45 255 203 0.026859
0.104296 -1.003930 5.026860 67 255 180 0.034458
0.069643 -0.998811 5.028150 67 255 180 0.034693
-0.152491 -0.974069 5.046190 164 255 84 0.089669
-0.184478 -0.962924 5.047460 184 255 64 0.108014
-0.123361 -0.967902 5.036860 174 255 74 0.097837
-0.154725 -0.957686 5.036990 177 255 71 0.102697
-0.125246 -0.951830 5.027060 171 255 77 0.095703
-0.186344 -0.945899 5.037760 193 255 55 0.114856
-0.095327 -0.961163 5.027760 171 255 77 0.095489
-0.067893 -0.954494 5.017810 145 255 103 0.076842
-0.065396 -0.968357 5.027250 135 255 113 0.070325
-0.092768 -0.975620 5.036400 142 255 106 0.073870
-0.121404 -0.982428 5.046440 145 255 103 0.076103
-0.062832 -0.982753 5.036560 113 255 135 0.055290
-0.154592 -0.940189 5.030340 167 255 80 0.093062
-0.183517 -0.926060 5.033560 171 255 77 0.095472
-0.124143 -0.933753 5.022450 151 255 96 0.081705
-0.152101 -0.920445 5.025670 129 255 119 0.066335
-0.095202 -0.935689 5.017420 158 255 90 0.084775
-0.066483 -0.937175 5.011880 132 255 116 0.068292
0.020087 -0.941033 4.990930 145 255 103 0.075886
-0.009903 -0.940128 4.998140 125 255 122 0.064460
-0.009844 -0.955739 5.004910 135 255 113 0.069550
0.020441 -0.956516 4.997780 151 255 96 0.081812
-0.039234 -0.947203 5.008540 125 255 122 0.063634
-0.038198 -0.930359 5.002330 113 255 135 0.055446
0.023870 -0.969781 5.007230 148 255 100 0.079013
-0.007130 -0.969318 5.014700 129 255 119 0.066011
-0.003565 -0.982247 5.024150 106 255 142 0.052614
0.027692 -0.982626 5.016700 113 255 135 0.056572
-0.035093 -0.975632 5.025870 113 255 135 0.056131
-0.037858 -0.962049 5.016530 129 255 119 0.065740
0.065535 -1.026470 5.083950 19 253 229 0.019194
0.041563 -1.030480 5.100230 16 249 232 0.018359
0.077851 -1.033300 5.102580 16 249 232 0.018355
0.053836 -1.037560 5.119110 16 249 232 0.018607
0.017871 -1.034770 5.116150 9 241 238 0.017128
-0.005177 -1.039000 5.131660 6 237 242 0.016050
-0.019417 -1.031050 5.113270 3 233 245 0.015873
0.003542 -1.026970 5.097850 13 245 235 0.017475
0.027385 -1.023060 5.082050 19 253 229 0.019521
-0.033793 -1.024140 5.094970 13 245 235 0.017889
0.093292 -1.039460 5.121580 16 249 232 0.018604
0.072014 -1.042540 5.139030 19 253 229 0.019610
0.108754 -1.043440 5.141870 19 253 229 0.019532
0.051658 -1.045830 5.155560 25 255 222 0.020948
0.013204 -1.043940 5.151240 16 249 232 0.018847
0.033721 -1.040850 5.135360 16 249 232 0.018203
-0.059568 -1.050280 5.176520 22 255 225 0.020321
-0.099034 -1.048390 5.172650 38 255 209 0.024337
-0.041239 -1.046040 5.161630 16 249 232 0.018928
-0.080134 -1.045000 5.157070 25 255 222 0.020695
-0.061566 -1.041110 5.142240 13 245 235 0.017539
-0.118887 -1.044020 5.153180 38 255 209 0.024399
-0.023548 -1.042460 5.146840 9 241 238 0.017122
-0.004417 -1.047730 5.166580 22 255 225 0.019883
-0.097174 -1.039000 5.138160 25 255 222 0.021366
-0.135078 -1.036090 5.135520 45 255 203 0.026693
-0.076223 -1.033880 5.124120 16 249 232 0.018534
-0.112957 -1.031360 5.120400 35 255 213 0.023942
-0.091656 -1.026560 5.106250 29 255 219 0.022014
-0.054817 -1.028910 5.109460 9 241 238 0.017114
-0.040632 -1.035930 5.127830 3 233 245 0.015670
0.033939 -0.993849 5.029280 84 255 164 0.041083
0.002020 -0.994028 5.036930 80 255 167 0.039990
0.008068 -1.004680 5.050280 61 255 187 0.032198
0.039739 -1.004530 5.043270 55 255 193 0.029448
-0.025611 -0.999972 5.049880 67 255 180 0.034955
-0.052255 -1.005810 5.062800 61 255 187 0.031832
-0.057681 -0.994109 5.049280 90 255 158 0.043957
-0.030635 -0.987984 5.036580 90 255 158 0.044148
0.049248 -1.013610 5.058940 38 255 209 0.024280
0.018003 -1.014100 5.066110 38 255 209 0.024957
-0.008032 -1.019220 5.080720 22 255 225 0.020538
-0.042992 -1.014640 5.078760 35 255 213 0.023652
-0.017598 -1.009680 5.064790 48 255 200 0.027317
-0.125176 -1.023170 5.103490 51 255 196 0.029076
-0.100752 -1.017240 5.089970 55 255 193 0.029843
-0.135191 -1.012590 5.086990 87 255 161 0.042228
-0.110230 -1.007300 5.073200 84 255 164 0.041230
-0.076240 -1.011440 5.076470 55 255 193 0.029973
-0.067260 -1.020550 5.092430 29 255 219 0.021815
-0.143221 -1.001500 5.071990 116 255 132 0.058370
-0.115663 -0.995639 5.060050 116 255 132 0.057684
-0.148460 -0.988267 5.057870 145 255 103 0.076706
-0.088883 -0.989040 5.047660 116 255 132 0.057297
-0.084018 -1.000610 5.061300 87 255 161 0.043058
-0.172625 -1.033070 5.134990 55 255 193 0.029682
-0.193008 -1.038350 5.151950 58 255 190 0.031366
-0.156839 -1.041500 5.151950 51 255 196 0.028500
-0.178920 -1.046890 5.170170 61 255 187 0.032168
-0.211950 -1.043330 5.168940 67 255 180 0.035058
-0.228898 -1.048090 5.185020 90 255 158 0.044890
-0.241836 -1.038900 5.165310 77 255 171 0.039074
-0.225750 -1.034570 5.149720 61 255 187 0.032204
-0.138490 -1.047570 5.170430 51 255 196 0.029350
-0.159517 -1.051090 5.189520 67 255 180 0.035287
-0.117222 -1.052350 5.190010 48 255 200 0.027700
-0.178672 -1.054530 5.207790 87 255 161 0.043116
-0.212024 -1.052610 5.205340 106 255 142 0.053056
-0.196403 -1.050010 5.188180 80 255 167 0.040066
-0.266223 -1.053100 5.222180 151 255 96 0.079840
-0.247968 -1.053330 5.216670 142 255 106 0.074995
-0.264641 -1.048360 5.195540 132 255 116 0.067109
-0.282446 -1.048300 5.200910 129 255 119 0.065305
-0.238412 -1.050970 5.201240 122 255 126 0.062406
-0.222015 -1.055560 5.221220 129 255 119 0.064745
-0.296435 -1.038420 5.181340 96 255 151 0.048214
-0.277668 -1.039200 5.176370 106 255 142 0.052421
-0.266596 -1.035010 5.161170 87 255 161 0.043196
-0.253335 -1.043840 5.180450 106 255 142 0.051710
-0.452138 -1.028390 5.220800 0 205 255 0.011526
-0.453495 -1.037240 5.238340 6 237 242 0.016390
-0.432808 -1.052620 5.261750 25 255 222 0.020985
-0.454984 -1.046150 5.255870 6 237 242 0.016494
-0.456073 -1.054880 5.273230 16 249 232 0.018293
-0.477776 -1.038840 5.248690 0 209 255 0.011902
-0.476167 -1.029620 5.230930 0 193 255 0.009612
-0.475282 -1.021330 5.213220 0 185 255 0.009017
-0.499237 -1.023060 5.223320 0 189 255 0.009324
-0.394711 -1.060330 5.278960 61 255 187 0.032396
-0.393810 -1.064910 5.296740 90 255 158 0.043842
-0.416332 -1.067950 5.308410 55 255 193 0.029763
-0.417852 -1.062800 5.291010 32 255 216 0.023192
-0.431302 -1.058540 5.279330 29 255 219 0.021845
-0.456433 -1.071860 5.332930 80 255 167 0.039872
-0.460431 -1.067010 5.315110 58 255 190 0.031261
-0.473910 -1.062620 5.303420 55 255 193 0.030458
-0.477501 -1.057000 5.285570 32 255 216 0.022891
-0.498650 -1.058870 5.297220 55 255 193 0.030336
-0.452966 -1.060670 5.291370 38 255 209 0.024323
-0.439664 -1.064890 5.302920 35 255 213 0.023336
-0.436715 -1.069790 5.320770 51 255 196 0.028918
-0.498732 -1.049820 5.278650 29 255 219 0.022243
-0.520788 -1.041890 5.271350 38 255 209 0.024809
-0.499020 -1.040790 5.260330 6 237 242 0.016074
-0.521566 -1.033310 5.253020 19 253 229 0.019300
-0.521349 -1.024590 5.234350 0 229 248 0.014989
-0.544146 -1.025660 5.244900 38 255 209 0.024482
-0.499583 -1.031850 5.242260 0 209 255 0.011888
-0.477578 -1.047860 5.267170 6 237 242 0.016197
-0.354584 -0.952900 5.075990 209 255 38 0.131168
-0.379276 -0.936226 5.072790 190 255 58 0.112865
-0.335289 -0.944869 5.066490 222 255 25 0.146909
-0.358504 -0.929108 5.062610 216 255 32 0.138870
-0.338437 -0.920684 5.054310 206 255 42 0.128698
-0.382594 -0.912706 5.059720 177 255 71 0.100982
-0.316289 -0.936283 5.058810 206 255 42 0.130622
-0.297483 -0.927777 5.051720 187 255 61 0.109044
-0.295085 -0.948937 5.062880 193 255 55 0.116517
-0.313547 -0.957430 5.070090 200 255 48 0.123448
-0.358575 -0.905505 5.053360 187 255 61 0.110630
-0.380257 -0.887194 5.052990 155 255 93 0.083561
-0.335390 -0.897742 5.048600 167 255 80 0.094467
-0.355580 -0.879890 5.047360 142 255 106 0.074247
-0.314689 -0.901189 5.047240 171 255 77 0.096249
-0.294800 -0.904531 5.046710 151 255 96 0.081942
-0.213952 -0.920283 5.038880 177 255 71 0.102176
-0.242854 -0.915618 5.042220 174 255 74 0.097846
-0.245807 -0.936031 5.046880 193 255 55 0.117788
-0.216795 -0.940412 5.043210 206 255 42 0.128535
-0.271146 -0.921533 5.047530 171 255 77 0.096170
-0.268280 -0.898466 5.042640 135 255 113 0.070056
-0.214275 -0.959415 5.053190 209 255 38 0.131762
-0.243005 -0.957001 5.056910 200 255 48 0.121345
-0.268402 -0.963428 5.065980 184 255 64 0.107331
-0.271239 -0.942195 5.055000 193 255 55 0.117870
-0.594066 -0.787534 5.088210 71 255 177 0.035674
-0.574331 -0.777688 5.082870 71 255 177 0.036399
-0.576397 -0.758410 5.084200 58 255 190 0.031104
-0.555898 -0.748893 5.078820 67 255 180 0.034179
-0.554147 -0.767797 5.077000 77 255 171 0.038335
-0.533945 -0.758436 5.070760 84 255 164 0.041258
-0.549615 -0.785515 5.075240 90 255 158 0.044820
-0.568913 -0.795771 5.081280 67 255 180 0.035329
-0.588538 -0.805809 5.086930 64 255 184 0.033503
-0.563078 -0.814116 5.079800 58 255 190 0.030854
-0.555814 -0.732960 5.082990 55 255 193 0.030344
-0.531066 -0.710172 5.084240 84 255 164 0.041511
-0.499965 -0.725534 5.072020 109 255 138 0.054559
-0.522082 -0.731588 5.075360 93 255 155 0.045971
-0.466071 -0.740490 5.062350 145 255 103 0.076873
-0.488716 -0.746521 5.065180 119 255 129 0.059685
-0.509247 -0.767610 5.064650 103 255 145 0.050327
-0.474130 -0.766459 5.058470 142 255 106 0.073955
-0.490239 -0.790544 5.060530 116 255 132 0.058431
-0.509998 -0.799620 5.065990 113 255 135 0.055301
-0.530590 -0.808637 5.071610 80 255 167 0.040525
-0.508803 -0.830414 5.067520 80 255 167 0.040697
-0.529302 -0.776646 5.069940 103 255 145 0.050935
-0.386134 -0.968538 5.099960 119 255 129 0.059856
-0.398049 -0.975838 5.113800 84 255 164 0.041324
-0.376682 -0.986721 5.118540 96 255 151 0.047514
-0.388042 -0.993709 5.132110 48 255 200 0.028285
-0.409897 -0.982775 5.127400 51 255 196 0.028359
-0.422448 -0.989856 5.141790 35 255 213 0.024189
-0.432162 -0.970645 5.122940 74 255 174 0.037737
-0.419075 -0.963391 5.108510 77 255 171 0.038617
-0.406899 -0.955777 5.094860 96 255 151 0.047044
-0.441303 -0.951236 5.103610 61 255 187 0.032097
-0.364691 -1.003490 5.138890 61 255 187 0.032131
-0.374049 -1.008980 5.154120 25 255 222 0.021469
-0.351529 -1.018300 5.160010 48 255 200 0.028267
-0.408483 -1.005230 5.162770 29 255 219 0.022268
-0.397968 -0.999213 5.147590 25 255 222 0.021044
-0.449697 -1.003300 5.175890 19 253 229 0.019219
-0.449753 -0.988069 5.150210 35 255 213 0.024071
-0.470137 -0.994586 5.168780 9 241 238 0.017272
-0.429084 -1.012260 5.182410 16 249 232 0.018333
-0.481392 -0.976206 5.148200 61 255 187 0.032173
-0.472164 -0.967541 5.135110 74 255 174 0.037731
-0.463482 -0.958553 5.121510 84 255 164 0.040743
-0.489944 -0.956219 5.129180 74 255 174 0.037660
-0.481203 -0.947811 5.115620 61 255 187 0.031854
-0.440963 -0.979248 5.136560 67 255 180 0.035044
-0.703748 -0.971199 5.323110 48 255 200 0.027547
-0.713658 -0.958656 5.309720 38 255 209 0.025090
-0.723521 -0.947323 5.295510 32 255 216 0.023136
-0.704366 -0.956426 5.278200 45 255 203 0.026580
-0.684304 -0.979782 5.304970 51 255 196 0.028924
-0.684523 -0.987816 5.327180 58 255 190 0.031052
-0.685145 -0.996347 5.349280 55 255 193 0.030256
-0.665282 -1.004860 5.330380 58 255 190 0.030926
-0.736577 -0.918266 5.269160 45 255 203 0.026824
-0.743156 -0.904217 5.255630 55 255 193 0.030500
-0.750222 -0.890121 5.242220 67 255 180 0.034139
-0.733099 -0.898708 5.225660 93 255 155 0.046333
-0.725281 -0.912719 5.239410 71 255 177 0.035419
-0.717721 -0.926986 5.252650 64 255 184 0.033196
-0.720397 -0.936854 5.274190 42 255 206 0.026144
-0.697254 -0.913303 5.197800 161 255 87 0.087114
-0.688643 -0.927310 5.211370 142 255 106 0.073789
-0.691297 -0.937764 5.231000 100 255 148 0.049660
-0.684049 -0.951922 5.243140 74 255 174 0.037483
-0.686732 -0.963130 5.263070 64 255 184 0.032993
-0.667611 -0.969606 5.247100 74 255 174 0.037122
-0.702297 -0.945263 5.258330 64 255 184 0.033867
-0.707873 -0.919886 5.225330 109 255 138 0.053729
-0.715965 -0.905698 5.211970 122 255 126 0.060822
-0.666796 -0.977936 5.268120 61 255 187 0.032610
-0.646806 -0.992141 5.272870 58 255 190 0.031498
-0.665953 -0.986791 5.288960 55 255 193 0.030362
-0.646382 -1.001450 5.293570 64 255 184 0.033207
-0.646357 -1.010810 5.314390 67 255 180 0.035340
-0.626905 -1.016120 5.297990 71 255 177 0.036361
-0.665264 -0.995552 5.309830 64 255 184 0.033341
-0.685398 -0.971400 5.284020 55 255 193 0.030071
-0.602565 -0.935051 5.151150 116 255 132 0.057080
-0.606412 -0.918952 5.141990 109 255 138 0.053945
-0.597221 -0.905058 5.130520 77 255 171 0.038820
-0.601779 -0.888558 5.121560 80 255 167 0.039650
-0.592151 -0.875129 5.109450 64 255 184 0.033925
-0.618619 -0.869137 5.116400 90 255 158 0.043919
-0.574928 -0.894275 5.114700 48 255 200 0.027972
-0.565757 -0.881028 5.102000 42 255 206 0.025868
-0.570439 -0.909330 5.123070 42 255 206 0.025211
-0.566473 -0.924434 5.130810 61 255 187 0.032616
-0.575926 -0.937668 5.143020 74 255 174 0.037924
-0.549072 -0.940874 5.134600 45 255 203 0.026589
-0.617948 -0.851152 5.110230 84 255 164 0.041305
-0.604427 -0.837391 5.101570 71 255 177 0.035592
-0.602697 -0.819569 5.095660 74 255 174 0.036776
-0.578731 -0.827554 5.088990 61 255 187 0.032117
-0.579050 -0.844607 5.094600 64 255 184 0.032943
-0.579656 -0.861508 5.100210 67 255 180 0.034729
-0.524366 -0.843048 5.076170 67 255 180 0.034617
-0.509907 -0.861225 5.077880 67 255 180 0.035291
-0.538690 -0.855879 5.084840 67 255 180 0.034283
-0.523839 -0.873925 5.086790 58 255 190 0.031376
-0.537742 -0.886216 5.095590 38 255 209 0.024537
-0.510187 -0.891297 5.088660 35 255 213 0.023975
-0.552669 -0.868403 5.093690 61 255 187 0.031810
-0.551414 -0.834962 5.082180 64 255 184 0.033688
-0.520243 -0.903904 5.100430 32 255 216 0.022661
-0.502097 -0.919242 5.104120 45 255 203 0.026678
-0.530113 -0.916228 5.111980 29 255 219 0.022156
-0.512009 -0.931274 5.115820 42 255 206 0.025547
-0.521276 -0.943420 5.127340 45 255 203 0.027120
-0.539656 -0.928474 5.123230 42 255 206 0.025671
-0.547511 -0.898801 5.107240 29 255 219 0.022030
-0.426743 -0.754871 5.054320 158 255 90 0.086586
-0.410881 -0.774266 5.049880 142 255 106 0.074632
-0.427864 -0.795362 5.049290 109 255 138 0.054470
-0.444619 -0.775826 5.053600 135 255 113 0.069573
-0.368092 -0.773248 5.046420 80 255 167 0.040417
-0.365997 -0.798617 5.044450 55 255 193 0.029797
-0.391067 -0.805013 5.045540 64 255 184 0.032982
-0.400619 -0.789586 5.047810 93 255 155 0.045518
-0.388517 -0.845449 5.047560 74 255 174 0.037104
-0.411497 -0.854058 5.051170 77 255 171 0.038614
-0.400706 -0.828735 5.048450 77 255 171 0.038317
-0.424813 -0.837433 5.052220 84 255 164 0.041262
-0.438316 -0.820343 5.053000 113 255 135 0.056033
-0.449418 -0.844925 5.056870 80 255 167 0.040477
-0.413928 -0.812091 5.048890 87 255 161 0.043242
-0.378737 -0.821382 5.045630 51 255 196 0.028849
-0.472475 -0.824588 5.060040 109 255 138 0.053754
-0.481444 -0.807637 5.060220 116 255 132 0.057363
-0.460436 -0.799010 5.055660 122 255 126 0.062007
-0.395257 -0.871742 5.052420 109 255 138 0.053397
-0.413806 -0.881701 5.059060 103 255 145 0.051284
-0.398107 -0.896944 5.059470 138 255 109 0.072322
-0.416283 -0.906499 5.067020 116 255 132 0.057501
-0.433225 -0.891210 5.066400 87 255 161 0.042342
-0.452581 -0.900609 5.074640 64 255 184 0.033038
-0.450875 -0.872968 5.065370 58 255 190 0.030840
-0.430973 -0.863859 5.058050 80 255 167 0.039675
-0.397107 -0.922899 5.069980 148 255 100 0.078914
-0.411719 -0.932850 5.080970 113 255 135 0.055694
-0.393000 -0.946264 5.083560 142 255 106 0.074097
-0.426423 -0.942304 5.091860 71 255 177 0.036048
-0.447258 -0.926230 5.088910 71 255 177 0.035754
-0.431948 -0.916290 5.077560 96 255 151 0.046864
-0.474340 -0.923960 5.097000 58 255 190 0.030832
-0.491782 -0.907746 5.093050 38 255 209 0.024425
-0.480702 -0.896205 5.082000 38 255 209 0.024532
-0.463973 -0.912438 5.086060 58 255 190 0.031564
-0.457642 -0.937662 5.100320 55 255 193 0.029458
-0.495303 -0.880144 5.080430 48 255 200 0.027460
-0.479770 -0.868629 5.072070 61 255 187 0.032605
-0.494484 -0.849702 5.070040 80 255 167 0.039859
-0.464834 -0.856622 5.064380 64 255 184 0.033812
-0.466164 -0.884779 5.073530 48 255 200 0.027638
-0.582931 -0.947541 5.157500 84 255 164 0.040747
-0.563516 -0.960148 5.163600 45 255 203 0.027019
-0.556703 -0.950249 5.148980 51 255 196 0.028320
-0.537941 -0.962734 5.154880 29 255 219 0.021599
-0.544763 -0.972900 5.169460 13 245 235 0.018009
-0.526909 -0.985760 5.175310 0 225 251 0.014244
-0.551976 -0.985228 5.185400 22 255 225 0.020075
-0.569672 -0.972148 5.179460 48 255 200 0.027641
-0.588906 -0.959461 5.172500 77 255 171 0.038120
-0.576456 -0.984550 5.194730 58 255 190 0.031009
-0.530373 -0.952158 5.140790 42 255 206 0.026148
-0.511977 -0.963547 5.146980 45 255 203 0.026898
-0.489194 -0.986242 5.162340 13 245 235 0.017458
-0.519309 -0.974470 5.161250 13 245 235 0.017453
-0.469154 -1.010860 5.196080 0 213 255 0.012424
-0.487860 -1.002060 5.189630 0 213 255 0.012598
-0.493322 -1.011790 5.206190 0 189 255 0.009360
-0.512309 -1.003080 5.199030 0 201 255 0.010994
-0.506996 -0.993736 5.182670 0 221 255 0.013416
-0.517383 -1.012860 5.216420 0 205 255 0.011544
-0.536730 -1.003300 5.209740 6 237 242 0.016672
-0.540335 -1.014320 5.227500 22 255 225 0.019822
-0.559878 -1.004360 5.220070 42 255 206 0.025626
-0.556435 -0.993895 5.202420 32 255 216 0.023195
-0.531570 -0.994333 5.192520 3 233 245 0.015718
-0.701564 -0.894878 5.186240 180 255 67 0.103891
-0.696496 -0.881180 5.168890 177 255 71 0.100855
-0.700614 -0.862681 5.158580 174 255 74 0.098438
-0.693103 -0.847701 5.143430 164 255 84 0.089471
-0.715142 -0.840070 5.153100 196 255 51 0.118940
-0.678204 -0.870456 5.148400 155 255 93 0.083908
-0.669413 -0.855726 5.133330 135 255 113 0.069261
-0.674580 -0.888185 5.157750 148 255 100 0.078523
-0.669577 -0.905674 5.168100 174 255 74 0.097810
-0.676724 -0.919786 5.184420 171 255 77 0.096101
-0.653330 -0.926342 5.171850 164 255 84 0.089758
-0.713768 -0.820217 5.146150 187 255 61 0.109895
-0.701090 -0.804908 5.135200 158 255 90 0.086163
-0.698312 -0.784951 5.129110 142 255 106 0.073418
-0.676636 -0.794702 5.120250 122 255 126 0.061985
-0.678831 -0.813361 5.125900 122 255 126 0.061309
-0.680723 -0.832431 5.131940 145 255 103 0.076192
-0.628847 -0.811851 5.103270 90 255 158 0.043939
-0.630450 -0.829677 5.108750 87 255 161 0.042709
-0.644697 -0.844127 5.118590 106 255 142 0.053006
-0.644331 -0.862283 5.124920 109 255 138 0.054405
-0.655831 -0.821573 5.116490 106 255 142 0.053087
-0.652970 -0.802924 5.111300 106 255 142 0.052783
-0.628440 -0.883516 5.129150 103 255 145 0.050685
-0.624255 -0.900383 5.138240 113 255 135 0.055195
-0.632526 -0.914840 5.152330 145 255 103 0.075287
-0.628419 -0.931216 5.161420 145 255 103 0.075249
-0.649604 -0.894836 5.147840 142 255 106 0.075068
-0.653362 -0.876921 5.138290 122 255 126 0.061188
-0.542753 -1.034020 5.264110 58 255 190 0.030535
-0.542114 -1.042270 5.283130 67 255 180 0.034608
-0.520201 -1.050510 5.290280 61 255 187 0.031958
-0.518717 -1.059300 5.309270 80 255 167 0.040153
-0.540724 -1.050600 5.302290 80 255 167 0.039534
-0.538593 -1.058660 5.321410 90 255 158 0.044090
-0.562401 -1.041190 5.295350 77 255 171 0.038388
-0.563839 -1.033240 5.276200 74 255 174 0.037472
-0.565157 -1.025020 5.256840 67 255 180 0.035063
-0.586163 -1.023720 5.269050 74 255 174 0.037046
-0.493601 -1.064280 5.315370 77 255 171 0.039100
-0.479768 -1.068400 5.327220 77 255 171 0.038917
-0.475237 -1.072750 5.345380 84 255 164 0.041552
-0.494574 -1.072940 5.357900 84 255 164 0.041441
-0.498822 -1.068980 5.339370 87 255 161 0.042195
-0.513499 -1.064340 5.327450 87 255 161 0.042997
-0.530394 -1.069180 5.385930 74 255 174 0.037385
-0.536030 -1.066260 5.366410 80 255 167 0.039619
-0.551973 -1.060880 5.354570 93 255 155 0.045585
-0.557666 -1.056700 5.335530 93 255 155 0.046043
-0.577235 -1.053540 5.350100 100 255 148 0.048741
-0.532325 -1.063770 5.340050 87 255 161 0.043544
-0.517253 -1.068480 5.352300 84 255 164 0.040937
-0.511505 -1.072040 5.371200 74 255 174 0.036675
-0.589656 -1.044160 5.337610 100 255 148 0.048595
-0.591575 -1.037090 5.317030 84 255 164 0.041019
-0.604374 -1.027490 5.303950 77 255 171 0.039005
-0.607040 -1.020230 5.283450 71 255 177 0.036026
-0.584037 -1.031310 5.289420 77 255 171 0.038352
-0.560188 -1.049070 5.315360 90 255 158 0.044296
-0.608189 -0.945939 5.167440 113 255 135 0.055147
-0.614039 -0.956842 5.183440 106 255 142 0.052706
-0.594888 -0.970610 5.189670 84 255 164 0.041413
-0.601225 -0.982441 5.206290 87 255 161 0.042784
-0.619103 -0.967927 5.200440 103 255 145 0.050203
-0.623918 -0.979326 5.218170 93 255 155 0.046157
-0.638255 -0.952102 5.194920 125 255 122 0.062697
-0.633770 -0.941751 5.177760 135 255 113 0.070429
-0.580094 -0.994007 5.213530 64 255 184 0.033852
-0.582407 -1.003800 5.232170 67 255 180 0.035207
-0.563181 -1.014830 5.238700 55 255 193 0.029873
-0.584318 -1.013630 5.250890 71 255 177 0.036207
-0.604482 -1.001040 5.244580 74 255 174 0.036914
-0.603195 -0.991556 5.225290 84 255 164 0.041246
-0.625880 -1.006350 5.278340 64 255 184 0.033396
-0.625531 -0.997337 5.258200 64 255 184 0.033491
-0.646274 -0.983046 5.253090 71 255 177 0.035354
-0.646513 -0.974506 5.232430 84 255 164 0.042054
-0.625108 -0.988178 5.238250 80 255 167 0.039677
-0.606171 -1.010570 5.263530 67 255 180 0.034711
-0.664341 -0.958106 5.228040 87 255 161 0.043202
-0.671463 -0.944233 5.216100 122 255 126 0.061087
-0.668597 -0.933654 5.196710 155 255 93 0.083612
-0.642390 -0.963169 5.213560 103 255 145 0.050085
-0.622663 -1.023300 5.319370 80 255 167 0.040298
-0.609962 -1.032780 5.332400 93 255 155 0.045559
-0.606257 -1.040140 5.354240 103 255 145 0.050917
-0.594862 -1.049040 5.367040 106 255 142 0.052140
-0.611955 -1.044910 5.384090 103 255 145 0.050019
-0.625204 -1.034770 5.371150 96 255 151 0.048118
-0.628628 -1.027630 5.349160 93 255 155 0.045435
-0.642073 -1.017500 5.335620 71 255 177 0.036381
-0.568185 -1.058070 5.370500 96 255 151 0.046723
-0.552483 -1.063360 5.382100 87 255 161 0.042243
-0.543480 -1.066320 5.402820 80 255 167 0.040005
-0.559029 -1.062450 5.420200 84 255 164 0.041319
-0.567580 -1.059860 5.399570 90 255 158 0.044938
-0.585285 -1.053730 5.387920 96 255 151 0.048258
-0.580141 -1.053840 5.453360 80 255 167 0.040011
-0.599064 -1.047860 5.442140 90 255 158 0.043963
-0.609675 -1.044990 5.419000 96 255 151 0.047172
-0.629635 -1.037710 5.406060 93 255 155 0.045849
