ply
format ascii 1.0
comment VCGLIB generated
element vertex 994
property float x
property float y
property float z
property uchar red
property uchar green
property uchar blue
property float quality
end_header
-0.787751 -0.425813 6.863370 242 253 6 0.171496
-0.778980 -0.418105 6.876200 219 255 29 0.144749
-0.783575 -0.406546 6.894940 190 255 58 0.112390
-0.775624 -0.398761 6.908580 193 255 55 0.115866
-0.847405 -0.433880 6.841540 206 255 42 0.128717
-0.842978 -0.445371 6.824010 248 245 0 0.177675
-0.853030 -0.454338 6.807500 255 230 0 0.197331
-0.823674 -0.458479 6.806720 255 197 0 0.242266
-0.814856 -0.449048 6.823140 255 227 0 0.199956
-0.819657 -0.437972 6.839690 251 241 0 0.181654
-0.810433 -0.430167 6.852980 255 238 0 0.186645
-0.760678 -0.457648 6.794550 255 204 0 0.232112
-0.752847 -0.449671 6.807140 255 186 0 0.259438
-0.744642 -0.442240 6.818540 255 167 0 0.287171
-0.774864 -0.442466 6.827660 255 208 0 0.225916
-0.767089 -0.434356 6.839860 255 230 0 0.194705
-0.758969 -0.426585 6.852170 251 241 0 0.182717
-0.736912 -0.434258 6.830860 255 193 0 0.247824
-0.729685 -0.426153 6.843050 255 190 0 0.254622
-0.784390 -0.450027 6.814340 255 212 0 0.219110
-0.793541 -0.457516 6.801250 255 208 0 0.228185
-0.722459 -0.418165 6.855200 255 175 0 0.273121
-0.729182 -0.410279 6.874030 255 193 0 0.247950
-0.736166 -0.402091 6.893090 255 197 0 0.240323
-0.709978 -0.401749 6.881070 255 141 0 0.336634
-0.756837 -0.410318 6.884710 232 255 16 0.157194
-0.750827 -0.418706 6.865400 255 234 0 0.191783
-0.702522 -0.405657 6.860750 255 138 0 0.339398
-0.694601 -0.409620 6.840480 255 134 0 0.347937
-0.701038 -0.417368 6.828790 255 145 0 0.325842
-0.672376 -0.407310 6.815530 255 138 0 0.342621
-0.668668 -0.398831 6.828470 255 130 0 0.355565
-0.676746 -0.396187 6.847340 255 112 0 0.389077
-0.672836 -0.388546 6.860390 255 112 0 0.387827
-0.711611 -0.433077 6.804590 255 134 0 0.348902
-0.718456 -0.441481 6.792490 255 156 0 0.307872
-0.725985 -0.449771 6.780410 255 175 0 0.272976
-0.689598 -0.440220 6.767380 255 127 0 0.363672
-0.685214 -0.430742 6.779600 255 123 0 0.368992
-0.680972 -0.422554 6.791490 255 112 0 0.391438
-0.691435 -0.420213 6.809890 255 130 0 0.350711
-0.651880 -0.396827 6.771790 255 101 0 0.417940
-0.649661 -0.390504 6.784180 255 141 0 0.336108
-0.647948 -0.384236 6.796720 255 153 0 0.313923
-0.654099 -0.405624 6.759830 255 64 0 0.499352
-0.654709 -0.415924 6.748280 255 60 0 0.510292
-0.642360 -0.368261 6.821370 255 141 0 0.335548
-0.640758 -0.361398 6.834980 255 153 0 0.314552
-0.644916 -0.376057 6.809020 255 145 0 0.324160
-0.671489 -0.137592 6.661540 158 255 90 0.086884
-0.663817 -0.134643 6.676170 138 255 109 0.072488
-0.679773 -0.112532 6.685220 161 255 87 0.088941
-0.688146 -0.116350 6.670400 174 255 74 0.097548
-0.672190 -0.108843 6.700300 155 255 93 0.082274
-0.696313 -0.091955 6.696600 180 255 67 0.105415
-0.688176 -0.087459 6.711670 177 255 71 0.102707
-0.703599 -0.068028 6.722790 196 255 51 0.118589
-0.704932 -0.095780 6.680610 171 255 77 0.097303
-0.712588 -0.072843 6.707430 190 255 58 0.113447
-0.721553 -0.077789 6.691540 180 255 67 0.102970
-0.680227 -0.084115 6.726500 177 255 71 0.100894
-0.695352 -0.063721 6.739240 206 255 42 0.130498
-0.687196 -0.059774 6.755590 219 255 29 0.144737
-0.673493 -0.079553 6.742370 187 255 61 0.109148
-0.665772 -0.105128 6.715310 155 255 93 0.083601
-0.659232 -0.101016 6.730320 177 255 71 0.102919
-0.650829 -0.126658 6.706110 171 255 77 0.095332
-0.656909 -0.130692 6.691180 145 255 103 0.075628
-0.644549 -0.122823 6.720520 196 255 51 0.120072
-0.744319 -0.053912 6.722500 193 255 55 0.115445
-0.754520 -0.059620 6.702660 187 255 61 0.108761
-0.734011 -0.048259 6.740610 200 255 48 0.124278
-0.763812 -0.031725 6.753160 196 255 51 0.118566
-0.774389 -0.037413 6.733920 196 255 51 0.118524
-0.784575 -0.044223 6.713280 196 255 51 0.118613
-0.738950 -0.033948 6.765960 206 255 42 0.127832
-0.742951 -0.019658 6.794000 213 255 35 0.136314
-0.715780 -0.038227 6.775280 222 255 25 0.146107
-0.693997 -0.044366 6.784940 242 253 6 0.169016
-0.720684 -0.023026 6.806870 225 255 22 0.152109
-0.647942 -0.095627 6.763870 242 253 6 0.169392
-0.639170 -0.120161 6.737040 213 255 35 0.134860
-0.653247 -0.097883 6.747280 213 255 35 0.136062
-0.666906 -0.076429 6.759370 222 255 25 0.145757
-0.802073 -0.032891 6.741280 206 255 42 0.130892
-0.813676 -0.039708 6.719930 203 255 45 0.125555
-0.790567 -0.026678 6.762660 206 255 42 0.129205
-0.818449 -0.021072 6.769500 203 255 45 0.125263
-0.830379 -0.028189 6.745250 200 255 48 0.122996
-0.841477 -0.035971 6.723100 196 255 51 0.120352
-0.792824 -0.016965 6.788980 196 255 51 0.119479
-0.794036 -0.007136 6.817560 180 255 67 0.105251
-0.768504 -0.013128 6.806530 200 255 48 0.123322
-0.766512 -0.022406 6.778860 193 255 55 0.117711
-0.855015 -0.033590 6.749230 196 255 51 0.119968
-0.866342 -0.040992 6.724380 196 255 51 0.120494
-0.842716 -0.025544 6.774000 193 255 55 0.116388
-0.867189 -0.029194 6.774910 177 255 71 0.101717
-0.879150 -0.037711 6.749350 180 255 67 0.104300
-0.890739 -0.045653 6.723090 180 255 67 0.103107
-0.842046 -0.019825 6.800710 171 255 77 0.096981
-0.840642 -0.013653 6.829590 145 255 103 0.077048
-0.817816 -0.010851 6.823980 171 255 77 0.095449
-0.818604 -0.016013 6.795620 177 255 71 0.102369
-0.792261 -0.000869 6.850800 167 255 80 0.092867
-0.815079 -0.003307 6.858100 158 255 90 0.084542
-0.744990 -0.009737 6.825180 213 255 35 0.134887
-0.769735 -0.002427 6.839660 190 255 58 0.111903
0.371650 0.033417 6.568460 116 255 132 0.057189
0.389038 0.034934 6.550330 77 255 171 0.039260
0.365090 0.039164 6.539980 100 255 148 0.048425
0.407109 0.036009 6.531670 55 255 193 0.029614
0.383241 0.040202 6.521140 67 255 180 0.034362
0.401538 0.040519 6.501860 48 255 200 0.027685
0.425594 0.036646 6.512770 42 255 206 0.025681
0.359338 0.043505 6.510780 71 255 177 0.036318
0.377716 0.043691 6.491490 48 255 200 0.027500
0.353811 0.045757 6.480520 48 255 200 0.027627
0.336993 0.045321 6.500600 77 255 171 0.038660
0.342957 0.041804 6.530050 109 255 138 0.054112
0.320734 0.043389 6.519470 119 255 129 0.060499
0.327470 0.039320 6.547880 148 255 100 0.078771
0.349470 0.036794 6.558470 135 255 113 0.070268
0.334170 0.033340 6.575500 158 255 90 0.085983
0.305331 0.040822 6.537000 161 255 87 0.086955
0.312432 0.035151 6.564520 167 255 80 0.092187
0.290540 0.036015 6.553230 171 255 77 0.096614
0.356110 0.030400 6.586160 142 255 106 0.073725
0.440963 0.035286 6.493960 32 255 216 0.022633
0.457918 0.033444 6.475960 25 255 222 0.020984
0.431921 0.037127 6.463390 16 249 232 0.018205
0.475017 0.031447 6.458210 32 255 216 0.022773
0.448531 0.035173 6.444960 16 249 232 0.018848
0.465206 0.032483 6.426260 32 255 216 0.022515
0.492495 0.028231 6.440050 45 255 203 0.027121
0.423894 0.037878 6.432190 3 233 245 0.015651
0.440448 0.035645 6.413070 19 253 229 0.019598
0.415768 0.037981 6.399710 6 237 242 0.016049
0.400204 0.039562 6.419920 0 209 255 0.011950
0.408395 0.039517 6.451980 3 233 245 0.015337
0.384404 0.041128 6.440210 0 209 255 0.011934
0.392918 0.041435 6.471800 22 255 225 0.020461
0.416473 0.038675 6.482560 29 255 219 0.022173
0.368964 0.043542 6.460590 16 249 232 0.018564
0.315551 0.042167 6.346060 0 133 255 0.004223
0.300757 0.043526 6.367830 0 125 255 0.003674
0.325483 0.043543 6.380920 0 145 255 0.004994
0.310921 0.045392 6.402620 0 185 255 0.008950
0.286273 0.045361 6.389520 0 177 255 0.007847
0.335221 0.044879 6.415120 0 193 255 0.009620
0.296707 0.047889 6.424290 16 249 232 0.018748
0.320807 0.047304 6.436850 16 249 232 0.018577
0.306860 0.049498 6.457810 55 255 193 0.029825
0.272097 0.047926 6.411050 16 249 232 0.018787
0.282723 0.050205 6.445320 61 255 187 0.031869
0.258164 0.050219 6.431920 67 255 180 0.034823
0.344504 0.045921 6.448680 16 249 232 0.018244
0.330609 0.048042 6.469610 48 255 200 0.028265
0.360153 0.043399 6.427990 0 197 255 0.010347
0.375814 0.041303 6.407540 0 185 255 0.008841
0.351036 0.042828 6.394450 0 165 255 0.006634
0.367014 0.041084 6.373780 0 185 255 0.008808
0.391641 0.039842 6.387040 0 213 255 0.012155
0.341574 0.041911 6.359990 0 157 255 0.006016
0.243699 0.048411 6.451950 116 255 132 0.058428
0.266222 0.048843 6.464830 106 255 142 0.052521
0.252392 0.046189 6.483980 151 255 96 0.081801
0.230075 0.045584 6.470940 161 255 87 0.087679
0.274372 0.046245 6.496100 145 255 103 0.075694
0.239152 0.041540 6.501680 177 255 71 0.101052
0.260841 0.042160 6.513920 174 255 74 0.099443
0.247976 0.035533 6.530390 167 255 80 0.093384
0.217101 0.040243 6.488430 177 255 71 0.101267
0.226457 0.034210 6.518020 158 255 90 0.086560
0.204254 0.032151 6.504940 151 255 96 0.080315
0.282420 0.042204 6.525500 167 255 80 0.094572
0.269374 0.036087 6.541930 174 255 74 0.097922
0.297788 0.045106 6.508160 132 255 116 0.068556
0.313918 0.047285 6.489510 87 255 161 0.042716
0.290173 0.048455 6.477550 96 255 151 0.047530
-0.074441 -0.432522 6.797360 155 255 93 0.082104
-0.086208 -0.407704 6.795080 151 255 96 0.079971
-0.088161 -0.459991 6.793320 103 255 145 0.050076
-0.099893 -0.433575 6.790640 100 255 148 0.049193
-0.113329 -0.461488 6.786470 71 255 177 0.036551
-0.112220 -0.407822 6.788360 103 255 145 0.050991
-0.101737 -0.488254 6.789330 77 255 171 0.038705
-0.115324 -0.519452 6.787530 80 255 167 0.039616
-0.090410 -0.515556 6.792230 90 255 158 0.043863
-0.076822 -0.485167 6.794610 119 255 129 0.058822
-0.125387 -0.435104 6.784700 80 255 167 0.040233
-0.137871 -0.408567 6.782020 96 255 151 0.047004
-0.137910 -0.464257 6.780860 71 255 177 0.036336
-0.149955 -0.436867 6.777330 80 255 167 0.039655
-0.161996 -0.466294 6.772970 80 255 167 0.039377
-0.162619 -0.409399 6.772930 93 255 155 0.045397
-0.150663 -0.494851 6.778790 93 255 155 0.045903
-0.163578 -0.527857 6.777690 119 255 129 0.059252
-0.139463 -0.524110 6.783300 93 255 155 0.046281
-0.126258 -0.491501 6.784390 77 255 171 0.038440
-0.154460 -0.658618 6.761380 242 253 6 0.169414
-0.145080 -0.623110 6.767700 167 255 80 0.092373
-0.130424 -0.653307 6.764790 206 255 42 0.129979
-0.135499 -0.587773 6.774260 93 255 155 0.046465
-0.120839 -0.616768 6.771040 129 255 119 0.066433
-0.110904 -0.580871 6.777200 71 255 177 0.036295
-0.106582 -0.646066 6.767250 174 255 74 0.097478
-0.125360 -0.552717 6.780830 77 255 171 0.038217
-0.149045 -0.557598 6.776450 96 255 151 0.047055
-0.158911 -0.592305 6.769490 119 255 129 0.058985
-0.097289 -0.610772 6.774840 106 255 142 0.053271
-0.082757 -0.640795 6.771460 155 255 93 0.082548
-0.087085 -0.576023 6.781830 71 255 177 0.036153
-0.073024 -0.605856 6.779090 113 255 135 0.055861
-0.076953 -0.542653 6.788730 93 255 155 0.045412
-0.100900 -0.547094 6.784740 67 255 180 0.034988
0.123368 0.041511 6.251670 0 93 255 0.002206
0.111948 0.042890 6.272390 0 117 255 0.003317
0.133175 0.042985 6.282650 0 101 255 0.002632
0.121607 0.044843 6.302960 0 209 255 0.012148
0.100339 0.044735 6.292590 0 229 248 0.015143
0.143232 0.045034 6.313970 0 193 255 0.009975
0.110077 0.047233 6.323340 67 255 180 0.034445
0.131710 0.047122 6.334470 58 255 190 0.030700
0.120646 0.049202 6.354710 109 255 138 0.054595
0.089039 0.046974 6.312730 80 255 167 0.039767
0.098961 0.048919 6.343400 113 255 135 0.056378
0.077735 0.048210 6.332530 116 255 132 0.057119
0.153440 0.047083 6.345920 45 255 203 0.026972
0.142239 0.049244 6.366600 106 255 142 0.052311
0.164160 0.049284 6.379030 103 255 145 0.050019
0.176272 0.047118 6.358470 38 255 209 0.024398
0.165873 0.044966 6.325480 0 181 255 0.008270
0.188902 0.044978 6.337690 0 173 255 0.007505
0.178786 0.043093 6.304700 0 85 255 0.001923
0.155920 0.042925 6.293560 0 93 255 0.002131
0.168878 0.041872 6.272770 0 73 255 0.001494
0.202221 0.042971 6.316110 0 85 255 0.001938
0.192178 0.041843 6.283490 0 73 255 0.001530
0.215702 0.041808 6.294450 0 77 255 0.001673
0.145842 0.041816 6.262130 0 81 255 0.001717
0.065587 0.044118 6.352900 119 255 129 0.060542
0.086055 0.045329 6.363150 132 255 116 0.066723
0.073925 0.039456 6.383360 122 255 126 0.060597
0.053111 0.038208 6.373240 96 255 151 0.047672
0.094963 0.040751 6.394030 138 255 109 0.071197
0.061736 0.032124 6.403550 84 255 164 0.041736
0.082974 0.033302 6.414140 109 255 138 0.053624
0.071009 0.024103 6.433950 71 255 177 0.036233
0.040820 0.030823 6.393550 61 255 187 0.032065
0.049747 0.023305 6.423810 48 255 200 0.028045
0.028338 0.022451 6.414230 22 255 225 0.020098
0.104650 0.034415 6.424910 129 255 119 0.065454
0.092591 0.025206 6.444600 90 255 158 0.044122
0.114584 0.026330 6.455430 106 255 142 0.052033
0.127423 0.035503 6.437020 145 255 103 0.077100
0.117501 0.041796 6.405880 151 255 96 0.080882
0.140015 0.042729 6.418190 161 255 87 0.088795
0.129933 0.046710 6.386580 142 255 106 0.073824
0.107877 0.046138 6.374540 138 255 109 0.071438
0.152040 0.047213 6.399130 142 255 106 0.074822
0.194088 0.039964 6.475280 174 255 74 0.100038
0.207085 0.045810 6.457800 167 255 80 0.093406
0.183799 0.045352 6.444150 171 255 77 0.096274
0.220555 0.049038 6.439140 129 255 119 0.065475
0.197098 0.048996 6.425840 138 255 109 0.071587
0.211372 0.050528 6.406020 87 255 161 0.043464
0.234926 0.050536 6.419210 77 255 171 0.038872
0.173796 0.048434 6.412210 142 255 106 0.074533
0.187729 0.050058 6.392540 96 255 151 0.047283
0.161850 0.044237 6.431020 167 255 80 0.094564
0.149710 0.037358 6.449470 161 255 87 0.087724
0.172022 0.038814 6.462200 171 255 77 0.095985
0.159912 0.029917 6.480230 129 255 119 0.066162
0.137310 0.028092 6.467550 119 255 129 0.059244
0.182448 0.031225 6.492750 142 255 106 0.073359
0.247424 0.048451 6.397900 22 255 225 0.019866
0.261576 0.045889 6.376560 0 173 255 0.007730
0.236350 0.045854 6.363170 0 177 255 0.007850
0.275883 0.043836 6.354800 0 109 255 0.003007
0.250832 0.043865 6.341800 0 105 255 0.002739
0.265570 0.042751 6.319970 0 97 255 0.002351
0.290770 0.042765 6.333050 0 109 255 0.002970
0.225961 0.043509 6.328530 0 97 255 0.002352
0.240777 0.042455 6.307020 0 85 255 0.001888
0.212547 0.045560 6.350390 0 173 255 0.007739
0.199689 0.048053 6.371860 32 255 216 0.023065
0.223731 0.048401 6.384940 29 255 219 0.021578
0.190180 0.018328 6.521120 87 255 161 0.043594
0.210751 0.020615 6.533370 96 255 151 0.048031
0.196613 0.004957 6.548630 45 255 203 0.026954
0.175676 0.002141 6.536830 61 255 187 0.031872
0.216897 0.007429 6.560300 42 255 206 0.025240
0.181702 -0.010777 6.564960 80 255 167 0.040574
0.202250 -0.008747 6.575810 61 255 187 0.031691
0.186569 -0.023014 6.593750 103 255 145 0.050491
0.160397 -0.013127 6.554010 96 255 151 0.046750
0.165507 -0.024194 6.583870 106 255 142 0.052314
0.144006 -0.025669 6.573640 96 255 151 0.047432
0.222299 -0.006275 6.586940 35 255 213 0.024093
0.207327 -0.021634 6.604050 93 255 155 0.045472
0.227597 -0.020379 6.614740 77 255 171 0.038414
0.243984 -0.003954 6.598600 19 253 229 0.019570
0.238380 0.010258 6.572380 48 255 200 0.027633
0.259550 0.011672 6.584040 67 255 180 0.035297
0.253895 0.024337 6.557500 132 255 116 0.066534
0.232610 0.022615 6.545640 113 255 135 0.056249
0.274961 0.025050 6.568900 145 255 103 0.075560
0.126340 -0.036488 6.597050 48 255 200 0.027602
0.146220 -0.037270 6.606160 74 255 174 0.036865
0.127790 -0.045515 6.630490 38 255 209 0.024597
0.107573 -0.044861 6.621360 13 245 235 0.017971
0.147927 -0.046931 6.639390 58 255 190 0.031490
0.109206 -0.056163 6.653660 45 255 203 0.026688
0.129097 -0.057734 6.663250 61 255 187 0.032475
0.110502 -0.068946 6.686370 61 255 187 0.032402
0.089215 -0.054786 6.644510 22 255 225 0.020080
0.090865 -0.066931 6.676330 42 255 206 0.026077
0.071480 -0.064879 6.666260 22 255 225 0.020455
0.148537 -0.059162 6.673090 71 255 177 0.036270
0.130473 -0.071121 6.695970 77 255 171 0.038624
0.150645 -0.072355 6.704970 84 255 164 0.041345
0.170281 -0.061449 6.682130 77 255 171 0.039103
0.169233 -0.048313 6.648730 77 255 171 0.038347
0.190074 -0.050711 6.657380 87 255 161 0.043044
0.188584 -0.037966 6.624610 100 255 148 0.049005
0.167550 -0.038041 6.615040 87 255 161 0.043612
0.209191 -0.037740 6.634490 103 255 145 0.051243
0.227236 -0.066039 6.710890 74 255 174 0.037373
0.248088 -0.053168 6.687860 96 255 151 0.047674
0.227375 -0.052934 6.677670 96 255 151 0.048013
0.268613 -0.036092 6.666900 84 255 164 0.040723
0.248308 -0.036678 6.655910 93 255 155 0.045956
0.267889 -0.016592 6.637870 45 255 203 0.026872
0.287755 -0.016018 6.649530 45 255 203 0.026743
0.227801 -0.037654 6.644980 103 255 145 0.049988
0.248099 -0.018353 6.626260 58 255 190 0.031228
0.208810 -0.052416 6.667370 93 255 155 0.045284
0.189854 -0.062897 6.691540 77 255 171 0.039083
0.208545 -0.064806 6.701550 77 255 171 0.038638
0.189825 -0.075502 6.724930 74 255 174 0.037924
0.170329 -0.073256 6.715160 77 255 171 0.039114
0.209169 -0.077273 6.733970 67 255 180 0.034186
0.303426 -0.000608 6.633790 71 255 177 0.035435
0.320731 0.012280 6.618690 129 255 119 0.065287
0.299016 0.013359 6.607180 113 255 135 0.055260
0.338241 0.022547 6.602740 151 255 96 0.081432
0.316524 0.024636 6.591680 155 255 93 0.083396
0.294808 0.025417 6.580300 151 255 96 0.080482
0.279356 0.012826 6.595700 93 255 155 0.045201
0.264039 -0.002185 6.610540 25 255 222 0.020912
0.283815 -0.000630 6.622290 45 255 203 0.026574
0.506242 0.022602 6.421900 55 255 193 0.029607
0.520718 0.015866 6.404140 51 255 196 0.028312
0.491978 0.021116 6.388730 42 255 206 0.025858
0.535191 0.007925 6.386550 42 255 206 0.025385
0.505902 0.013317 6.370350 38 255 209 0.024350
0.519487 0.004557 6.352490 29 255 219 0.021675
0.549404 -0.000758 6.369170 35 255 213 0.023506
0.480024 0.018679 6.356010 35 255 213 0.023808
0.493327 0.010197 6.337830 19 253 229 0.019680
0.468401 0.014889 6.323370 32 255 216 0.022406
0.455563 0.022276 6.341900 45 255 203 0.026743
0.466532 0.025522 6.375050 38 255 209 0.024988
0.442335 0.028736 6.361000 42 255 206 0.025443
0.453480 0.030904 6.393980 35 255 213 0.023594
0.478497 0.027378 6.407430 42 255 206 0.025459
0.429073 0.033785 6.380280 25 255 222 0.021280
0.560528 -0.011307 6.351690 29 255 219 0.022298
0.571688 -0.021319 6.334070 58 255 190 0.031049
0.540578 -0.016164 6.317560 32 255 216 0.023254
0.583078 -0.030179 6.316600 116 255 132 0.057996
0.551663 -0.025999 6.300010 100 255 148 0.049283
0.562690 -0.034201 6.282540 167 255 80 0.092983
0.594143 -0.037468 6.299070 174 255 74 0.098540
0.525361 -0.020444 6.286090 51 255 196 0.029148
0.536240 -0.029281 6.268830 142 255 106 0.073186
0.510881 -0.024565 6.255700 93 255 155 0.045325
0.500253 -0.015751 6.272370 0 221 255 0.013359
0.514607 -0.010956 6.303060 0 213 255 0.012485
0.489687 -0.005845 6.289080 0 169 255 0.007245
0.503933 -0.000375 6.320070 0 225 251 0.014281
0.530030 -0.006059 6.334890 19 253 229 0.019035
0.479129 0.004635 6.306100 0 225 251 0.014305
0.408751 -0.009175 6.201880 0 217 255 0.013288
0.399014 0.000024 6.217840 0 161 255 0.006612
0.424654 -0.002629 6.232010 0 165 255 0.006664
0.414824 0.006880 6.247990 0 217 255 0.012954
0.389130 0.009692 6.233700 3 233 245 0.015801
0.440216 0.003323 6.261940 0 201 255 0.010767
0.404624 0.016157 6.264230 42 255 206 0.025913
0.430017 0.012839 6.278290 32 255 216 0.022395
0.419635 0.022107 6.295390 55 255 193 0.029774
0.378955 0.018863 6.249900 55 255 193 0.029430
0.394242 0.024775 6.281070 61 255 187 0.032244
0.368423 0.027037 6.266710 67 255 180 0.034201
0.454652 0.009260 6.292490 16 249 232 0.018670
0.444267 0.018878 6.309650 45 255 203 0.026875
0.465273 -0.000910 6.275660 0 181 255 0.008518
0.475686 -0.010880 6.259310 0 185 255 0.008731
0.450624 -0.006806 6.245810 0 169 255 0.007361
0.461077 -0.015604 6.229640 25 255 222 0.020815
0.486068 -0.019790 6.242860 51 255 196 0.028424
0.435026 -0.012121 6.215850 6 237 242 0.016369
0.355702 0.031981 6.285460 51 255 196 0.028517
0.381055 0.030592 6.299440 51 255 196 0.029121
0.367984 0.034976 6.319270 19 253 229 0.019268
0.342571 0.035765 6.305180 6 237 242 0.016602
0.393275 0.033565 6.333180 29 255 219 0.022079
0.354683 0.038571 6.339550 0 197 255 0.010420
0.380165 0.037689 6.353360 0 225 251 0.013979
0.328760 0.038925 6.325690 0 173 255 0.007605
0.404660 0.036176 6.366930 13 245 235 0.017743
0.418265 0.031386 6.347150 38 255 209 0.024389
0.431350 0.025798 6.328060 51 255 196 0.028726
0.406692 0.028389 6.313770 51 255 196 0.029315
0.016360 -0.813628 6.635670 255 182 0 0.262476
0.015467 -0.796586 6.664140 255 197 0 0.239885
0.040877 -0.809594 6.645150 255 186 0 0.260168
0.016373 -0.777518 6.689180 255 238 0 0.188496
0.041261 -0.792414 6.671950 255 212 0 0.219169
0.043081 -0.772792 6.696410 235 255 13 0.162367
0.066203 -0.807539 6.654100 255 201 0 0.235060
0.018684 -0.756523 6.712700 229 255 19 0.155436
0.020925 -0.734966 6.736590 232 255 16 0.159937
-0.005544 -0.739131 6.729400 232 255 16 0.159973
-0.007749 -0.761000 6.706230 242 253 6 0.171566
-0.009340 -0.781729 6.682510 255 223 0 0.204147
-0.031576 -0.743885 6.723280 238 255 9 0.166766
0.079461 -0.808533 6.659630 255 216 0 0.217840
0.067681 -0.791478 6.680430 245 249 3 0.176616
0.081578 -0.792723 6.685470 225 255 22 0.150496
0.092858 -0.810186 6.665170 255 227 0 0.202958
0.070463 -0.774768 6.706320 206 255 42 0.128853
0.095350 -0.794037 6.691380 213 255 35 0.135730
0.084734 -0.775236 6.712010 187 255 61 0.110807
0.106409 -0.812701 6.670710 255 234 0 0.193671
0.073455 -0.756021 6.732640 203 255 45 0.126612
0.048216 -0.735514 6.747420 225 255 22 0.150971
0.045731 -0.754509 6.721620 219 255 29 0.143061
0.021288 -0.656751 6.787410 177 255 71 0.101351
0.028671 -0.684065 6.776230 187 255 61 0.109131
0.002643 -0.684156 6.766420 203 255 45 0.127144
-0.004381 -0.657080 6.778370 193 255 55 0.116495
0.024312 -0.710487 6.757090 219 255 29 0.143591
-0.029567 -0.661065 6.771710 193 255 55 0.117425
-0.022943 -0.688614 6.759170 209 255 38 0.132061
-0.047556 -0.691994 6.752600 203 255 45 0.127014
-0.053533 -0.664136 6.764960 187 255 61 0.110958
-0.027803 -0.716585 6.741550 222 255 25 0.147827
-0.001749 -0.712109 6.748050 225 255 22 0.151239
0.132107 -0.817561 6.405670 255 127 0 0.359757
0.132416 -0.812489 6.438200 255 171 0 0.280101
0.158977 -0.813455 6.420510 255 97 0 0.425632
0.130736 -0.814495 6.472420 248 245 0 0.179306
0.158281 -0.812294 6.453910 255 167 0 0.287122
0.155493 -0.816592 6.488350 216 255 32 0.141054
0.185387 -0.815385 6.436570 255 101 0 0.413753
0.127776 -0.817744 6.507230 187 255 61 0.111557
0.123768 -0.824877 6.543270 196 255 51 0.120064
0.099495 -0.822704 6.528950 200 255 48 0.122890
0.102957 -0.817349 6.492830 213 255 35 0.135646
0.105241 -0.814973 6.457840 255 238 0 0.185613
0.074999 -0.823172 6.515020 196 255 51 0.118873
0.199678 -0.818971 6.445660 255 149 0 0.316794
0.184206 -0.819313 6.470920 255 204 0 0.233463
0.197765 -0.824293 6.480360 229 255 19 0.154109
0.213230 -0.824488 6.455060 248 245 0 0.180693
0.181155 -0.827052 6.506410 171 255 77 0.097117
0.210258 -0.832144 6.489980 148 255 100 0.078474
0.193913 -0.833839 6.515930 125 255 122 0.063175
0.225821 -0.832848 6.464450 132 255 116 0.067261
0.177151 -0.836971 6.542480 151 255 96 0.080919
0.160781 -0.840121 6.569520 200 255 48 0.121749
0.164377 -0.831348 6.533280 155 255 93 0.083178
0.148031 -0.835016 6.560600 193 255 55 0.116516
0.152033 -0.825471 6.524120 174 255 74 0.098285
0.168453 -0.822406 6.497450 177 255 71 0.101353
0.136079 -0.829392 6.551930 193 255 55 0.115859
0.118427 -0.823971 6.646500 255 216 0 0.214929
0.104948 -0.820821 6.639950 255 212 0 0.222407
0.118227 -0.829629 6.614260 255 230 0 0.198188
0.092167 -0.818534 6.634120 255 208 0 0.225679
0.105903 -0.825039 6.607130 255 227 0 0.199346
0.093343 -0.822022 6.599920 255 227 0 0.200156
0.079152 -0.816704 6.628240 255 201 0 0.234611
0.120799 -0.828471 6.578910 229 255 19 0.155564
0.108193 -0.825094 6.571850 235 255 13 0.160687
0.132735 -0.833214 6.586920 235 255 13 0.161420
0.145389 -0.838143 6.595540 238 255 9 0.165901
0.131069 -0.832939 6.621530 255 230 0 0.197701
0.054801 -0.817402 6.616780 255 193 0 0.248084
0.069613 -0.822473 6.587690 255 227 0 0.202814
0.045155 -0.824538 6.576190 255 238 0 0.189182
0.030363 -0.820139 6.606200 255 197 0 0.241773
0.072190 -0.824202 6.551310 222 255 25 0.147135
0.054490 -0.077186 6.687870 38 255 209 0.024486
0.072114 -0.080709 6.697250 35 255 213 0.023306
0.055348 -0.091242 6.718830 119 255 129 0.060275
0.037980 -0.087737 6.709130 142 255 106 0.074199
0.073151 -0.095621 6.727820 90 255 158 0.044093
0.039291 -0.102545 6.739750 232 255 16 0.159039
0.057834 -0.106646 6.748000 196 255 51 0.120183
0.042112 -0.117690 6.768310 255 208 0 0.226058
0.022308 -0.099318 6.729640 242 253 6 0.169560
0.024309 -0.115441 6.758790 255 178 0 0.270448
0.006674 -0.112659 6.749260 255 175 0 0.273016
0.076108 -0.111349 6.756440 145 255 103 0.076524
0.060094 -0.122204 6.776450 242 253 6 0.169444
0.078106 -0.127118 6.784650 187 255 61 0.111438
0.096423 -0.116397 6.764750 106 255 142 0.052799
0.093880 -0.100389 6.736190 64 255 184 0.034048
0.114299 -0.103619 6.745600 58 255 190 0.031145
0.112270 -0.086682 6.716570 55 255 193 0.029400
0.091910 -0.083717 6.706710 42 255 206 0.025231
0.132907 -0.089287 6.725600 64 255 184 0.033728
-0.004462 -0.134997 6.762250 255 153 0 0.312290
0.001129 -0.159076 6.782530 255 153 0 0.312517
-0.005274 -0.183531 6.788700 255 204 0 0.229433
0.002343 -0.206807 6.805260 255 227 0 0.202487
-0.023535 -0.209708 6.781760 209 255 38 0.132563
0.022385 -0.182869 6.810910 255 145 0 0.326649
0.028565 -0.205772 6.827840 255 160 0 0.300059
0.037677 -0.183424 6.822290 255 127 0 0.359913
0.032335 -0.160315 6.803570 255 130 0 0.351719
0.049362 -0.162007 6.812900 255 149 0 0.316704
0.045441 -0.139645 6.792040 255 182 0 0.261983
0.028041 -0.136832 6.782710 255 156 0 0.306437
0.063319 -0.143771 6.800420 248 245 0 0.180844
0.084772 -0.190509 6.849120 255 167 0 0.286382
0.100767 -0.173326 6.837840 225 255 22 0.149175
0.082337 -0.169484 6.829430 255 186 0 0.257692
0.117335 -0.156639 6.823950 142 255 106 0.073867
0.098912 -0.152932 6.816180 193 255 55 0.114944
0.115407 -0.135741 6.801370 125 255 122 0.063793
0.134698 -0.139375 6.809750 100 255 148 0.048959
0.096802 -0.131387 6.792910 161 255 87 0.087445
0.056947 -0.207465 6.849010 255 138 0 0.338037
0.150970 -0.125319 6.793460 71 255 177 0.036082
0.169812 -0.109720 6.775830 61 255 187 0.031782
0.150547 -0.108284 6.765440 61 255 187 0.032182
0.188615 -0.092825 6.756280 64 255 184 0.033728
0.169675 -0.091881 6.746460 71 255 177 0.035598
0.150513 -0.091307 6.735910 71 255 177 0.035886
0.132627 -0.106744 6.755400 61 255 187 0.032079
0.114405 -0.120261 6.774320 96 255 151 0.047742
0.133416 -0.122973 6.783510 84 255 164 0.041169
-0.025281 -0.238298 6.782060 213 255 35 0.136591
-0.015038 -0.264969 6.792620 180 255 67 0.105224
-0.018142 -0.290305 6.793170 225 255 22 0.151685
-0.011278 -0.313875 6.804800 255 227 0 0.201773
-0.037699 -0.314632 6.788490 255 238 0 0.189839
0.005760 -0.289036 6.813660 200 255 48 0.121201
0.012934 -0.312655 6.824360 238 255 9 0.168023
0.009539 -0.262822 6.814330 187 255 61 0.110209
0.012217 -0.234356 6.816020 238 255 9 0.166861
-0.042335 -0.338745 6.791110 255 234 0 0.193792
-0.034185 -0.362115 6.800350 255 227 0 0.202931
-0.040469 -0.384848 6.803800 255 234 0 0.193083
-0.015319 -0.384204 6.816770 255 227 0 0.202386
-0.007831 -0.361958 6.814240 255 212 0 0.220665
-0.002199 -0.338393 6.812870 255 216 0 0.217087
0.027399 -0.381757 6.857300 219 255 29 0.142226
0.024631 -0.359693 6.844820 248 245 0 0.177312
0.040025 -0.333805 6.858460 206 255 42 0.127755
0.034049 -0.310011 6.848700 206 255 42 0.129472
0.020695 -0.336667 6.833380 255 238 0 0.188760
0.007183 -0.382913 6.835010 255 230 0 0.197687
0.050276 -0.285623 6.860590 200 255 48 0.123670
0.044503 -0.261605 6.848930 245 249 3 0.175087
0.063280 -0.234700 6.860900 255 160 0 0.299652
0.036950 -0.234485 6.838520 255 197 0 0.241587
0.028646 -0.287315 6.836840 187 255 61 0.110813
0.581470 -1.005280 6.697150 93 255 155 0.046031
0.587629 -1.000780 6.718030 87 255 161 0.042452
0.601710 -1.000940 6.724400 100 255 148 0.049139
0.606948 -0.999477 6.745260 90 255 158 0.044949
0.623625 -1.005560 6.716800 109 255 138 0.054273
0.584892 -0.994631 6.753350 77 255 171 0.039171
0.590407 -0.992361 6.774090 77 255 171 0.038310
0.573138 -0.989700 6.772280 67 255 180 0.035186
0.567180 -0.993219 6.751810 67 255 180 0.035345
0.555400 -0.988364 6.770700 58 255 190 0.031500
0.549216 -0.993291 6.750600 71 255 177 0.035891
0.560999 -0.997985 6.731120 84 255 164 0.041531
0.537223 -0.988529 6.769480 64 255 184 0.033626
0.637675 -0.999944 6.721420 103 255 145 0.051225
0.646389 -0.993941 6.735250 93 255 155 0.046496
0.660467 -0.990434 6.740190 96 255 151 0.048093
0.671197 -0.985322 6.755090 106 255 142 0.053137
0.680204 -0.988853 6.736870 113 255 135 0.055855
0.651534 -0.986774 6.758610 90 255 158 0.043870
0.662781 -0.981324 6.773560 90 255 158 0.043847
0.633683 -0.988835 6.758510 71 255 177 0.036273
0.616414 -0.991589 6.759050 87 255 161 0.043314
0.650589 -0.975890 6.812640 71 255 177 0.035716
0.627715 -0.976476 6.815670 48 255 200 0.028238
0.612914 -0.980124 6.805910 77 255 171 0.038358
0.592175 -0.981896 6.810720 109 255 138 0.054413
0.577345 -0.987822 6.801940 87 255 161 0.043333
0.563836 -0.981922 6.829170 106 255 142 0.052048
0.604850 -0.986968 6.782910 80 255 167 0.040425
0.622519 -0.983995 6.782240 61 255 187 0.032751
0.640066 -0.981832 6.782040 64 255 184 0.033788
0.656631 -0.978878 6.793100 71 255 177 0.036068
0.539051 -0.974536 6.836600 96 255 151 0.048204
0.553741 -0.982044 6.813700 87 255 161 0.042975
0.528225 -0.976216 6.821600 77 255 171 0.038844
0.513506 -0.968640 6.844510 145 255 103 0.076668
0.542864 -0.983295 6.798570 71 255 177 0.036377
0.501842 -0.971767 6.829550 135 255 113 0.068921
0.516501 -0.978868 6.806560 67 255 180 0.034842
0.487531 -0.964544 6.852610 209 255 38 0.133133
0.673169 -0.966143 6.804460 90 255 158 0.044124
0.678356 -0.968834 6.784330 100 255 148 0.049796
0.688078 -0.973077 6.758880 119 255 129 0.059432
0.696495 -0.976502 6.740430 122 255 126 0.061168
0.624505 -0.971956 6.839140 42 255 206 0.025494
0.649561 -0.972296 6.833160 61 255 187 0.032348
0.601846 -0.972023 6.846410 77 255 171 0.039050
0.599253 -0.967681 6.866030 71 255 177 0.035904
0.623151 -0.967673 6.859810 25 255 222 0.021165
0.648853 -0.968113 6.854340 45 255 203 0.026545
0.578026 -0.970220 6.863920 122 255 126 0.062011
0.554777 -0.969297 6.881770 132 255 116 0.066867
0.559369 -0.975875 6.855390 122 255 126 0.062355
0.583008 -0.976373 6.837650 119 255 129 0.060562
0.625484 -0.962916 6.882040 25 255 222 0.020991
0.601297 -0.961786 6.890820 67 255 180 0.035314
0.602435 -0.956941 6.910000 80 255 167 0.040292
0.578607 -0.958697 6.909340 119 255 129 0.060551
0.556191 -0.955893 6.928000 129 255 119 0.065628
0.555257 -0.963006 6.904330 132 255 116 0.066814
0.576938 -0.965157 6.885050 119 255 129 0.059808
0.475981 -0.919631 6.981870 225 255 22 0.150895
0.496271 -0.931453 6.957380 206 255 42 0.130426
0.472617 -0.929639 6.956710 235 255 13 0.161670
0.515570 -0.943665 6.932220 164 255 84 0.091308
0.492766 -0.940338 6.932080 222 255 25 0.147596
0.512565 -0.951742 6.906910 174 255 74 0.098871
0.467949 -0.938979 6.931300 242 253 6 0.172555
0.535302 -0.956453 6.906910 132 255 116 0.066984
0.535407 -0.948975 6.929380 125 255 122 0.063152
0.516044 -0.935486 6.954570 155 255 93 0.083435
0.466682 -0.944831 6.913690 251 241 0 0.185337
0.492386 -0.948651 6.906220 229 255 19 0.152801
0.491008 -0.953994 6.888380 229 255 19 0.153095
0.464440 -0.950698 6.895760 255 234 0 0.193399
0.516032 -0.959104 6.880480 167 255 80 0.093812
0.489637 -0.959347 6.870540 225 255 22 0.150853
0.514998 -0.963797 6.862550 155 255 93 0.083237
0.462429 -0.956494 6.877970 251 241 0 0.184133
0.539981 -0.970219 6.854660 122 255 126 0.061387
0.535751 -0.963445 6.880880 129 255 119 0.066493
0.524220 -0.869930 7.073840 164 255 84 0.091298
0.537843 -0.885392 7.054910 193 255 55 0.114978
0.514331 -0.878353 7.058760 171 255 77 0.096393
0.527563 -0.892963 7.039470 177 255 71 0.102422
0.545973 -0.904426 7.027760 155 255 93 0.084041
0.505067 -0.886167 7.045010 177 255 71 0.101068
0.559522 -0.919621 7.008350 103 255 145 0.050907
0.418439 -0.708304 7.130740 90 255 158 0.044894
0.422832 -0.742581 7.114940 103 255 145 0.049918
0.406053 -0.716780 7.120210 113 255 135 0.056671
0.410341 -0.751059 7.103880 125 255 122 0.062877
0.427309 -0.777786 7.097690 145 255 103 0.076768
0.431544 -0.812650 7.079010 180 255 67 0.105735
0.442231 -0.803273 7.090820 161 255 87 0.088640
0.437943 -0.767485 7.109210 122 255 126 0.061967
0.433345 -0.731991 7.125980 74 255 174 0.037748
0.451816 -0.793378 7.102890 142 255 106 0.073011
0.394079 -0.727271 7.107740 145 255 103 0.077268
0.399832 -0.763071 7.088830 164 255 84 0.089740
0.380897 -0.737350 7.093710 174 255 74 0.097798
0.386608 -0.772624 7.074190 180 255 67 0.103908
0.405649 -0.798881 7.068430 206 255 42 0.128875
0.410955 -0.834275 7.046820 225 255 22 0.149482
0.421650 -0.823416 7.063000 216 255 32 0.139178
0.416344 -0.787496 7.084210 177 255 71 0.100500
0.465074 -0.893489 7.006800 213 255 35 0.136018
0.482056 -0.910821 6.999050 219 255 29 0.144299
0.454114 -0.866964 7.031580 187 255 61 0.110496
0.471478 -0.883979 7.023830 193 255 55 0.115871
0.460746 -0.856735 7.048420 158 255 90 0.084513
0.488039 -0.902058 7.016430 200 255 48 0.122870
0.442953 -0.839950 7.055630 187 255 61 0.110229
0.433215 -0.849892 7.039440 206 255 42 0.130364
0.444504 -0.876050 7.014970 196 255 51 0.119781
0.479547 -0.875488 7.038990 164 255 84 0.091609
0.496205 -0.894060 7.030130 190 255 58 0.113211
0.470751 -0.848557 7.061140 132 255 116 0.067974
0.487523 -0.866663 7.052660 151 255 96 0.080704
0.478520 -0.839043 7.074400 116 255 132 0.057344
0.461828 -0.821199 7.082710 138 255 109 0.070853
0.451621 -0.830174 7.069970 158 255 90 0.084812
0.519921 -0.900137 7.025060 174 255 74 0.097628
0.534800 -0.914602 7.005000 145 255 103 0.075736
0.510975 -0.907437 7.010140 174 255 74 0.099216
0.526054 -0.920861 6.990160 132 255 116 0.067816
0.550067 -0.929011 6.985060 106 255 142 0.051695
0.565453 -0.943633 6.964760 135 255 113 0.068724
0.571544 -0.937721 6.980280 132 255 116 0.068377
0.505069 -0.914953 6.994500 187 255 61 0.110865
0.522315 -0.928207 6.972740 142 255 106 0.074827
0.499407 -0.922994 6.977140 200 255 48 0.123311
0.539213 -0.941887 6.950520 119 255 129 0.059863
0.560528 -0.949870 6.946070 135 255 113 0.069683
0.543356 -0.935196 6.968240 109 255 138 0.054992
0.608297 -0.951431 6.929380 113 255 135 0.056635
0.586520 -0.947237 6.947020 148 255 100 0.079379
0.581454 -0.953170 6.928030 135 255 113 0.068619
0.333214 -0.780369 7.021650 177 255 71 0.100644
0.347408 -0.810223 7.002280 125 255 122 0.062825
0.353267 -0.805612 7.013540 151 255 96 0.081034
0.362469 -0.839494 6.983150 155 255 93 0.083169
0.367737 -0.835684 6.994920 167 255 80 0.092186
0.382432 -0.865444 6.975670 196 255 51 0.120658
0.377458 -0.868976 6.964240 187 255 61 0.110845
0.373270 -0.831833 7.006890 190 255 58 0.112002
0.387291 -0.862160 6.987660 209 255 38 0.132891
0.391945 -0.858755 6.999560 216 255 32 0.138882
0.364611 -0.798218 7.033390 177 255 71 0.101286
0.344916 -0.771858 7.040070 180 255 67 0.105031
0.398158 -0.886649 6.947300 148 255 100 0.078825
0.420793 -0.909459 6.924620 151 255 96 0.079724
0.422800 -0.902399 6.941950 164 255 84 0.090929
0.442392 -0.932725 6.901600 216 255 32 0.141387
0.444221 -0.926276 6.918980 213 255 35 0.135959
0.446412 -0.920067 6.936670 206 255 42 0.128793
0.450262 -0.918484 6.948680 216 255 32 0.138952
0.427202 -0.900449 6.953930 161 255 87 0.089101
0.431311 -0.898215 6.965850 180 255 67 0.105542
0.407345 -0.881093 6.970700 180 255 67 0.103434
0.402657 -0.883649 6.958700 171 255 77 0.095973
0.412012 -0.878417 6.982900 196 255 51 0.118817
0.457370 -0.902755 6.986840 219 255 29 0.143600
0.436889 -0.886894 6.991420 203 255 45 0.124885
0.423977 -0.860869 7.019620 213 255 35 0.137270
0.401636 -0.846623 7.023170 229 255 19 0.155198
0.393716 -0.808585 7.051910 213 255 35 0.135610
0.375046 -0.783930 7.055980 187 255 61 0.111342
0.368305 -0.748304 7.078170 184 255 64 0.106893
0.356291 -0.760337 7.060510 180 255 67 0.103228
0.383995 -0.822094 7.028830 216 255 32 0.138900
0.497059 -0.858835 7.066140 135 255 113 0.070313
0.489591 -0.831319 7.087030 103 255 145 0.051453
0.506646 -0.849760 7.080340 125 255 122 0.062893
0.498881 -0.821102 7.100940 100 255 148 0.048670
0.481408 -0.802769 7.107020 116 255 132 0.057282
0.473674 -0.775136 7.126250 116 255 132 0.057213
0.462165 -0.784313 7.113660 125 255 122 0.063968
0.470114 -0.811684 7.094330 119 255 129 0.060484
0.517456 -0.841886 7.094680 119 255 129 0.060314
0.498347 -0.790855 7.127110 116 255 132 0.058649
0.486028 -0.767371 7.139170 109 255 138 0.053895
0.468843 -0.676544 7.175220 64 255 184 0.033812
0.470412 -0.708817 7.160010 58 255 190 0.031568
0.455990 -0.683673 7.163050 64 255 184 0.034088
0.457644 -0.715501 7.147740 64 255 184 0.033354
0.472465 -0.742030 7.143760 84 255 164 0.041685
0.484587 -0.733137 7.156570 77 255 171 0.038127
0.443077 -0.691957 7.151470 74 255 174 0.037735
0.444842 -0.724770 7.135630 71 255 177 0.035426
0.429814 -0.699106 7.140640 80 255 167 0.039328
0.448339 -0.758641 7.119910 103 255 145 0.051498
0.459211 -0.749404 7.130890 96 255 151 0.046918
-1.052980 -0.127704 6.265930 13 245 235 0.017687
-1.038620 -0.124975 6.281100 22 255 225 0.020258
-1.058730 -0.131298 6.286360 16 249 232 0.018427
-1.024330 -0.122967 6.295560 58 255 190 0.031056
-1.044800 -0.127757 6.301340 35 255 213 0.023444
-1.030630 -0.125682 6.315380 64 255 184 0.033667
-1.064640 -0.132310 6.307040 19 253 229 0.019487
-1.010140 -0.120847 6.309040 84 255 164 0.040898
-0.997044 -0.118989 6.322390 122 255 126 0.061297
-0.985982 -0.111178 6.295560 106 255 142 0.053032
-1.000610 -0.113454 6.282040 77 255 171 0.039217
-1.051250 -0.131300 6.330850 29 255 219 0.021729
-1.036790 -0.128869 6.343950 35 255 213 0.023412
-1.069580 -0.133930 6.338300 29 255 219 0.022122
-1.022600 -0.127070 6.357160 58 255 190 0.031083
-1.003300 -0.124089 6.349480 100 255 148 0.049054
-0.939518 -0.123884 6.373690 190 255 58 0.112729
-0.953239 -0.123339 6.360890 180 255 67 0.104400
-0.967442 -0.122122 6.347890 164 255 84 0.089489
-0.930622 -0.116771 6.350950 206 255 42 0.130535
-0.945069 -0.116390 6.337630 180 255 67 0.104892
-0.981987 -0.120813 6.335270 145 255 103 0.076668
-0.989283 -0.125338 6.362710 125 255 122 0.064179
-0.920093 -0.108359 6.329160 193 255 55 0.115350
-0.955044 -0.111957 6.314790 164 255 84 0.089805
-0.933052 -0.106680 6.315230 174 255 74 0.098428
-0.964636 -0.106780 6.293850 119 255 129 0.059541
-0.660351 -0.240235 6.472030 203 255 45 0.125222
-0.654364 -0.261814 6.486000 238 255 9 0.165157
-0.647413 -0.286377 6.502940 255 201 0 0.234321
-0.675906 -0.240574 6.476730 255 208 0 0.224292
-0.638273 -0.315018 6.523600 255 178 0 0.268562
-0.629735 -0.347301 6.545690 255 167 0 0.285878
-0.671796 -0.260819 6.490750 255 167 0 0.287291
-0.663479 -0.284892 6.506570 255 123 0 0.371409
-0.643774 -0.447637 6.596050 205 0 0 0.753313
-0.633916 -0.425561 6.586930 242 8 0 0.654569
-0.627904 -0.402088 6.575890 255 56 0 0.517607
-0.627369 -0.375773 6.562560 255 116 0 0.386069
-0.630661 -0.456578 6.596360 255 49 0 0.537018
-0.618160 -0.433032 6.587020 255 82 0 0.461459
-0.610180 -0.407715 6.575220 255 134 0 0.346882
-0.606918 -0.379891 6.561080 255 182 0 0.262414
-0.645662 -0.342327 6.548440 255 90 0 0.440749
-0.643995 -0.369110 6.565840 255 86 0 0.446990
-0.656216 -0.312759 6.528110 255 101 0 0.416567
-0.693050 -0.239416 6.484510 255 134 0 0.344626
-0.687930 -0.258112 6.497150 255 119 0 0.375608
-0.707462 -0.235479 6.494310 255 93 0 0.429966
-0.681322 -0.278257 6.514270 255 78 0 0.464112
-0.669003 -0.304490 6.533020 255 56 0 0.522399
-0.645901 -0.392328 6.582280 246 12 0 0.641922
-0.648143 -0.414758 6.592990 183 0 0 0.812950
-0.652400 -0.436219 6.602000 155 0 0 0.904965
-0.637426 -0.483303 6.598000 255 116 0 0.386384
-0.657571 -0.503321 6.596550 255 112 0 0.389481
-0.678221 -0.522890 6.593170 255 82 0 0.455892
-0.700156 -0.541753 6.589410 255 56 0 0.516722
-0.689570 -0.556136 6.591050 255 153 0 0.311412
-0.669423 -0.536361 6.595200 255 149 0 0.319371
-0.650968 -0.473020 6.596150 255 34 0 0.585319
-0.670560 -0.490560 6.594570 255 34 0 0.581795
-0.689753 -0.508409 6.592280 242 8 0 0.658484
-0.781232 -0.594875 6.565900 225 255 22 0.150020
-0.763109 -0.581289 6.569810 255 178 0 0.272475
-0.743111 -0.567771 6.574830 255 127 0 0.363710
-0.772118 -0.612550 6.564200 145 255 103 0.075835
-0.721831 -0.554799 6.581570 255 75 0 0.473742
-0.752870 -0.599337 6.568670 209 255 38 0.131970
-0.731982 -0.586323 6.575370 242 253 6 0.172572
-0.759127 -0.632121 6.562030 80 255 167 0.039406
-0.740673 -0.618834 6.566800 113 255 135 0.055487
-0.709024 -0.573539 6.582660 255 182 0 0.264434
-0.790207 -0.561349 6.578540 255 130 0 0.351456
-0.772718 -0.549459 6.580320 255 71 0 0.482375
-0.753422 -0.537734 6.583210 255 34 0 0.577459
-0.787127 -0.577636 6.570410 255 208 0 0.224966
-0.732467 -0.527093 6.587920 255 23 0 0.617992
-0.711149 -0.515533 6.593520 237 4 0 0.671406
-0.663088 -0.461390 6.598410 205 0 0 0.755919
-0.680443 -0.472398 6.600820 233 1 0 0.678724
-0.695985 -0.488394 6.600830 242 8 0 0.654974
-0.934820 -0.622047 6.538290 51 255 196 0.029177
-0.915627 -0.620415 6.540890 61 255 187 0.032401
-0.896950 -0.619527 6.543880 93 255 155 0.046196
-0.932672 -0.640316 6.526080 29 255 219 0.022222
-0.913525 -0.639017 6.528950 32 255 216 0.023145
-0.877995 -0.618590 6.546670 119 255 129 0.058841
-0.858898 -0.618106 6.549490 135 255 113 0.069849
-0.864147 -0.597537 6.559880 187 255 61 0.109890
-0.928947 -0.658070 6.515030 51 255 196 0.029284
-0.891884 -0.642310 6.531620 48 255 200 0.028125
-0.908630 -0.656036 6.520020 35 255 213 0.023448
-0.871720 -0.640688 6.536750 77 255 171 0.037969
-0.851302 -0.638784 6.542150 87 255 161 0.042988
-0.801144 -0.600568 6.560500 200 255 48 0.121264
-0.820973 -0.606071 6.556310 190 255 58 0.112877
-0.840324 -0.611813 6.552810 161 255 87 0.088976
-0.807444 -0.582614 6.566730 245 249 3 0.173604
-0.826740 -0.587425 6.563800 238 255 9 0.167457
-0.845518 -0.592281 6.561570 219 255 29 0.142463
-0.811976 -0.626540 6.549790 119 255 129 0.060380
-0.831661 -0.632509 6.545740 113 255 135 0.056580
-0.843353 -0.654577 6.536900 74 255 174 0.037318
-0.792173 -0.619564 6.556010 135 255 113 0.069201
-0.885817 -0.659472 6.522210 55 255 193 0.029668
-0.901545 -0.672539 6.509910 80 255 167 0.039427
-0.920526 -0.680293 6.500830 106 255 142 0.052907
-0.877785 -0.674534 6.514680 100 255 148 0.048336
-0.862075 -0.662115 6.526920 77 255 171 0.039239
-0.894372 -0.716171 6.473320 125 255 122 0.063666
-0.875639 -0.708714 6.486590 132 255 116 0.068439
-0.862183 -0.694844 6.502300 138 255 109 0.071963
-0.843603 -0.687457 6.514210 135 255 113 0.069008
-0.830237 -0.673882 6.528990 113 255 135 0.055117
-0.820001 -0.686993 6.523410 148 255 100 0.078638
-0.890995 -0.689844 6.499920 125 255 122 0.063583
-0.905327 -0.704007 6.483890 129 255 119 0.064832
-0.803096 -0.674592 6.532360 122 255 126 0.061610
-0.791827 -0.655936 6.543080 93 255 155 0.046677
-0.776064 -0.643439 6.552210 87 255 161 0.042766
-0.818245 -0.654610 6.539290 90 255 158 0.043987
-1.111970 -0.454795 6.595300 74 255 174 0.037424
-1.112350 -0.476230 6.573390 87 255 161 0.043390
-1.113520 -0.500065 6.551820 106 255 142 0.052721
-1.129800 -0.475221 6.555320 67 255 180 0.035035
-1.096340 -0.501089 6.569510 122 255 126 0.060867
-1.082100 -0.501410 6.585200 142 255 106 0.073031
-1.097270 -0.477250 6.590560 116 255 132 0.057161
-1.083650 -0.478346 6.606370 122 255 126 0.062335
-1.141430 -0.489838 6.531680 61 255 187 0.032593
-1.121070 -0.515544 6.532630 90 255 158 0.043644
-1.139590 -0.513623 6.516310 51 255 196 0.028617
-1.159030 -0.512146 6.499070 9 241 238 0.016709
-1.118910 -0.539859 6.517750 51 255 196 0.029042
-1.101990 -0.541415 6.533010 77 255 171 0.039298
-1.094650 -0.525875 6.551640 122 255 126 0.061419
-1.047180 -0.573436 6.545100 96 255 151 0.047472
-1.056050 -0.552068 6.557560 109 255 138 0.054665
-1.065390 -0.530349 6.569500 145 255 103 0.076208
-1.041450 -0.550188 6.569330 138 255 109 0.071292
-1.072230 -0.553769 6.543720 103 255 145 0.051325
-1.037040 -0.534204 6.588150 158 255 90 0.084908
-1.057070 -0.514054 6.593270 142 255 106 0.073659
-1.043440 -0.512009 6.607620 138 255 109 0.071795
-1.030730 -0.510712 6.621600 151 255 96 0.081197
-1.063560 -0.492451 6.612610 138 255 109 0.071097
-0.793361 -0.129630 6.401600 235 255 13 0.161679
-0.807049 -0.124324 6.391940 242 253 6 0.172460
-0.825793 -0.122508 6.386140 255 208 0 0.224484
-0.839333 -0.116041 6.374370 255 238 0 0.189259
-0.858101 -0.111806 6.367480 255 223 0 0.207511
-0.853126 -0.126160 6.387680 255 178 0 0.268895
-0.839987 -0.131643 6.397820 255 186 0 0.258616
-0.821616 -0.133487 6.403720 255 193 0 0.245174
-0.808240 -0.136895 6.413090 255 216 0 0.216967
-0.864514 -0.103322 6.348390 209 255 38 0.134179
-0.883972 -0.107979 6.343650 196 255 51 0.120158
-0.899851 -0.106533 6.333270 203 255 45 0.126212
-0.896687 -0.118425 6.360110 222 255 25 0.147552
-0.877260 -0.116414 6.363070 255 234 0 0.192606
-0.905628 -0.125970 6.380440 245 249 3 0.174125
-0.873910 -0.124167 6.388370 255 193 0 0.249425
-0.917538 -0.121968 6.366380 206 255 42 0.129087
-0.868396 -0.133222 6.408540 255 182 0 0.262691
-0.851470 -0.137357 6.412900 255 193 0 0.246157
-0.838533 -0.140646 6.421430 255 167 0 0.285567
-0.825148 -0.143032 6.429330 255 175 0 0.275599
-0.672205 -0.220669 6.457070 193 255 55 0.114849
-0.687755 -0.203860 6.446640 200 255 48 0.122803
-0.698548 -0.186970 6.434140 200 255 48 0.123642
-0.713025 -0.169843 6.424850 148 255 100 0.079149
-0.688408 -0.221898 6.463490 255 219 0 0.213302
-0.714237 -0.152398 6.407250 119 255 129 0.059703
-0.730834 -0.139161 6.398990 116 255 132 0.057342
-0.740885 -0.121928 6.387770 116 255 132 0.057471
-0.756654 -0.105309 6.380010 132 255 116 0.067042
-0.758868 -0.132121 6.397660 164 255 84 0.089616
-0.747910 -0.147238 6.408520 145 255 103 0.076386
-0.731104 -0.158317 6.416300 164 255 84 0.089735
-0.781834 -0.144357 6.412910 235 255 13 0.162720
-0.764361 -0.154692 6.419810 200 255 48 0.121969
-0.751208 -0.166614 6.429660 213 255 35 0.137811
-0.732605 -0.176422 6.436540 216 255 32 0.139084
-0.775597 -0.118314 6.390360 161 255 87 0.089441
-0.729525 -0.193824 6.451810 255 178 0 0.271971
-0.712976 -0.208019 6.459500 255 182 0 0.261662
-0.808367 -0.108902 6.372870 196 255 51 0.118244
-0.788608 -0.111260 6.380050 174 255 74 0.099293
-0.816416 -0.094847 6.357890 174 255 74 0.098996
-0.825219 -0.080540 6.342040 161 255 87 0.089376
-0.843227 -0.097600 6.354360 200 255 48 0.122858
-0.769875 -0.097162 6.369160 135 255 113 0.070217
-0.783262 -0.087758 6.358040 155 255 93 0.083677
-0.790830 -0.072121 6.343340 177 255 71 0.101624
-0.799090 -0.055356 6.328440 209 255 38 0.131940
-0.863833 -0.052054 6.276120 116 255 132 0.057411
-0.853359 -0.060006 6.293000 119 255 129 0.058864
-0.876472 -0.066268 6.285090 109 255 138 0.054290
-0.843767 -0.067363 6.310230 116 255 132 0.057310
-0.866780 -0.073554 6.301580 119 255 129 0.060359
-0.857163 -0.081017 6.318320 145 255 103 0.076603
-0.889763 -0.078847 6.294040 142 255 106 0.074265
-0.834318 -0.074680 6.326140 138 255 109 0.071092
-0.815141 -0.054518 6.316150 171 255 77 0.096015
-0.884555 -0.091760 6.315680 167 255 80 0.092519
-0.906482 -0.094371 6.311270 174 255 74 0.097521
-0.705262 -0.223226 6.473090 255 123 0 0.371070
-0.749630 -0.179949 6.448960 255 212 0 0.219384
-0.728966 -0.208200 6.469860 255 97 0 0.422236
-0.800464 -0.152480 6.427200 255 212 0 0.221014
-0.782465 -0.161746 6.434100 255 216 0 0.214650
-0.768506 -0.171945 6.443440 255 216 0 0.214664
-0.815685 -0.155976 6.443120 255 167 0 0.288613
-0.798057 -0.165220 6.449020 255 145 0 0.329269
-0.783331 -0.174026 6.457320 255 127 0 0.361936
-0.767469 -0.181876 6.464810 255 108 0 0.402604
-0.755739 -0.194878 6.474960 255 60 0 0.510247
-0.721315 -0.220786 6.485250 255 71 0 0.482897
-0.851445 -0.142678 6.474820 255 141 0 0.335938
-0.878892 -0.136149 6.470170 255 164 0 0.292146
-0.906698 -0.126694 6.465960 255 227 0 0.203498
-0.896850 -0.128273 6.485850 255 212 0 0.221333
-0.868880 -0.135839 6.489240 255 175 0 0.273072
-0.856199 -0.135811 6.501570 255 186 0 0.257069
-0.916567 -0.129725 6.447320 219 255 29 0.142689
-0.945366 -0.127997 6.448580 161 255 87 0.087432
-0.957380 -0.127223 6.437640 132 255 116 0.068309
