ply
format ascii 1.0
comment VCGLIB generated
element vertex 977
property float x
property float y
property float z
property uchar red
property uchar green
property uchar blue
property float quality
end_header
-1.151230 -0.187704 6.171740 90 255 158 0.044928
-1.138070 -0.175385 6.190820 71 255 177 0.036385
-1.174580 -0.196789 6.178490 109 255 138 0.054646
-1.116010 -0.166174 6.182960 61 255 187 0.032541
-1.105560 -0.165487 6.160480 64 255 184 0.033586
-1.117990 -0.177492 6.143350 77 255 171 0.038449
-1.160590 -0.186549 6.195160 90 255 158 0.043917
-1.181840 -0.195884 6.201310 109 255 138 0.053874
-1.146630 -0.176357 6.211840 71 255 177 0.036596
-1.167550 -0.185695 6.218460 90 255 158 0.044317
-1.133540 -0.165978 6.228110 58 255 190 0.030915
-1.125120 -0.165074 6.206500 58 255 190 0.031666
-0.756376 -0.081474 6.356800 203 255 45 0.127269
-0.763272 -0.066787 6.343060 209 255 38 0.132277
-0.738021 -0.071263 6.350880 171 255 77 0.096999
-0.770054 -0.051365 6.329350 225 255 22 0.149008
-0.777719 -0.034448 6.315780 235 255 13 0.160461
-0.736478 -0.053013 6.335590 187 255 61 0.110251
-0.717052 -0.063732 6.346240 151 255 96 0.080091
-0.742713 -0.036902 6.322090 206 255 42 0.128983
-0.749655 -0.019776 6.308300 232 255 16 0.157149
-0.813187 -0.009809 6.246850 213 255 35 0.135728
-0.803897 -0.015562 6.264760 229 255 19 0.154538
-0.827031 -0.019445 6.252670 206 255 42 0.129333
-0.795247 -0.020920 6.282270 235 255 13 0.162869
-0.818081 -0.025115 6.270820 225 255 22 0.149273
-0.809414 -0.031424 6.288410 229 255 19 0.155983
-0.840769 -0.029950 6.258360 196 255 51 0.119375
-0.786085 -0.028041 6.299380 238 255 9 0.167654
-0.765112 -0.016652 6.294100 245 249 3 0.175601
-0.837321 -0.041363 6.279320 206 255 42 0.128397
-0.827753 -0.047775 6.296130 206 255 42 0.130835
-0.624398 0.027388 6.244080 113 255 135 0.056547
-0.635511 0.036540 6.228080 138 255 109 0.071459
-0.613662 0.018548 6.260110 96 255 151 0.046830
-0.643680 0.010635 6.263140 113 255 135 0.056665
-0.655053 0.020223 6.247030 138 255 109 0.072573
-0.666812 0.029778 6.230700 167 255 80 0.092210
-0.617984 0.006183 6.277100 100 255 148 0.048584
-0.622485 -0.006901 6.293630 100 255 148 0.049793
-0.597264 -0.001886 6.293580 103 255 145 0.051438
-0.592009 0.009710 6.276480 100 255 148 0.049089
-0.681518 0.015068 6.249190 164 255 84 0.091382
-0.695155 0.021399 6.233130 187 255 61 0.109007
-0.668294 0.008331 6.264540 135 255 113 0.069910
-0.696551 0.000567 6.267730 167 255 80 0.092123
-0.709984 0.006904 6.252340 190 255 58 0.112619
-0.724409 0.012751 6.235240 200 255 48 0.123668
-0.669269 -0.003080 6.281110 135 255 113 0.070606
-0.670596 -0.013617 6.296630 125 255 122 0.063009
-0.646127 -0.010868 6.295370 109 255 138 0.054046
-0.645146 0.000406 6.279360 109 255 138 0.054716
-0.628567 -0.053076 6.336560 103 255 145 0.050668
-0.612589 -0.064206 6.352610 116 255 132 0.056867
-0.626528 -0.038326 6.322690 103 255 145 0.051229
-0.610035 -0.050566 6.338030 113 255 135 0.055677
-0.607851 -0.036042 6.323830 113 255 135 0.055963
-0.594391 -0.060269 6.355090 122 255 126 0.062226
-0.624676 -0.022904 6.308130 103 255 145 0.051377
-0.648042 -0.027153 6.309660 106 255 142 0.052684
-0.649830 -0.042704 6.323500 109 255 138 0.054067
-0.588704 -0.045183 6.339880 122 255 126 0.062234
-0.574098 -0.056615 6.358470 138 255 109 0.070850
-0.583246 -0.029219 6.325130 122 255 126 0.062341
-0.568456 -0.041481 6.343520 138 255 109 0.071292
-0.577609 -0.012526 6.309570 122 255 126 0.060765
-0.602487 -0.019144 6.308830 109 255 138 0.054240
-0.604324 0.072437 6.079490 222 255 25 0.145692
-0.636887 0.068561 6.067240 225 255 22 0.149249
-0.601204 0.073386 6.103800 209 255 38 0.133972
-0.633692 0.070273 6.092300 225 255 22 0.150580
-0.630356 0.071089 6.116750 222 255 25 0.145503
-0.666034 0.065487 6.079660 229 255 19 0.153166
-0.598238 0.072940 6.127800 203 255 45 0.126889
-0.595727 0.071916 6.151590 187 255 61 0.111086
-0.579872 0.072079 6.145530 180 255 67 0.105465
-0.582429 0.073228 6.121860 193 255 55 0.116620
-0.564171 0.072513 6.139320 174 255 74 0.098266
-0.566602 0.073205 6.116070 184 255 64 0.107312
-0.585038 0.073322 6.097820 200 255 48 0.122598
-0.548537 0.072033 6.133520 158 255 90 0.085689
-0.664895 0.065947 6.099670 229 255 19 0.155154
-0.696612 0.055866 6.084510 222 255 25 0.147301
-0.663462 0.065542 6.119510 222 255 25 0.145571
-0.695389 0.056538 6.104440 222 255 25 0.145226
-0.693878 0.056630 6.124160 209 255 38 0.131806
-0.726458 0.044842 6.089350 206 255 42 0.129585
-0.662105 0.064516 6.139080 206 255 42 0.127804
-0.660791 0.062539 6.158590 184 255 64 0.106104
-0.628456 0.067783 6.154900 193 255 55 0.115783
-0.629503 0.070000 6.136020 213 255 35 0.135482
-0.602328 0.051426 6.207520 138 255 109 0.071216
-0.599915 0.058568 6.188840 155 255 93 0.082765
-0.570132 0.053158 6.206000 138 255 109 0.071123
-0.567420 0.060402 6.187720 151 255 96 0.080037
-0.597469 0.065656 6.170530 174 255 74 0.098771
-0.630118 0.061329 6.174140 174 255 74 0.097454
-0.631677 0.054188 6.193080 155 255 93 0.082480
-0.540003 0.055583 6.199160 135 255 113 0.069785
-0.519727 0.055885 6.196100 129 255 119 0.065998
-0.537420 0.061384 6.175770 142 255 106 0.073369
-0.500121 0.056723 6.193240 122 255 126 0.061760
-0.516901 0.060788 6.172670 132 255 116 0.067263
-0.535058 0.066640 6.151960 145 255 103 0.075300
-0.550384 0.066971 6.157890 155 255 93 0.083007
-0.565796 0.066902 6.163810 167 255 80 0.092512
-0.552506 0.061096 6.181670 145 255 103 0.077091
-0.875749 -0.053284 6.255420 148 255 100 0.078233
-0.885930 -0.053922 6.237220 129 255 119 0.066357
-0.856609 -0.036693 6.243870 171 255 77 0.095518
-0.896548 -0.054400 6.218850 109 255 138 0.053418
-0.906962 -0.055109 6.200970 109 255 138 0.053979
-0.921563 -0.065348 6.212620 90 255 158 0.044599
-0.910670 -0.065238 6.230720 106 255 142 0.051973
-0.842275 -0.025507 6.236400 177 255 71 0.102337
-0.858105 -0.031363 6.219720 155 255 93 0.083179
-0.844303 -0.021725 6.213710 161 255 87 0.089339
-0.828611 -0.015392 6.230210 187 255 61 0.110713
-0.866887 -0.033246 6.200180 138 255 109 0.072558
-0.876093 -0.035082 6.181370 125 255 122 0.063243
-0.891722 -0.044639 6.190860 122 255 126 0.062153
-0.882225 -0.043530 6.210500 138 255 109 0.071649
-0.945227 -0.081861 6.121290 67 255 180 0.034114
-0.935486 -0.074783 6.140600 74 255 174 0.037512
-0.962588 -0.089774 6.135950 67 255 180 0.035012
-0.925589 -0.068452 6.160390 84 255 164 0.041542
-0.952014 -0.083635 6.155850 74 255 174 0.037564
-0.942138 -0.077112 6.175600 80 255 167 0.039705
-0.979243 -0.097948 6.151470 71 255 177 0.035987
-0.915968 -0.061541 6.180500 96 255 151 0.047003
-0.900424 -0.052150 6.170190 109 255 138 0.053354
-0.909139 -0.059642 6.150420 93 255 155 0.045922
-0.968204 -0.091768 6.169150 74 255 174 0.037344
-0.994078 -0.104025 6.169080 71 255 177 0.036494
-0.957068 -0.086232 6.187800 77 255 171 0.039087
-0.982748 -0.098381 6.187450 74 255 174 0.037604
-0.946177 -0.080786 6.206250 80 255 167 0.040476
-0.931835 -0.071255 6.193910 90 255 158 0.044102
-0.742524 0.035484 6.090200 196 255 51 0.117935
-0.726585 0.043864 6.107680 203 255 45 0.124388
-0.742458 0.034789 6.108150 193 255 55 0.115456
-0.758096 0.025794 6.090840 184 255 64 0.107290
-0.726574 0.042412 6.125790 196 255 51 0.117930
-0.758445 0.025462 6.109090 180 255 67 0.103488
-0.742580 0.033431 6.126570 184 255 64 0.107996
-0.758354 0.024230 6.127500 171 255 77 0.097152
-0.773360 0.015904 6.091570 171 255 77 0.095636
-0.773785 0.015884 6.110050 171 255 77 0.095363
-0.788587 0.006701 6.092900 164 255 84 0.090827
-0.726632 0.040288 6.144000 187 255 61 0.111289
-0.742927 0.031862 6.144730 177 255 71 0.101632
-0.727044 0.037671 6.162040 184 255 64 0.107167
-0.710631 0.044514 6.161390 187 255 61 0.110964
-0.710486 0.047228 6.143420 193 255 55 0.117665
-0.694214 0.050947 6.160390 187 255 61 0.109263
-0.694090 0.054045 6.142230 196 255 51 0.118347
-0.710554 0.049979 6.125280 206 255 42 0.128166
-0.677434 0.056877 6.159720 187 255 61 0.109533
-0.803072 -0.003194 6.093920 148 255 100 0.077397
-0.803053 -0.002448 6.111630 155 255 93 0.083611
-0.818357 -0.012574 6.095050 135 255 113 0.068890
-0.788142 0.007774 6.128690 177 255 71 0.100258
-0.817963 -0.012112 6.112740 148 255 100 0.079189
-0.802676 -0.002165 6.129640 171 255 77 0.095289
-0.833244 -0.022578 6.095570 122 255 126 0.062190
-0.848578 -0.031720 6.097070 100 255 148 0.048990
-0.787755 0.006792 6.165090 190 255 58 0.112753
-0.773185 0.015780 6.146040 180 255 67 0.103035
-0.757888 0.023120 6.163350 190 255 58 0.112556
-0.725002 0.019847 6.217070 200 255 48 0.122596
-0.725438 0.026045 6.198980 200 255 48 0.123094
-0.695498 0.029080 6.215670 190 255 58 0.113555
-0.695989 0.035433 6.197380 184 255 64 0.108330
-0.726082 0.032301 6.180600 190 255 58 0.114384
-0.757105 0.017862 6.181930 203 255 45 0.126277
-0.756173 0.012052 6.200980 206 255 42 0.130592
-0.664798 0.038028 6.212420 161 255 87 0.089048
-0.663133 0.046386 6.194510 158 255 90 0.085635
-0.633359 0.045077 6.210490 145 255 103 0.075766
-0.661739 0.054517 6.176780 171 255 77 0.095390
-0.678266 0.049152 6.177830 177 255 71 0.101200
-0.694745 0.043556 6.179030 184 255 64 0.108582
-0.679491 0.040985 6.196070 171 255 77 0.095289
-0.750825 -0.116583 5.780140 0 185 255 0.008646
-0.737599 -0.105792 5.787780 0 189 255 0.009189
-0.715135 -0.098350 5.780790 0 197 255 0.010027
-0.702152 -0.086800 5.788660 0 201 255 0.011037
-0.679899 -0.079181 5.782420 0 213 255 0.012393
-0.698043 -0.070234 5.811270 0 213 255 0.012467
-0.684205 -0.095228 5.759960 0 201 255 0.010936
-0.661684 -0.088409 5.753480 0 209 255 0.011755
-0.698277 -0.105741 5.753610 0 197 255 0.010267
-0.712156 -0.115558 5.747580 0 193 255 0.009945
-0.734412 -0.122208 5.754330 0 193 255 0.009640
-0.718240 -0.128411 5.728740 0 205 255 0.011205
-0.683137 -0.058739 5.819530 0 213 255 0.012702
-0.673604 -0.064073 5.803670 0 221 255 0.013363
-0.658275 -0.052624 5.812020 0 221 255 0.013641
-0.668294 -0.047050 5.827840 0 221 255 0.013614
-0.648480 -0.058494 5.796080 0 225 251 0.014346
-0.642572 -0.040908 5.820650 0 225 251 0.014491
-0.632778 -0.047123 5.804830 0 225 251 0.014378
-0.652534 -0.034975 5.836260 3 233 245 0.015744
-0.622558 -0.052942 5.789260 0 229 248 0.015260
-0.629701 -0.068484 5.767520 0 221 255 0.013887
-0.655248 -0.073832 5.774650 0 217 255 0.012980
-0.577038 -0.084127 5.709500 19 253 229 0.019611
-0.603410 -0.087632 5.719060 6 237 242 0.016208
-0.620797 -0.096770 5.713420 0 229 248 0.014795
-0.645440 -0.099803 5.723320 0 217 255 0.013218
-0.628983 -0.110968 5.693370 9 241 238 0.017007
-0.637065 -0.085017 5.743800 0 217 255 0.012932
-0.620810 -0.075235 5.750840 0 225 251 0.014044
-0.603749 -0.065373 5.757980 0 229 248 0.015080
-0.594707 -0.072197 5.741180 6 237 242 0.015975
-0.644520 -0.120470 5.689060 3 233 245 0.015763
-0.666871 -0.124858 5.697540 0 221 255 0.013644
-0.681642 -0.133523 5.693270 0 221 255 0.013773
-0.703864 -0.137526 5.702100 0 217 255 0.013141
-0.689309 -0.146852 5.676150 3 233 245 0.015600
-0.696172 -0.124233 5.719740 0 209 255 0.011659
-0.681955 -0.114484 5.725760 0 205 255 0.011379
-0.667623 -0.104292 5.732190 0 205 255 0.011254
-0.647966 -0.018684 5.859110 25 255 222 0.021077
-0.632992 -0.008122 5.869570 38 255 209 0.025022
-0.644275 -0.004091 5.883410 51 255 196 0.028488
-0.659499 -0.014949 5.872790 32 255 216 0.023198
-0.629154 0.006646 5.894390 64 255 184 0.034032
-0.656059 -0.000262 5.897320 61 255 187 0.031802
-0.640688 0.010831 5.908360 77 255 171 0.038940
-0.651911 0.014766 5.922420 90 255 158 0.043915
-0.670436 -0.011330 5.886870 38 255 209 0.024822
-0.667156 0.003318 5.911250 67 255 180 0.034236
-0.681833 -0.007962 5.900960 45 255 203 0.026330
-0.624658 0.021518 5.919690 93 255 155 0.046115
-0.636036 0.025747 5.933700 106 255 142 0.053237
-0.619396 0.036084 5.945470 122 255 126 0.062226
-0.606274 0.031118 5.929950 106 255 142 0.051889
-0.611560 0.016241 5.904060 77 255 171 0.038782
-0.593030 0.025521 5.914210 90 255 158 0.043680
-0.597958 0.010811 5.888630 64 255 184 0.032960
-0.615764 0.001461 5.878810 51 255 196 0.028803
-0.579455 0.019664 5.898630 74 255 174 0.037093
-0.680394 0.004651 5.923720 74 255 174 0.036765
-0.705857 -0.007890 5.922830 48 255 200 0.028226
-0.679034 0.017199 5.946820 103 255 145 0.051078
-0.704173 0.004405 5.945290 80 255 167 0.040388
-0.702179 0.016413 5.967460 116 255 132 0.058248
-0.728775 -0.008900 5.943980 58 255 190 0.031163
-0.676607 0.029267 5.969480 132 255 116 0.068568
-0.673580 0.041223 5.992770 164 255 84 0.091278
-0.660380 0.040576 5.981130 158 255 90 0.084775
-0.663394 0.028470 5.957720 125 255 122 0.063566
-0.646981 0.039551 5.969560 148 255 100 0.078933
-0.649808 0.027459 5.945980 119 255 129 0.059316
-0.665525 0.016111 5.934580 96 255 151 0.047831
-0.633554 0.037923 5.957560 135 255 113 0.069307
-0.610227 0.064183 6.028720 187 255 61 0.108956
-0.595601 0.062287 6.015920 167 255 80 0.093700
-0.613881 0.056109 6.001410 167 255 80 0.093038
-0.580217 0.059775 6.002570 145 255 103 0.076875
-0.598717 0.053857 5.988060 151 255 96 0.080109
-0.582738 0.050924 5.974430 132 255 116 0.068255
-0.564218 0.056774 5.988730 129 255 119 0.066328
-0.616928 0.046675 5.973600 145 255 103 0.076946
-0.601407 0.043806 5.959410 132 255 116 0.067317
-0.630823 0.048205 5.985120 158 255 90 0.086417
-0.644058 0.049505 5.996680 174 255 74 0.100026
-0.627136 0.057385 6.012410 184 255 64 0.107423
-0.640777 0.058236 6.023630 203 255 45 0.124933
-0.657255 0.050429 6.008340 184 255 64 0.108666
-0.624048 0.065123 6.039150 203 255 45 0.125984
-0.551356 0.051702 5.973120 116 255 132 0.058127
-0.536864 0.045481 5.955130 100 255 148 0.048628
-0.556815 0.040081 5.942760 103 255 145 0.050029
-0.522202 0.038590 5.937170 84 255 164 0.040981
-0.541884 0.033326 5.924800 84 255 164 0.041014
-0.561595 0.026909 5.912590 84 255 164 0.040957
-0.574976 0.033092 5.928240 96 255 151 0.047335
-0.588308 0.038663 5.943820 113 255 135 0.056061
-0.569864 0.045821 5.958630 116 255 132 0.057921
-0.728810 0.000460 5.962710 84 255 164 0.041653
-0.753138 -0.018004 5.956550 64 255 184 0.033967
-0.728037 0.009631 5.981050 119 255 129 0.059029
-0.752913 -0.008963 5.974840 100 255 148 0.048562
-0.752637 0.000278 5.993310 129 255 119 0.065065
-0.777365 -0.026952 5.968830 87 255 161 0.042281
-0.727483 0.018854 5.999850 145 255 103 0.076857
-0.726466 0.027869 6.018550 174 255 74 0.098391
-0.700382 0.035200 6.005860 177 255 71 0.100436
-0.701416 0.026031 5.986600 145 255 103 0.076686
-0.791548 -0.029021 5.988030 77 255 171 0.039159
-0.803534 -0.043122 5.976150 48 255 200 0.027880
-0.779630 -0.014607 6.000220 113 255 135 0.056017
-0.805811 -0.031340 6.005950 80 255 167 0.040529
-0.817882 -0.045032 5.993880 45 255 203 0.026980
-0.829993 -0.058128 5.982190 29 255 219 0.021889
-0.793337 -0.017269 6.018150 113 255 135 0.055530
-0.781175 -0.002890 6.030590 145 255 103 0.077124
-0.766975 -0.001354 6.012300 129 255 119 0.066252
-0.754243 0.012377 6.024620 155 255 93 0.083282
-0.726743 0.041184 6.071550 203 255 45 0.125074
-0.726856 0.037141 6.053800 196 255 51 0.117882
-0.697045 0.052617 6.066660 219 255 29 0.143837
-0.697281 0.048726 6.048770 209 255 38 0.134315
-0.726733 0.032769 6.036380 187 255 61 0.109368
-0.754530 0.017073 6.041800 171 255 77 0.096046
-0.754545 0.021672 6.058850 184 255 64 0.106986
-0.668058 0.060707 6.058200 225 255 22 0.150534
-0.669939 0.055096 6.036730 213 255 35 0.135560
-0.685277 0.045621 6.021070 196 255 51 0.118446
-0.964147 -0.098056 6.107660 61 255 187 0.032313
-0.991528 -0.116062 6.104040 58 255 190 0.031220
-1.010040 -0.131286 6.091020 58 255 190 0.031421
-1.037840 -0.147862 6.088260 55 255 193 0.029428
-1.019610 -0.144151 6.069760 45 255 203 0.026748
-1.027580 -0.135232 6.110610 61 255 187 0.032092
-1.055450 -0.151589 6.107170 61 255 187 0.031980
-1.008610 -0.122039 6.121470 67 255 180 0.034177
-0.989945 -0.107659 6.132220 64 255 184 0.033921
-1.038120 -0.164633 6.058680 38 255 209 0.025115
-1.045820 -0.163009 6.072930 51 255 196 0.028535
-1.064520 -0.182755 6.061240 45 255 203 0.026823
-1.056670 -0.184807 6.047460 32 255 216 0.023018
-1.072900 -0.180829 6.075040 61 255 187 0.031696
-1.084070 -0.201707 6.049940 42 255 206 0.025846
-1.092130 -0.199236 6.063350 61 255 187 0.031714
-1.111990 -0.217518 6.051390 55 255 193 0.030259
-1.075730 -0.204293 6.036900 25 255 222 0.021150
-1.103230 -0.220764 6.038730 35 255 213 0.024088
-1.093730 -0.224610 6.026340 19 253 229 0.019756
-1.100160 -0.197306 6.076810 74 255 174 0.037946
-1.120470 -0.214772 6.064830 77 255 171 0.038227
-1.128770 -0.212445 6.078270 96 255 151 0.047381
-1.091550 -0.182921 6.092870 74 255 174 0.036984
-1.064050 -0.166094 6.090660 61 255 187 0.032658
-1.128990 -0.190720 6.125180 93 255 155 0.045719
-1.103760 -0.178753 6.119610 77 255 171 0.039271
-1.093070 -0.165357 6.136890 67 255 180 0.034712
-1.069030 -0.152007 6.130560 61 255 187 0.032754
-1.079420 -0.165628 6.113780 67 255 180 0.034801
-1.116790 -0.195524 6.097970 90 255 158 0.044463
-1.142560 -0.207139 6.103150 109 255 138 0.054020
-1.056040 -0.139704 6.154270 58 255 190 0.031531
-1.030420 -0.126230 6.152850 64 255 184 0.033658
-1.019700 -0.117986 6.169630 67 255 180 0.034106
-1.004790 -0.112413 6.151700 67 255 180 0.035166
-1.043140 -0.138967 6.129920 61 255 187 0.032532
-0.845338 -0.068555 5.984510 16 249 232 0.018461
-0.860682 -0.078783 5.986660 0 229 248 0.014614
-0.836923 -0.051501 6.009020 55 255 193 0.029728
-0.852386 -0.062363 6.011290 35 255 213 0.023331
-0.868002 -0.072606 6.012910 13 245 235 0.018158
-0.876798 -0.088892 5.988870 0 205 255 0.011488
-0.892658 -0.098564 5.990870 0 189 255 0.009326
-0.842865 -0.045011 6.036210 71 255 177 0.036054
-0.826772 -0.035135 6.034520 90 255 158 0.043685
-0.811214 -0.024742 6.033290 103 255 145 0.050677
-0.908798 -0.109556 5.992530 0 185 255 0.008653
-0.925581 -0.120283 5.994670 0 177 255 0.007786
-0.901045 -0.092081 6.016220 0 213 255 0.012701
-0.917388 -0.103188 6.017460 0 205 255 0.011549
-0.934184 -0.114160 6.019020 0 209 255 0.012024
-0.941969 -0.130768 5.997020 0 181 255 0.008303
-0.959218 -0.141618 5.998860 0 181 255 0.008410
-0.908463 -0.086275 6.040780 3 233 245 0.015716
-0.891801 -0.076326 6.039890 19 253 229 0.019573
-0.875473 -0.066201 6.038820 25 255 222 0.021412
-0.884307 -0.082483 6.014180 0 225 251 0.014432
-0.858872 -0.055651 6.037560 51 255 196 0.028550
-0.846167 -0.038053 6.066190 87 255 161 0.043343
-0.830421 -0.029253 6.064890 103 255 145 0.051484
-0.815413 -0.019661 6.063780 125 255 122 0.062815
-0.861954 -0.049106 6.066860 64 255 184 0.033607
-0.878138 -0.060106 6.068020 58 255 190 0.030988
-0.784855 0.002099 6.061210 158 255 90 0.086658
-0.769858 0.011938 6.060060 171 255 77 0.095313
-0.798034 -0.011271 6.047200 132 255 116 0.067245
-0.756703 -0.103215 5.812030 0 173 255 0.007600
-0.768969 -0.114763 5.802990 0 161 255 0.006495
-0.744321 -0.090995 5.821060 0 185 255 0.008975
-0.762270 -0.088905 5.843630 0 173 255 0.007505
-0.774412 -0.101122 5.834620 0 157 255 0.006018
-0.786820 -0.113086 5.825370 0 149 255 0.005420
-0.741139 -0.076875 5.841570 0 193 255 0.009760
-0.738138 -0.062144 5.862080 0 201 255 0.010984
-0.718272 -0.065910 5.836760 0 209 255 0.011709
-0.720987 -0.080472 5.816000 0 201 255 0.010895
-0.795336 -0.103962 5.854170 0 141 255 0.004977
-0.807170 -0.116331 5.843850 0 129 255 0.004143
-0.783797 -0.090894 5.864130 0 157 255 0.005956
-0.803428 -0.094269 5.881950 0 145 255 0.005172
-0.815076 -0.107101 5.871780 0 133 255 0.004161
-0.827235 -0.119586 5.861860 0 121 255 0.003468
-0.782315 -0.079074 5.883060 0 169 255 0.007056
-0.780680 -0.066738 5.901580 0 189 255 0.009269
-0.759489 -0.064234 5.882200 0 197 255 0.010289
-0.761107 -0.076935 5.862980 0 181 255 0.008456
-0.731735 -0.022651 5.923700 38 255 209 0.024501
-0.734255 -0.036231 5.903400 6 237 242 0.016427
-0.708227 -0.021957 5.901930 25 255 222 0.021076
-0.710731 -0.035700 5.881300 3 233 245 0.015414
-0.736460 -0.049537 5.882840 0 213 255 0.012575
-0.757601 -0.051737 5.902360 0 221 255 0.013744
-0.755189 -0.038861 5.922170 25 255 222 0.020670
-0.686455 -0.024417 5.878330 19 253 229 0.019442
-0.675238 -0.027717 5.864250 16 249 232 0.018326
-0.690868 -0.040444 5.855860 0 229 248 0.014719
-0.664067 -0.031280 5.850300 9 241 238 0.017218
-0.679901 -0.043699 5.841830 0 225 251 0.014230
-0.694505 -0.055763 5.833600 0 217 255 0.012739
-0.714844 -0.051321 5.858970 0 213 255 0.012590
-0.838084 -0.115787 5.884180 0 121 255 0.003519
-0.849735 -0.128538 5.873900 0 117 255 0.003324
-0.826702 -0.102545 5.894310 0 137 255 0.004615
-0.848945 -0.111407 5.905330 0 129 255 0.004076
-0.860729 -0.124479 5.895520 0 117 255 0.003281
-0.872539 -0.137130 5.885100 0 121 255 0.003478
-0.826638 -0.093663 5.909850 0 161 255 0.006284
-0.826547 -0.084566 5.925550 0 185 255 0.008662
-0.803591 -0.075945 5.914090 0 193 255 0.009875
-0.803535 -0.085194 5.897830 0 165 255 0.006741
-0.886264 -0.137576 5.903850 0 117 255 0.003435
-0.897166 -0.149927 5.894110 0 133 255 0.004198
-0.875532 -0.125034 5.913570 0 117 255 0.003276
-0.900025 -0.137699 5.921850 0 121 255 0.003639
-0.910940 -0.150198 5.912390 0 129 255 0.004108
-0.922101 -0.162541 5.902580 0 141 255 0.004868
-0.889204 -0.125154 5.931100 0 125 255 0.003828
-0.878493 -0.112051 5.940790 0 149 255 0.005338
-0.863679 -0.111931 5.923390 0 129 255 0.004056
-0.852015 -0.098514 5.933410 0 149 255 0.005360
-0.815871 -0.057627 5.964860 16 249 232 0.018948
-0.828409 -0.071535 5.953980 0 221 255 0.013445
-0.802168 -0.057320 5.946730 9 241 238 0.017358
-0.789754 -0.042489 5.957660 45 255 203 0.026714
-0.814463 -0.071433 5.935990 0 205 255 0.011522
-0.840174 -0.085288 5.943710 0 181 255 0.008572
-0.854320 -0.085919 5.961150 0 205 255 0.011304
-0.866098 -0.099120 5.950590 0 169 255 0.007139
-0.766314 -0.032884 5.945670 51 255 196 0.029302
-0.779601 -0.047317 5.935530 16 249 232 0.018774
-0.780528 -0.057213 5.919000 0 217 255 0.012921
-0.900041 -0.900463 5.854600 109 255 138 0.053882
-0.879939 -0.899285 5.868650 119 255 129 0.060015
-0.892932 -0.887940 5.891130 122 255 126 0.061084
-0.872411 -0.887126 5.903130 145 255 103 0.075712
-0.859778 -0.899344 5.881700 135 255 113 0.068936
-0.886098 -0.876547 5.924520 151 255 96 0.080417
-0.852054 -0.887332 5.915040 171 255 77 0.094892
-0.865544 -0.876361 5.935530 177 255 71 0.102340
-0.845134 -0.877804 5.946380 209 255 38 0.133153
-0.839423 -0.899784 5.894070 158 255 90 0.086577
-0.831721 -0.888192 5.926440 203 255 45 0.127139
-0.819477 -0.901207 5.906200 193 255 55 0.117025
-0.880022 -0.867941 5.955970 174 255 74 0.099946
-0.859490 -0.869590 5.966320 203 255 45 0.126004
-0.874761 -0.863706 5.986330 190 255 58 0.113682
-0.894098 -0.862295 5.974110 167 255 80 0.092387
-0.899085 -0.868168 5.943470 145 255 103 0.076129
-0.912907 -0.861339 5.961880 142 255 106 0.074721
-0.918028 -0.869203 5.930490 116 255 132 0.058158
-0.905297 -0.877941 5.911150 116 255 132 0.057400
-0.924113 -0.881096 5.896670 87 255 161 0.043599
-0.931585 -0.862139 5.949620 113 255 135 0.056824
-0.936770 -0.872537 5.917160 87 255 161 0.042531
-0.950416 -0.864015 5.937720 90 255 158 0.044793
-0.911817 -0.890468 5.875610 93 255 155 0.045193
-0.796459 -0.900203 5.918630 216 255 32 0.138632
-0.809288 -0.886637 5.940310 235 255 13 0.161915
-0.786147 -0.885941 5.952090 255 238 0 0.187500
-0.773806 -0.899948 5.931120 235 255 13 0.161790
-0.800132 -0.875961 5.973410 255 238 0 0.186394
-0.763938 -0.886400 5.964140 255 223 0 0.206761
-0.777606 -0.876882 5.985220 255 223 0 0.205804
-0.751572 -0.899650 5.943290 248 245 0 0.179155
-0.792678 -0.871122 6.007060 248 245 0 0.178060
-0.808103 -0.868623 6.027450 216 255 32 0.141352
-0.814431 -0.869914 5.993110 238 255 9 0.167146
-0.830055 -0.866100 6.013190 216 255 32 0.138940
-0.836836 -0.869248 5.979510 225 255 22 0.151253
-0.822388 -0.876300 5.959840 235 255 13 0.160574
-0.852305 -0.864743 5.999600 203 255 45 0.124926
-0.889296 -0.871381 6.109950 180 255 67 0.103249
-0.868574 -0.872423 6.090420 164 255 84 0.089949
-0.890828 -0.866732 6.074360 148 255 100 0.079010
-0.911929 -0.864852 6.093650 158 255 90 0.086112
-0.870111 -0.866658 6.054880 158 255 90 0.084693
-0.913181 -0.860763 6.059020 135 255 113 0.069026
-0.892259 -0.862101 6.039630 145 255 103 0.077068
-0.914017 -0.857952 6.024800 135 255 113 0.070292
-0.933765 -0.858143 6.078270 135 255 113 0.070444
-0.934407 -0.855392 6.043960 119 255 129 0.059860
-0.954723 -0.852421 6.063180 116 255 132 0.057878
-0.871642 -0.862743 6.020150 171 255 77 0.097212
-0.894052 -0.860730 6.005670 164 255 84 0.091063
-0.849494 -0.865277 6.034000 177 255 71 0.102691
-0.827326 -0.868895 6.048330 177 255 71 0.102147
-0.847661 -0.870658 6.069330 158 255 90 0.085908
-0.971711 -0.846325 6.049620 96 255 151 0.047970
-0.952398 -0.850457 6.031940 103 255 145 0.050540
-0.969613 -0.846521 6.018800 93 255 155 0.045443
-0.988553 -0.841157 6.036510 84 255 164 0.041698
-0.950881 -0.851816 6.001130 106 255 142 0.051887
-0.987029 -0.843432 6.006190 80 255 167 0.040654
-0.968215 -0.849431 5.988060 90 255 158 0.045127
-0.985611 -0.848317 5.975010 80 255 167 0.039706
-1.006110 -0.837331 6.024010 74 255 174 0.037939
-1.004600 -0.840974 5.993910 71 255 177 0.035985
-1.023990 -0.833738 6.011820 67 255 180 0.035207
-0.949969 -0.855614 5.969870 100 255 148 0.049858
-0.967335 -0.855802 5.956210 87 255 161 0.042598
-0.931580 -0.856200 5.981580 122 255 126 0.061836
-0.912995 -0.857736 5.993490 142 255 106 0.072981
-0.932491 -0.854096 6.012700 116 255 132 0.058336
-0.938170 -0.167131 5.920100 0 149 255 0.005334
-0.947942 -0.178863 5.910970 0 157 255 0.005930
-0.929058 -0.155555 5.929100 0 137 255 0.004469
-0.954504 -0.171572 5.937190 0 153 255 0.005637
-0.964392 -0.183611 5.928100 0 161 255 0.006261
-0.974459 -0.195688 5.919050 0 165 255 0.006949
-0.945272 -0.159890 5.945660 0 145 255 0.005214
-0.936151 -0.148392 5.953950 0 145 255 0.005041
-0.917777 -0.143090 5.938060 0 125 255 0.003883
-0.906992 -0.130431 5.947380 0 141 255 0.004764
-0.992634 -0.203556 5.934630 0 173 255 0.007628
-1.011220 -0.211154 5.949770 0 181 255 0.008302
-1.014340 -0.224815 5.929130 0 185 255 0.008853
-0.990178 -0.190579 5.954750 0 169 255 0.007087
-0.980392 -0.178328 5.963380 0 169 255 0.006987
-0.947704 -0.144807 5.976910 0 161 255 0.006433
-0.930965 -0.134353 5.974460 0 157 255 0.006107
-0.914554 -0.123749 5.971970 0 161 255 0.006528
-0.956590 -0.156552 5.968770 0 161 255 0.006379
-0.977198 -0.164832 5.982590 0 173 255 0.007378
-0.968198 -0.153155 5.990900 0 173 255 0.007587
-0.885725 -0.105526 5.965890 0 177 255 0.008099
-0.896421 -0.118026 5.956670 0 149 255 0.005556
-1.139260 -0.191941 6.527750 219 255 29 0.144954
-1.158440 -0.202012 6.508480 229 255 19 0.154290
-1.135590 -0.200016 6.548800 209 255 38 0.132284
-1.154900 -0.210129 6.530840 225 255 22 0.148945
-1.151130 -0.218086 6.551900 213 255 35 0.136460
-1.174270 -0.221221 6.510740 229 255 19 0.154702
-1.131800 -0.208862 6.568530 196 255 51 0.118861
-1.127610 -0.217748 6.588280 184 255 64 0.107880
-1.113160 -0.199808 6.583940 174 255 74 0.099005
-1.117440 -0.191011 6.564390 190 255 58 0.111856
-1.167670 -0.230017 6.534360 225 255 22 0.150210
-1.184140 -0.243894 6.515790 225 255 22 0.151641
-1.160670 -0.239481 6.556880 222 255 25 0.145235
-1.177270 -0.252565 6.539380 222 255 25 0.147691
-1.170180 -0.261865 6.562010 225 255 22 0.151205
-1.193400 -0.267372 6.520150 219 255 29 0.142044
-1.153610 -0.248981 6.578550 216 255 32 0.138856
-1.146500 -0.259354 6.599400 209 255 38 0.131450
-1.137020 -0.238112 6.593860 196 255 51 0.120249
-1.144220 -0.228044 6.573340 203 255 45 0.125358
-1.097800 -0.242857 6.658820 174 255 74 0.099552
-1.108100 -0.235713 6.633750 177 255 71 0.100312
-1.088150 -0.222610 6.655890 155 255 93 0.082039
-1.099050 -0.215696 6.629190 155 255 93 0.084401
-1.118050 -0.226902 6.610500 177 255 71 0.100564
-1.127660 -0.247461 6.616230 190 255 58 0.114248
-1.118210 -0.256046 6.638860 193 255 55 0.116105
-1.076180 -0.202357 6.654700 138 255 109 0.070965
-1.084360 -0.197377 6.627170 142 255 106 0.074578
-1.062130 -0.181251 6.655980 125 255 122 0.063691
-1.092020 -0.190136 6.602760 155 255 93 0.082740
-1.106340 -0.208274 6.606180 161 255 87 0.088662
-1.022360 -0.791839 6.234260 106 255 142 0.052996
-1.009270 -0.805548 6.220700 119 255 129 0.060325
-1.033580 -0.798351 6.205960 122 255 126 0.061703
-1.046310 -0.784971 6.219350 106 255 142 0.052963
-1.020250 -0.811377 6.191560 138 255 109 0.072344
-1.057950 -0.791230 6.191300 125 255 122 0.063988
-1.044070 -0.803841 6.177360 135 255 113 0.070389
-1.067750 -0.796268 6.163720 135 255 113 0.069691
-1.070790 -0.778325 6.204800 116 255 132 0.058084
-1.081980 -0.783660 6.177430 132 255 116 0.066760
-1.095650 -0.771116 6.190530 125 255 122 0.064310
-1.029360 -0.816213 6.162330 145 255 103 0.076050
-1.052790 -0.807995 6.148680 138 255 109 0.071409
-1.036810 -0.818877 6.132970 135 255 113 0.070476
-1.014290 -0.826116 6.148020 151 255 96 0.079876
-1.006190 -0.822907 6.177830 155 255 93 0.082805
-0.991268 -0.833368 6.163300 167 255 80 0.093044
-0.982236 -0.829273 6.193700 164 255 84 0.091215
-0.996062 -0.817576 6.207340 142 255 106 0.074197
-0.967347 -0.840970 6.179360 184 255 64 0.108253
-1.120080 -0.757427 6.175360 135 255 113 0.068972
-1.101290 -0.776637 6.162670 138 255 109 0.071074
-1.126810 -0.762012 6.147470 142 255 106 0.073602
-1.145540 -0.741994 6.159370 145 255 103 0.075092
-1.106360 -0.780987 6.134060 138 255 109 0.071660
-1.153720 -0.745849 6.131290 151 255 96 0.081273
-1.132930 -0.765163 6.118910 145 255 103 0.075981
-1.161790 -0.747228 6.103120 158 255 90 0.086314
-1.172780 -0.725187 6.142480 158 255 90 0.085579
-1.183050 -0.727369 6.114470 171 255 77 0.094828
-1.202120 -0.707279 6.125450 174 255 74 0.097591
-1.111010 -0.783536 6.105300 135 255 113 0.069541
-1.139310 -0.766106 6.090920 142 255 106 0.073676
-1.114960 -0.784522 6.077340 122 255 126 0.061387
-1.093380 -0.794589 6.090900 116 255 132 0.058378
-1.090400 -0.792735 6.119900 132 255 116 0.066621
-1.073430 -0.803399 6.104740 119 255 129 0.059792
-1.071160 -0.800725 6.134310 132 255 116 0.067985
-1.086620 -0.789137 6.148880 135 255 113 0.070193
-1.054750 -0.811234 6.118740 125 255 122 0.063409
-1.027820 -0.829270 6.041950 80 255 167 0.039366
-1.010160 -0.834279 6.054460 87 255 161 0.042436
-1.031610 -0.826395 6.072080 96 255 151 0.046922
-0.993173 -0.840195 6.067380 100 255 148 0.048656
-1.014260 -0.832348 6.085220 106 255 142 0.052971
-0.997191 -0.838819 6.098970 125 255 122 0.064153
-0.976217 -0.846280 6.080990 119 255 129 0.059957
-1.034800 -0.823400 6.102120 119 255 129 0.059026
-1.017630 -0.829511 6.116070 132 255 116 0.067781
-1.052720 -0.815366 6.088690 109 255 138 0.053574
-1.072040 -0.807055 6.075280 103 255 145 0.050993
-1.050020 -0.818389 6.059080 90 255 158 0.044120
-1.069360 -0.810563 6.046590 90 255 158 0.043630
-1.092890 -0.797800 6.062960 103 255 145 0.050256
-1.046450 -0.822333 6.029940 74 255 174 0.037457
-0.953920 -0.854512 6.095980 145 255 103 0.075428
-0.932297 -0.860980 6.111700 171 255 77 0.095390
-0.951940 -0.855350 6.129140 177 255 71 0.101868
-0.909679 -0.867986 6.127830 193 255 55 0.117357
-0.929482 -0.861876 6.145420 203 255 45 0.124970
-0.948223 -0.853374 6.162550 200 255 48 0.121569
-0.972149 -0.845156 6.146290 177 255 71 0.101135
-0.995228 -0.837248 6.130930 155 255 93 0.082089
-0.974892 -0.846717 6.113620 151 255 96 0.080752
-1.200190 -0.655718 6.252800 93 255 155 0.046280
-1.179650 -0.675555 6.250410 106 255 142 0.052063
-1.199540 -0.666728 6.224190 116 255 132 0.056929
-1.160220 -0.695772 6.248320 106 255 142 0.052644
-1.179260 -0.687056 6.222530 116 255 132 0.058413
-1.159590 -0.706805 6.220660 113 255 135 0.056018
-1.199410 -0.678385 6.197490 125 255 122 0.064365
-1.140720 -0.714960 6.246120 106 255 142 0.051851
-1.121180 -0.732907 6.243710 100 255 148 0.048559
-1.126170 -0.719045 6.268990 100 255 148 0.048473
-1.145880 -0.700494 6.271680 103 255 145 0.050449
-1.165550 -0.681042 6.274560 100 255 148 0.048339
-1.132060 -0.705294 6.296360 100 255 148 0.049194
-1.200030 -0.686406 6.179640 142 255 106 0.073742
-1.174020 -0.703048 6.196110 129 255 119 0.065635
-1.173440 -0.711273 6.178640 142 255 106 0.073166
-1.201160 -0.694073 6.161810 151 255 96 0.081561
-1.147960 -0.726915 6.194890 125 255 122 0.063129
-1.173490 -0.718697 6.161000 148 255 100 0.079438
-1.147100 -0.734803 6.177300 135 255 113 0.069300
-1.201890 -0.701059 6.143600 164 255 84 0.091853
-1.121970 -0.749343 6.193300 122 255 126 0.061982
-1.102290 -0.761372 6.204160 109 255 138 0.054486
-1.128250 -0.739808 6.206350 113 255 135 0.055452
-1.109180 -0.751910 6.217060 103 255 145 0.050008
-1.134260 -0.730148 6.219050 109 255 138 0.053927
-1.153840 -0.717026 6.207730 116 255 132 0.057006
-1.115110 -0.742470 6.230000 96 255 151 0.048070
-1.028890 -0.782103 6.248420 77 255 171 0.038303
-1.037340 -0.771636 6.260730 64 255 184 0.034033
-1.059360 -0.766199 6.246970 77 255 171 0.038763
-1.045470 -0.762087 6.273470 61 255 187 0.031697
-1.067270 -0.756261 6.259120 74 255 174 0.037611
-1.075230 -0.746658 6.271700 77 255 171 0.038223
-1.053420 -0.752831 6.286420 71 255 177 0.035968
-1.090140 -0.750430 6.245590 84 255 164 0.041887
-1.098110 -0.740281 6.257680 90 255 158 0.044964
-1.083870 -0.759571 6.232030 93 255 155 0.045836
-1.077200 -0.768727 6.218410 100 255 148 0.049629
-1.053000 -0.775449 6.233210 90 255 158 0.044617
-1.061720 -0.739018 6.312220 80 255 167 0.040545
-1.081520 -0.734100 6.298830 90 255 158 0.044144
-1.092300 -0.717568 6.323700 96 255 151 0.047364
-1.073090 -0.723064 6.337140 93 255 155 0.046489
-1.106680 -0.720353 6.297810 96 255 151 0.047459
-1.168430 -0.220709 6.113360 145 255 103 0.075194
-1.181660 -0.239966 6.097950 145 255 103 0.076219
-1.155380 -0.226280 6.088190 119 255 129 0.059686
-1.167080 -0.246072 6.073920 122 255 126 0.060826
-1.193940 -0.259837 6.083590 148 255 100 0.078647
-1.205580 -0.280717 6.069580 151 255 96 0.079708
-1.218200 -0.271254 6.094080 177 255 71 0.102868
-1.205730 -0.251241 6.108440 171 255 77 0.095439
-1.191980 -0.232080 6.124570 155 255 93 0.084415
-1.229220 -0.262761 6.119630 196 255 51 0.119321
-1.143110 -0.234334 6.063930 96 255 151 0.048028
-1.134050 -0.237768 6.051260 71 255 177 0.036324
-1.157260 -0.258060 6.050320 90 255 158 0.044305
-1.124700 -0.241732 6.038530 51 255 196 0.028392
-1.146840 -0.262749 6.037790 64 255 184 0.033450
-1.136740 -0.268233 6.024840 42 255 206 0.025586
-1.115050 -0.246431 6.025900 29 255 219 0.022077
-1.169430 -0.284020 6.036080 87 255 161 0.042680
-1.158600 -0.289334 6.023600 64 255 184 0.032885
-1.181050 -0.310363 6.022300 93 255 155 0.046130
-1.194050 -0.294473 6.045680 119 255 129 0.059896
-1.180740 -0.269557 6.059840 119 255 129 0.059843
-1.244740 -0.385599 6.026720 225 255 22 0.151421
-1.235410 -0.359294 6.036940 206 255 42 0.128036
-1.256000 -0.371098 6.051740 245 249 3 0.174453
-1.225670 -0.332573 6.048180 184 255 64 0.106974
-1.246900 -0.344919 6.062580 225 255 22 0.151119
-1.237740 -0.318901 6.072550 206 255 42 0.127827
-1.267120 -0.358267 6.077970 255 230 0 0.196000
-1.216290 -0.306144 6.058710 164 255 84 0.089600
-1.203760 -0.321440 6.034690 132 255 116 0.068427
-1.213520 -0.348842 6.023150 158 255 90 0.086873
-1.259840 -0.333483 6.087470 238 255 9 0.165275
-1.278500 -0.348202 6.102130 255 227 0 0.201681
-1.251000 -0.309100 6.097620 225 255 22 0.151832
-1.270160 -0.323817 6.111710 248 245 0 0.180362
-1.260450 -0.299862 6.121980 238 255 9 0.166971
-1.287400 -0.339132 6.127060 255 216 0 0.215123
-1.241020 -0.285327 6.108020 216 255 32 0.139561
-1.228830 -0.294647 6.083410 190 255 58 0.113545
-1.286710 -0.519312 6.189300 174 255 74 0.099170
-1.292770 -0.496452 6.180740 196 255 51 0.120223
-1.295710 -0.478118 6.159840 229 255 19 0.155916
-1.300340 -0.455215 6.150530 248 245 0 0.179930
-1.300750 -0.436975 6.128670 255 223 0 0.207273
-1.306850 -0.428618 6.154290 255 223 0 0.205339
-1.295500 -0.464168 6.124620 255 238 0 0.186894
-1.294800 -0.445592 6.101830 255 219 0 0.212970
-1.292430 -0.486764 6.133060 232 255 16 0.157167
-1.288610 -0.509689 6.141420 206 255 42 0.130446
-1.285230 -0.528008 6.163020 196 255 51 0.118398
-1.284750 -0.537096 6.135540 203 255 45 0.125739
-1.304710 -0.405425 6.146230 255 201 0 0.235896
-1.296570 -0.387387 6.126630 255 197 0 0.244391
-1.290700 -0.365388 6.120310 255 201 0 0.235540
-1.280980 -0.374560 6.095500 255 208 0 0.228024
-1.288320 -0.395909 6.101540 255 204 0 0.233016
-1.293830 -0.418202 6.108120 255 208 0 0.226541
-1.255850 -0.404678 6.029890 255 234 0 0.191794
-1.270410 -0.418336 6.047800 255 212 0 0.221930
-1.278670 -0.439324 6.053050 255 216 0 0.217012
-1.289120 -0.455465 6.072900 255 223 0 0.206043
-1.281580 -0.467526 6.045490 255 230 0 0.194767
-1.286350 -0.428698 6.081230 255 208 0 0.227760
-1.279380 -0.406508 6.075040 255 204 0 0.232337
-1.271260 -0.384993 6.069610 255 216 0 0.215323
-1.283270 -0.488494 6.051960 248 245 0 0.180998
-1.286180 -0.505139 6.074270 248 245 0 0.179319
-1.285410 -0.527104 6.081440 232 255 16 0.160011
-1.285160 -0.544360 6.103860 213 255 35 0.136742
-1.282080 -0.553285 6.073150 216 255 32 0.140518
-1.287180 -0.518791 6.112740 225 255 22 0.152376
-1.289800 -0.495673 6.104140 232 255 16 0.159667
-1.291690 -0.472382 6.095580 255 238 0 0.186694
-1.202550 -0.209853 6.209390 138 255 109 0.071774
-1.216720 -0.224724 6.194220 155 255 93 0.083359
-1.195870 -0.210711 6.185960 132 255 116 0.068136
-1.209380 -0.225198 6.171870 158 255 90 0.085435
-1.230710 -0.239492 6.180200 180 255 67 0.104321
-1.244250 -0.254440 6.166350 206 255 42 0.130539
-1.248630 -0.252545 6.189000 203 255 45 0.125619
-1.234740 -0.237473 6.203050 174 255 74 0.099915
-1.188510 -0.212979 6.162680 135 255 113 0.070599
-1.202230 -0.229670 6.147760 161 255 87 0.087925
-1.178710 -0.215409 6.138730 138 255 109 0.070720
-1.215650 -0.246390 6.133330 180 255 67 0.105193
-1.237220 -0.258601 6.142170 206 255 42 0.129269
-1.223550 -0.242027 6.156870 184 255 64 0.107498
-1.278490 -0.317364 6.134960 255 230 0 0.196631
-1.292810 -0.333760 6.148410 255 208 0 0.225563
-1.268030 -0.295892 6.144520 251 241 0 0.182505
-1.283310 -0.311945 6.157280 255 223 0 0.205714
-1.272220 -0.290747 6.167640 251 241 0 0.184405
-1.296980 -0.328463 6.170830 255 208 0 0.223523
-1.256570 -0.275193 6.154840 235 255 13 0.161812
-1.248960 -0.278966 6.131650 225 255 22 0.152475
-1.286880 -0.308634 6.180140 255 227 0 0.201333
-1.298460 -0.324819 6.192240 255 219 0 0.212373
-1.276260 -0.289288 6.189780 248 245 0 0.177361
-1.288320 -0.304903 6.201790 255 238 0 0.186166
-1.264840 -0.269585 6.200730 222 255 25 0.145451
-1.260930 -0.271779 6.177780 232 255 16 0.156680
-1.277620 -0.542097 6.183780 177 255 71 0.101220
-1.269240 -0.565129 6.177640 167 255 80 0.093451
-1.276650 -0.551432 6.157020 187 255 61 0.110598
-1.268500 -0.574969 6.150470 177 255 71 0.102726
-1.260590 -0.589023 6.171210 167 255 80 0.092864
-1.252070 -0.613434 6.164560 158 255 90 0.086350
-1.250780 -0.603485 6.192780 151 255 96 0.079956
-1.259360 -0.579618 6.199140 148 255 100 0.077463
-1.267910 -0.556457 6.205540 148 255 100 0.078272
-1.250890 -0.593418 6.219990 119 255 129 0.059609
-1.279280 -0.558884 6.126220 190 255 58 0.113181
-1.274180 -0.580302 6.116310 196 255 51 0.120826
-1.279240 -0.566617 6.094410 206 255 42 0.128363
-1.273010 -0.589105 6.086500 209 255 38 0.131780
-1.268670 -0.602621 6.107760 200 255 48 0.123898
-1.261840 -0.625633 6.099860 216 255 32 0.138123
-1.259990 -0.623012 6.116330 196 255 51 0.119829
-1.265350 -0.600491 6.124690 187 255 61 0.110533
-1.257260 -0.620080 6.132450 187 255 61 0.109323
-1.262730 -0.597177 6.141060 171 255 77 0.095901
-1.271230 -0.577815 6.133300 177 255 71 0.102295
-1.254100 -0.617006 6.148880 164 255 84 0.091973
-1.215900 -0.684478 6.134470 187 255 61 0.110378
-1.214180 -0.677927 6.153150 174 255 74 0.099382
-1.228150 -0.661170 6.144070 187 255 61 0.111093
-1.213010 -0.670338 6.171510 151 255 96 0.080238
-1.226170 -0.653672 6.162710 167 255 80 0.092289
-1.224520 -0.645581 6.181470 142 255 106 0.075065
-1.211780 -0.662097 6.189670 138 255 109 0.072056
-1.239920 -0.637353 6.153990 171 255 77 0.095982
-1.238230 -0.629319 6.173080 151 255 96 0.079963
-1.242220 -0.640876 6.138360 187 255 61 0.110085
-1.244700 -0.643874 6.122830 203 255 45 0.124954
-1.229910 -0.664285 6.128550 196 255 51 0.120088
-1.231930 -0.666632 6.113440 203 255 45 0.127526
-1.247120 -0.646004 6.106740 213 255 35 0.134941
-1.217180 -0.686708 6.119150 193 255 55 0.115032
-1.211160 -0.651054 6.216480 125 255 122 0.064090
-1.224470 -0.635076 6.208910 138 255 109 0.071628
-1.224280 -0.624315 6.236440 103 255 145 0.050996
-1.211730 -0.640102 6.244520 96 255 151 0.047024
-1.237270 -0.614162 6.214410 119 255 129 0.060253
-0.910561 -0.259058 7.002730 122 255 126 0.061218
-0.925096 -0.272850 6.974720 125 255 122 0.062731
-0.932572 -0.293353 6.948900 148 255 100 0.078961
-0.945779 -0.279513 6.945970 158 255 90 0.085208
-0.913080 -0.288370 6.974940 132 255 116 0.067841
-0.920059 -0.308309 6.950610 167 255 80 0.092073
-0.899317 -0.274822 7.001080 125 255 122 0.063497
-0.883294 -0.317496 6.974310 151 255 96 0.081913
-0.871283 -0.305798 6.996480 129 255 119 0.065238
-0.885995 -0.290672 6.998940 129 255 119 0.065289
-0.899335 -0.302997 6.974120 148 255 100 0.079022
-0.903889 -0.321866 6.950760 177 255 71 0.102429
-1.108410 -0.449359 6.607070 187 255 61 0.109783
-1.109450 -0.432431 6.620230 184 255 64 0.106746
-1.103410 -0.425181 6.636020 180 255 67 0.105325
-1.103750 -0.408873 6.647920 187 255 61 0.109195
-1.089760 -0.427409 6.654590 190 255 58 0.112965
-1.118050 -0.406810 6.629370 190 255 58 0.111915
-1.118800 -0.390704 6.641210 190 255 58 0.112027
-1.125250 -0.413506 6.613110 184 255 64 0.106097
-1.132790 -0.420214 6.595510 177 255 71 0.102138
-1.131770 -0.437239 6.581980 158 255 90 0.086401
-1.149970 -0.417527 6.573370 155 255 93 0.083903
-1.081890 -0.419703 6.672950 206 255 42 0.128163
-1.079730 -0.403478 6.687820 184 255 64 0.107712
-1.070040 -0.393899 6.707290 190 255 58 0.112079
-1.064880 -0.373318 6.727140 177 255 71 0.100991
-1.053300 -0.389520 6.734290 187 255 61 0.110993
-1.082220 -0.377250 6.700530 184 255 64 0.106080
-1.076730 -0.357235 6.719840 171 255 77 0.097264
-1.092630 -0.385837 6.681230 190 255 58 0.114210
-1.102260 -0.392800 6.662950 193 255 55 0.115518
-1.090600 -0.321392 6.707900 167 255 80 0.094507
-1.104430 -0.330695 6.684290 193 255 55 0.117003
-1.112210 -0.347510 6.668420 190 255 58 0.114622
-1.123690 -0.353266 6.650090 196 255 51 0.118392
-1.129430 -0.369581 6.634820 200 255 48 0.121404
-1.140010 -0.348241 6.627960 200 255 48 0.123193
-1.113610 -0.374338 6.656950 196 255 51 0.118417
-1.103410 -0.366935 6.674840 187 255 61 0.110687
-1.092600 -0.359186 6.693800 190 255 58 0.114687
-1.083610 -0.339176 6.713900 177 255 71 0.102699
-1.149830 -0.353378 6.611670 206 255 42 0.128805
-1.152460 -0.370673 6.598390 196 255 51 0.119949
-1.161960 -0.376245 6.579690 187 255 61 0.109156
-1.164090 -0.394148 6.564700 161 255 87 0.089368
-1.178630 -0.370383 6.555640 167 255 80 0.094217
-1.148060 -0.399891 6.587940 180 255 67 0.104234
-1.139630 -0.392990 6.606100 187 255 61 0.110858
-1.131980 -0.386342 6.622650 196 255 51 0.118340
-0.974477 -0.219746 6.934620 132 255 116 0.068482
-0.959004 -0.205278 6.966170 145 255 103 0.075427
-0.961124 -0.183005 6.961650 148 255 100 0.077409
-0.976078 -0.204502 6.931300 132 255 116 0.067246
-0.977602 -0.189559 6.928270 125 255 122 0.064074
-0.956936 -0.149385 6.959700 125 255 122 0.063606
-0.974439 -0.172859 6.926440 113 255 135 0.056605
-0.960347 -0.166447 6.960460 142 255 106 0.074512
-0.953897 -0.220809 6.968370 138 255 109 0.071293
-0.968979 -0.234416 6.938020 135 255 113 0.069648
-0.963913 -0.250017 6.940630 135 255 113 0.069703
-0.948617 -0.235843 6.971130 132 255 116 0.068524
-0.932818 -0.220712 7.002100 138 255 109 0.071983
-0.935672 -0.258293 6.973760 135 255 113 0.069193
-0.920802 -0.243619 7.002600 119 255 129 0.060238
-0.954618 -0.264490 6.943360 145 255 103 0.075676
-1.075310 -0.307259 6.739240 174 255 74 0.098025
-1.061500 -0.285205 6.766900 164 255 84 0.089756
-1.047300 -0.272709 6.794830 155 255 93 0.083473
-1.034190 -0.253571 6.818000 145 255 103 0.076720
-1.032810 -0.269324 6.822990 148 255 100 0.078181
-1.049070 -0.257207 6.789020 151 255 96 0.080938
-1.036000 -0.237849 6.813090 138 255 109 0.071122
-1.063020 -0.268241 6.761610 161 255 87 0.087209
-1.077650 -0.280592 6.731660 174 255 74 0.098998
-1.092470 -0.302747 6.702610 184 255 64 0.106808
-1.094700 -0.284563 6.696620 184 255 64 0.107462
-1.018880 -0.257581 6.849300 155 255 93 0.082264
-1.005390 -0.237853 6.874730 142 255 106 0.074486
-0.990674 -0.225601 6.902680 142 255 106 0.073180
-0.992547 -0.210655 6.898880 135 255 113 0.069213
-1.007110 -0.222594 6.870530 135 255 113 0.069905
-1.021190 -0.234010 6.842890 148 255 100 0.077689
-0.989015 -0.178070 6.893140 106 255 142 0.051817
-1.005380 -0.198649 6.864730 119 255 129 0.059187
-1.017610 -0.201507 6.834890 116 255 132 0.057949
-1.032660 -0.221133 6.809030 125 255 122 0.064111
-1.020880 -0.218611 6.838330 135 255 113 0.069133
-0.991735 -0.194385 6.895750 122 255 126 0.060881
-1.045410 -0.223385 6.779390 132 255 116 0.066834
-1.060920 -0.242474 6.754100 151 255 96 0.081292
-1.073110 -0.244111 6.723160 161 255 87 0.088547
-1.090700 -0.265233 6.692620 180 255 67 0.103132
-1.076930 -0.263059 6.726760 171 255 77 0.094809
-1.048200 -0.240181 6.784020 145 255 103 0.075607
-0.960074 -0.292455 6.919440 177 255 71 0.100350
-0.966901 -0.311102 6.897350 164 255 84 0.089904
-0.980934 -0.323629 6.872410 167 255 80 0.094570
-0.987474 -0.342369 6.851500 193 255 55 0.114836
-1.002070 -0.329680 6.844680 193 255 55 0.115335
-0.966833 -0.336985 6.878370 187 255 61 0.110126
-0.973401 -0.356130 6.857440 213 255 35 0.135827
-0.953364 -0.325171 6.901490 184 255 64 0.107035
-0.940025 -0.313385 6.924760 190 255 58 0.111876
-1.015440 -0.342125 6.820840 203 255 45 0.124374
-1.020550 -0.361105 6.800810 187 255 61 0.111059
-1.032500 -0.377409 6.772220 190 255 58 0.113172
-1.037050 -0.401605 6.744540 203 255 45 0.124986
-1.017210 -0.388574 6.783020 203 255 45 0.126046
-1.021040 -0.414302 6.754360 216 255 32 0.140018
-1.005620 -0.373939 6.809180 206 255 42 0.130382
-0.993297 -0.361499 6.831930 225 255 22 0.149064
-0.980543 -0.409450 6.800770 245 249 3 0.173888
-0.968981 -0.396808 6.823850 238 255 9 0.166961
-0.966663 -0.378966 6.842470 245 249 3 0.172645
-0.954385 -0.366881 6.863660 229 255 19 0.156434
-0.988505 -0.385923 6.816640 225 255 22 0.149843
-1.000250 -0.399203 6.792070 222 255 25 0.146829
-1.001020 -0.421299 6.766840 238 255 9 0.165262
-0.932611 -0.361852 6.887620 222 255 25 0.148191
-0.920281 -0.350890 6.908320 200 255 48 0.122813
-0.916505 -0.333379 6.928310 200 255 48 0.122274
-0.937546 -0.337986 6.905880 196 255 51 0.118260
-0.950718 -0.349595 6.883110 209 255 38 0.132604
-0.987170 -0.240934 6.906450 145 255 103 0.076377
-1.001850 -0.253343 6.878520 148 255 100 0.078261
-1.013350 -0.273051 6.853830 158 255 90 0.084782
-1.027150 -0.284773 6.827880 155 255 93 0.083771
-1.021780 -0.300189 6.833190 161 255 87 0.088449
-1.007730 -0.288217 6.858610 161 255 87 0.088422
-0.996131 -0.268546 6.882900 151 255 96 0.079785
-0.981562 -0.255688 6.910190 151 255 96 0.081010
-1.043670 -0.289035 6.800240 161 255 87 0.088768
-1.057450 -0.301287 6.773700 161 255 87 0.088578
-1.068750 -0.324373 6.745780 167 255 80 0.094148
-1.062180 -0.341441 6.751860 171 255 77 0.096668
-1.051660 -0.317410 6.779520 164 255 84 0.090513
-1.038130 -0.304472 6.805560 171 255 77 0.095698
-1.045580 -0.364399 6.763770 180 255 67 0.104519
-1.033190 -0.347570 6.793290 180 255 67 0.104032
-1.025310 -0.327027 6.815120 184 255 64 0.106885
-1.011900 -0.314793 6.838810 174 255 74 0.098875
-1.043490 -0.332800 6.786190 171 255 77 0.095117
-0.992988 -0.310111 6.867050 171 255 77 0.095411
-0.978737 -0.297526 6.892180 155 255 93 0.084386
-0.969220 -0.277621 6.916120 158 255 90 0.085910
-0.988494 -0.283248 6.887410 155 255 93 0.082237
-1.056010 -0.409305 6.714960 200 255 48 0.122819
-1.065250 -0.418776 6.694990 200 255 48 0.121968
-1.065350 -0.434194 6.680470 216 255 32 0.137923
-1.073050 -0.442201 6.661940 206 255 42 0.130671
-1.056370 -0.457253 6.669130 219 255 29 0.142955
-1.048850 -0.449059 6.687620 222 255 25 0.147091
-1.048770 -0.432975 6.703040 209 255 38 0.132341
