ply
format ascii 1.0
comment Seamless Cloth Simulation with High Geometric Fidelity 
comment Mon Apr 29 18:12:36 2019
element vertex 1039
property float x
property float y
property float z
property float quality
property uchar red
property uchar green
property uchar blue
end_header
0.221942 -0.867446 6.41149 0.999997 255 0 255 
0.210047 -0.861221 6.43353 0.999993 255 0 255 
0.214741 -0.887381 6.32023 0.999992 255 0 255 
0.241181 -0.890155 6.30547 0.999996 255 0 255 
0.253406 -0.894105 6.28227 0.999999 255 0 255 
0.28165 -0.892185 6.2989 0.999997 255 0 255 
0.269745 -0.888233 6.32177 0.999996 255 0 255 
0.257866 -0.884438 6.34458 0.999991 255 0 255 
0.340895 -0.894462 6.33518 1 255 0 255 
0.329508 -0.890663 6.35777 1 255 0 255 
0.314074 -0.88972 6.34861 1 255 0 255 
0.31807 -0.886928 6.38038 1 255 0 255 
0.302697 -0.885756 6.37121 1 255 0 255 
0.291199 -0.882097 6.39375 0.999993 255 0 255 
0.306628 -0.883353 6.40294 0.999992 255 0 255 
0.287216 -0.884751 6.36202 0.999999 255 0 255 
0.275736 -0.880939 6.38453 0.999996 255 0 255 
0.299179 -0.888532 6.33922 0.999998 255 0 255 
0.31105 -0.892263 6.31637 0.999997 255 0 255 
0.325932 -0.89336 6.32574 1 255 0 255 
0.294785 -0.876896 6.42497 1 255 0 255 
0.283211 -0.870472 6.44667 1 255 0 255 
0.267526 -0.869188 6.43775 1 255 0 255 
0.271498 -0.864403 6.46844 1 255 0 255 
0.25587 -0.862965 6.45947 1 255 0 255 
0.240127 -0.861751 6.45052 0.999998 255 0 255 
0.252091 -0.867917 6.42847 0.999997 255 0 255 
0.263964 -0.874371 6.40652 0.999997 255 0 255 
0.279402 -0.875556 6.41575 1 255 0 255 
0.506548 -0.361281 5.86277 1 255 0 255 
0.525283 -0.360612 5.87025 1 255 0 255 
0.522829 -0.385617 5.86408 1 255 0 255 
0.543957 -0.359947 5.87775 1 255 0 255 
0.541478 -0.385041 5.87162 1 255 0 255 
0.560155 -0.384361 5.87904 1 255 0 255 
0.5626 -0.359381 5.88526 1 255 0 255 
0.539055 -0.410011 5.86539 1 255 0 255 
0.557684 -0.409369 5.8728 1 255 0 255 
0.555249 -0.434281 5.86654 0.999973 255 0 255 
0.538143 -0.434333 5.85962 0.99998 255 0 255 
0.52181 -0.410165 5.85854 1 255 0 255 
0.520918 -0.434455 5.85284 0.99997 255 0 255 
0.504606 -0.410275 5.85161 1 255 0 255 
0.505536 -0.385855 5.85725 1 255 0 255 
0.488316 -0.385962 5.85025 0.999999 255 0 255 
0.503736 -0.434545 5.84593 0.999968 255 0 255 
0.487358 -0.410459 5.84472 0.999998 255 0 255 
0.48649 -0.434722 5.83915 0.99998 255 0 255 
0.489242 -0.361454 5.85585 0.999998 255 0 255 
0.580225 -0.359756 5.8919 1 255 0 255 
0.599415 -0.359447 5.89919 1 255 0 255 
0.595357 -0.385118 5.89223 1 255 0 255 
0.618525 -0.359111 5.90644 1 255 0 255 
0.614512 -0.384814 5.89945 1 255 0 255 
0.610486 -0.410403 5.89254 1 255 0 255 
0.608015 -0.435222 5.88613 0.999979 255 0 255 
0.592946 -0.409983 5.88591 1 255 0 255 
0.59052 -0.434825 5.87951 0.999964 255 0 255 
0.575367 -0.409644 5.87933 1 255 0 255 
0.577801 -0.384719 5.88561 1 255 0 255 
0.572895 -0.434557 5.87306 0.999967 255 0 255 
0.591643 -0.516559 5.88159 1 255 0 255 
0.571563 -0.541732 5.87365 0.999946 255 0 255 
0.579506 -0.489157 5.87677 0.999999 255 0 255 
0.55935 -0.514528 5.86894 1 255 0 255 
0.547193 -0.487179 5.86398 1 255 0 255 
0.539289 -0.539656 5.8612 0.999957 255 0 255 
0.567413 -0.461718 5.87176 1 255 0 255 
0.584984 -0.462018 5.87819 1 255 0 255 
0.602514 -0.462354 5.88468 1 255 0 255 
0.59703 -0.489441 5.88312 1 255 0 255 
0.526112 -0.51349 5.85593 0.999999 255 0 255 
0.507706 -0.53858 5.84821 0.999957 255 0 255 
0.512931 -0.487268 5.85053 1 255 0 255 
0.494478 -0.512522 5.84274 1 255 0 255 
0.481185 -0.486367 5.83716 0.999999 255 0 255 
0.47602 -0.537478 5.83506 0.999968 255 0 255 
0.499714 -0.461035 5.84491 0.999999 255 0 255 
0.516895 -0.460956 5.8517 1 255 0 255 
0.534052 -0.460869 5.8585 1 255 0 255 
0.530037 -0.487258 5.85729 1 255 0 255 
0.486095 -0.564248 5.84659 0.999999 255 0 255 
0.496115 -0.591114 5.85796 0.999999 255 0 255 
0.517668 -0.565476 5.85961 1 255 0 255 
0.527522 -0.592409 5.87093 1 255 0 255 
0.506055 -0.617925 5.8692 0.999998 255 0 255 
0.51604 -0.644776 5.88002 0.999946 255 0 255 
0.486509 -0.642725 5.86661 0.999937 255 0 255 
0.47639 -0.615951 5.85572 1 255 0 255 
0.466303 -0.589241 5.84446 1 255 0 255 
0.45688 -0.640732 5.85312 0.999949 255 0 255 
0.548585 -0.567746 5.87274 0.999999 255 0 255 
0.557884 -0.595811 5.88408 0.999999 255 0 255 
0.580753 -0.569974 5.88508 1 255 0 255 
0.552042 -0.622153 5.88871 1 255 0 255 
0.546211 -0.64837 5.89318 0.999958 255 0 255 
0.521618 -0.72038 5.92796 1 255 0 255 
0.529374 -0.696536 5.91705 0.999996 255 0 255 
0.500558 -0.692232 5.90244 1 255 0 255 
0.492908 -0.716095 5.91335 0.999999 255 0 255 
0.522767 -0.670626 5.8986 0.999998 255 0 255 
0.552795 -0.674281 5.91169 1 255 0 255 
0.464369 -0.713923 5.89962 1 255 0 255 
0.471281 -0.6901 5.8891 0.999997 255 0 255 
0.443013 -0.687976 5.87474 1 255 0 255 
0.436194 -0.711832 5.88518 1 255 0 255 
0.464093 -0.665364 5.87116 0.999998 255 0 255 
0.49357 -0.667436 5.8846 1 255 0 255 
0.761604 -1.00572 6.76852 1 255 0 255 
0.783596 -0.995158 6.7829 0.999996 255 0 255 
0.770218 -1.01393 6.75157 1 255 0 255 
0.792191 -1.00338 6.76599 1 255 0 255 
0.800726 -1.01158 6.74903 0.999997 255 0 255 
0.778752 -1.02213 6.73462 0.999996 255 0 255 
0.814232 -0.993047 6.78048 1 255 0 255 
0.822734 -1.00127 6.76351 0.999995 255 0 255 
0.844819 -0.991153 6.77805 0.999961 255 0 255 
0.830775 -0.979364 6.80266 0.999943 255 0 255 
0.800098 -0.981261 6.80505 0.999991 255 0 255 
0.798064 -1.03828 6.70366 0.999999 255 0 255 
0.818812 -1.02293 6.72916 0.999997 255 0 255 
0.808237 -1.0488 6.6826 1 255 0 255 
0.828997 -1.03346 6.70811 1 255 0 255 
0.839159 -1.04395 6.68702 1 255 0 255 
0.818387 -1.05931 6.66152 1 255 0 255 
0.849875 -1.01838 6.73368 0.999997 255 0 255 
0.860007 -1.02887 6.71259 1 255 0 255 
0.88095 -1.01404 6.73823 0.999886 255 0 255 
0.862943 -1.0026 6.75815 0.99994 255 0 255 
0.957312 -0.932209 6.80102 0.999945 255 0 255 
0.92909 -0.946832 6.79532 0.999999 255 0 255 
0.942655 -0.92554 6.81279 0.999913 255 0 255 
0.900892 -0.961458 6.78953 0.999999 255 0 255 
0.914436 -0.940174 6.80703 0.999996 255 0 255 
0.886266 -0.954875 6.80126 0.999986 255 0 255 
0.928052 -0.91888 6.82453 0.99994 255 0 255 
0.872824 -0.976251 6.78377 0.999991 255 0 255 
0.890905 -0.987713 6.76387 0.999999 255 0 255 
0.918944 -0.973014 6.76959 0.999997 255 0 255 
0.900084 -0.93094 6.82524 0.999998 255 0 255 
0.917296 -0.911959 6.83911 0.999924 255 0 255 
0.872196 -0.943048 6.82586 0.999998 255 0 255 
0.889362 -0.924015 6.83978 0.999995 255 0 255 
0.851422 -0.96116 6.81425 0.999999 255 0 255 
0.972461 -0.908118 6.80793 0.999997 255 0 255 
0.952293 -0.89887 6.82324 0.999994 255 0 255 
0.935698 -0.889533 6.84105 0.999998 255 0 255 
0.950979 -0.955227 6.77895 1 255 0 255 
0.944681 -0.978181 6.75689 1 255 0 255 
0.912729 -0.996051 6.74753 0.999999 255 0 255 
0.906618 -1.01907 6.7255 0.9999 255 0 255 
0.938368 -1.00115 6.73482 1 255 0 255 
0.932133 -1.02416 6.71279 0.999896 255 0 255 
0.963072 -0.981627 6.74779 1 255 0 255 
0.969441 -0.958681 6.76987 1 255 0 255 
0.975781 -0.93571 6.79193 0.999947 255 0 255 
0.994187 -0.939208 6.7828 0.999959 255 0 255 
0.88208 -1.0299 6.7069 1 255 0 255 
0.861189 -1.04484 6.68131 1 255 0 255 
0.883152 -1.04579 6.67557 0.999999 255 0 255 
0.840321 -1.06004 6.65576 1 255 0 255 
0.862295 -1.06086 6.65004 1 255 0 255 
0.841459 -1.07622 6.62453 0.999724 255 0 255 
0.819515 -1.07554 6.63025 0.999729 255 0 255 
0.884258 -1.06174 6.64429 0.999999 255 0 255 
0.863309 -1.07694 6.61875 0.999723 255 0 255 
0.885188 -1.07774 6.61297 0.999756 255 0 255 
0.908607 -1.05069 6.6628 0.999998 255 0 255 
0.907659 -1.03484 6.69413 1 255 0 255 
0.950695 -1.07615 6.60023 0.999875 255 0 255 
0.959405 -1.06329 6.62463 0.999996 255 0 255 
0.954866 -1.05032 6.65275 0.999999 255 0 255 
0.963621 -1.03758 6.67726 0.999999 255 0 255 
0.958941 -1.02466 6.70543 0.999934 255 0 255 
0.985652 -1.02521 6.69801 0.999903 255 0 255 
0.936947 -1.03708 6.68462 0.999999 255 0 255 
0.91336 -1.06376 6.63472 1 255 0 255 
0.917963 -1.07688 6.60661 0.999829 255 0 255 
0.997285 -1.00437 6.71585 1 255 0 255 
0.999448 -0.982886 6.73707 1 255 0 255 
1.01111 -0.962075 6.75495 1 255 0 255 
0.992147 -0.960761 6.76165 1 255 0 255 
0.961001 -1.00316 6.72657 1 255 0 255 
1.07612 -1.01121 6.68655 0.999944 255 0 255 
1.06245 -1.0237 6.66492 0.999999 255 0 255 
1.06872 -1.03062 6.64362 1 255 0 255 
1.06422 -1.04107 6.62149 1 255 0 255 
1.07029 -1.04812 6.60021 0.999906 255 0 255 
1.04906 -1.05508 6.59861 0.999886 255 0 255 
1.08549 -1.0341 6.62308 1 255 0 255 
1.09151 -1.04106 6.60178 0.999921 255 0 255 
1.08855 -1.02506 6.64385 1 255 0 255 
1.09157 -1.01608 6.66466 1 255 0 255 
1.10451 -1.02882 6.62348 1 255 0 255 
1.11118 -1.03458 6.60369 0.999952 255 0 255 
1.05974 -1.02122 6.40674 0.999999 255 0 255 
1.0443 -1.03451 6.43298 1 255 0 255 
1.0413 -1.04444 6.46098 1 255 0 255 
1.02585 -1.05787 6.48716 0.999945 255 0 255 
1.0507 -1.05109 6.49067 0.999961 255 0 255 
1.0164 -1.05135 6.45742 0.999998 255 0 255 
1.0009 -1.06477 6.48358 0.999899 255 0 255 
1.01875 -1.04098 6.42818 0.999998 255 0 255 
1.02116 -1.03076 6.39892 0.999999 255 0 255 
1.05039 -1.05194 6.51768 0.999998 255 0 255 
1.0387 -1.05607 6.54421 1 255 0 255 
1.03825 -1.05709 6.57117 1 255 0 255 
1.02639 -1.06132 6.59771 0.99989 255 0 255 
1.01563 -1.06343 6.57026 0.999998 255 0 255 
1.00365 -1.0677 6.59674 0.999821 255 0 255 
1.01489 -1.06261 6.54201 0.999999 255 0 255 
1.01418 -1.0619 6.5137 0.999998 255 0 255 
0.949096 -1.0757 6.57055 0.999987 255 0 255 
0.961796 -1.07285 6.54145 0.999995 255 0 255 
0.960066 -1.07261 6.51175 0.999998 255 0 255 
0.9726 -1.06995 6.48254 0.999919 255 0 255 
0.944196 -1.07525 6.48147 0.999875 255 0 255 
0.988487 -1.0675 6.51279 0.999999 255 0 255 
0.989182 -1.06814 6.54111 0.999999 255 0 255 
0.989833 -1.06891 6.56935 0.999998 255 0 255 
0.977157 -1.07189 6.59848 0.99985 255 0 255 
0.946561 -1.06476 6.45072 0.999988 255 0 255 
0.963123 -1.05183 6.42198 0.999997 255 0 255 
0.965358 -1.0415 6.39108 0.999999 255 0 255 
0.993933 -1.03655 6.39529 0.999999 255 0 255 
0.991532 -1.04667 6.42466 0.999999 255 0 255 
0.989147 -1.05696 6.45388 0.999999 255 0 255 
1.04416 -1.0465 6.62156 1 255 0 255 
1.04861 -1.03601 6.64366 1 255 0 255 
1.04359 -1.02746 6.66663 1 255 0 255 
1.04793 -1.01701 6.68876 0.999932 255 0 255 
1.02903 -1.0208 6.69046 0.999912 255 0 255 
1.0227 -1.03245 6.66699 0.999999 255 0 255 
1.02779 -1.04101 6.64402 1 255 0 255 
1.02139 -1.05275 6.62061 0.999999 255 0 255 
1.06639 -0.995523 6.70542 1 255 0 255 
1.04688 -0.981484 6.72546 1 255 0 255 
1.04744 -0.999289 6.70713 1 255 0 255 
1.03151 -0.961645 6.74969 1 255 0 255 
1.01982 -0.982485 6.73185 1 255 0 255 
1.01899 -1.00222 6.71212 1 255 0 255 
1.00735 -1.02298 6.69427 0.999909 255 0 255 
0.99032 -1.0358 6.67269 0.999999 255 0 255 
0.981495 -1.04846 6.64822 0.999999 255 0 255 
0.986031 -1.0591 6.6229 1 255 0 255 
1.00563 -1.04526 6.64544 0.999999 255 0 255 
0.842181 -1.05053 6.38565 0.999999 255 0 255 
0.854072 -1.06007 6.41994 1 255 0 255 
0.873481 -1.05052 6.38812 1 255 0 255 
0.885511 -1.0604 6.4224 0.999999 255 0 255 
0.86606 -1.06996 6.45416 0.999999 255 0 255 
0.878253 -1.08039 6.48807 0.999862 255 0 255 
0.860517 -1.07943 6.48781 0.999908 255 0 255 
0.848445 -1.06935 6.45388 1 255 0 255 
0.842859 -1.07868 6.48762 0.999909 255 0 255 
0.830915 -1.06892 6.45365 1 255 0 255 
0.836494 -1.05967 6.41973 1 255 0 255 
0.825332 -1.07828 6.48748 0.999931 255 0 255 
0.905623 -1.04909 6.38773 0.999996 255 0 255 
0.918458 -1.05749 6.41909 0.999995 255 0 255 
0.935946 -1.04574 6.38854 0.999999 255 0 255 
0.914948 -1.06758 6.45198 0.999999 255 0 255 
0.911314 -1.07776 6.48477 0.999942 255 0 255 
0.916277 -1.07719 6.57543 1 255 0 255 
0.914598 -1.07773 6.54424 0.999996 255 0 255 
0.881884 -1.07878 6.55064 0.999994 255 0 255 
0.88353 -1.07816 6.5818 0.999997 255 0 255 
0.896429 -1.07893 6.51619 0.999994 255 0 255 
0.929423 -1.07644 6.51286 0.999999 255 0 255 
0.865665 -1.0769 6.5816 0.999998 255 0 255 
0.84385 -1.07625 6.58741 1 255 0 255 
0.846246 -1.07651 6.55024 0.999998 255 0 255 
0.822058 -1.07574 6.59322 0.999999 255 0 255 
0.824443 -1.07603 6.55603 0.999998 255 0 255 
0.82686 -1.07683 6.51883 0.999998 255 0 255 
0.844544 -1.07749 6.51899 1 255 0 255 
0.862255 -1.07837 6.51914 0.999999 255 0 255 
0.864047 -1.07756 6.55044 1 255 0 255 
1.13268 -1.02671 6.58092 1 255 0 255 
1.13445 -1.02532 6.5564 0.999999 255 0 255 
1.14635 -1.02166 6.53363 1 255 0 255 
1.15814 -1.01799 6.5109 0.999982 255 0 255 
1.13799 -1.02285 6.50729 0.999966 255 0 255 
1.14187 -1.01378 6.48142 0.999996 255 0 255 
1.15689 -1.00303 6.45809 0.999999 255 0 255 
1.16076 -0.994146 6.43219 0.999999 255 0 255 
1.18299 -0.990427 6.4374 1 255 0 255 
1.16311 -1.00959 6.48575 1 255 0 255 
1.06091 -1.05029 6.57371 1 255 0 255 
1.06133 -1.04922 6.54676 1 255 0 255 
1.073 -1.04456 6.52185 1 255 0 255 
1.07329 -1.04363 6.49483 0.999953 255 0 255 
1.09596 -1.0362 6.49899 0.999957 255 0 255 
1.09486 -1.03734 6.52465 1 255 0 255 
1.08322 -1.04206 6.5496 1 255 0 255 
1.08211 -1.04327 6.57531 1 255 0 255 
1.06543 -1.03785 6.46593 0.999999 255 0 255 
1.06847 -1.02787 6.43795 1 255 0 255 
1.08314 -1.0148 6.41311 1 255 0 255 
1.1061 -1.00787 6.41841 0.999999 255 0 255 
1.09139 -1.02096 6.44322 1 255 0 255 
1.08805 -1.0304 6.47008 1 255 0 255 
1.13922 -0.999418 6.42754 1 255 0 255 
1.13528 -1.0082 6.45343 0.999999 255 0 255 
1.12091 -1.02049 6.47728 1 255 0 255 
1.11694 -1.02947 6.50316 0.999973 255 0 255 
1.11373 -1.0144 6.44832 1 255 0 255 
1.12644 -1.02732 6.53091 1 255 0 255 
1.11489 -1.03187 6.55452 1 255 0 255 
1.11306 -1.03321 6.5791 1 255 0 255 
-0.452402 -0.55798 5.14352 0.999994 255 0 255 
-0.437754 -0.549997 5.14838 0.999996 255 0 255 
-0.419551 -0.548625 5.14859 0.999999 255 0 255 
-0.404952 -0.540334 5.15332 0.999999 255 0 255 
-0.386771 -0.538602 5.15329 0.99999 255 0 255 
-0.394052 -0.525171 5.16253 0.999988 255 0 255 
-0.397605 -0.553653 5.1441 0.999999 255 0 255 
-0.379456 -0.551928 5.1441 0.999988 255 0 255 
-0.407075 -0.568667 5.13377 0.999997 255 0 255 
-0.425392 -0.570236 5.13357 1 255 0 255 
-0.443669 -0.571582 5.13325 0.999996 255 0 255 
-0.434727 -0.584964 5.12305 0.999992 255 0 255 
-0.37819 -0.520398 5.16864 0.999999 255 0 255 
-0.360216 -0.521823 5.17052 0.999999 255 0 255 
-0.344313 -0.516992 5.17653 1 255 0 255 
-0.326433 -0.518463 5.17817 0.999984 255 0 255 
-0.336561 -0.536179 5.16332 1 255 0 255 
-0.368812 -0.540072 5.15514 1 255 0 255 
-0.308858 -0.554007 5.15588 0.999986 255 0 255 
-0.326506 -0.553527 5.15302 1 255 0 255 
-0.335354 -0.565367 5.14275 1 255 0 255 
-0.353008 -0.564873 5.13971 1 255 0 255 
-0.361806 -0.576533 5.12941 0.999988 255 0 255 
-0.347498 -0.547307 5.15346 1 255 0 255 
-0.318931 -0.536688 5.16626 0.999986 255 0 255 
-0.379969 -0.578778 5.12797 0.999999 255 0 255 
-0.387797 -0.593395 5.11835 0.999999 255 0 255 
-0.406015 -0.595482 5.11681 0.999999 255 0 255 
-0.424258 -0.597428 5.11503 0.999996 255 0 255 
-0.413777 -0.609757 5.107 0.999991 255 0 255 
-0.416455 -0.583037 5.1248 1 255 0 255 
-0.109 -0.671586 5.39813 0.999987 255 0 255 
-0.103805 -0.695205 5.41116 0.999998 255 0 255 
-0.100582 -0.720706 5.42048 0.999992 255 0 255 
-0.096022 -0.74499 5.43368 0.999985 255 0 255 
-0.0933185 -0.77114 5.44315 0.999964 255 0 255 
-0.109891 -0.704433 5.39733 0.999976 255 0 255 
-0.114951 -0.682003 5.3845 0.999985 255 0 255 
-0.0926663 -0.791437 5.46167 0.999995 255 0 255 
-0.096862 -0.81491 5.46812 0.999992 255 0 255 
-0.0998431 -0.838138 5.47921 0.999967 255 0 255 
-0.10414 -0.86168 5.48543 0.999956 255 0 255 
-0.0987519 -0.795944 5.44616 0.999962 255 0 255 
-0.107827 -0.862965 5.4626 0.99994 255 0 255 
-0.105331 -0.841679 5.45311 0.999657 255 0 255 
-0.102436 -0.819421 5.44641 0.999946 255 0 255 
-0.0981599 -0.776676 5.427 0.999888 255 0 255 
-0.103173 -0.755292 5.41137 0.999914 255 0 255 
-0.107091 -0.731275 5.40135 0.999968 255 0 255 
-0.10075 -0.800526 5.42618 0.999873 255 0 255 
-0.102977 -0.862276 5.44593 0.99996 255 0 255 
-0.100246 -0.822156 5.42771 0.999792 255 0 255 
-0.100092 -0.842184 5.43425 0.999902 255 0 255 
-0.0956131 -0.782122 5.40387 0.999851 255 0 255 
-0.118233 -0.701917 5.35126 0.999885 255 0 255 
-0.113019 -0.72074 5.36693 0.999641 255 0 255 
-0.107868 -0.740126 5.38272 0.999938 255 0 255 
-0.10166 -0.760905 5.39321 0.999752 255 0 255 
-0.118967 -0.693191 5.3677 0.999984 255 0 255 
-0.113081 -0.883148 5.50195 0.999996 255 0 255 
-0.125154 -0.904231 5.50357 0.999992 255 0 255 
-0.136876 -0.925931 5.51086 0.999991 255 0 255 
-0.148929 -0.946604 5.51217 0.999964 255 0 255 
-0.11741 -0.883141 5.48265 0.999991 255 0 255 
-0.165945 -0.965861 5.52694 0.999999 255 0 255 
-0.182604 -0.981382 5.52268 0.999999 255 0 255 
-0.200131 -0.998366 5.52561 0.999999 255 0 255 
-0.216563 -1.01354 5.52123 0.999958 255 0 255 
-0.198498 -0.994118 5.50534 0.999999 255 0 255 
-0.182239 -0.977873 5.50384 0.999999 255 0 255 
-0.165606 -0.96234 5.50805 1 255 0 255 
-0.210372 -1.00499 5.48839 0.999968 255 0 255 
-0.194907 -0.989338 5.48767 0.999998 255 0 255 
-0.179344 -0.973507 5.48676 0.999979 255 0 255 
-0.164122 -0.95836 5.48982 0.99998 255 0 255 
-0.148817 -0.943135 5.49273 0.999961 255 0 255 
-0.13789 -0.922079 5.47941 0.999781 255 0 255 
-0.127692 -0.902308 5.47744 0.999937 255 0 255 
-0.19378 -0.994704 5.45689 0.999971 255 0 255 
-0.179562 -0.979915 5.45749 0.99995 255 0 255 
-0.16723 -0.965777 5.46113 0.999938 255 0 255 
-0.152878 -0.950867 5.46157 0.999925 255 0 255 
-0.140367 -0.936634 5.46503 0.999935 255 0 255 
-0.189024 -0.984353 5.47185 0.999991 255 0 255 
-0.203815 -0.999336 5.47202 0.999988 255 0 255 
-0.127424 -0.916898 5.45465 0.999719 255 0 255 
-0.119644 -0.898827 5.45276 0.999833 255 0 255 
-0.110629 -0.880555 5.44806 0.999943 255 0 255 
-0.116874 -0.88197 5.46493 0.999954 255 0 255 
-0.329993 -1.06371 5.39894 0.99999 255 0 255 
-0.312904 -1.05691 5.40744 0.999997 255 0 255 
-0.299248 -1.05129 5.42058 0.999998 255 0 255 
-0.28192 -1.04473 5.42909 0.999999 255 0 255 
-0.268004 -1.03936 5.44216 0.999978 255 0 255 
-0.293772 -1.04811 5.44341 0.999996 255 0 255 
-0.312511 -1.05455 5.43548 0.999994 255 0 255 
-0.326278 -1.06007 5.42233 0.999997 255 0 255 
-0.344816 -1.06673 5.4144 0.999994 255 0 255 
-0.244393 -1.02643 5.43896 0.999993 255 0 255 
-0.230177 -1.01705 5.44875 0.999972 255 0 255 
-0.213311 -1.00647 5.45471 0.999964 255 0 255 
-0.257284 -1.03123 5.45658 0.999996 255 0 255 
-0.229224 -1.01552 5.48419 0.999995 255 0 255 
-0.245536 -1.02458 5.47501 0.999999 255 0 255 
-0.28014 -1.0444 5.46142 0.999977 255 0 255 
-0.26676 -1.0364 5.47577 0.999999 255 0 255 
-0.305421 -1.05299 5.46431 0.999997 255 0 255 
-0.321668 -1.05803 5.45134 0.999999 255 0 255 
-0.341673 -1.06415 5.4441 0.999999 255 0 255 
-0.357646 -1.06956 5.4311 0.999995 255 0 255 
-0.251786 -1.02875 5.49092 0.999999 255 0 255 
-0.234326 -1.02076 5.50353 0.999998 255 0 255 
-0.272418 -1.04039 5.49222 1 255 0 255 
-0.292979 -1.0519 5.49353 0.999974 255 0 255 
-0.287234 -1.04821 5.47702 0.999986 255 0 255 
-0.257899 -1.03417 5.51733 0.999996 255 0 255 
-0.238132 -1.02571 5.52653 1 255 0 255 
-0.279406 -1.04597 5.52263 0.999995 255 0 255 
-0.300923 -1.05759 5.52797 0.999971 255 0 255 
-0.296971 -1.05482 5.51076 0.999979 255 0 255 
-0.389158 -1.07692 5.50688 0.999981 255 0 255 
-0.36516 -1.07068 5.50354 0.999997 255 0 255 
-0.383137 -1.07566 5.48768 0.999975 255 0 255 
-0.341086 -1.06456 5.50021 0.999998 255 0 255 
-0.359131 -1.06932 5.48435 1 255 0 255 
-0.335107 -1.06302 5.48106 0.999998 255 0 255 
-0.377061 -1.07428 5.4685 0.999986 255 0 255 
-0.31702 -1.05832 5.49688 0.999998 255 0 255 
-0.321079 -1.06098 5.51409 1 255 0 255 
-0.345156 -1.06707 5.51743 1 255 0 255 
-0.351272 -1.06675 5.46275 0.999999 255 0 255 
-0.368408 -1.07203 5.44912 0.999988 255 0 255 
-0.364511 -1.02884 5.1663 0.999981 255 0 255 
-0.363429 -1.0396 5.19046 1 255 0 255 
-0.362388 -1.05055 5.21456 0.999979 255 0 255 
-0.342907 -1.0443 5.1962 0.999996 255 0 255 
-0.382983 -1.04577 5.20883 0.999995 255 0 255 
-0.405563 -1.04005 5.20099 1 255 0 255 
-0.384993 -1.03444 5.18362 0.999996 255 0 255 
-0.407675 -1.02878 5.17584 0.999979 255 0 255 
-0.326806 -1.05202 5.21631 0.999995 255 0 255 
-0.34212 -1.05627 5.23662 1 255 0 255 
-0.321025 -1.05796 5.24171 0.999995 255 0 255 
-0.300024 -1.05965 5.24683 0.999988 255 0 255 
-0.336373 -1.06228 5.262 0.999977 255 0 255 
-0.358652 -1.06022 5.25605 0.999998 255 0 255 
-0.37893 -1.05439 5.23404 0.999996 255 0 255 
-0.383584 -1.0677 5.28601 0.999987 255 0 255 
-0.396294 -1.06025 5.25846 1 255 0 255 
-0.409102 -1.05292 5.23093 0.999972 255 0 255 
-0.417726 -1.05765 5.25059 0.999996 255 0 255 
-0.376165 -1.06249 5.26553 0.999995 255 0 255 
-0.438322 -1.04805 5.22684 0.999995 255 0 255 
-0.42562 -1.04142 5.20887 1 255 0 255 
-0.445738 -1.03545 5.19993 1 255 0 255 
-0.465897 -1.02961 5.19088 0.999981 255 0 255 
-0.433053 -1.02895 5.18198 0.999976 255 0 255 
-0.209041 -0.53623 5.25904 0.999974 255 0 255 
-0.222959 -0.534146 5.2445 0.999997 255 0 255 
-0.236786 -0.532211 5.23013 0.999997 255 0 255 
-0.209448 -0.54986 5.24689 0.999959 255 0 255 
-0.223261 -0.547938 5.23247 0.999993 255 0 255 
-0.250497 -0.530335 5.21553 0.999998 255 0 255 
-0.264302 -0.528431 5.20091 0.999941 255 0 255 
-0.266686 -0.511719 5.21347 0.999973 255 0 255 
-0.25273 -0.51372 5.22812 0.999992 255 0 255 
-0.232938 -0.551589 5.21488 0.999997 255 0 255 
-0.206857 -0.566522 5.23217 0.999955 255 0 255 
-0.218557 -0.565152 5.21808 0.999996 255 0 255 
-0.244646 -0.550226 5.2008 0.999996 255 0 255 
-0.256318 -0.548821 5.18673 0.999973 255 0 255 
-0.301107 -0.541848 5.17059 1 255 0 255 
-0.293243 -0.529649 5.18538 0.999999 255 0 255 
-0.273517 -0.540003 5.18616 1 255 0 255 
-0.282537 -0.551473 5.1712 1 255 0 255 
-0.31066 -0.518415 5.18599 1 255 0 255 
-0.296931 -0.512236 5.19801 1 255 0 255 
-0.283083 -0.506083 5.20988 0.999999 255 0 255 
-0.120514 -0.65031 5.38064 0.999998 255 0 255 
-0.132106 -0.629538 5.36329 0.999998 255 0 255 
-0.143399 -0.609217 5.34594 0.999998 255 0 255 
-0.154567 -0.588948 5.32863 0.99999 255 0 255 
-0.149449 -0.576012 5.34024 0.999988 255 0 255 
-0.138414 -0.596351 5.35764 0.999992 255 0 255 
-0.126039 -0.661923 5.36693 0.999994 255 0 255 
-0.137116 -0.642538 5.34937 0.999993 255 0 255 
-0.148059 -0.623416 5.33199 0.999994 255 0 255 
-0.158615 -0.604397 5.3144 0.999988 255 0 255 
-0.195743 -0.549442 5.27657 0.999991 255 0 255 
-0.182219 -0.562469 5.29405 0.999995 255 0 255 
-0.205505 -0.519651 5.27215 0.999972 255 0 255 
-0.19217 -0.53309 5.28976 0.999996 255 0 255 
-0.168529 -0.575731 5.31144 0.999995 255 0 255 
-0.200507 -0.502083 5.28577 0.999961 255 0 255 
-0.1765 -0.54297 5.31066 0.999997 255 0 255 
-0.186784 -0.5166 5.30295 0.999997 255 0 255 
-0.162242 -0.557219 5.32745 0.999997 255 0 255 
-0.237474 -0.514819 5.24348 0.999995 255 0 255 
-0.265866 -0.493036 5.22755 0.999962 255 0 255 
-0.25041 -0.494182 5.24304 0.999996 255 0 255 
-0.234092 -0.497106 5.2572 0.999999 255 0 255 
-0.220478 -0.511136 5.26248 0.999995 255 0 255 
-0.299527 -0.491955 5.21325 0.999997 255 0 255 
-0.315003 -0.498907 5.19999 1 255 0 255 
-0.331213 -0.491773 5.19764 0.999981 255 0 255 
-0.315636 -0.484733 5.21089 0.999999 255 0 255 
-0.331764 -0.477433 5.2085 0.999983 255 0 255 
-0.281827 -0.48588 5.22539 0.999999 255 0 255 
-0.327952 -0.448175 5.23157 0.999965 255 0 255 
-0.310307 -0.449122 5.23831 1 255 0 255 
-0.29437 -0.457106 5.23985 1 255 0 255 
-0.276861 -0.458094 5.24638 0.999999 255 0 255 
-0.260946 -0.466061 5.24773 0.99996 255 0 255 
-0.296939 -0.471322 5.22902 0.999999 255 0 255 
-0.312924 -0.463464 5.22743 1 255 0 255 
-0.329999 -0.462844 5.22011 0.999978 255 0 255 
-0.242451 -0.461671 5.26736 0.999995 255 0 255 
-0.229088 -0.477254 5.27211 0.999999 255 0 255 
-0.213832 -0.486688 5.28143 0.999995 255 0 255 
-0.129172 -0.672691 5.35218 0.999983 255 0 255 
-0.140003 -0.654272 5.33428 0.99998 255 0 255 
-0.150529 -0.636065 5.31622 0.999953 255 0 255 
-0.160292 -0.616374 5.30088 0.999964 255 0 255 
-0.138902 -0.664004 5.3194 0.999965 255 0 255 
-0.128462 -0.682612 5.33522 0.999889 255 0 255 
-0.194755 -0.582088 5.24684 0.999993 255 0 255 
-0.183505 -0.593716 5.26496 0.999982 255 0 255 
-0.172048 -0.605042 5.28302 0.999994 255 0 255 
-0.197032 -0.567043 5.26098 0.99999 255 0 255 
-0.184487 -0.579429 5.27897 0.999992 255 0 255 
-0.171684 -0.591992 5.29676 0.999994 255 0 255 
-0.185926 -0.602525 5.2047 0.999934 255 0 255 
-0.198251 -0.605022 5.17893 0.999963 255 0 255 
-0.183191 -0.612063 5.187 0.999986 255 0 255 
-0.16792 -0.618845 5.19506 0.999946 255 0 255 
-0.210679 -0.607456 5.1533 0.999926 255 0 255 
-0.214237 -0.596423 5.17139 0.999998 255 0 255 
-0.230049 -0.587739 5.16385 0.999978 255 0 255 
-0.159955 -0.625086 5.17947 0.999996 255 0 255 
-0.151747 -0.630948 5.16375 0.999994 255 0 255 
-0.140043 -0.631112 5.18782 0.999925 255 0 255 
-0.171559 -0.624939 5.15555 0.999962 255 0 255 
-0.191831 -0.617306 5.14785 0.999949 255 0 255 
-0.216422 -0.637288 5.11002 0.999976 255 0 255 
-0.224696 -0.624909 5.12381 0.999993 255 0 255 
-0.232975 -0.612496 5.13781 0.999982 255 0 255 
-0.245475 -0.622216 5.11914 0.999976 255 0 255 
-0.204096 -0.627332 5.12887 0.999995 255 0 255 
-0.18372 -0.629556 5.13427 0.999977 255 0 255 
-0.260324 -0.612213 5.12519 0.999975 255 0 255 
-0.259198 -0.599764 5.13821 1 255 0 255 
-0.275754 -0.596834 5.1335 0.999988 255 0 255 
-0.231513 -0.600098 5.15073 1 255 0 255 
-0.113007 -0.639106 5.18284 0.999937 255 0 255 
-0.0955524 -0.643423 5.18048 0.999934 255 0 255 
-0.115988 -0.640811 5.15804 0.999999 255 0 255 
-0.0985366 -0.645104 5.15566 1 255 0 255 
-0.0812051 -0.649641 5.15337 1 255 0 255 
-0.0781795 -0.64801 5.17809 0.999949 255 0 255 
-0.0606967 -0.652424 5.17599 0.999973 255 0 255 
-0.101558 -0.646738 5.13089 0.999944 255 0 255 
-0.119343 -0.641731 5.13348 0.999898 255 0 255 
-0.137057 -0.636595 5.13626 0.99992 255 0 255 
-0.133884 -0.635829 5.16078 0.999999 255 0 255 
-0.154912 -0.631765 5.13924 0.999952 255 0 255 
-0.0392286 -0.656762 5.17256 0.999939 255 0 255 
-0.0274705 -0.660199 5.1578 0.999982 255 0 255 
-0.00619803 -0.664582 5.15456 0.999974 255 0 255 
-0.0254722 -0.662865 5.13177 0.999992 255 0 255 
-0.0473508 -0.657807 5.13512 0.999976 255 0 255 
-0.0693928 -0.653008 5.1385 0.999981 255 0 255 
-0.0751353 -0.672207 5.08385 0.999916 255 0 255 
-0.0873308 -0.664611 5.09646 0.999993 255 0 255 
-0.110012 -0.659523 5.10033 0.99999 255 0 255 
-0.122428 -0.652093 5.1132 0.999998 255 0 255 
-0.143215 -0.657308 5.0958 0.999964 255 0 255 
-0.0891266 -0.654209 5.11803 0.999982 255 0 255 
-0.0672593 -0.659197 5.11452 0.999973 255 0 255 
-0.0453926 -0.664096 5.11111 0.99997 255 0 255 
-0.161464 -0.652147 5.09905 0.999949 255 0 255 
-0.179817 -0.64722 5.10264 0.999944 255 0 255 
-0.157829 -0.641949 5.11882 0.999999 255 0 255 
-0.198164 -0.642288 5.10631 0.99997 255 0 255 
-0.140102 -0.647 5.11595 1 255 0 255 
-0.272614 -0.584751 5.1465 0.999999 255 0 255 
-0.269231 -0.572428 5.15949 1 255 0 255 
-0.289056 -0.581397 5.14155 0.999986 255 0 255 
-0.252753 -0.575698 5.16428 0.999971 255 0 255 
-0.288094 -0.563812 5.1577 1 255 0 255 
-0.262765 -0.560691 5.173 1 255 0 255 
-0.2255 -0.569531 5.20151 0.999999 255 0 255 
-0.200235 -0.582557 5.21907 0.999959 255 0 255 
-0.233304 -0.573133 5.18478 0.999972 255 0 255 
-0.206284 -0.58689 5.20286 0.999992 255 0 255 
-0.288461 -0.619373 5.1147 0.999997 255 0 255 
-0.289537 -0.635351 5.10243 0.999994 255 0 255 
-0.306438 -0.636279 5.0983 0.999995 255 0 255 
-0.305683 -0.620345 5.1105 1 255 0 255 
-0.323004 -0.621284 5.10638 0.999996 255 0 255 
-0.257647 -0.639193 5.10312 0.999999 255 0 255 
-0.237094 -0.638241 5.10656 0.999993 255 0 255 
-0.249233 -0.65498 5.09052 0.999998 255 0 255 
-0.2704 -0.656002 5.08694 0.999977 255 0 255 
-0.30137 -0.692445 5.06395 0.999992 255 0 255 
-0.312322 -0.67511 5.07457 1 255 0 255 
-0.323269 -0.657511 5.08512 0.999999 255 0 255 
-0.334557 -0.678168 5.07165 0.99999 255 0 255 
-0.30102 -0.654185 5.08781 0.999995 255 0 255 
-0.29092 -0.671909 5.07695 1 255 0 255 
-0.351917 -0.668564 5.07661 0.999992 255 0 255 
-0.35247 -0.650942 5.08709 0.999999 255 0 255 
-0.370603 -0.654032 5.0836 0.999993 255 0 255 
-0.32316 -0.63954 5.09568 1 255 0 255 
-0.365489 -0.596606 5.11782 1 255 0 255 
-0.347897 -0.593983 5.12023 0.999993 255 0 255 
-0.373186 -0.610721 5.10904 1 255 0 255 
-0.390879 -0.613177 5.10649 1 255 0 255 
-0.398141 -0.627176 5.09748 0.999996 255 0 255 
-0.31437 -0.570885 5.14348 1 255 0 255 
-0.318302 -0.587994 5.13071 1 255 0 255 
-0.292563 -0.597716 5.12943 1 255 0 255 
-0.321256 -0.604567 5.11859 0.999997 255 0 255 
-0.340406 -0.6243 5.10344 0.999997 255 0 255 
-0.357873 -0.627324 5.10053 1 255 0 255 
-0.375356 -0.630099 5.09737 0.999997 255 0 255 
0.0655998 -0.731943 5.27886 0.999975 255 0 255 
0.0703144 -0.748945 5.29316 0.999999 255 0 255 
0.0510781 -0.746683 5.29782 1 255 0 255 
0.0462921 -0.729844 5.28354 0.999975 255 0 255 
0.055775 -0.763737 5.31197 0.999999 255 0 255 
0.0316498 -0.744466 5.30236 1 255 0 255 
0.0364603 -0.761531 5.31637 1 255 0 255 
0.0172237 -0.75946 5.3209 1 255 0 255 
0.0266801 -0.727659 5.288 0.999974 255 0 255 
0.012263 -0.742429 5.3068 1 255 0 255 
0.00725524 -0.725725 5.29256 0.999978 255 0 255 
0.0411514 -0.778862 5.33033 1 255 0 255 
0.0220378 -0.776788 5.33483 1 255 0 255 
0.0267045 -0.794201 5.34855 0.999977 255 0 255 
0.0438858 -0.795768 5.34382 0.999981 255 0 255 
0.0584753 -0.780536 5.32556 0.999999 255 0 255 
0.061046 -0.797547 5.33906 0.999988 255 0 255 
0.0757136 -0.782392 5.32044 1 255 0 255 
0.0730551 -0.765637 5.30694 1 255 0 255 
0.0781973 -0.799351 5.33409 0.999966 255 0 255 
-0.0171925 -0.740071 5.3143 1 255 0 255 
-0.0238858 -0.722939 5.30001 0.99998 255 0 255 
-0.0105968 -0.757396 5.3285 1 255 0 255 
-0.0415024 -0.754489 5.33606 0.999999 255 0 255 
-0.0483726 -0.737184 5.32185 0.999997 255 0 255 
-0.0553583 -0.720124 5.30768 0.999983 255 0 255 
-0.0195343 -0.773663 5.3463 0.999999 255 0 255 
-0.0285643 -0.789932 5.36383 0.999979 255 0 255 
-0.00090207 -0.79209 5.35611 0.999977 255 0 255 
-0.0241499 -0.86571 5.40216 0.999944 255 0 255 
-0.011335 -0.84799 5.38886 1 255 0 255 
0.00159628 -0.868086 5.39422 0.999946 255 0 255 
0.00139998 -0.829939 5.37547 1 255 0 255 
0.0144421 -0.850106 5.38105 1 255 0 255 
0.0271451 -0.832121 5.36783 1 255 0 255 
0.0272768 -0.870218 5.38654 0.999938 255 0 255 
0.0140662 -0.812122 5.36214 1 255 0 255 
-0.0135002 -0.809852 5.36964 1 255 0 255 
-0.0261132 -0.827738 5.38316 0.999999 255 0 255 
0.0442626 -0.852737 5.37239 0.999999 255 0 255 
0.059045 -0.872703 5.37606 0.999817 255 0 255 
0.0613243 -0.835261 5.35805 0.999997 255 0 255 
0.061225 -0.816391 5.3487 0.999998 255 0 255 
0.0441157 -0.814687 5.35347 1 255 0 255 
0.0442556 -0.833764 5.36298 1 255 0 255 
-0.129657 -0.640775 5.2026 0.999985 255 0 255 
-0.128694 -0.646602 5.21982 0.999994 255 0 255 
-0.148481 -0.632907 5.20742 0.999978 255 0 255 
-0.147481 -0.638587 5.22452 0.999963 255 0 255 
-0.127534 -0.65217 5.23697 0.999977 255 0 255 
-0.126303 -0.657833 5.25408 0.999973 255 0 255 
-0.108397 -0.662394 5.24908 0.999977 255 0 255 
-0.109616 -0.656625 5.23184 1 255 0 255 
-0.110736 -0.65086 5.21465 1 255 0 255 
-0.0907481 -0.667186 5.24408 0.999985 255 0 255 
-0.166347 -0.622417 5.21461 0.999988 255 0 255 
-0.164439 -0.62562 5.23407 0.999976 255 0 255 
-0.148978 -0.641206 5.24651 0.999964 255 0 255 
-0.142384 -0.64849 5.26357 0.999971 255 0 255 
-0.102776 -0.713751 5.3279 0.999946 255 0 255 
-0.108662 -0.6993 5.30949 0.999899 255 0 255 
-0.114606 -0.685154 5.29107 0.999969 255 0 255 
-0.0878879 -0.716685 5.3187 0.999983 255 0 255 
-0.120531 -0.671398 5.27258 0.999949 255 0 255 
-0.0887361 -0.704047 5.30012 0.999987 255 0 255 
-0.0893981 -0.691511 5.28144 0.999992 255 0 255 
-0.0642268 -0.706544 5.29179 0.999999 255 0 255 
-0.0901185 -0.679231 5.26274 0.999992 255 0 255 
0.0127343 -0.672186 5.18026 0.999994 255 0 255 
-0.00858382 -0.667673 5.18327 0.999987 255 0 255 
0.000807975 -0.674317 5.19761 0.999999 255 0 255 
-0.0298926 -0.663235 5.18664 1 255 0 255 
-0.0206189 -0.669836 5.20075 1 255 0 255 
-0.0419536 -0.665407 5.20404 0.999999 255 0 255 
-0.0514289 -0.659033 5.19006 0.999999 255 0 255 
-0.0111612 -0.676476 5.21493 0.999999 255 0 255 
-0.0327002 -0.672058 5.21825 1 255 0 255 
-0.0232752 -0.678717 5.23237 0.999976 255 0 255 
0.0183347 -0.684985 5.22448 0.999941 255 0 255 
0.0302339 -0.682744 5.20711 1 255 0 255 
-0.0856856 -0.651599 5.19521 1 255 0 255 
-0.0757075 -0.659671 5.20996 0.999999 255 0 255 
-0.103093 -0.647104 5.19745 1 255 0 255 
-0.0933069 -0.655338 5.21233 1 255 0 255 
-0.0832521 -0.663418 5.22704 0.999998 255 0 255 
-0.0570562 -0.672927 5.23804 0.999958 255 0 255 
-0.0316786 -0.71095 5.28506 1 255 0 255 
-0.039646 -0.699274 5.27005 0.999998 255 0 255 
-0.00786824 -0.701857 5.26247 0.999999 255 0 255 
-0.000269656 -0.713719 5.27757 0.999999 255 0 255 
-0.0315298 -0.688935 5.2512 0.999999 255 0 255 
-0.0650097 -0.682869 5.25699 0.999999 255 0 255 
0.0201929 -0.717005 5.27372 1 255 0 255 
0.0397731 -0.719011 5.26914 1 255 0 255 
0.0334011 -0.708421 5.25491 1 255 0 255 
0.0592529 -0.721157 5.26456 1 255 0 255 
0.0528361 -0.710532 5.25024 1 255 0 255 
0.0464454 -0.700068 5.23589 1 255 0 255 
0.0258893 -0.696633 5.23971 1 255 0 255 
0.00519044 -0.693341 5.24355 1 255 0 255 
0.0127078 -0.705176 5.25865 1 255 0 255 
-0.17787 -0.61128 5.22239 0.99999 255 0 255 
-0.17611 -0.612352 5.2457 0.999979 255 0 255 
-0.161543 -0.628888 5.25778 0.999993 255 0 255 
-0.153126 -0.637527 5.27539 0.999943 255 0 255 
-0.188645 -0.596745 5.23401 0.999981 255 0 255 
-0.168908 -0.617116 5.27004 0.999983 255 0 255 
-0.144779 -0.653285 5.29443 0.999946 255 0 255 
-0.127792 -0.677551 5.30149 0.999948 255 0 255 
-0.135174 -0.662932 5.28257 0.999984 255 0 255 
-0.0724705 -0.73505 5.33 0.999997 255 0 255 
-0.0651786 -0.752801 5.34422 0.999999 255 0 255 
-0.058312 -0.771024 5.35818 0.999998 255 0 255 
-0.059646 -0.788441 5.37471 0.999976 255 0 255 
-0.0816598 -0.752062 5.35111 0.999974 255 0 255 
-0.0921894 -0.732705 5.33952 0.999885 255 0 255 
-0.0788402 -0.770237 5.36717 0.999902 255 0 255 
-0.0763308 -0.788724 5.38302 0.999929 255 0 255 
-0.0757049 -0.865091 5.42095 0.999952 255 0 255 
-0.0714382 -0.845754 5.40972 0.99998 255 0 255 
-0.0672698 -0.826554 5.39819 0.999972 255 0 255 
-0.055958 -0.86413 5.41307 0.999946 255 0 255 
-0.0633674 -0.807436 5.38656 0.99997 255 0 255 
-0.0488913 -0.845541 5.40096 1 255 0 255 
-0.0352334 -0.808355 5.37628 1 255 0 255 
-0.0497394 -0.82654 5.39138 1 255 0 255 
-0.0974871 -0.747641 5.36362 0.999931 255 0 255 
-0.0888772 -0.824493 5.41221 0.999889 255 0 255 
-0.0901983 -0.863446 5.43063 0.999905 255 0 255 
-0.0909065 -0.804654 5.40524 0.999618 255 0 255 
-0.0865445 -0.844681 5.41895 0.999966 255 0 255 
0.0324381 -0.978975 5.36392 0.99998 255 0 255 
0.0229577 -0.96558 5.37432 1 255 0 255 
0.0476242 -0.952899 5.37235 1 255 0 255 
0.038178 -0.939429 5.38263 0.999813 255 0 255 
0.013378 -0.952102 5.38456 1 255 0 255 
0.00383949 -0.938629 5.39469 0.999868 255 0 255 
-0.0157413 -0.966246 5.38743 0.999999 255 0 255 
-0.00613298 -0.97952 5.37719 0.999978 255 0 255 
0.00351195 -0.992793 5.36678 0.999901 255 0 255 
-0.0353127 -0.993451 5.37997 0.99987 255 0 255 
0.0610927 -0.922927 5.37463 1 255 0 255 
0.0498879 -0.905492 5.37885 1 255 0 255 
0.0702431 -0.890577 5.37195 1 255 0 255 
0.0385649 -0.887884 5.38285 1 255 0 255 
0.021425 -0.887511 5.38874 0.999999 255 0 255 
0.0326849 -0.904951 5.38489 1 255 0 255 
0.0156074 -0.904526 5.3908 0.999999 255 0 255 
-0.0312089 -0.883373 5.40524 1 255 0 255 
-0.0240854 -0.90174 5.40346 1 255 0 255 
-0.03127 -0.919316 5.40625 1 255 0 255 
-0.0243391 -0.937274 5.40424 0.999906 255 0 255 
-0.0527266 -0.935971 5.41379 0.999927 255 0 255 
-0.00310794 -0.920684 5.39671 1 255 0 255 
-0.00417921 -0.88519 5.39655 1 255 0 255 
-0.0646131 -0.950341 5.41107 1 255 0 255 
-0.0764763 -0.964462 5.40818 1 255 0 255 
-0.0440532 -0.964959 5.39706 1 255 0 255 
-0.0558657 -0.979083 5.39409 1 255 0 255 
-0.0677563 -0.993015 5.39101 0.999933 255 0 255 
-0.0885225 -0.978405 5.40523 1 255 0 255 
-0.100419 -0.992218 5.40228 0.999927 255 0 255 
-0.0938603 -0.963595 5.4146 1 255 0 255 
-0.0819623 -0.949542 5.41737 1 255 0 255 
-0.0699342 -0.935247 5.4201 0.999945 255 0 255 
-0.087301 -0.934478 5.42641 0.999955 255 0 255 
-0.100146 -0.948776 5.42429 0.999998 255 0 255 
-0.112998 -0.962956 5.42193 0.999997 255 0 255 
-0.106727 -0.977626 5.41218 1 255 0 255 
-0.119469 -0.991601 5.40968 0.999926 255 0 255 
-0.125671 -0.977 5.41957 0.999996 255 0 255 
-0.138376 -0.990899 5.41709 0.999948 255 0 255 
-0.0461926 -0.900565 5.41094 1 255 0 255 
-0.0636597 -0.881863 5.41669 0.999999 255 0 255 
-0.0715339 -0.899557 5.42005 0.999999 255 0 255 
-0.0620401 -0.917799 5.41693 1 255 0 255 
-0.079426 -0.917038 5.42328 0.999999 255 0 255 
-0.0839141 -0.88271 5.42496 0.999987 255 0 255 
-0.0921105 -0.900115 5.42867 0.999987 255 0 255 
-0.100231 -0.917401 5.43232 0.99994 255 0 255 
-0.108428 -0.934582 5.43577 0.999959 255 0 255 
-0.121616 -0.948959 5.43414 0.999988 255 0 255 
-0.13479 -0.96314 5.43228 0.999984 255 0 255 
-0.147863 -0.977123 5.43046 0.999985 255 0 255 
-0.160838 -0.991049 5.4286 0.999967 255 0 255 
-0.127711 -0.934502 5.44993 0.999915 255 0 255 
-0.107476 -0.899179 5.43902 0.999979 255 0 255 
-0.098853 -0.881371 5.43486 0.999975 255 0 255 
-0.179339 -0.992007 5.44225 0.99997 255 0 255 
-0.165766 -0.977784 5.44344 0.999983 255 0 255 
-0.155102 -0.963493 5.44771 0.999982 255 0 255 
-0.138453 -0.948986 5.44585 0.999974 255 0 255 
-0.279479 -1.05478 5.36451 0.999994 255 0 255 
-0.298739 -1.05993 5.34132 1 255 0 255 
-0.317864 -1.0652 5.31819 0.999986 255 0 255 
-0.320191 -1.06432 5.3364 1 255 0 255 
-0.296448 -1.06076 5.32312 0.999994 255 0 255 
-0.276304 -1.05686 5.32953 0.999997 255 0 255 
-0.277944 -1.05585 5.34701 1 255 0 255 
-0.257752 -1.05207 5.35341 0.999987 255 0 255 
-0.346159 -1.06759 5.31675 1 255 0 255 
-0.341133 -1.0653 5.29706 1 255 0 255 
-0.36232 -1.06652 5.29153 0.999994 255 0 255 
-0.325263 -1.06296 5.28823 0.999999 255 0 255 
-0.289541 -1.06038 5.27316 0.999999 255 0 255 
-0.279072 -1.0612 5.29959 0.999972 255 0 255 
-0.267111 -1.05952 5.27907 0.999995 255 0 255 
-0.301519 -1.06201 5.29372 0.999994 255 0 255 
-0.31263 -1.0613 5.2675 0.999996 255 0 255 
-0.243792 -1.05685 5.3005 0.999994 255 0 255 
-0.253358 -1.05526 5.31974 0.999999 255 0 255 
-0.22999 -1.05218 5.32617 0.999994 255 0 255 
-0.20657 -1.04919 5.33258 0.999981 255 0 255 
-0.23955 -1.05065 5.34541 0.999989 255 0 255 
-0.251685 -1.03495 5.42474 0.999985 255 0 255 
-0.230394 -1.02331 5.42662 0.999991 255 0 255 
-0.21458 -1.01334 5.43301 0.999988 255 0 255 
-0.198857 -1.003 5.43948 0.999989 255 0 255 
-0.283886 -1.04779 5.40691 0.999999 255 0 255 
-0.295095 -1.05352 5.39388 0.999998 255 0 255 
-0.312178 -1.06034 5.38528 0.999988 255 0 255 
-0.263095 -1.04043 5.41169 0.999997 255 0 255 
-0.264743 -1.04851 5.37375 0.999997 255 0 255 
-0.249884 -1.04231 5.38303 0.999999 255 0 255 
-0.246158 -1.03757 5.39975 0.999999 255 0 255 
-0.23118 -1.03138 5.40904 0.999989 255 0 255 
-0.267777 -1.04477 5.39454 0.999998 255 0 255 
-0.205322 -1.02036 5.40838 0.999979 255 0 255 
-0.190545 -1.01072 5.41507 0.999986 255 0 255 
-0.175714 -1.00097 5.42185 0.999988 255 0 255 
-0.389037 -1.0739 5.44163 0.999998 255 0 255 
-0.412606 -1.07655 5.44065 0.999999 255 0 255 
-0.397774 -1.07603 5.46108 0.999998 255 0 255 
-0.436176 -1.07922 5.43967 1 255 0 255 
-0.459763 -1.08187 5.43877 0.999978 255 0 255 
-0.447383 -1.08102 5.41786 0.999987 255 0 255 
-0.423825 -1.07815 5.41887 1 255 0 255 
-0.405059 -1.07668 5.48063 1 255 0 255 
-0.426951 -1.07787 5.47356 0.999998 255 0 255 
-0.433074 -1.07889 5.49278 1 255 0 255 
-0.411131 -1.07774 5.49981 1 255 0 255 
-0.451918 -1.0797 5.47611 0.999998 255 0 255 
-0.476913 -1.08153 5.47863 0.999982 255 0 255 
-0.468395 -1.08174 5.45871 0.999981 255 0 255 
-0.443416 -1.07975 5.45619 0.999999 255 0 255 
-0.559757 -1.07176 5.44092 0.999974 255 0 255 
-0.53475 -1.07429 5.44028 0.999999 255 0 255 
-0.547599 -1.07381 5.42123 0.999983 255 0 255 
-0.50976 -1.07684 5.43968 0.999999 255 0 255 
-0.522553 -1.07623 5.42071 0.999999 255 0 255 
-0.497519 -1.0786 5.42019 0.999996 255 0 255 
-0.535259 -1.07574 5.40158 0.999979 255 0 255 
-0.484772 -1.07937 5.43921 0.999998 255 0 255 
-0.493336 -1.07913 5.45917 1 255 0 255 
-0.518326 -1.07647 5.45976 1 255 0 255 
-0.512238 -1.07695 5.40387 1 255 0 255 
-0.524255 -1.07613 5.38723 0.999991 255 0 255 
-0.501202 -1.07731 5.38953 1 255 0 255 
-0.483678 -1.07835 5.39901 1 255 0 255 
-0.513172 -1.07646 5.37284 0.999979 255 0 255 
-0.466183 -1.0794 5.40852 0.999999 255 0 255 
-0.0544025 -1.04444 5.30124 0.999992 255 0 255 
-0.0636803 -1.03937 5.31744 0.999999 255 0 255 
-0.0313663 -1.03372 5.32057 0.999989 255 0 255 
-0.0407137 -1.02865 5.33667 0.999952 255 0 255 
-0.0731061 -1.03434 5.33344 0.999984 255 0 255 
-0.0825363 -1.02917 5.34952 0.999937 255 0 255 
-0.107861 -1.03936 5.32954 1 255 0 255 
-0.098215 -1.04453 5.31351 0.999995 255 0 255 
-0.0887747 -1.0496 5.29746 0.999979 255 0 255 
-0.13298 -1.04945 5.30972 0.999977 255 0 255 
-0.00807537 -1.01941 5.33786 0.999985 255 0 255 
-0.0170577 -1.01083 5.35193 0.999999 255 0 255 
0.012453 -1.00152 5.35268 0.999977 255 0 255 
-0.0262345 -1.00224 5.36594 0.999969 255 0 255 
-0.0590095 -1.01158 5.36475 1 255 0 255 
-0.049823 -1.02018 5.35074 0.999988 255 0 255 
-0.109217 -1.01076 5.38168 1 255 0 255 
-0.127048 -1.0105 5.38736 1 255 0 255 
-0.0914381 -1.0109 5.37595 1 255 0 255 
-0.118019 -1.02881 5.36096 0.999939 255 0 255 
-0.13574 -1.02855 5.36671 0.999951 255 0 255 
-0.153384 -1.02826 5.37246 0.999923 255 0 255 
-0.100131 -1.02906 5.35519 0.999937 255 0 255 
-0.161856 -1.03879 5.34684 1 255 0 255 
-0.180162 -1.03869 5.35249 0.999999 255 0 255 
-0.14336 -1.03895 5.34115 1 255 0 255 
-0.17018 -1.04925 5.32125 0.999969 255 0 255 
-0.188405 -1.04923 5.32693 0.999979 255 0 255 
-0.151663 -1.04933 5.31549 0.999977 255 0 255 
-0.125584 -1.03916 5.33534 1 255 0 255 
-0.200613 -1.0388 5.36055 1 255 0 255 
-0.174014 -1.02833 5.3805 0.999966 255 0 255 
-0.194497 -1.02837 5.38851 0.999982 255 0 255 
-0.208634 -1.03404 5.37878 0.999999 255 0 255 
-0.222675 -1.03976 5.36907 0.999997 255 0 255 
-0.214637 -1.04443 5.35081 0.999996 255 0 255 
-0.145973 -1.0097 5.39487 1 255 0 255 
-0.152484 -1.00047 5.40999 0.999999 255 0 255 
-0.166524 -1.0099 5.40278 0.999997 255 0 255 
-0.160078 -1.01901 5.38763 1 255 0 255 
-0.180568 -1.01919 5.39565 0.999996 255 0 255 
-0.227707 -1.03519 5.38865 0.999987 255 0 255 
-0.242984 -1.04579 5.3627 0.999996 255 0 255 
-0.144021 -1.05921 5.21551 0.999996 255 0 255 
-0.156467 -1.05914 5.23239 1 255 0 255 
-0.123293 -1.05928 5.23711 0.999996 255 0 255 
-0.135604 -1.05925 5.254 0.999984 255 0 255 
-0.169047 -1.05899 5.24931 0.999996 255 0 255 
-0.181657 -1.05881 5.2663 0.999985 255 0 255 
-0.203388 -1.05853 5.24476 1 255 0 255 
-0.190836 -1.05876 5.22773 0.999996 255 0 255 
-0.178267 -1.05893 5.21079 0.999981 255 0 255 
-0.224939 -1.05844 5.22316 0.999982 255 0 255 
-0.100826 -1.05702 5.25886 0.999996 255 0 255 
-0.111404 -1.05459 5.27576 1 255 0 255 
-0.0782112 -1.05204 5.28044 0.999995 255 0 255 
-0.122131 -1.05206 5.29276 0.999994 255 0 255 
-0.157411 -1.05407 5.28801 1 255 0 255 
-0.146377 -1.05672 5.27093 0.999997 255 0 255 
-0.212871 -1.05411 5.30533 1 255 0 255 
-0.194244 -1.05399 5.29945 1 255 0 255 
-0.219117 -1.05913 5.27811 0.99998 255 0 255 
-0.237646 -1.05933 5.28399 0.999978 255 0 255 
-0.187985 -1.0564 5.28289 0.999997 255 0 255 
-0.259341 -1.05926 5.26238 1 255 0 255 
-0.24064 -1.05898 5.25648 1 255 0 255 
-0.262573 -1.05905 5.23499 0.999979 255 0 255 
-0.281252 -1.05934 5.24087 0.999975 255 0 255 
-0.232813 -1.05872 5.23982 0.999996 255 0 255 
-0.211297 -1.05886 5.26142 0.999996 255 0 255 
-0.345928 -1.06677 5.39053 0.999999 255 0 255 
-0.36184 -1.06988 5.38213 0.999999 255 0 255 
-0.347328 -1.06788 5.37224 1 255 0 255 
-0.363205 -1.07105 5.36388 1 255 0 255 
-0.379051 -1.07431 5.35547 0.999985 255 0 255 
-0.377725 -1.07305 5.37378 1 255 0 255 
-0.393612 -1.07629 5.36538 0.999985 255 0 255 
-0.36446 -1.07225 5.3456 0.999992 255 0 255 
-0.413971 -1.07486 5.34079 1 255 0 255 
-0.434327 -1.0735 5.31634 0.99999 255 0 255 
-0.436414 -1.07529 5.33645 0.999996 255 0 255 
-0.411857 -1.07302 5.32067 0.999999 255 0 255 
-0.391154 -1.07212 5.32567 1 255 0 255 
-0.366347 -1.06879 5.31115 1 255 0 255 
-0.349094 -1.06994 5.33631 0.999973 255 0 255 
-0.387389 -1.06991 5.30583 1 255 0 255 
-0.409353 -1.07094 5.30082 0.99999 255 0 255 
-0.320048 -1.06327 5.3539 1 255 0 255 
-0.299776 -1.05902 5.35918 1 255 0 255 
-0.435605 -1.07691 5.35683 0.999999 255 0 255 
-0.414605 -1.07662 5.36108 1 255 0 255 
-0.413742 -1.07831 5.38145 0.999993 255 0 255 
-0.436204 -1.07826 5.37725 1 255 0 255 
-0.451994 -1.07761 5.36771 1 255 0 255 
-0.451404 -1.07631 5.34726 1 255 0 255 
-0.467173 -1.07572 5.3377 0.999991 255 0 255 
-0.467797 -1.07698 5.35814 1 255 0 255 
-0.483623 -1.07639 5.34856 0.999986 255 0 255 
-0.360806 -1.0697 5.406 1 255 0 255 
-0.37848 -1.07245 5.39783 1 255 0 255 
-0.396112 -1.07538 5.38969 0.999999 255 0 255 
-0.398751 -1.07526 5.42077 1 255 0 255 
-0.431841 -1.07989 5.39886 0.999989 255 0 255 
-0.375366 -1.07213 5.42295 0.999999 255 0 255 
-0.453365 -1.0795 5.39534 0.999999 255 0 255 
-0.470829 -1.07844 5.3858 0.999999 255 0 255 
-0.488307 -1.07743 5.37628 1 255 0 255 
-0.498413 -1.07647 5.36071 0.999993 255 0 255 
-0.545237 -1.07323 5.46544 0.999994 255 0 255 
-0.530691 -1.0748 5.48995 0.999995 255 0 255 
-0.5038 -1.07816 5.48428 1 255 0 255 
-0.489245 -1.07999 5.50876 0.999992 255 0 255 
-0.516075 -1.07653 5.51443 0.999995 255 0 255 
-0.501434 -1.0784 5.53892 0.999981 255 0 255 
-0.54619 -1.07006 5.51855 0.999999 255 0 255 
-0.560829 -1.06854 5.49413 1 255 0 255 
-0.575451 -1.06709 5.46961 0.999986 255 0 255 
-0.591053 -1.06238 5.49829 0.999976 255 0 255 
-0.459719 -1.08061 5.50071 0.999994 255 0 255 
-0.44245 -1.07989 5.52277 0.999992 255 0 255 
-0.420478 -1.07889 5.52982 0.999998 255 0 255 
-0.398453 -1.07818 5.53681 0.999994 255 0 255 
-0.407704 -1.07928 5.56685 0.999984 255 0 255 
-0.431161 -1.07872 5.55986 0.999999 255 0 255 
-0.454584 -1.07844 5.55287 1 255 0 255 
-0.471942 -1.07905 5.53081 1 255 0 255 
-0.44917 -1.07642 5.61933 0.999998 255 0 255 
-0.473204 -1.07498 5.61187 1 255 0 255 
-0.466589 -1.07699 5.59244 0.999998 255 0 255 
-0.497242 -1.07367 5.6044 1 255 0 255 
-0.490617 -1.07562 5.58501 1 255 0 255 
-0.514644 -1.07453 5.57758 0.999991 255 0 255 
-0.521281 -1.07263 5.59695 0.999992 255 0 255 
-0.483999 -1.07763 5.56567 0.999998 255 0 255 
-0.508041 -1.07646 5.55827 0.999991 255 0 255 
-0.460577 -1.0777 5.57268 1 255 0 255 
-0.437147 -1.07797 5.57968 1 255 0 255 
-0.443166 -1.07716 5.59947 1 255 0 255 
-0.419744 -1.07754 5.60651 0.999993 255 0 255 
-0.413722 -1.07841 5.58665 0.999993 255 0 255 
-0.425744 -1.07682 5.62638 0.999995 255 0 255 
-0.543697 -1.06842 5.58662 0.999998 255 0 255 
-0.567444 -1.06306 5.57555 1 255 0 255 
