ply
format ascii 1.0
comment VCGLIB generated
element vertex 1033
property float x
property float y
property float z
property uchar red
property uchar green
property uchar blue
property float quality
end_header
0.861772 -0.398891 5.967060 255 38 0 0.570644
0.881950 -0.398069 5.974060 219 0 0 0.714522
0.894775 -0.366374 5.983600 255 34 0 0.581693
0.849127 -0.432116 5.954520 255 49 0 0.545281
0.868566 -0.430352 5.962560 255 49 0 0.543408
0.856862 -0.462369 5.948690 255 149 0 0.319945
0.838321 -0.464357 5.939860 255 64 0 0.500104
0.829538 -0.433767 5.945840 255 82 0 0.452940
0.820580 -0.464858 5.931400 255 60 0 0.510160
0.810990 -0.434624 5.936410 255 23 0 0.614251
0.820703 -0.402597 5.949270 237 4 0 0.668460
0.803540 -0.464475 5.923210 255 67 0 0.493847
0.929987 -0.368614 5.995250 255 49 0 0.543576
0.915230 -0.401068 5.985400 255 45 0 0.549754
0.949568 -0.402922 5.996370 255 49 0 0.538359
0.964307 -0.371021 6.005780 255 64 0 0.501852
0.918415 -0.433947 5.979550 255 49 0 0.537453
0.922228 -0.465811 5.972340 255 56 0 0.517177
0.890556 -0.463035 5.961280 255 60 0 0.514360
0.873793 -0.598812 5.941180 255 78 0 0.463749
0.869631 -0.565741 5.943350 255 78 0 0.461890
0.845421 -0.598248 5.926930 255 75 0 0.473808
0.865619 -0.531669 5.945750 255 71 0 0.483548
0.840417 -0.564784 5.928780 255 75 0 0.471344
0.834994 -0.531199 5.930690 255 49 0 0.542742
0.816798 -0.596071 5.912300 255 71 0 0.486673
0.861152 -0.497232 5.947970 255 41 0 0.558333
0.893907 -0.497932 5.960560 255 64 0 0.502784
0.896765 -0.532606 5.958430 255 78 0 0.469009
0.809642 -0.563366 5.914070 255 60 0 0.508197
0.786827 -0.592584 5.898740 255 86 0 0.447137
0.802444 -0.530445 5.915150 255 75 0 0.479030
0.811240 -0.498348 5.923220 255 71 0 0.482614
0.827918 -0.498137 5.931830 255 119 0 0.377258
0.818619 -0.531034 5.922950 255 71 0 0.481535
0.682789 -0.797741 5.937730 255 67 0 0.496012
0.709048 -0.774867 5.929150 255 67 0 0.493995
0.720829 -0.746240 5.915470 255 71 0 0.484321
0.745952 -0.721637 5.909790 255 67 0 0.490932
0.717091 -0.714011 5.897360 255 71 0 0.486168
0.749335 -0.753992 5.928260 255 64 0 0.499320
0.774308 -0.728446 5.922720 255 71 0 0.485144
0.762934 -0.759447 5.936820 255 67 0 0.493591
0.737332 -0.784640 5.943550 255 71 0 0.487479
0.751059 -0.790071 5.951880 255 64 0 0.503990
0.724842 -0.815035 5.959230 255 67 0 0.488439
0.711381 -0.808826 5.951520 255 67 0 0.497227
0.738680 -0.820413 5.968270 255 75 0 0.473638
0.726879 -0.683250 5.894070 255 71 0 0.488118
0.752004 -0.653961 5.896090 255 67 0 0.493905
0.762010 -0.622038 5.894230 255 53 0 0.528453
0.791854 -0.626208 5.906530 255 108 0 0.399808
0.781113 -0.659632 5.908620 255 60 0 0.514837
0.770427 -0.692456 5.911980 255 71 0 0.487344
0.861906 -0.634369 5.941630 255 90 0 0.440248
0.837099 -0.667516 5.936240 255 75 0 0.473638
0.826003 -0.702281 5.939060 255 71 0 0.485564
0.801756 -0.734351 5.936680 255 75 0 0.479160
0.828219 -0.739231 5.951180 255 75 0 0.471812
0.799056 -0.697189 5.924840 255 71 0 0.481763
0.809543 -0.664045 5.922420 255 78 0 0.465335
0.820379 -0.630915 5.920350 255 78 0 0.470186
0.816815 -0.771934 5.966710 255 71 0 0.479553
0.791857 -0.800481 5.974630 255 75 0 0.472402
0.779975 -0.833030 5.992530 255 75 0 0.472818
0.790154 -0.765261 5.950640 255 75 0 0.471586
1.132280 -0.845840 6.170040 255 71 0 0.486654
1.133250 -0.823586 6.152300 255 64 0 0.506513
1.111330 -0.848763 6.163570 255 71 0 0.482281
1.135360 -0.801366 6.134470 255 71 0 0.488119
1.112050 -0.826530 6.145490 255 75 0 0.476908
1.114100 -0.804417 6.127400 255 67 0 0.491657
1.089720 -0.851441 6.156940 255 75 0 0.476107
1.137720 -0.779171 6.116430 255 71 0 0.485639
1.139810 -0.756995 6.098090 255 67 0 0.491939
1.160440 -0.756511 6.106090 255 67 0 0.496542
1.158220 -0.778711 6.124270 255 67 0 0.492300
1.155600 -0.800954 6.142120 255 64 0 0.506501
1.091080 -0.828166 6.137880 255 75 0 0.476705
1.067770 -0.854410 6.149490 255 71 0 0.487111
1.093290 -0.804710 6.118720 255 67 0 0.491920
1.069180 -0.831240 6.130230 255 67 0 0.490232
1.071290 -0.807931 6.110900 255 78 0 0.468322
1.046380 -0.857511 6.141910 255 78 0 0.463214
1.095660 -0.781115 6.099500 255 75 0 0.477689
1.097830 -0.757557 6.080200 255 71 0 0.482362
1.119110 -0.757221 6.089170 255 71 0 0.485111
1.116340 -0.780860 6.108270 255 71 0 0.485185
1.155180 -0.644025 6.050290 255 67 0 0.496853
1.151310 -0.672854 6.061830 255 64 0 0.501081
1.175690 -0.646575 6.059220 255 67 0 0.493096
1.147540 -0.701293 6.073760 255 67 0 0.495718
1.171390 -0.675289 6.070820 255 71 0 0.482679
1.167120 -0.703555 6.082680 255 67 0 0.493756
1.143800 -0.729318 6.085810 255 64 0 0.500167
1.122560 -0.729466 6.076830 255 71 0 0.486933
1.125970 -0.701354 6.064870 255 71 0 0.487538
1.174300 -0.730060 6.098430 255 64 0 0.497848
1.089290 -0.356241 6.041080 255 67 0 0.496081
1.093530 -0.327263 6.055170 255 60 0 0.507883
1.064550 -0.351040 6.035000 255 67 0 0.495468
1.096540 -0.298391 6.069270 255 64 0 0.499065
1.066050 -0.322445 6.047770 255 64 0 0.503301
1.068710 -0.292957 6.061510 255 56 0 0.517419
1.038090 -0.346090 6.028470 255 78 0 0.466434
1.098650 -0.269126 6.083800 255 56 0 0.517070
1.099570 -0.240536 6.100500 255 56 0 0.520795
1.127480 -0.248311 6.109380 255 60 0 0.510328
1.125180 -0.276576 6.091720 255 60 0 0.510117
1.121820 -0.305574 6.075920 255 60 0 0.510746
1.039270 -0.316719 6.040580 255 75 0 0.471365
1.009240 -0.342015 6.021160 255 67 0 0.496735
1.039460 -0.286354 6.052580 255 56 0 0.522357
1.053340 -0.259601 6.070240 255 67 0 0.497083
1.068610 -0.232717 6.089990 255 53 0 0.532724
1.094600 -0.191147 6.143720 255 56 0 0.519827
1.097770 -0.214832 6.120860 255 53 0 0.526387
1.162630 -0.374829 6.060210 255 67 0 0.490536
1.155650 -0.343491 6.071370 255 64 0 0.504396
1.138980 -0.367967 6.053430 255 71 0 0.482531
1.131340 -0.336720 6.064990 255 64 0 0.497703
1.115290 -0.361672 6.047850 255 75 0 0.474564
1.148220 -0.311756 6.083750 255 60 0 0.515213
1.178830 -0.615680 6.056040 255 67 0 0.493820
0.719111 -1.070300 6.577020 255 71 0 0.487588
0.707539 -1.061210 6.598470 255 75 0 0.474868
0.693728 -1.061420 6.588450 255 75 0 0.472093
0.681971 -1.051990 6.610000 255 86 0 0.445510
0.695781 -1.052020 6.620000 255 75 0 0.475301
0.669453 -1.054240 6.601500 255 71 0 0.479349
0.669955 -1.042420 6.631620 255 82 0 0.456283
0.657141 -1.044300 6.622970 255 82 0 0.461469
0.644789 -1.034190 6.644460 255 101 0 0.417955
0.683926 -1.042540 6.641620 255 78 0 0.468071
0.658347 -1.032820 6.653530 255 93 0 0.427764
0.672723 -1.033200 6.663650 255 90 0 0.437828
0.644617 -1.046840 6.614810 255 78 0 0.465626
0.631934 -1.036600 6.636360 255 67 0 0.491750
0.618728 -1.039450 6.628090 255 86 0 0.451738
0.629524 -1.046600 6.606070 255 82 0 0.454303
0.655472 -1.053920 6.593150 255 56 0 0.517653
0.640158 -1.053850 6.584220 255 64 0 0.500878
0.666188 -1.060980 6.571500 255 78 0 0.467964
0.680395 -1.060800 6.580030 255 90 0 0.443239
0.690738 -1.067570 6.558350 255 78 0 0.469235
0.650588 -1.060980 6.562210 255 78 0 0.468901
0.676410 -1.067920 6.549600 255 78 0 0.465922
0.661076 -1.068420 6.540420 255 75 0 0.475503
0.703878 -1.067680 6.566830 255 93 0 0.428389
0.663052 -1.025570 6.681100 255 90 0 0.441477
0.647903 -1.024720 6.672860 255 101 0 0.411735
0.638224 -1.016880 6.690370 255 93 0 0.428032
0.653533 -1.017910 6.698670 255 90 0 0.438531
0.623154 -1.017240 6.682740 255 82 0 0.456558
0.628445 -1.009130 6.708040 255 97 0 0.422563
0.613590 -1.009510 6.700710 255 86 0 0.452711
0.644009 -1.010220 6.716270 255 90 0 0.436491
0.599457 -1.011220 6.694290 255 90 0 0.442214
0.586458 -1.013880 6.686630 255 86 0 0.450781
0.610267 -1.019770 6.674980 255 78 0 0.468182
0.597270 -1.022420 6.667100 255 75 0 0.472679
0.621081 -1.028110 6.655590 255 86 0 0.449767
0.633823 -1.025660 6.663440 255 78 0 0.466775
0.607881 -1.030870 6.647410 255 101 0 0.416028
0.544690 -1.002000 6.661180 255 71 0 0.480197
0.555643 -1.010250 6.640920 255 119 0 0.374429
0.569890 -1.014710 6.650500 255 56 0 0.520859
0.566651 -1.018500 6.620840 255 86 0 0.447646
0.581009 -1.022870 6.630400 255 86 0 0.452692
0.592138 -1.030980 6.610460 255 82 0 0.456400
0.577705 -1.026710 6.600790 255 108 0 0.402283
0.594485 -1.027130 6.639300 255 53 0 0.529754
0.605871 -1.035200 6.619500 255 56 0 0.517852
0.584051 -1.018590 6.659130 255 78 0 0.470063
0.573454 -1.010050 6.678900 255 82 0 0.458451
0.559209 -1.006090 6.670310 255 82 0 0.458956
0.587803 -1.034180 6.578510 255 90 0 0.441145
0.598563 -1.040790 6.556640 255 78 0 0.466966
0.612513 -1.045680 6.565840 255 86 0 0.448699
0.609418 -1.047400 6.534680 255 86 0 0.450287
0.623291 -1.052210 6.543950 255 71 0 0.487370
0.634554 -1.059020 6.522150 255 82 0 0.453125
0.620010 -1.054140 6.512400 255 75 0 0.471098
0.637162 -1.057060 6.553120 255 93 0 0.434968
0.648099 -1.063740 6.531370 255 90 0 0.439062
0.626344 -1.049560 6.575000 255 82 0 0.457073
0.616248 -1.042490 6.597350 255 82 0 0.461360
0.602423 -1.038380 6.588160 255 101 0 0.417809
1.085760 -0.390326 6.035550 255 71 0 0.486205
1.082580 -0.423750 6.028680 255 78 0 0.462619
1.110850 -0.395708 6.041480 255 75 0 0.470823
1.106310 -0.429726 6.034440 255 78 0 0.466842
1.078560 -0.457350 6.020670 255 71 0 0.485323
1.076910 -0.489691 6.012340 255 71 0 0.486952
1.052210 -0.485309 6.005800 255 75 0 0.472432
1.054900 -0.452072 6.015080 255 75 0 0.478187
1.058040 -0.418759 6.023270 255 71 0 0.481736
1.027910 -0.480597 5.999710 255 67 0 0.489332
1.134290 -0.402048 6.047740 255 71 0 0.479815
1.129610 -0.435791 6.040950 255 75 0 0.472143
1.157800 -0.408574 6.053820 255 64 0 0.497702
1.151980 -0.442141 6.046400 255 71 0 0.487332
1.125690 -0.468532 6.033260 255 75 0 0.472146
1.123020 -0.500930 6.025420 255 67 0 0.488468
1.099960 -0.495287 6.018730 255 71 0 0.487917
1.102460 -0.462770 6.026880 255 78 0 0.466110
1.067040 -0.629491 6.012630 255 71 0 0.485152
1.068710 -0.595235 6.011910 255 71 0 0.486297
1.044350 -0.625477 6.003810 255 82 0 0.456403
1.071330 -0.560368 6.011810 255 71 0 0.480139
1.046040 -0.590767 6.003800 255 75 0 0.477797
1.048070 -0.555945 6.003900 255 67 0 0.488327
1.022220 -0.620910 5.995240 255 67 0 0.492021
1.074190 -0.525096 6.012110 255 60 0 0.507569
1.096970 -0.530737 6.019060 255 67 0 0.488628
1.094220 -0.565691 6.019360 255 71 0 0.488158
1.023270 -0.586398 5.995850 255 67 0 0.493592
0.999107 -0.616858 5.986790 255 82 0 0.460170
1.024570 -0.551588 5.996890 255 67 0 0.491439
1.000360 -0.582193 5.988110 255 71 0 0.481815
1.000970 -0.547362 5.989940 255 71 0 0.485050
0.975772 -0.612690 5.978310 255 60 0 0.512462
1.026190 -0.516458 5.998320 255 82 0 0.453457
1.049950 -0.520797 6.004940 255 78 0 0.467063
1.063380 -0.662017 6.023550 255 71 0 0.483597
1.089570 -0.633293 6.022240 255 71 0 0.481189
1.059840 -0.694206 6.034990 255 60 0 0.516188
1.085740 -0.665624 6.033520 255 64 0 0.504377
1.081670 -0.697743 6.045150 255 71 0 0.487080
1.111650 -0.637310 6.031490 255 67 0 0.488446
1.056620 -0.726035 6.047250 255 60 0 0.513703
1.053240 -0.757383 6.060170 255 71 0 0.480100
1.030670 -0.756387 6.049760 255 75 0 0.474367
1.034140 -0.725061 6.036780 255 86 0 0.444543
1.036870 -0.693074 6.024660 255 86 0 0.445401
1.008170 -0.755575 6.038950 255 75 0 0.471742
1.108170 -0.667894 6.043080 255 53 0 0.526219
1.133750 -0.640576 6.041040 255 60 0 0.510878
1.104950 -0.697969 6.055100 255 60 0 0.514982
1.130110 -0.671211 6.052890 255 60 0 0.510830
1.101490 -0.727986 6.067570 255 71 0 0.484467
1.075580 -0.757422 6.070390 255 71 0 0.480264
1.078520 -0.727831 6.057500 255 71 0 0.481831
1.047350 -0.832625 6.121630 255 67 0 0.492999
1.022020 -0.860088 6.133320 255 82 0 0.454284
1.049040 -0.807695 6.101110 255 78 0 0.465461
1.023560 -0.835423 6.112760 255 75 0 0.474693
1.025510 -0.810673 6.092020 255 82 0 0.456334
0.998961 -0.862999 6.124740 255 56 0 0.518609
1.051280 -0.782599 6.080620 255 60 0 0.510647
1.073570 -0.782693 6.090590 255 67 0 0.490687
1.000670 -0.836375 6.103480 255 82 0 0.459188
0.975982 -0.864881 6.116160 255 93 0 0.427756
1.003370 -0.809741 6.081780 255 78 0 0.468043
0.977885 -0.838418 6.094530 255 93 0 0.431625
0.979660 -0.811747 6.072400 255 90 0 0.438706
0.953011 -0.867135 6.107300 255 101 0 0.415224
1.006190 -0.782831 6.060300 255 67 0 0.494264
1.028390 -0.783646 6.070840 255 71 0 0.483532
0.961804 -0.646352 5.981920 255 86 0 0.446305
0.936759 -0.677535 5.981880 255 78 0 0.468011
0.924117 -0.710633 5.986980 255 82 0 0.458043
0.900556 -0.742915 5.987910 255 71 0 0.487697
0.923272 -0.745352 5.998770 255 90 0 0.440063
0.900648 -0.707701 5.976750 255 71 0 0.483253
0.877713 -0.741789 5.977120 255 75 0 0.477176
0.913207 -0.674115 5.972230 255 78 0 0.464081
0.925854 -0.640515 5.968530 255 75 0 0.478718
0.951566 -0.608747 5.969910 255 93 0 0.428636
0.926653 -0.605081 5.961360 255 82 0 0.460182
0.910417 -0.776620 6.015690 255 90 0 0.436750
0.886634 -0.807049 6.028050 255 93 0 0.430585
0.875728 -0.839649 6.047000 255 108 0 0.402941
0.856098 -0.872926 6.061080 255 97 0 0.427013
0.875369 -0.871627 6.072010 255 108 0 0.396731
0.854947 -0.840536 6.035930 255 116 0 0.384347
0.833781 -0.873589 6.049520 255 82 0 0.456112
0.865928 -0.807671 6.016910 255 101 0 0.413679
0.876982 -0.774616 5.998960 255 90 0 0.441913
0.806492 -0.837016 6.008270 255 78 0 0.462308
0.818189 -0.804611 5.990360 255 75 0 0.473063
0.842116 -0.772981 5.980090 255 90 0 0.442734
0.853825 -0.741318 5.964120 255 56 0 0.517368
0.843142 -0.806377 6.004120 255 90 0 0.437386
0.832029 -0.839617 6.022910 255 86 0 0.444554
0.808670 -0.871429 6.034860 255 90 0 0.438198
0.851957 -0.705126 5.952430 255 71 0 0.485070
0.863229 -0.669959 5.949160 255 97 0 0.425204
0.887985 -0.635131 5.953150 255 53 0 0.532476
0.900541 -0.601526 5.951540 255 90 0 0.441525
0.888469 -0.670677 5.961520 255 86 0 0.446738
0.876890 -0.706241 5.965180 255 82 0 0.460819
0.984682 -0.650094 5.990950 255 49 0 0.540178
0.970818 -0.682858 5.995930 255 78 0 0.468749
0.993707 -0.686899 6.005370 255 75 0 0.476223
1.007710 -0.654099 6.000110 255 71 0 0.480630
0.968191 -0.717102 6.006730 255 112 0 0.388519
0.965326 -0.750856 6.018920 255 90 0 0.437748
0.944354 -0.747857 6.009000 255 78 0 0.467801
0.946561 -0.713786 5.997160 255 82 0 0.453197
1.029390 -0.657515 6.009220 255 71 0 0.482164
1.014680 -0.689395 6.014800 255 75 0 0.478249
1.011320 -0.722748 6.026260 255 90 0 0.439427
0.987452 -0.753227 6.029100 255 101 0 0.416697
0.990442 -0.720264 6.016680 255 64 0 0.501028
0.956599 -0.838563 6.085100 255 123 0 0.368602
0.932859 -0.867664 6.099420 255 104 0 0.404998
0.959932 -0.809823 6.062740 255 90 0 0.436660
0.934980 -0.838811 6.076810 255 93 0 0.431386
0.938249 -0.810102 6.053880 255 116 0 0.381277
0.912315 -0.869138 6.090810 255 112 0 0.393821
0.962749 -0.780514 6.040500 255 86 0 0.449392
0.982874 -0.782688 6.050270 255 82 0 0.458703
0.915285 -0.838748 6.067170 255 123 0 0.367776
0.893662 -0.869822 6.081410 255 112 0 0.394978
0.918553 -0.808089 6.043360 255 97 0 0.422178
0.895596 -0.838856 6.057360 255 112 0 0.391668
0.931255 -0.778100 6.025590 255 78 0 0.469707
0.993614 -0.374664 6.013290 255 78 0 0.464802
0.979062 -0.406316 6.004170 255 71 0 0.485645
1.006520 -0.410248 6.011130 255 86 0 0.449654
1.021640 -0.378430 6.020470 255 71 0 0.485118
0.978092 -0.439686 5.996900 255 67 0 0.492924
0.978082 -0.472269 5.987840 255 67 0 0.494258
0.950105 -0.469256 5.980010 255 45 0 0.548274
0.950191 -0.436164 5.989350 255 60 0 0.514969
1.048560 -0.382702 6.026960 255 71 0 0.484956
1.032780 -0.414309 6.017480 255 90 0 0.440602
1.029970 -0.447808 6.009110 255 67 0 0.492749
1.003510 -0.476314 5.994250 255 75 0 0.470568
1.004630 -0.443787 6.003360 255 82 0 0.460076
0.976335 -0.577984 5.980660 255 71 0 0.484485
0.977013 -0.543167 5.983300 255 53 0 0.532684
0.951498 -0.574067 5.973060 255 71 0 0.486196
0.951232 -0.539295 5.975720 255 75 0 0.474612
0.977207 -0.508018 5.985900 255 90 0 0.439770
1.002080 -0.512051 5.992430 255 67 0 0.488458
0.925768 -0.570765 5.964670 255 71 0 0.484252
0.924705 -0.536238 5.967660 255 56 0 0.518195
0.898589 -0.567297 5.955000 255 93 0 0.428241
0.923338 -0.501332 5.970170 255 64 0 0.501384
0.950503 -0.504622 5.978140 255 71 0 0.486338
1.171500 -0.480904 6.047540 255 67 0 0.494385
1.168720 -0.512828 6.040760 255 67 0 0.490790
1.146050 -0.506828 6.033250 255 67 0 0.492332
1.148770 -0.474581 6.040050 255 67 0 0.494008
1.158260 -0.611747 6.047500 255 67 0 0.492026
1.161870 -0.579107 6.045030 255 64 0 0.499569
1.136080 -0.608350 6.038360 255 67 0 0.489304
1.139310 -0.575643 6.036170 255 67 0 0.490078
1.165280 -0.546004 6.042740 255 67 0 0.491953
1.114400 -0.603889 6.029550 255 67 0 0.488407
1.117370 -0.569664 6.028050 255 67 0 0.494605
1.091870 -0.599675 6.020690 255 71 0 0.484312
1.120560 -0.535310 6.026860 255 67 0 0.489029
1.143220 -0.541186 6.034810 255 64 0 0.503711
0.797977 -1.052140 6.306300 255 71 0 0.483223
0.787503 -1.058110 6.339230 255 78 0 0.466050
0.776511 -1.058230 6.335440 255 82 0 0.459333
0.765798 -1.063660 6.368520 255 71 0 0.480490
0.776974 -1.063530 6.372020 255 78 0 0.464279
0.754018 -1.063830 6.365070 255 64 0 0.498747
0.754723 -1.068930 6.401420 255 67 0 0.491203
0.743346 -1.069200 6.398430 255 78 0 0.469142
0.732286 -1.074980 6.431500 255 71 0 0.479866
0.765957 -1.069000 6.404550 255 78 0 0.465428
0.743684 -1.075010 6.434070 255 82 0 0.456687
0.754838 -1.075340 6.436800 255 82 0 0.459700
0.730647 -1.068830 6.395460 255 86 0 0.444885
0.719788 -1.074310 6.428700 255 67 0 0.490009
0.706055 -1.073480 6.425350 255 82 0 0.458643
0.717571 -1.067800 6.393200 255 78 0 0.468323
0.742275 -1.063510 6.363200 255 64 0 0.497877
0.728933 -1.062320 6.360870 255 56 0 0.517174
0.753415 -1.057910 6.331040 255 67 0 0.491033
0.765330 -1.058210 6.333210 255 82 0 0.459002
0.776150 -1.052300 6.301100 255 82 0 0.458437
0.740243 -1.056970 6.328380 255 60 0 0.506852
0.764478 -1.052420 6.298560 255 78 0 0.462284
0.751079 -1.051600 6.295640 255 67 0 0.492713
0.787193 -1.052120 6.303590 255 82 0 0.456665
0.745776 -1.071470 6.472080 255 86 0 0.448567
0.732796 -1.073700 6.462710 255 71 0 0.482467
0.723446 -1.070290 6.497700 255 78 0 0.466680
0.736522 -1.069180 6.507030 255 78 0 0.462305
0.710025 -1.072100 6.488800 255 60 0 0.508246
0.713303 -1.068230 6.532230 255 86 0 0.445957
0.700254 -1.069210 6.523690 255 64 0 0.499669
0.727617 -1.068920 6.541920 255 86 0 0.445181
0.686145 -1.070510 6.514910 255 90 0 0.439078
0.672664 -1.069060 6.512180 255 71 0 0.479400
0.697747 -1.071360 6.486500 255 97 0 0.426153
0.683976 -1.070090 6.483470 255 56 0 0.521336
0.708812 -1.072570 6.457710 255 75 0 0.476515
0.721265 -1.073280 6.460360 255 86 0 0.447395
0.695038 -1.071470 6.454610 255 86 0 0.445150
0.630808 -1.055130 6.483000 255 53 0 0.532047
0.642072 -1.056360 6.456180 255 93 0 0.434860
0.656279 -1.061210 6.464020 255 71 0 0.479329
0.653271 -1.057940 6.428970 255 93 0 0.428199
0.667694 -1.062810 6.437000 255 56 0 0.518271
0.678893 -1.064760 6.409700 255 71 0 0.486701
0.664359 -1.060020 6.401420 255 82 0 0.456283
0.681464 -1.067380 6.444770 255 75 0 0.473303
0.692763 -1.069200 6.417640 255 56 0 0.517548
0.670552 -1.065730 6.473910 255 41 0 0.556761
0.659375 -1.064520 6.502800 255 97 0 0.423069
0.645407 -1.059820 6.493040 255 53 0 0.531521
0.675543 -1.054660 6.368930 255 60 0 0.512569
0.687081 -1.049710 6.338330 255 67 0 0.491299
0.701234 -1.054060 6.344390 255 56 0 0.520096
0.698380 -1.044960 6.307610 255 60 0 0.508088
0.712895 -1.049260 6.313940 255 56 0 0.518892
0.724049 -1.044440 6.283020 255 71 0 0.482990
0.709416 -1.040620 6.276030 255 71 0 0.487285
0.726905 -1.053310 6.319960 255 78 0 0.462638
0.738121 -1.048190 6.289320 255 78 0 0.463043
0.715878 -1.058590 6.352900 255 67 0 0.494143
0.704574 -1.063850 6.385550 255 90 0 0.443608
0.690109 -1.059210 6.377070 255 86 0 0.449011
0.719793 -1.026230 6.241970 255 71 0 0.480670
0.730695 -1.010760 6.209250 255 75 0 0.475516
0.744900 -1.013070 6.216040 255 78 0 0.462591
0.741211 -0.993681 6.176050 255 75 0 0.473186
0.755482 -0.995912 6.183680 255 71 0 0.481904
0.765706 -0.978669 6.150640 255 75 0 0.474503
0.750910 -0.976093 6.142790 255 75 0 0.475050
0.769348 -0.998390 6.190730 255 86 0 0.447977
0.779677 -0.980857 6.158260 255 78 0 0.468001
0.792506 -0.982481 6.165630 255 78 0 0.467396
0.783024 -1.001640 6.198680 255 78 0 0.467501
0.759593 -1.016730 6.223860 255 78 0 0.462289
0.773139 -1.019700 6.231500 255 78 0 0.466248
0.749303 -1.032970 6.257030 255 86 0 0.452513
0.735200 -1.029620 6.249780 255 60 0 0.507368
0.762275 -1.036140 6.263850 255 78 0 0.465108
0.785956 -0.924218 6.091430 255 75 0 0.479113
0.797293 -0.897648 6.062840 255 97 0 0.424752
0.823014 -0.901277 6.078380 255 108 0 0.398647
0.799788 -0.926471 6.099380 255 78 0 0.462201
0.812849 -0.928592 6.107520 255 86 0 0.449082
0.789608 -0.954047 6.128950 255 78 0 0.462677
0.775772 -0.951894 6.120730 255 86 0 0.452367
0.802353 -0.955921 6.136650 255 78 0 0.465692
0.865168 -0.899189 6.100270 255 112 0 0.395172
0.845368 -0.926993 6.123510 255 93 0 0.428357
0.836170 -0.954342 6.151500 255 93 0 0.435569
0.816815 -0.982102 6.174590 255 93 0 0.430299
0.836807 -0.981064 6.182680 255 86 0 0.448318
0.845301 -0.900246 6.089810 255 108 0 0.400080
0.827800 -1.000340 6.214190 255 75 0 0.470507
0.817257 -1.000570 6.210510 255 97 0 0.422179
0.807856 -1.018990 6.241890 255 78 0 0.466819
0.818050 -1.018470 6.245230 255 67 0 0.488982
0.797092 -1.019450 6.238550 255 75 0 0.478616
0.797603 -1.035830 6.273020 255 78 0 0.467066
0.786687 -1.036300 6.270080 255 71 0 0.483461
0.808096 -1.035580 6.275960 255 86 0 0.448073
0.834921 -1.013560 6.248440 255 86 0 0.451560
0.845003 -0.995353 6.217910 255 86 0 0.446572
0.854606 -0.976200 6.186720 255 90 0 0.437812
0.873229 -0.972092 6.191020 255 82 0 0.460641
0.865065 -0.990588 6.220470 255 82 0 0.459722
0.856330 -1.008390 6.249080 255 75 0 0.477697
0.836976 -1.027700 6.277390 255 82 0 0.457871
0.818075 -1.046640 6.305640 255 82 0 0.457532
0.839449 -1.041900 6.305590 255 71 0 0.482491
0.853774 -0.952317 6.159330 255 101 0 0.411857
0.862980 -0.924882 6.132230 255 153 0 0.316085
0.881995 -0.896428 6.109010 255 127 0 0.361207
0.901691 -0.894282 6.116630 255 119 0 0.377187
0.881105 -0.921661 6.138870 255 134 0 0.344871
0.872137 -0.947932 6.164080 255 101 0 0.414094
0.942410 -0.890030 6.130870 255 130 0 0.353270
0.922288 -0.915444 6.151970 255 97 0 0.419800
0.913230 -0.939302 6.174480 255 108 0 0.396007
0.894254 -0.966151 6.194950 255 97 0 0.425583
0.915923 -0.961385 6.198340 255 97 0 0.425088
0.891831 -0.944457 6.170380 255 112 0 0.389312
0.901279 -0.918578 6.145790 255 119 0 0.375646
0.921939 -0.892426 6.124900 255 123 0 0.370175
0.908997 -0.978943 6.224790 255 93 0 0.427848
0.889891 -0.999472 6.251490 255 64 0 0.502674
0.883087 -1.016470 6.277490 255 86 0 0.451501
0.863730 -1.035750 6.304120 255 71 0 0.487888
0.888863 -1.030500 6.302660 255 67 0 0.494966
0.858232 -1.022640 6.278780 255 82 0 0.453560
0.885975 -0.984856 6.223560 255 86 0 0.446067
0.907135 -1.010930 6.279490 255 86 0 0.451620
0.913841 -0.993478 6.253660 255 86 0 0.449692
0.931758 -0.973048 6.230090 255 86 0 0.445489
0.938589 -0.955501 6.203930 255 97 0 0.425026
0.961729 -0.950594 6.209240 255 93 0 0.429876
0.955268 -0.967446 6.233820 255 90 0 0.436123
0.936781 -0.987423 6.257120 255 90 0 0.443980
0.930815 -1.004520 6.281420 255 64 0 0.498915
0.912682 -1.024170 6.304710 255 67 0 0.491435
0.936940 -1.018750 6.306680 255 82 0 0.458210
0.935324 -0.935574 6.180510 255 93 0 0.430269
0.944275 -0.911858 6.158270 255 78 0 0.464883
0.965574 -0.887590 6.139570 255 97 0 0.425989
0.988888 -0.884437 6.146740 255 53 0 0.527618
0.967471 -0.908281 6.165380 255 108 0 0.401866
0.958706 -0.930453 6.186310 255 127 0 0.358956
1.035960 -0.877892 6.162540 255 82 0 0.457079
1.014020 -0.900962 6.179320 255 90 0 0.439332
1.004990 -0.921892 6.199080 255 90 0 0.436251
0.984933 -0.945561 6.215440 255 67 0 0.497496
1.008550 -0.940941 6.221600 255 86 0 0.448804
0.981530 -0.926626 6.192890 255 90 0 0.437939
0.990753 -0.904631 6.172290 255 78 0 0.467295
1.012180 -0.881654 6.155030 255 86 0 0.445674
1.001360 -0.956993 6.244830 255 82 0 0.453480
0.983093 -0.976359 6.266050 255 90 0 0.438076
0.976652 -0.992863 6.289340 255 71 0 0.487823
0.958970 -1.012460 6.310540 255 60 0 0.514681
0.981117 -1.006720 6.314210 255 64 0 0.504526
0.954094 -0.999051 6.285250 255 71 0 0.484318
0.960104 -0.981921 6.260990 255 86 0 0.447471
0.978200 -0.962420 6.239710 255 86 0 0.444331
0.998304 -0.987754 6.293970 255 78 0 0.464341
1.005120 -0.970928 6.270980 255 64 0 0.499975
1.022990 -0.952279 6.250780 255 78 0 0.464227
1.029870 -0.936046 6.227520 255 78 0 0.465367
1.051290 -0.931370 6.233190 255 78 0 0.469179
1.043940 -0.946878 6.255710 255 71 0 0.486304
1.026510 -0.965710 6.276110 255 75 0 0.478086
1.018900 -0.981840 6.298260 255 82 0 0.458317
1.001370 -1.000990 6.318360 255 67 0 0.490789
1.022310 -0.995537 6.322630 255 82 0 0.460130
1.027840 -0.918207 6.205840 255 82 0 0.457127
1.037000 -0.897125 6.186260 255 82 0 0.460622
1.057460 -0.874951 6.169890 255 82 0 0.461256
1.079250 -0.871070 6.176430 255 75 0 0.472382
1.058950 -0.893335 6.192850 255 78 0 0.462462
1.049480 -0.913297 6.211820 255 78 0 0.464748
1.121410 -0.864669 6.188590 255 71 0 0.483216
1.100890 -0.886010 6.204410 255 64 0 0.497909
1.091830 -0.905415 6.222980 255 71 0 0.487935
1.072040 -0.927208 6.238370 255 75 0 0.477314
1.092990 -0.923133 6.243370 255 71 0 0.480270
1.070740 -0.909727 6.217690 255 75 0 0.474080
1.080270 -0.889567 6.198930 255 75 0 0.478778
1.100090 -0.868352 6.182690 255 75 0 0.476626
1.085100 -0.938280 6.265140 255 64 0 0.498800
1.067110 -0.956455 6.284780 255 82 0 0.457448
1.059500 -0.972397 6.306490 255 71 0 0.481199
1.042180 -0.990940 6.326540 255 75 0 0.475919
1.062820 -0.986496 6.330370 255 71 0 0.479650
1.039340 -0.977222 6.302660 255 71 0 0.481974
1.047100 -0.960843 6.280570 255 78 0 0.467602
1.064400 -0.942867 6.260660 255 75 0 0.471190
1.080820 -0.969227 6.310360 255 71 0 0.481896
1.088140 -0.952791 6.288630 255 67 0 0.496979
1.106950 -0.935880 6.269100 255 71 0 0.480002
1.114700 -0.920471 6.247430 255 67 0 0.489840
1.109720 -0.950150 6.291990 255 75 0 0.472515
1.101910 -0.966314 6.313130 255 71 0 0.480923
1.083470 -0.984021 6.333060 255 67 0 0.494749
1.113140 -0.902625 6.227880 255 71 0 0.482098
1.122200 -0.882986 6.209500 255 71 0 0.487861
1.143630 -0.862956 6.194030 255 67 0 0.491344
1.153710 -0.823482 6.159310 255 67 0 0.491580
0.643905 -0.837915 5.968130 255 64 0 0.504378
0.630612 -0.857973 5.992450 255 67 0 0.494032
0.616088 -0.849408 5.984480 255 56 0 0.524629
0.617255 -0.878475 6.017090 255 67 0 0.490548
0.602759 -0.869993 6.008960 255 67 0 0.492688
0.588909 -0.889692 6.034340 255 71 0 0.488271
0.604055 -0.898059 6.042590 255 71 0 0.486554
0.588450 -0.860985 6.001360 255 64 0 0.501259
0.574890 -0.881218 6.026060 255 67 0 0.489171
0.560570 -0.872514 6.018080 255 71 0 0.486964
0.587203 -0.835388 5.972170 255 64 0 0.499253
0.615205 -0.824013 5.955290 255 64 0 0.499738
0.642339 -0.812057 5.939820 255 71 0 0.485421
0.613210 -0.798399 5.928180 255 64 0 0.502423
0.590315 -0.910104 6.070720 255 71 0 0.481594
0.577765 -0.922538 6.100490 255 78 0 0.465427
0.562425 -0.912861 6.090610 255 75 0 0.475926
0.565515 -0.934145 6.130960 255 78 0 0.464049
0.549774 -0.924254 6.121250 255 78 0 0.466759
0.534485 -0.914855 6.111210 255 78 0 0.465084
0.519561 -0.905780 6.103240 255 75 0 0.476783
0.547591 -0.904002 6.082480 255 64 0 0.505401
0.533305 -0.895747 6.074170 255 60 0 0.508484
0.560895 -0.892690 6.054070 255 67 0 0.496539
0.575487 -0.901366 6.062430 255 78 0 0.461527
0.546974 -0.884128 6.045960 255 71 0 0.487501
0.462679 -0.880399 6.071990 255 67 0 0.489881
0.490303 -0.875537 6.050910 255 60 0 0.515145
0.504244 -0.864864 6.023820 255 67 0 0.496191
0.532197 -0.859629 6.003950 255 64 0 0.497787
0.504132 -0.847111 5.990450 255 64 0 0.502519
0.532039 -0.877233 6.038060 255 75 0 0.471830
0.518503 -0.888871 6.066100 255 78 0 0.469686
0.504658 -0.899559 6.094950 255 64 0 0.504732
0.490021 -0.892916 6.086990 255 75 0 0.473113
0.516755 -0.829423 5.969140 255 60 0 0.509028
0.543586 -0.816750 5.953570 255 78 0 0.465117
0.556355 -0.799320 5.932840 255 71 0 0.485390
0.583306 -0.786665 5.918160 255 64 0 0.505632
0.554193 -0.775945 5.908510 255 60 0 0.508820
0.585853 -0.811118 5.942690 255 64 0 0.502512
0.559646 -0.847375 5.987890 255 64 0 0.498944
0.732081 -0.616184 5.883490 255 56 0 0.516656
0.722303 -0.647873 5.885750 255 64 0 0.498476
0.697634 -0.675938 5.884010 255 67 0 0.495488
0.687688 -0.706685 5.887680 255 71 0 0.480473
0.657408 -0.698772 5.879030 255 64 0 0.504386
0.666305 -0.669887 5.875950 255 64 0 0.505542
0.691474 -0.642520 5.876600 255 64 0 0.503586
0.700095 -0.612502 5.874250 255 56 0 0.522579
0.692216 -0.737037 5.903390 255 60 0 0.510017
0.680315 -0.764464 5.917140 255 71 0 0.483924
0.654548 -0.785450 5.925060 255 64 0 0.499584
0.624741 -0.773776 5.914970 255 64 0 0.503991
0.651152 -0.753804 5.906530 255 64 0 0.502350
0.662184 -0.728730 5.894170 255 64 0 0.502835
0.564719 -0.752948 5.897310 255 60 0 0.511134
0.590993 -0.734342 5.889670 255 60 0 0.511016
0.600986 -0.711100 5.879550 255 60 0 0.512360
0.626398 -0.691631 5.872350 255 60 0 0.508784
0.594971 -0.683852 5.865860 255 60 0 0.514512
0.632329 -0.719539 5.886000 255 60 0 0.507307
0.621502 -0.744178 5.897270 255 64 0 0.506594
0.595407 -0.762769 5.905250 255 60 0 0.507113
0.602560 -0.657432 5.862180 255 60 0 0.515842
0.627116 -0.632579 5.861110 255 56 0 0.519859
0.634375 -0.604621 5.857140 255 60 0 0.511615
0.668176 -0.607839 5.865070 255 64 0 0.503011
0.659741 -0.637563 5.868350 255 75 0 0.470568
0.635615 -0.663517 5.867550 255 67 0 0.489672
0.527502 -0.789719 5.922660 255 67 0 0.493024
0.515312 -0.807615 5.942190 255 60 0 0.508529
0.489061 -0.821495 5.957740 255 71 0 0.485472
0.476827 -0.839492 5.979150 255 71 0 0.480676
0.450138 -0.832623 5.968610 255 56 0 0.519368
0.461474 -0.814648 5.948270 255 64 0 0.502301
0.486738 -0.799874 5.932730 255 67 0 0.495937
0.498465 -0.782151 5.913950 255 60 0 0.508105
0.524841 -0.768239 5.899690 255 60 0 0.511914
0.494944 -0.760232 5.892680 255 56 0 0.516717
0.476948 -0.855079 6.010280 255 64 0 0.501078
0.463160 -0.866155 6.037840 255 82 0 0.458709
0.436883 -0.873859 6.058640 255 67 0 0.496471
0.424358 -0.885967 6.085400 255 67 0 0.494691
0.400323 -0.883508 6.070550 255 78 0 0.467195
0.412792 -0.869967 6.045660 255 64 0 0.497684
0.437584 -0.859427 6.025790 255 78 0 0.461975
0.450405 -0.847809 5.999190 255 64 0 0.503719
0.355042 -0.892256 6.041250 255 67 0 0.490128
0.367025 -0.876508 6.018290 255 78 0 0.461643
0.390153 -0.858951 6.001230 255 71 0 0.487326
0.401755 -0.844254 5.977470 255 64 0 0.503288
0.425446 -0.830102 5.958510 255 75 0 0.474754
0.401370 -0.829735 5.948350 255 64 0 0.505963
0.425580 -0.844152 5.988600 255 64 0 0.504616
0.413323 -0.857320 6.013790 255 71 0 0.483022
0.389850 -0.872148 6.031950 255 67 0 0.497061
0.377494 -0.886691 6.056150 255 67 0 0.495608
0.410692 -0.809243 5.929880 255 64 0 0.499791
0.433319 -0.790819 5.916090 255 64 0 0.498287
0.443065 -0.771845 5.897820 255 56 0 0.517840
0.466798 -0.755334 5.884360 255 67 0 0.493022
0.438594 -0.751336 5.875680 255 64 0 0.502889
0.470499 -0.776064 5.905930 255 56 0 0.518009
0.459598 -0.794391 5.924210 255 60 0 0.515037
0.436028 -0.811441 5.938990 255 60 0 0.510927
-0.428845 -1.057020 5.651150 255 67 0 0.496478
-0.436922 -1.053250 5.674660 255 64 0 0.501517
-0.460919 -1.049430 5.665910 255 56 0 0.517067
-0.469087 -1.047560 5.689740 255 53 0 0.529211
-0.445159 -1.050550 5.698410 255 60 0 0.511757
-0.493097 -1.045380 5.681030 255 45 0 0.547714
-0.477035 -1.046580 5.713700 255 56 0 0.522132
-0.500924 -1.044720 5.705080 255 53 0 0.531905
-0.508879 -1.044760 5.728980 255 56 0 0.517652
-0.453199 -1.048860 5.722370 255 60 0 0.511525
-0.485059 -1.046050 5.737640 255 60 0 0.514695
-0.461187 -1.047820 5.746180 255 60 0 0.509878
-0.524820 -1.043800 5.696370 255 49 0 0.537334
-0.532664 -1.044180 5.720420 255 56 0 0.518121
-0.556173 -1.043820 5.711730 255 56 0 0.516798
-0.549557 -1.044100 5.688800 255 60 0 0.511343
-0.518090 -1.044810 5.673490 255 45 0 0.553862
-0.542895 -1.045270 5.665980 255 49 0 0.539307
-0.511352 -1.046610 5.650730 255 45 0 0.551240
-0.486138 -1.047570 5.658340 255 49 0 0.538958
-0.479316 -1.050490 5.635850 255 56 0 0.516546
-0.536122 -1.046310 5.643160 255 45 0 0.546603
-0.504563 -1.048850 5.628240 255 53 0 0.531222
-0.529337 -1.048270 5.620940 255 53 0 0.532121
-0.454067 -1.053140 5.643490 255 97 0 0.427064
-0.470999 -1.045310 5.772430 255 60 0 0.507002
-0.492907 -1.043280 5.762710 255 60 0 0.509927
-0.502566 -1.041290 5.788780 255 64 0 0.506453
-0.480476 -1.042740 5.798390 255 64 0 0.505255
-0.524373 -1.039990 5.779170 255 60 0 0.506977
-0.511806 -1.038040 5.814630 255 64 0 0.503862
-0.533616 -1.037050 5.805170 255 64 0 0.504124
-0.542473 -1.032020 5.830750 255 64 0 0.501870
-0.489756 -1.038900 5.824090 255 64 0 0.503076
-0.520670 -1.032620 5.840090 255 64 0 0.504739
-0.498664 -1.033560 5.849570 255 64 0 0.501261
-0.555398 -1.036470 5.795610 255 67 0 0.492095
-0.564293 -1.032020 5.821230 255 64 0 0.501559
-0.585788 -1.032270 5.811820 255 64 0 0.501407
-0.578792 -1.037190 5.787250 255 78 0 0.463572
-0.547946 -1.039980 5.770860 255 64 0 0.506223
-0.571301 -1.040140 5.762310 255 75 0 0.472699
-0.540395 -1.042200 5.745710 255 60 0 0.511254
-0.516619 -1.042460 5.754210 255 64 0 0.505224
-0.563816 -1.042150 5.737000 255 60 0 0.510579
-0.681060 -1.022640 5.765190 255 60 0 0.509237
-0.674748 -1.026600 5.740270 255 64 0 0.500870
-0.650184 -1.029420 5.752200 255 64 0 0.502442
-0.643707 -1.031730 5.727050 255 64 0 0.505362
-0.668086 -1.028870 5.715240 255 78 0 0.464056
-0.619051 -1.034580 5.738920 255 82 0 0.460319
-0.636767 -1.032770 5.701980 255 60 0 0.510282
-0.612303 -1.035680 5.713690 255 78 0 0.466224
-0.605258 -1.036830 5.688470 255 56 0 0.520135
-0.661169 -1.030010 5.690100 255 60 0 0.507293
-0.629629 -1.033890 5.676770 255 56 0 0.517240
-0.654025 -1.031470 5.665010 255 112 0 0.393007
-0.587737 -1.039080 5.725410 255 60 0 0.511888
-0.580701 -1.040060 5.700080 255 56 0 0.520077
-0.595237 -1.037300 5.750590 255 60 0 0.506964
-0.602615 -1.034240 5.775630 255 64 0 0.503857
-0.626325 -1.031650 5.763980 255 64 0 0.504149
-0.633326 -1.027300 5.788840 255 64 0 0.501334
-0.609597 -1.029750 5.800370 255 64 0 0.501691
-0.657038 -1.024920 5.777270 255 64 0 0.500589
-0.647001 -1.031710 5.642740 255 56 0 0.518026
-0.622957 -1.033990 5.654090 255 53 0 0.527396
-0.616063 -1.034530 5.631740 255 75 0 0.472863
-0.640017 -1.032380 5.620710 255 56 0 0.523420
-0.591965 -1.037350 5.642820 255 45 0 0.548926
-0.609218 -1.035290 5.609750 255 49 0 0.538939
-0.585111 -1.038140 5.620700 255 45 0 0.551571
-0.578194 -1.039630 5.599020 255 49 0 0.538867
-0.633071 -1.033210 5.599120 255 56 0 0.524806
-0.602318 -1.036990 5.588430 255 90 0 0.439201
-0.626120 -1.034390 5.577870 255 49 0 0.541700
-0.560879 -1.041850 5.631810 255 90 0 0.436302
-0.553979 -1.043550 5.609760 255 49 0 0.544966
-0.567476 -1.040730 5.654310 255 64 0 0.501948
-0.574148 -1.040030 5.677140 255 64 0 0.502159
-0.598617 -1.036770 5.665560 255 41 0 0.561617
-0.375753 -1.029040 5.895030 255 78 0 0.464573
-0.390905 -1.019160 5.921380 255 67 0 0.496201
-0.416973 -1.007380 5.941320 255 67 0 0.493227
-0.431259 -0.993737 5.966190 255 86 0 0.449103
-0.456653 -0.979688 5.985710 255 75 0 0.476927
-0.434072 -0.979342 5.996510 255 75 0 0.474082
-0.454084 -0.994612 5.955440 255 71 0 0.481799
-0.478994 -0.980189 5.974780 255 71 0 0.484077
-0.441817 -1.008810 5.931140 255 67 0 0.494899
-0.429338 -1.021120 5.906120 255 64 0 0.498175
-0.402756 -1.030200 5.885190 255 78 0 0.466070
-0.429644 -1.031890 5.875230 255 64 0 0.499899
-0.447318 -0.961378 6.020770 255 82 0 0.459891
-0.471023 -0.944057 6.039550 255 71 0 0.484156
-0.484297 -0.927862 6.064210 255 71 0 0.480868
-0.505131 -0.928182 6.052690 255 67 0 0.489927
-0.492599 -0.944318 6.028270 255 71 0 0.484202
-0.480223 -0.961744 6.004190 255 86 0 0.450230
-0.570973 -0.927481 6.017510 255 67 0 0.495324
-0.545477 -0.944624 6.000960 255 71 0 0.486307
-0.534447 -0.962796 5.977480 255 75 0 0.472153
-0.508417 -0.980053 5.960820 255 71 0 0.486390
-0.537912 -0.980922 5.947480 255 67 0 0.488724
-0.505240 -0.962618 5.991430 255 75 0 0.477075
-0.517369 -0.944684 6.015490 255 71 0 0.485265
-0.529700 -0.927760 6.039470 255 67 0 0.492116
-0.528656 -0.996552 5.923760 255 67 0 0.494817
-0.511723 -0.995905 5.930070 255 67 0 0.494124
-0.501990 -1.010430 5.906340 255 67 0 0.495978
-0.518930 -1.010720 5.899820 255 75 0 0.478032
-0.485052 -1.009910 5.912480 255 67 0 0.496919
-0.491694 -1.022410 5.881560 255 75 0 0.471147
-0.474861 -1.022290 5.887880 255 64 0 0.499535
-0.464091 -1.032060 5.862280 255 64 0 0.500795
-0.509113 -1.023750 5.875420 255 64 0 0.499986
-0.481395 -1.032530 5.855920 255 64 0 0.501037
-0.457750 -1.022100 5.894230 255 64 0 0.498965
-0.447023 -1.031990 5.868800 255 64 0 0.500364
-0.482116 -0.995703 5.943770 255 67 0 0.491645
-0.730601 -0.924923 5.931040 255 60 0 0.512147
-0.708365 -0.925565 5.942000 255 60 0 0.508622
-0.699933 -0.942344 5.919420 255 64 0 0.502336
-0.722280 -0.941907 5.908430 255 56 0 0.519648
-0.677992 -0.943507 5.930430 255 64 0 0.499881
-0.691901 -0.959955 5.897220 255 64 0 0.498142
-0.669828 -0.961432 5.908560 255 86 0 0.450960
-0.661732 -0.978508 5.886450 255 71 0 0.484617
-0.714247 -0.958775 5.885680 255 71 0 0.488292
-0.684067 -0.977130 5.875030 255 67 0 0.488657
-0.706520 -0.975962 5.863270 255 71 0 0.487692
-0.647726 -0.962592 5.919690 255 49 0 0.537153
-0.639311 -0.979281 5.897510 255 67 0 0.492161
-0.617242 -0.980653 5.908600 255 67 0 0.492667
-0.626785 -0.963207 5.931720 255 67 0 0.492022
-0.656853 -0.943640 5.942200 255 67 0 0.497016
-0.636094 -0.944696 5.954280 255 67 0 0.495341
-0.666315 -0.926215 5.965500 255 64 0 0.505656
-0.687168 -0.926206 5.954010 255 64 0 0.505736
-0.645554 -0.927210 5.977330 255 60 0 0.513507
-0.701072 -0.991228 5.840140 255 67 0 0.492117
-0.677434 -0.992668 5.851310 255 67 0 0.493327
-0.671320 -1.006090 5.827530 255 67 0 0.496678
-0.694999 -1.003700 5.815990 255 67 0 0.496001
-0.647677 -1.008200 5.838860 255 75 0 0.478415
-0.664681 -1.016990 5.802750 255 64 0 0.498707
-0.641056 -1.019570 5.814360 255 64 0 0.499298
-0.688558 -1.014650 5.790870 255 82 0 0.453569
-0.617330 -1.021260 5.825620 255 64 0 0.499796
-0.594663 -1.023080 5.837320 255 64 0 0.499819
-0.625163 -1.009550 5.850570 255 64 0 0.500434
-0.602660 -1.011090 5.862110 255 64 0 0.497758
-0.632697 -0.995833 5.874610 255 67 0 0.494808
-0.654974 -0.994068 5.863010 255 67 0 0.493903
-0.610180 -0.997024 5.885890 255 67 0 0.490837
-0.529534 -1.022880 5.865320 255 64 0 0.500513
-0.539401 -1.010490 5.890040 255 64 0 0.498019
-0.559608 -1.010210 5.880120 255 64 0 0.498031
-0.548729 -0.996275 5.914090 255 67 0 0.495472
-0.568784 -0.996212 5.904440 255 67 0 0.495826
-0.577604 -0.979922 5.927670 255 67 0 0.491114
-0.557783 -0.980242 5.937550 255 67 0 0.490035
-0.588963 -0.996404 5.894750 255 64 0 0.502768
-0.597594 -0.980328 5.918170 255 67 0 0.492440
-0.581242 -1.010390 5.871110 255 78 0 0.468748
-0.573198 -1.022820 5.846760 255 64 0 0.500177
-0.551419 -1.022850 5.856020 255 67 0 0.490116
-0.567783 -0.962524 5.960170 255 71 0 0.486114
-0.578487 -0.943862 5.983440 255 67 0 0.490242
-0.597199 -0.944186 5.973300 255 67 0 0.493558
-0.589571 -0.927018 6.007130 255 67 0 0.495324
-0.608019 -0.926676 5.996630 255 64 0 0.506792
-0.626567 -0.927255 5.986770 255 64 0 0.499098
-0.616740 -0.944284 5.963750 255 67 0 0.495271
-0.607198 -0.962874 5.941200 255 64 0 0.504084
-0.587456 -0.962209 5.950440 255 64 0 0.503895
0.224097 -0.819020 5.312830 255 64 0 0.497740
0.223181 -0.839441 5.320570 255 67 0 0.493259
0.221902 -0.860111 5.328400 255 67 0 0.491381
0.220679 -0.880687 5.336190 255 67 0 0.493917
0.132587 -0.707247 5.281990 255 64 0 0.497951
0.138022 -0.726310 5.296770 255 67 0 0.496208
0.156689 -0.728269 5.288980 255 67 0 0.495136
0.161844 -0.749347 5.303620 255 67 0 0.492576
0.143187 -0.746924 5.311600 255 67 0 0.494174
0.180591 -0.752137 5.295480 255 75 0 0.479082
0.166385 -0.770594 5.317470 255 67 0 0.491060
0.184510 -0.772217 5.309020 255 67 0 0.490366
0.188124 -0.792389 5.322470 255 67 0 0.490502
0.147732 -0.768066 5.325550 255 67 0 0.492746
0.170003 -0.789690 5.330840 255 64 0 0.502093
0.151893 -0.787457 5.339260 255 78 0 0.462833
0.202881 -0.774377 5.300240 255 60 0 0.508255
0.206791 -0.795695 5.313340 255 60 0 0.510579
0.200464 -0.755136 5.287020 255 67 0 0.491798
0.196931 -0.735549 5.273820 255 67 0 0.493168
0.177080 -0.731883 5.281340 255 56 0 0.516580
0.172694 -0.712897 5.267810 255 75 0 0.475124
0.193223 -0.715960 5.259490 255 64 0 0.503471
0.152970 -0.710012 5.274890 255 67 0 0.497256
0.152005 -0.809859 5.348480 255 67 0 0.494317
0.169375 -0.811641 5.339690 255 64 0 0.506656
0.169277 -0.833381 5.348090 255 67 0 0.493162
0.151505 -0.832286 5.357230 255 67 0 0.494177
0.186366 -0.834379 5.339550 255 60 0 0.510787
0.168319 -0.854964 5.356590 255 64 0 0.500026
0.186026 -0.856036 5.347190 255 60 0 0.509199
0.185028 -0.878159 5.355230 255 67 0 0.495569
0.151201 -0.853570 5.365410 255 67 0 0.494768
0.167489 -0.876617 5.364380 255 67 0 0.497194
0.149746 -0.876152 5.373490 255 60 0 0.515378
0.203412 -0.857416 5.338030 255 64 0 0.499216
0.202765 -0.879053 5.345900 255 60 0 0.509126
0.204647 -0.836759 5.330290 255 64 0 0.503542
0.206038 -0.816609 5.321720 255 67 0 0.496460
0.187429 -0.813562 5.330910 255 64 0 0.506264
0.155853 -1.051900 5.196690 255 60 0 0.507544
0.137327 -1.053270 5.176550 255 71 0 0.480436
0.120717 -1.052430 5.156220 255 75 0 0.473253
0.093988 -1.053390 5.163310 255 60 0 0.508276
0.076596 -1.054380 5.180080 255 75 0 0.477563
0.111240 -1.054040 5.183860 255 60 0 0.507392
0.093890 -1.055040 5.200990 255 67 0 0.491767
0.059596 -1.055370 5.196830 255 67 0 0.491761
0.042486 -1.056280 5.213570 255 71 0 0.483092
0.021662 -1.054800 5.192400 255 64 0 0.503727
0.038667 -1.053880 5.175950 255 60 0 0.508745
0.055831 -1.053070 5.159580 255 82 0 0.457281
0.000930 -1.053750 5.171350 255 64 0 0.503117
0.131179 -1.053020 5.204390 255 75 0 0.474816
0.116459 -1.051740 5.221760 255 75 0 0.474047
0.150653 -1.048390 5.224430 255 64 0 0.506583
0.135675 -1.046850 5.241940 255 71 0 0.483597
0.101775 -1.050320 5.238820 255 64 0 0.501872
0.087689 -1.048640 5.255900 255 71 0 0.486192
0.064758 -1.052490 5.234610 255 64 0 0.500520
0.079223 -1.053900 5.217800 255 60 0 0.508081
-0.011242 -1.051900 5.280990 255 56 0 0.525077
0.002676 -1.053040 5.263850 255 71 0 0.483712
-0.037144 -1.054230 5.258790 255 60 0 0.508744
0.016141 -1.054240 5.247020 255 60 0 0.509723
-0.023063 -1.055570 5.241750 255 56 0 0.521372
-0.009322 -1.056960 5.225220 255 75 0 0.476782
-0.062361 -1.056990 5.236800 255 64 0 0.498921
0.029434 -1.055200 5.230130 255 67 0 0.491642
0.051566 -1.051450 5.251420 255 67 0 0.493099
0.038868 -1.050410 5.268330 255 71 0 0.485849
-0.046078 -1.056330 5.220050 255 60 0 0.507795
-0.085849 -1.054990 5.215070 255 67 0 0.494348
-0.030421 -1.055480 5.203650 255 60 0 0.508029
-0.069453 -1.054610 5.198550 255 71 0 0.486228
-0.053796 -1.053890 5.182380 255 60 0 0.506969
-0.108431 -1.053890 5.193550 255 64 0 0.505616
-0.014677 -1.054670 5.187380 255 71 0 0.482506
0.006415 -1.055920 5.208660 255 67 0 0.495765
0.171221 -1.041270 5.243130 255 75 0 0.477163
0.158571 -1.037260 5.259940 255 64 0 0.505931
0.178130 -1.025780 5.277090 255 64 0 0.501866
0.145646 -1.032860 5.276720 255 67 0 0.495910
0.133441 -1.028400 5.293140 255 67 0 0.489042
0.110799 -1.038640 5.274440 255 60 0 0.507091
0.122894 -1.042900 5.258350 255 71 0 0.480770
0.198528 -1.009260 5.290640 255 71 0 0.483456
0.185653 -1.002190 5.306470 255 60 0 0.508232
0.173759 -0.994543 5.321650 255 60 0 0.512829
0.153078 -1.011820 5.307770 255 75 0 0.477440
0.165521 -1.018910 5.292280 255 64 0 0.505584
0.089113 -1.001420 5.355140 255 71 0 0.484185
0.100319 -1.008390 5.339600 255 60 0 0.513370
0.064976 -1.018270 5.339190 255 75 0 0.476658
0.111563 -1.014820 5.323810 255 64 0 0.503705
0.076369 -1.025190 5.323850 255 60 0 0.510100
0.087954 -1.031490 5.308110 255 64 0 0.499429
0.040861 -1.034700 5.322640 255 60 0 0.509526
0.122606 -1.021930 5.308500 255 60 0 0.507035
0.142894 -1.004970 5.323300 255 64 0 0.502780
0.132135 -0.997522 5.338840 255 71 0 0.485655
0.053036 -1.038610 5.305900 255 60 0 0.509643
0.014047 -1.043610 5.301930 255 67 0 0.493010
0.064939 -1.041750 5.288930 255 60 0 0.509324
0.026946 -1.047110 5.285150 255 67 0 0.490514
0.076568 -1.045270 5.272260 255 60 0 0.508761
0.099302 -1.035270 5.291490 255 60 0 0.514739
0.216682 -0.956933 5.325450 255 71 0 0.484499
0.203074 -0.945497 5.339320 255 64 0 0.501286
0.188328 -0.970258 5.330790 255 71 0 0.485413
0.201778 -0.981343 5.317310 255 78 0 0.463058
0.212164 -0.913841 5.338270 255 60 0 0.512978
0.157805 -0.911879 5.365640 255 60 0 0.506977
0.138609 -0.912829 5.375000 255 56 0 0.519890
0.176263 -0.911230 5.356870 255 64 0 0.500120
0.165206 -0.946173 5.357620 255 78 0 0.464781
0.146380 -0.946833 5.366340 255 56 0 0.523796
0.126666 -0.947902 5.375470 255 67 0 0.493934
0.189480 -0.928626 5.348210 255 60 0 0.508206
0.129561 -0.973132 5.357040 255 75 0 0.478671
0.107740 -0.975209 5.365780 255 75 0 0.473735
0.150207 -0.971288 5.348730 255 64 0 0.503632
0.161727 -0.983202 5.335560 255 71 0 0.480770
0.176921 -0.958576 5.344050 255 71 0 0.487570
0.157785 -0.688708 5.238020 255 71 0 0.483072
0.177645 -0.691564 5.231340 255 64 0 0.498205
0.161912 -0.668954 5.200430 255 60 0 0.507533
0.148936 -0.677247 5.222520 255 64 0 0.498931
0.140578 -0.665998 5.206990 255 64 0 0.499450
0.127755 -0.674330 5.228930 255 64 0 0.499694
0.136479 -0.685769 5.244840 255 67 0 0.491652
0.114442 -0.682769 5.250870 255 64 0 0.500285
0.118493 -0.663278 5.212700 255 64 0 0.499894
0.105660 -0.671968 5.235260 255 64 0 0.500640
0.096703 -0.661027 5.219350 255 64 0 0.501151
0.123658 -0.694419 5.266370 255 64 0 0.499107
0.162956 -0.661231 5.165420 255 75 0 0.473005
0.143295 -0.651890 5.136550 255 67 0 0.496464
0.121468 -0.648956 5.142250 255 71 0 0.486745
0.109772 -0.650995 5.163000 255 71 0 0.482136
0.086965 -0.648750 5.168720 255 64 0 0.500103
0.074688 -0.651383 5.189720 255 64 0 0.501122
0.052625 -0.643503 5.159620 255 64 0 0.500810
0.142399 -0.658535 5.171470 255 64 0 0.498395
0.065735 -0.645358 5.141750 255 64 0 0.499935
0.088363 -0.647178 5.135980 255 71 0 0.479903
0.100467 -0.650337 5.117930 255 67 0 0.497377
0.122842 -0.652821 5.112200 255 67 0 0.496261
0.102478 -0.655192 5.087980 255 67 0 0.495847
0.079267 -0.652375 5.093840 255 67 0 0.496817
0.066954 -0.649147 5.111600 255 60 0 0.511552
0.043192 -0.647335 5.117000 255 64 0 0.499449
0.029977 -0.645522 5.134950 255 75 0 0.473679
0.008098 -0.647575 5.110800 255 64 0 0.499743
0.125855 -0.658330 5.080640 255 67 0 0.494939
0.097074 -0.673760 5.052300 255 67 0 0.495024
0.082903 -0.665196 5.068980 255 67 0 0.496072
0.063245 -0.675793 5.049980 255 71 0 0.486729
0.039306 -0.672755 5.055560 255 67 0 0.497067
0.025560 -0.665541 5.070410 255 64 0 0.497931
0.001155 -0.663610 5.076050 255 64 0 0.498290
-0.013421 -0.657669 5.091340 255 64 0 0.499058
-0.033525 -0.666653 5.073190 255 64 0 0.498439
0.022502 -0.653770 5.095390 255 78 0 0.466524
0.046071 -0.655400 5.089760 255 71 0 0.480075
0.059921 -0.662412 5.074500 255 56 0 0.517577
0.667127 -0.094556 5.955410 255 49 0 0.540021
0.663715 -0.074004 5.971800 255 60 0 0.514686
0.641530 -0.076219 5.962380 255 60 0 0.513554
0.644837 -0.096617 5.945770 255 60 0 0.512900
0.637151 -0.058394 5.981210 255 60 0 0.513526
0.619080 -0.078748 5.953010 255 60 0 0.512199
0.614835 -0.061322 5.971840 255 60 0 0.512264
0.592142 -0.063811 5.962490 255 67 0 0.496322
0.622360 -0.098312 5.936360 255 53 0 0.526465
0.596473 -0.080964 5.943560 255 60 0 0.510766
0.599759 -0.100898 5.926800 255 60 0 0.509796
0.609871 -0.046699 5.991930 255 60 0 0.512100
0.587351 -0.049552 5.982370 255 56 0 0.522111
0.581775 -0.038252 6.003880 255 60 0 0.508298
0.605519 -0.035826 6.014900 255 60 0 0.511424
0.633487 -0.043994 6.002640 255 60 0 0.515786
0.628965 -0.033151 6.025790 255 56 0 0.516430
0.656937 -0.041286 6.013400 255 67 0 0.495240
0.660724 -0.055818 5.991830 255 60 0 0.514792
0.652386 -0.030046 6.036660 255 60 0 0.513820
0.578284 -0.103027 5.917090 255 60 0 0.508722
0.573705 -0.083186 5.932690 255 60 0 0.511027
