ply
format ascii 1.0
comment VCGLIB generated
element vertex 1011
property float x
property float y
property float z
property uchar red
property uchar green
property uchar blue
property float quality
end_header
0.089473 -0.127042 0.967595 134 255 113 0.052439
0.097541 -0.126678 0.965323 0 7 255 0.008709
0.092503 -0.127684 0.964557 0 208 255 0.020449
0.095519 -0.128347 0.961512 0 7 255 0.008970
0.087493 -0.128809 0.963868 138 255 110 0.059289
0.100593 -0.127386 0.962318 0 7 255 0.008903
0.101972 -0.126007 0.965619 0 7 255 0.011405
0.098904 -0.125281 0.968596 0 74 255 0.012692
0.086396 -0.129930 0.961234 136 255 112 0.057854
0.091241 -0.129181 0.960809 0 141 255 0.018378
0.090139 -0.130272 0.958151 0 141 255 0.018654
0.085311 -0.131076 0.958606 138 255 110 0.059250
0.094992 -0.129584 0.957763 0 0 204 0.007260
0.089038 -0.131377 0.955496 0 141 255 0.019234
0.093870 -0.130640 0.955064 0 0 204 0.007323
0.084219 -0.132235 0.955980 138 255 110 0.060767
0.098748 -0.130018 0.954725 0 0 204 0.005024
0.099294 -0.128805 0.958514 0 0 204 0.007491
0.104360 -0.116405 0.983891 134 255 113 0.052827
0.106381 -0.117419 0.981586 131 255 117 0.044341
0.102193 -0.117829 0.982169 133 255 115 0.049245
0.104207 -0.118842 0.979834 128 255 120 0.038282
0.107309 -0.119161 0.978375 128 255 120 0.038975
0.100029 -0.119261 0.980442 134 255 113 0.052643
0.109327 -0.120197 0.976028 129 255 118 0.039673
0.080878 -0.101764 0.989436 0 0 204 0.006517
0.081842 -0.105763 0.987236 0 0 204 0.004984
0.077939 -0.103048 0.987593 0 7 255 0.009035
0.078888 -0.107058 0.985368 0 7 255 0.007827
0.082813 -0.109770 0.985023 0 74 255 0.011999
0.083778 -0.113785 0.982780 126 255 122 0.034565
0.086401 -0.112304 0.984653 36 255 211 0.024252
0.085447 -0.108275 0.986884 0 7 255 0.008362
0.084475 -0.104264 0.989088 0 0 204 0.005492
0.089023 -0.110834 0.986576 0 208 255 0.023182
0.075167 -0.104543 0.985519 0 7 255 0.010871
0.076313 -0.108721 0.982989 0 7 255 0.008932
0.072229 -0.105971 0.983267 0 74 255 0.014326
0.073383 -0.110151 0.980732 0 74 255 0.013421
0.077465 -0.112898 0.980438 0 74 255 0.015224
0.078627 -0.117075 0.977866 129 255 118 0.042515
0.081207 -0.115420 0.980311 126 255 122 0.034943
0.080051 -0.111232 0.982858 0 74 255 0.012585
0.089550 -0.122428 0.974221 36 255 211 0.026585
0.093562 -0.123743 0.973930 136 255 112 0.056765
0.087636 -0.119547 0.977094 0 141 255 0.015649
0.091656 -0.120833 0.976800 36 255 211 0.024728
0.089725 -0.117939 0.979639 0 141 255 0.016032
0.095670 -0.122186 0.976550 134 255 113 0.053988
0.085691 -0.116672 0.979927 0 141 255 0.016634
0.083131 -0.118279 0.977441 0 208 255 0.019565
0.085051 -0.121139 0.974564 0 141 255 0.018443
0.094031 -0.119334 0.979084 0 208 255 0.021612
0.097854 -0.120715 0.978489 134 255 113 0.050825
0.092367 -0.116501 0.981597 0 7 255 0.010766
0.096192 -0.117859 0.981008 0 208 255 0.022823
0.094522 -0.115015 0.983500 0 74 255 0.015228
0.090711 -0.113655 0.984099 0 74 255 0.012059
0.088075 -0.115116 0.982159 0 74 255 0.012815
0.102367 -0.120157 0.978038 129 255 118 0.040470
0.104702 -0.121078 0.975628 128 255 120 0.035822
0.100172 -0.121608 0.976071 126 255 122 0.032446
0.102500 -0.122484 0.973642 90 255 157 0.028130
0.107048 -0.121993 0.973210 90 255 157 0.030351
0.109384 -0.122895 0.970783 131 255 117 0.044455
0.110912 -0.121717 0.972657 133 255 115 0.047205
0.098359 -0.122972 0.973908 90 255 157 0.028777
0.101054 -0.123767 0.971261 0 208 255 0.021040
0.096236 -0.124501 0.971264 0 208 255 0.021208
0.103746 -0.124580 0.968617 0 208 255 0.021145
0.107912 -0.124164 0.968362 129 255 118 0.039740
0.105202 -0.123313 0.971006 36 255 211 0.027078
0.115267 -0.121338 0.966126 0 141 255 0.018785
0.112312 -0.122104 0.968460 0 208 255 0.022845
0.110838 -0.123348 0.966049 0 141 255 0.018124
0.061408 -0.111833 0.972132 0 7 255 0.009400
0.064144 -0.115499 0.969992 0 0 204 0.004303
0.065552 -0.114801 0.971711 0 0 204 0.004707
0.066900 -0.119112 0.967847 0 7 255 0.007822
0.068303 -0.118456 0.969654 0 7 255 0.009227
0.071050 -0.122070 0.967547 0 208 255 0.022098
0.069652 -0.122738 0.965770 0 208 255 0.020348
0.069712 -0.117800 0.971442 0 7 255 0.011285
0.072441 -0.121437 0.969357 36 255 211 0.027127
0.073840 -0.120826 0.971180 126 255 122 0.034978
0.068314 -0.113696 0.974757 0 7 255 0.009749
0.064176 -0.110661 0.975060 0 7 255 0.011361
0.073124 -0.124629 0.963862 0 0 204 0.006755
0.076837 -0.127140 0.961209 0 0 204 0.004876
0.077930 -0.125917 0.963789 0 0 204 0.006414
0.080542 -0.129675 0.958592 0 141 255 0.018824
0.081633 -0.128479 0.961186 0 141 255 0.017661
0.082715 -0.127304 0.963789 0 141 255 0.015721
0.084124 -0.126775 0.965685 0 208 255 0.023098
0.079318 -0.125333 0.965635 0 0 204 0.007061
0.080717 -0.124769 0.967497 0 7 255 0.010533
0.075886 -0.123375 0.967483 0 7 255 0.010052
0.074494 -0.123994 0.965661 0 0 204 0.007335
0.077280 -0.122790 0.969325 0 74 255 0.012935
0.087078 -0.124072 0.971211 0 208 255 0.023327
0.082674 -0.122919 0.971143 0 74 255 0.012819
0.080658 -0.120004 0.974526 0 141 255 0.017583
0.076243 -0.118927 0.974529 126 255 122 0.034876
0.074693 -0.114384 0.977921 0 141 255 0.018639
0.070741 -0.111725 0.978005 0 7 255 0.011466
0.069431 -0.107489 0.980828 0 141 255 0.017136
0.066763 -0.109103 0.978126 0 141 255 0.015853
0.072277 -0.116285 0.974608 0 74 255 0.014733
0.098558 -0.116462 0.982821 90 255 157 0.027898
0.097071 -0.113657 0.985178 0 141 255 0.019264
0.100710 -0.115007 0.984537 90 255 157 0.029353
0.099225 -0.112173 0.986873 0 208 255 0.021080
0.095591 -0.110831 0.987520 0 141 255 0.016684
0.094104 -0.108031 0.989842 0 208 255 0.021383
0.091563 -0.109429 0.988193 0 141 255 0.018855
0.093034 -0.112219 0.985865 0 74 255 0.015385
0.102987 -0.113665 0.986179 128 255 120 0.038102
0.099051 -0.108870 0.989905 0 208 255 0.019897
0.096489 -0.106791 0.991356 0 141 255 0.019011
0.091546 -0.096950 0.995830 0 74 255 0.015219
0.092401 -0.100659 0.993856 0 74 255 0.013250
0.088960 -0.098012 0.994273 0 7 255 0.010778
0.089776 -0.101705 0.992283 0 7 255 0.009334
0.093254 -0.104344 0.991846 0 74 255 0.013273
0.095632 -0.103088 0.993359 0 141 255 0.018053
0.086392 -0.099256 0.992730 0 7 255 0.010031
0.087252 -0.103108 0.990697 0 7 255 0.010215
0.083599 -0.100435 0.991142 0 0 204 0.007604
0.088146 -0.106960 0.988645 0 7 255 0.010015
0.090672 -0.105567 0.990253 0 74 255 0.012504
-0.145175 -0.014947 0.862104 0 0 128 0.003546
-0.143478 -0.014354 0.863851 0 0 128 0.002184
-0.146016 -0.015395 0.864523 0 0 128 0.002081
-0.141806 -0.013741 0.865558 0 0 128 0.001656
-0.144324 -0.014742 0.866263 0 0 128 0.001923
-0.142657 -0.014115 0.867964 0 0 128 0.002547
-0.146837 -0.015713 0.866947 0 0 128 0.003084
-0.140164 -0.013075 0.867266 0 0 128 0.002324
-0.138563 -0.012396 0.868941 0 0 204 0.004324
-0.137242 -0.011564 0.865658 0 0 204 0.005765
-0.138870 -0.012252 0.863979 0 0 204 0.004024
-0.145218 -0.015362 0.869772 0 0 128 0.001568
-0.143412 -0.014781 0.871359 0 0 128 0.001314
-0.147512 -0.016285 0.870539 0 0 128 0.002029
-0.141664 -0.014164 0.872947 0 0 128 0.001608
-0.139374 -0.013120 0.872224 0 0 128 0.003212
-0.131768 -0.011381 0.875625 0 0 204 0.004785
-0.133432 -0.011687 0.873953 0 0 128 0.002367
-0.135093 -0.011959 0.872276 0 0 128 0.002113
-0.130736 -0.010595 0.872749 0 0 204 0.005494
-0.132424 -0.010885 0.871082 0 0 128 0.003362
-0.136816 -0.012191 0.870617 0 0 128 0.002586
-0.137659 -0.012896 0.873895 0 0 128 0.002174
-0.129363 -0.009697 0.870018 0 0 204 0.005555
-0.133555 -0.010861 0.868185 0 0 128 0.003224
-0.130931 -0.009954 0.868197 0 0 128 0.003391
-0.134653 -0.010748 0.865472 0 0 128 0.003726
-0.095971 -0.032247 0.893955 144 255 103 0.076555
-0.095540 -0.035453 0.895970 163 255 85 0.120614
-0.095168 -0.038844 0.898103 168 255 80 0.132643
-0.098089 -0.032489 0.894739 154 255 93 0.101215
-0.094885 -0.042417 0.900251 183 255 65 0.164889
-0.094737 -0.046097 0.902417 186 255 62 0.175187
-0.097895 -0.035558 0.896853 169 255 78 0.133741
-0.097299 -0.038801 0.898888 180 255 68 0.159537
-0.096936 -0.059094 0.907281 178 255 70 0.154889
-0.096239 -0.055876 0.906180 176 255 72 0.150778
-0.095671 -0.052639 0.905019 195 255 53 0.192949
-0.095163 -0.049393 0.903768 190 255 58 0.180188
-0.095103 -0.060267 0.906812 166 255 82 0.128292
-0.094217 -0.056884 0.905729 176 255 72 0.149374
-0.093427 -0.053478 0.904564 180 255 68 0.159482
-0.092736 -0.050066 0.903325 185 255 63 0.171838
-0.096612 -0.045430 0.903139 190 255 58 0.181156
-0.097131 -0.048452 0.904622 210 255 38 0.229504
-0.097160 -0.042164 0.901156 181 255 67 0.161694
-0.100393 -0.032532 0.895942 168 255 80 0.132388
-0.099946 -0.035377 0.897948 180 255 68 0.158341
-0.102221 -0.032141 0.897411 169 255 78 0.134979
-0.099581 -0.038153 0.900397 195 255 53 0.192563
-0.098721 -0.041194 0.902413 195 255 53 0.191660
-0.097723 -0.051177 0.906461 208 255 40 0.223869
-0.097864 -0.054302 0.907561 190 255 58 0.181603
-0.098103 -0.057387 0.908583 173 255 75 0.143284
-0.095281 -0.064038 0.906850 158 255 90 0.106606
-0.097131 -0.066995 0.906917 149 255 98 0.088334
-0.099022 -0.069934 0.906986 149 255 98 0.086310
-0.100938 -0.072786 0.906957 136 255 112 0.055003
-0.099353 -0.074392 0.906598 90 255 157 0.029918
-0.097468 -0.071532 0.906618 128 255 120 0.036710
-0.097158 -0.062851 0.907078 166 255 82 0.126846
-0.099142 -0.065454 0.907397 171 255 77 0.139395
-0.100818 -0.068235 0.907527 154 255 93 0.101447
-0.109896 -0.080753 0.904596 0 141 255 0.017939
-0.107727 -0.078807 0.905157 90 255 157 0.028073
-0.105510 -0.076806 0.905750 129 255 118 0.042259
-0.108639 -0.082882 0.903749 0 7 255 0.010075
-0.103236 -0.074827 0.906374 134 255 113 0.052066
-0.106244 -0.080931 0.904398 0 141 255 0.016741
-0.103777 -0.078955 0.905098 0 208 255 0.020225
-0.106942 -0.085199 0.902928 0 7 255 0.007884
-0.104580 -0.083227 0.903573 0 0 204 0.005804
-0.101294 -0.076943 0.905764 36 255 211 0.024037
-0.111208 -0.076682 0.906996 126 255 122 0.033724
-0.109217 -0.074958 0.907278 134 255 113 0.052697
-0.107193 -0.073195 0.907580 144 255 103 0.076698
-0.110748 -0.078672 0.905600 0 208 255 0.022733
-0.105061 -0.071476 0.907920 149 255 98 0.086277
-0.102985 -0.069668 0.908229 156 255 92 0.102429
-0.098866 -0.061323 0.907919 180 255 68 0.157945
-0.100509 -0.063212 0.908656 173 255 75 0.142825
-0.101872 -0.065714 0.908997 159 255 88 0.109533
-0.130656 -0.085214 0.899733 0 0 128 0.002646
-0.128057 -0.084996 0.900178 0 0 128 0.002876
-0.125481 -0.084797 0.900653 0 0 204 0.004210
-0.130433 -0.087355 0.897783 0 0 128 0.003166
-0.127837 -0.087142 0.898235 0 0 128 0.002163
-0.122873 -0.084619 0.901154 0 0 204 0.005233
-0.120244 -0.084474 0.901687 0 0 204 0.006477
-0.120780 -0.082009 0.903589 0 0 204 0.007714
-0.129924 -0.089485 0.895978 0 0 204 0.004064
-0.124827 -0.087490 0.898583 0 0 128 0.003184
-0.127154 -0.089173 0.896702 0 0 128 0.002831
-0.122068 -0.087226 0.899339 0 0 128 0.003642
-0.119279 -0.086984 0.900150 0 0 204 0.004430
-0.112510 -0.081671 0.903794 0 141 255 0.017437
-0.115105 -0.082592 0.903049 0 74 255 0.013583
-0.117696 -0.083520 0.902358 0 7 255 0.010036
-0.113278 -0.079516 0.905033 0 208 255 0.019588
-0.115811 -0.080323 0.904526 0 141 255 0.019233
-0.118313 -0.081152 0.904039 0 74 255 0.014894
-0.113968 -0.085099 0.901650 0 0 204 0.007142
-0.116631 -0.086034 0.900877 0 0 204 0.005280
-0.118254 -0.088891 0.899136 0 0 204 0.005925
-0.111308 -0.083985 0.902665 0 0 204 0.006964
-0.124028 -0.089596 0.896942 0 0 128 0.002435
-0.126185 -0.091271 0.895105 0 0 128 0.002862
-0.128739 -0.092261 0.893772 0 0 204 0.005626
-0.122955 -0.091525 0.895721 0 0 128 0.003104
-0.120782 -0.089886 0.897600 0 0 128 0.003483
-0.125232 -0.097235 0.889905 0 7 255 0.009005
-0.122742 -0.096160 0.891612 0 0 204 0.005375
-0.120916 -0.094238 0.893846 0 0 128 0.003840
-0.118424 -0.093205 0.895577 0 0 204 0.004843
-0.116601 -0.091296 0.897814 0 0 204 0.007600
-0.115289 -0.093063 0.896828 0 7 255 0.009901
-0.124784 -0.093493 0.893526 0 0 128 0.003788
-0.126616 -0.095462 0.891323 0 7 255 0.008886
-0.113068 -0.091268 0.898238 0 0 128 0.003413
-0.111435 -0.088728 0.899986 0 0 128 0.003536
-0.109190 -0.086964 0.901433 0 0 204 0.004075
-0.114965 -0.088720 0.899503 0 0 128 0.003777
-0.154902 -0.064372 0.904498 0 0 204 0.006718
-0.155039 -0.067199 0.901966 0 0 204 0.006134
-0.155218 -0.070074 0.899421 0 0 204 0.005106
-0.157479 -0.066854 0.899610 0 0 204 0.006508
-0.152807 -0.070433 0.901763 0 0 204 0.006934
-0.150770 -0.070593 0.903922 0 7 255 0.011178
-0.152828 -0.067462 0.904212 0 7 255 0.008125
-0.150810 -0.067643 0.906365 0 7 255 0.009185
-0.158999 -0.068424 0.896739 0 0 204 0.004374
-0.156163 -0.071721 0.897098 0 0 128 0.003589
-0.158545 -0.071164 0.895042 0 0 128 0.003467
-0.160987 -0.070626 0.892939 0 0 204 0.005286
-0.155725 -0.074488 0.895410 0 0 204 0.003933
-0.153517 -0.074947 0.897384 0 0 204 0.005434
-0.152586 -0.073304 0.899696 0 0 204 0.007229
-0.146124 -0.079143 0.899606 0 7 255 0.008162
-0.147325 -0.076581 0.900968 0 0 204 0.004860
-0.148553 -0.074052 0.902296 0 0 204 0.007072
-0.145272 -0.076497 0.902702 0 7 255 0.008094
-0.149565 -0.076625 0.899082 0 0 204 0.004390
-0.144503 -0.074637 0.905161 0 7 255 0.010944
-0.147227 -0.072176 0.905352 0 0 204 0.007275
-0.145146 -0.071927 0.907392 0 7 255 0.008033
-0.143100 -0.071704 0.909449 0 7 255 0.011240
-0.147871 -0.069479 0.907594 0 7 255 0.008292
-0.113129 -0.012983 0.879649 0 141 255 0.017371
-0.114916 -0.012057 0.878045 0 141 255 0.018464
-0.117322 -0.011417 0.877138 0 141 255 0.018842
-0.119104 -0.010427 0.875525 0 74 255 0.012703
-0.121541 -0.009681 0.874617 0 74 255 0.013124
-0.120932 -0.011282 0.877494 0 74 255 0.013187
-0.119183 -0.012191 0.878944 0 141 255 0.017743
-0.116789 -0.012796 0.879844 0 208 255 0.019545
-0.114996 -0.013604 0.881283 0 141 255 0.018182
-0.122301 -0.009070 0.871980 0 7 255 0.009236
-0.124819 -0.009441 0.871608 0 7 255 0.008144
-0.126821 -0.009414 0.870359 0 0 204 0.005066
-0.126536 -0.010385 0.873924 0 7 255 0.008175
-0.124036 -0.010058 0.874258 0 7 255 0.009035
-0.127647 -0.011153 0.876594 0 7 255 0.008890
-0.123584 -0.010799 0.877593 0 74 255 0.013561
-0.129146 -0.010910 0.874771 0 0 204 0.007273
-0.122727 -0.012076 0.880412 0 74 255 0.013045
-0.120533 -0.012718 0.881103 0 141 255 0.016317
-0.118801 -0.013487 0.882374 0 208 255 0.020293
-0.117012 -0.014231 0.883613 0 208 255 0.020533
-0.097374 -0.029039 0.891525 138 255 110 0.059830
-0.099407 -0.026157 0.889506 128 255 120 0.038560
-0.100718 -0.023225 0.887212 90 255 157 0.029096
-0.102613 -0.020404 0.885295 36 255 211 0.023472
-0.099634 -0.029412 0.892490 148 255 100 0.083827
-0.102683 -0.017610 0.882280 0 141 255 0.016162
-0.104873 -0.015538 0.880496 0 141 255 0.016536
-0.106148 -0.013016 0.878267 0 74 255 0.012005
-0.108209 -0.010754 0.876563 0 7 255 0.009900
-0.108627 -0.014079 0.879633 0 74 255 0.013796
-0.107188 -0.016415 0.881753 0 208 255 0.021549
-0.104952 -0.018401 0.883516 0 208 255 0.019704
-0.111583 -0.015256 0.881647 36 255 211 0.025353
-0.109340 -0.017238 0.883232 126 255 122 0.032764
-0.107604 -0.019330 0.885207 126 255 122 0.031825
-0.105190 -0.021207 0.886808 128 255 120 0.036008
-0.110776 -0.011934 0.878054 0 74 255 0.012288
-0.104824 -0.024264 0.889536 141 255 107 0.066472
-0.102737 -0.026873 0.891259 144 255 103 0.075825
-0.115017 -0.010289 0.875139 0 74 255 0.014535
-0.112491 -0.010946 0.876339 0 74 255 0.014157
-0.115983 -0.008762 0.872880 0 7 255 0.010569
-0.116972 -0.007195 0.870645 0 141 255 0.017383
-0.119480 -0.008586 0.872573 0 74 255 0.012514
-0.109892 -0.009631 0.874739 0 7 255 0.010819
-0.111575 -0.008473 0.872913 0 7 255 0.011416
-0.112403 -0.006781 0.870615 0 7 255 0.009329
-0.113284 -0.005063 0.868321 0 141 255 0.018512
-0.121399 -0.005140 0.862048 0 7 255 0.010414
-0.120240 -0.005732 0.864197 0 0 204 0.006293
-0.123251 -0.006261 0.863474 0 7 255 0.008304
-0.119126 -0.006241 0.866365 0 0 204 0.007110
-0.122120 -0.006765 0.865633 0 0 204 0.007093
-0.121009 -0.007283 0.867779 0 7 255 0.008234
-0.125111 -0.007258 0.864943 0 0 204 0.007643
-0.118032 -0.006749 0.868502 0 7 255 0.008919
-0.115303 -0.005100 0.866749 0 7 255 0.011619
-0.124678 -0.008206 0.867835 0 0 204 0.005634
-0.127502 -0.008557 0.867406 0 0 204 0.006040
-0.101864 -0.029712 0.893834 159 255 88 0.112855
-0.107358 -0.021723 0.888342 136 255 112 0.055176
-0.104809 -0.026968 0.892639 161 255 87 0.114467
-0.113915 -0.015977 0.883684 90 255 157 0.028316
-0.111630 -0.017890 0.885101 126 255 122 0.031476
-0.109770 -0.019866 0.886901 131 255 117 0.045142
-0.115696 -0.016389 0.885878 36 255 211 0.025694
-0.113441 -0.018251 0.887112 131 255 117 0.043470
-0.111516 -0.020092 0.888719 136 255 112 0.055964
-0.109506 -0.021925 0.890337 139 255 108 0.065545
-0.108079 -0.024376 0.892400 154 255 93 0.099856
-0.103879 -0.029441 0.895399 164 255 83 0.124379
-0.119671 -0.014994 0.890037 90 255 157 0.030033
-0.123232 -0.013889 0.889095 90 255 157 0.027461
-0.126735 -0.012668 0.888124 36 255 211 0.026381
-0.125186 -0.013471 0.891059 126 255 122 0.031916
-0.121616 -0.014532 0.891902 126 255 122 0.032922
-0.119862 -0.015048 0.893699 126 255 122 0.034578
-0.128234 -0.012672 0.885419 0 141 255 0.015981
-0.131762 -0.013039 0.885193 0 7 255 0.010093
-0.133366 -0.013015 0.883492 0 7 255 0.008190
-0.133797 -0.013385 0.887737 0 7 255 0.008983
-0.130296 -0.013076 0.887924 0 141 255 0.017001
-0.132812 -0.012867 0.893903 0 208 255 0.021527
-0.129598 -0.012761 0.893552 36 255 211 0.026303
-0.127567 -0.012430 0.895688 36 255 211 0.027144
-0.128397 -0.012897 0.891096 36 255 211 0.026417
-0.131616 -0.013041 0.891420 0 208 255 0.019741
-0.123995 -0.012698 0.897122 90 255 157 0.028601
-0.120705 -0.013863 0.897281 36 255 211 0.026817
-0.118500 -0.013993 0.899518 36 255 211 0.024072
-0.124614 -0.013188 0.894113 90 255 157 0.029426
-0.121274 -0.012441 0.900492 90 255 157 0.029713
-0.120340 -0.011761 0.902980 90 255 157 0.028411
-0.123991 -0.010880 0.901360 134 255 113 0.053131
-0.123067 -0.010260 0.903866 134 255 113 0.051105
-0.122096 -0.009725 0.906282 133 255 115 0.049282
-0.119338 -0.011131 0.905268 126 255 122 0.034470
-0.118318 -0.010535 0.907521 90 255 157 0.029500
-0.116539 -0.012483 0.904211 126 255 122 0.034696
-0.115482 -0.011873 0.906442 90 255 157 0.029865
-0.114417 -0.011267 0.908652 90 255 157 0.027470
-0.117541 -0.013185 0.901933 90 255 157 0.027352
-0.126678 -0.011699 0.898313 126 255 122 0.033684
-0.130167 -0.012131 0.897040 36 255 211 0.027167
-0.129274 -0.011426 0.899676 126 255 122 0.032412
-0.128354 -0.010719 0.902340 131 255 117 0.043145
-0.127417 -0.010217 0.904805 128 255 120 0.038311
-0.123677 -0.007745 0.913853 126 255 122 0.031280
-0.123157 -0.008373 0.911332 128 255 120 0.038946
-0.120113 -0.007455 0.914528 126 255 122 0.031561
-0.119590 -0.008068 0.912001 133 255 115 0.050222
-0.122638 -0.009026 0.908835 128 255 120 0.038888
-0.126200 -0.009319 0.907868 129 255 118 0.039697
-0.126721 -0.008665 0.910336 129 255 118 0.041202
-0.114430 -0.008086 0.915761 126 255 122 0.031678
-0.115717 -0.008843 0.913112 90 255 157 0.028319
-0.111835 -0.009615 0.913977 126 255 122 0.034958
-0.110551 -0.008925 0.916634 126 255 122 0.033905
-0.113143 -0.010372 0.911338 126 255 122 0.031323
-0.117047 -0.009691 0.910358 36 255 211 0.025587
-0.129535 -0.012552 0.882964 0 74 255 0.012679
-0.125897 -0.012119 0.883368 0 208 255 0.022676
-0.131129 -0.012478 0.881233 0 0 204 0.006452
-0.132689 -0.012334 0.879492 0 0 204 0.005188
-0.124610 -0.013117 0.886299 0 208 255 0.022038
-0.120987 -0.014316 0.887468 36 255 211 0.025445
-0.122335 -0.013407 0.884707 0 141 255 0.019211
-0.125071 -0.011614 0.880803 0 141 255 0.016253
-0.118509 -0.014665 0.886215 36 255 211 0.023608
-0.128580 -0.011848 0.879307 0 0 204 0.007499
-0.130146 -0.011640 0.877454 0 0 204 0.006263
-0.137176 -0.014127 0.883798 0 0 128 0.003315
-0.140942 -0.015123 0.884034 0 0 128 0.003438
-0.138984 -0.014499 0.882297 0 0 128 0.002301
-0.139134 -0.014807 0.885531 0 0 128 0.003435
-0.135403 -0.013731 0.885248 0 0 204 0.005252
-0.142745 -0.015625 0.881620 0 0 128 0.002214
-0.144534 -0.016529 0.883558 0 0 128 0.002468
-0.146487 -0.017134 0.882133 0 0 128 0.002439
-0.148461 -0.017728 0.880679 0 0 128 0.002955
-0.148279 -0.018051 0.884028 0 0 204 0.004265
-0.146397 -0.017409 0.885435 0 0 204 0.004121
-0.142815 -0.016046 0.885944 0 0 128 0.003192
-0.146424 -0.017789 0.891546 0 7 255 0.010200
-0.143411 -0.016459 0.890441 0 0 204 0.005834
-0.140417 -0.015104 0.889272 0 0 204 0.006607
-0.141417 -0.015652 0.892181 0 7 255 0.008311
-0.145525 -0.017270 0.888648 0 0 204 0.006453
-0.138036 -0.014444 0.892772 0 0 204 0.007651
-0.136793 -0.014205 0.890081 0 0 204 0.006928
-0.134801 -0.013581 0.891979 0 7 255 0.011304
-0.145867 -0.015908 0.873241 0 0 128 0.001305
-0.148008 -0.016785 0.874002 0 0 128 0.002127
-0.144027 -0.015393 0.874708 0 0 128 0.000894
-0.146300 -0.016427 0.876633 0 0 128 0.001493
-0.142205 -0.014801 0.876187 0 0 128 0.001233
-0.140411 -0.014224 0.877616 0 0 128 0.002073
-0.144526 -0.016063 0.879114 0 0 128 0.001402
-0.140751 -0.014748 0.880818 0 0 128 0.002559
-0.135114 -0.013378 0.882034 0 0 128 0.003783
-0.136861 -0.013711 0.880561 0 0 128 0.002659
-0.138637 -0.013986 0.879104 0 0 128 0.001756
-0.134414 -0.012633 0.877942 0 0 128 0.003032
-0.136136 -0.012929 0.876410 0 0 128 0.001431
-0.092755 -0.029053 0.922625 0 74 255 0.012605
-0.093481 -0.029693 0.920548 0 74 255 0.014828
-0.092476 -0.032905 0.921459 0 141 255 0.017884
-0.091636 -0.036068 0.922500 36 255 211 0.025059
-0.093280 -0.033514 0.919437 0 141 255 0.017049
-0.092412 -0.036690 0.920504 0 208 255 0.022403
-0.093236 -0.037341 0.918499 0 208 255 0.021201
-0.094292 -0.034133 0.917195 0 74 255 0.014277
-0.094443 -0.030346 0.918282 0 74 255 0.014158
-0.095495 -0.030940 0.916027 0 74 255 0.012969
-0.095738 -0.027167 0.917234 0 141 255 0.016428
-0.094739 -0.026480 0.919493 0 141 255 0.018025
-0.096121 -0.023354 0.918599 0 208 255 0.022642
-0.096815 -0.027812 0.914971 0 141 255 0.016310
-0.097158 -0.024050 0.916311 0 208 255 0.020854
-0.098276 -0.024747 0.914070 0 141 255 0.018507
-0.095152 -0.022781 0.920884 0 208 255 0.021325
-0.091496 -0.042492 0.924746 0 141 255 0.018042
-0.091644 -0.045679 0.925832 0 208 255 0.022870
-0.091826 -0.048878 0.926945 131 255 117 0.045945
-0.093092 -0.050347 0.923436 129 255 118 0.041973
-0.092967 -0.047084 0.922108 36 255 211 0.024524
-0.092961 -0.043814 0.920847 0 141 255 0.016148
-0.092283 -0.039863 0.921614 0 74 255 0.015389
-0.093051 -0.040527 0.919634 0 74 255 0.014546
-0.095463 -0.052565 0.917807 126 255 122 0.033362
-0.095390 -0.049516 0.916441 36 255 211 0.026048
-0.094691 -0.045674 0.916446 0 208 255 0.023327
-0.094919 -0.042358 0.915057 36 255 211 0.027134
-0.094626 -0.038444 0.915296 0 141 255 0.018153
-0.096019 -0.039805 0.912258 128 255 120 0.037063
-0.094037 -0.048335 0.919248 36 255 211 0.026278
-0.094214 -0.051555 0.920611 131 255 117 0.044365
-0.097319 -0.036534 0.910689 128 255 120 0.035662
-0.097865 -0.032703 0.910991 0 74 255 0.013727
-0.099426 -0.029655 0.909741 0 141 255 0.016362
-0.100117 -0.026071 0.910441 0 74 255 0.014693
-0.101903 -0.027664 0.906777 90 255 157 0.030646
-0.095726 -0.035253 0.913969 0 74 255 0.014675
-0.116502 -0.015253 0.900473 0 141 255 0.016291
-0.114814 -0.016991 0.900132 0 141 255 0.017303
-0.112739 -0.018257 0.900998 0 141 255 0.018853
-0.110958 -0.019996 0.900580 0 208 255 0.022085
-0.110229 -0.019100 0.903047 0 74 255 0.012820
-0.113504 -0.019232 0.898543 129 255 118 0.041193
-0.111753 -0.020903 0.898170 131 255 117 0.044346
-0.115575 -0.017785 0.897454 126 255 122 0.032245
-0.117582 -0.016272 0.896323 90 255 157 0.028539
-0.108157 -0.021086 0.903956 0 74 255 0.013685
-0.106336 -0.023672 0.903789 36 255 211 0.026680
-0.104265 -0.025894 0.904754 126 255 122 0.032493
-0.102981 -0.029257 0.903866 146 255 102 0.080922
-0.105423 -0.027341 0.901653 144 255 103 0.075199
-0.107547 -0.025059 0.900475 136 255 112 0.056083
-0.109280 -0.022506 0.900502 128 255 120 0.036193
-0.103570 -0.030893 0.900847 163 255 85 0.118659
-0.107720 -0.025913 0.898044 153 255 95 0.096191
-0.109801 -0.023577 0.897413 144 255 103 0.075951
-0.111790 -0.021487 0.895346 138 255 110 0.059209
-0.113870 -0.019908 0.894075 141 255 107 0.067784
-0.115906 -0.018335 0.893662 136 255 112 0.056885
-0.117860 -0.016691 0.892335 129 255 118 0.042912
-0.108442 -0.010229 0.917150 90 255 157 0.029242
-0.107690 -0.012150 0.915193 0 74 255 0.014383
-0.104484 -0.012583 0.918151 0 74 255 0.014926
-0.103650 -0.014492 0.916143 0 208 255 0.021203
-0.106888 -0.014129 0.913170 0 74 255 0.012775
-0.106083 -0.016053 0.911151 0 141 255 0.019193
-0.108201 -0.014804 0.910541 0 74 255 0.012198
-0.108978 -0.012819 0.912545 0 141 255 0.016971
-0.110313 -0.013560 0.909953 0 74 255 0.013719
-0.111115 -0.011610 0.911972 0 208 255 0.022118
-0.109823 -0.010873 0.914632 0 208 255 0.022635
-0.112392 -0.012443 0.909305 0 74 255 0.015382
-0.100433 -0.016105 0.919211 0 74 255 0.013110
-0.098640 -0.018246 0.919737 0 7 255 0.009793
-0.099693 -0.018919 0.917451 0 7 255 0.011598
-0.096852 -0.020462 0.920255 0 74 255 0.012358
-0.097861 -0.021092 0.917974 0 74 255 0.014223
-0.098944 -0.021849 0.915708 0 74 255 0.011966
-0.100187 -0.022408 0.913285 0 74 255 0.014731
-0.100882 -0.019520 0.914984 0 74 255 0.014764
-0.102140 -0.020214 0.912558 0 74 255 0.013477
-0.102850 -0.017361 0.914290 0 74 255 0.014522
-0.101691 -0.016666 0.916822 0 7 255 0.010483
-0.104121 -0.018110 0.911871 0 74 255 0.013106
-0.102933 -0.024628 0.907792 0 74 255 0.012768
-0.104998 -0.022341 0.906862 0 7 255 0.008950
-0.106074 -0.019500 0.907996 0 7 255 0.008470
-0.108171 -0.017426 0.907120 0 74 255 0.014533
-0.111314 -0.017097 0.904476 0 7 255 0.008127
-0.113418 -0.015750 0.903661 0 7 255 0.009920
-0.112345 -0.015157 0.905860 0 7 255 0.008728
-0.115498 -0.014461 0.902809 0 74 255 0.012430
-0.114470 -0.013826 0.905069 0 74 255 0.011897
-0.111077 -0.021782 0.892776 141 255 107 0.069051
-0.113161 -0.020121 0.891370 141 255 107 0.069193
-0.115297 -0.018401 0.890663 133 255 115 0.048882
-0.117237 -0.016662 0.889199 128 255 120 0.035713
-0.105516 -0.028535 0.898927 153 255 95 0.096253
-0.109350 -0.024030 0.894959 149 255 98 0.086824
-0.106426 -0.026749 0.894509 156 255 92 0.103216
-0.100674 -0.030977 0.907078 133 255 115 0.048106
-0.099113 -0.033922 0.908375 134 255 113 0.051431
-0.098470 -0.038053 0.908206 154 255 93 0.099119
-0.097194 -0.041236 0.909819 153 255 95 0.094841
-0.100299 -0.035358 0.905710 161 255 87 0.116585
-0.101823 -0.032456 0.904241 159 255 88 0.111871
-0.096049 -0.043526 0.912787 138 255 110 0.059267
-0.095844 -0.046739 0.914191 131 255 117 0.045490
-0.096643 -0.050661 0.913888 139 255 108 0.064073
-0.096712 -0.053692 0.915239 138 255 110 0.061622
-0.097127 -0.048003 0.911743 154 255 93 0.098582
-0.097293 -0.044880 0.910382 153 255 95 0.095683
-0.098137 -0.055294 0.912244 154 255 93 0.098143
-0.098034 -0.052328 0.911087 156 255 92 0.104956
-0.097984 -0.049285 0.909847 164 255 83 0.123351
-0.098078 -0.046174 0.908575 176 255 72 0.150919
-0.098129 -0.042704 0.907725 159 255 88 0.111542
-0.099455 -0.039724 0.905516 168 255 80 0.129277
-0.102072 -0.033930 0.901812 171 255 77 0.136778
-0.100715 -0.036847 0.903408 176 255 72 0.150551
-0.098318 -0.043876 0.905626 183 255 65 0.167316
-0.098136 -0.047280 0.906514 195 255 53 0.191542
-0.101404 -0.034745 0.899682 183 255 65 0.167848
-0.103445 -0.062538 0.933740 146 255 102 0.078152
-0.102446 -0.062311 0.931372 139 255 108 0.065893
-0.103395 -0.063467 0.929239 138 255 110 0.059289
-0.102300 -0.063129 0.926875 133 255 115 0.049360
-0.106106 -0.065988 0.927137 139 255 108 0.066355
-0.099418 -0.060563 0.928777 131 255 117 0.043777
-0.098319 -0.060122 0.926462 133 255 115 0.050251
-0.098630 -0.059577 0.930655 133 255 115 0.049105
-0.097836 -0.058546 0.932511 131 255 117 0.045675
-0.105383 -0.066050 0.923384 134 255 113 0.052582
-0.107376 -0.067671 0.923208 134 255 113 0.053980
-0.103353 -0.064414 0.923524 126 255 122 0.032328
-0.104800 -0.065996 0.919693 90 255 157 0.030492
-0.106825 -0.067662 0.919510 129 255 118 0.040565
-0.108803 -0.069345 0.919271 133 255 115 0.048856
-0.102775 -0.064287 0.919858 0 208 255 0.023380
-0.100696 -0.062578 0.919973 36 255 211 0.026641
-0.099465 -0.061365 0.923290 128 255 120 0.037998
-0.095995 -0.054538 0.919959 36 255 211 0.024765
-0.096700 -0.056494 0.922141 90 255 157 0.028390
-0.094855 -0.053540 0.922783 36 255 211 0.026253
-0.095590 -0.055438 0.924971 126 255 122 0.032373
-0.097470 -0.058364 0.924308 90 255 157 0.029865
-0.098698 -0.059575 0.921148 90 255 157 0.029147
-0.098070 -0.057695 0.919027 0 208 255 0.021006
-0.093542 -0.051933 0.925993 126 255 122 0.033207
-0.094118 -0.053451 0.928605 126 255 122 0.031765
-0.092413 -0.050384 0.929606 90 255 157 0.029815
-0.094714 -0.054811 0.931249 128 255 120 0.038154
-0.095451 -0.055877 0.929427 128 255 120 0.037486
-0.096156 -0.056883 0.927555 128 255 120 0.038031
-0.094824 -0.054456 0.926767 126 255 122 0.032530
-0.107563 -0.068617 0.917236 126 255 122 0.032125
-0.109602 -0.070364 0.916884 129 255 118 0.041003
-0.106326 -0.067892 0.915212 129 255 118 0.041031
-0.108393 -0.069662 0.914875 128 255 120 0.035824
-0.110424 -0.071428 0.914498 126 255 122 0.034785
-0.103902 -0.065514 0.916679 128 255 120 0.036647
-0.101884 -0.063791 0.916868 128 255 120 0.035438
-0.107179 -0.069319 0.912449 141 255 107 0.068518
-0.110967 -0.072643 0.912306 90 255 157 0.030633
-0.105117 -0.067448 0.912846 139 255 108 0.065316
-0.103128 -0.065526 0.913240 138 255 110 0.062458
-0.099142 -0.057582 0.913185 153 255 95 0.096130
-0.100149 -0.059824 0.914095 144 255 103 0.075184
-0.101212 -0.062036 0.914966 134 255 113 0.052707
-0.097968 -0.056261 0.915809 129 255 118 0.039763
-0.099776 -0.060512 0.918623 36 255 211 0.024828
-0.099295 -0.058787 0.916241 133 255 115 0.047086
-0.099486 -0.059638 0.909422 186 255 62 0.172202
-0.100892 -0.061597 0.910760 168 255 80 0.130802
-0.102151 -0.064221 0.910906 153 255 95 0.095333
-0.103381 -0.066838 0.911036 141 255 107 0.067321
-0.109394 -0.072381 0.910165 134 255 113 0.053978
-0.111312 -0.074356 0.909664 126 255 122 0.032465
-0.105446 -0.068846 0.910550 146 255 102 0.078591
-0.129734 -0.079488 0.905852 0 0 204 0.005142
-0.133512 -0.078233 0.906176 0 0 204 0.005997
-0.131146 -0.077510 0.907732 0 0 204 0.006381
-0.128797 -0.076815 0.909316 0 0 204 0.006586
-0.137233 -0.077015 0.906549 0 0 204 0.007717
-0.137684 -0.078608 0.904661 0 7 255 0.008891
-0.133965 -0.079827 0.904308 0 0 204 0.005321
-0.138160 -0.080237 0.902804 0 7 255 0.010368
-0.130027 -0.075148 0.911316 0 0 204 0.007124
-0.131257 -0.073505 0.913307 0 0 204 0.006198
-0.127430 -0.074448 0.913291 0 7 255 0.008327
-0.133813 -0.074227 0.911336 0 0 204 0.007153
-0.136362 -0.075184 0.909264 0 7 255 0.008912
-0.132596 -0.075986 0.909273 0 0 204 0.006841
-0.142096 -0.073999 0.907279 0 7 255 0.009855
-0.141122 -0.076307 0.905130 0 0 204 0.006587
-0.139719 -0.073441 0.909354 0 7 255 0.008734
-0.137391 -0.072949 0.911367 0 0 204 0.007694
-0.141586 -0.077929 0.903252 0 0 204 0.005934
-0.143833 -0.078510 0.901430 0 0 204 0.005533
-0.113647 -0.077417 0.906706 126 255 122 0.033337
-0.116053 -0.078140 0.906444 0 208 255 0.020648
-0.118432 -0.078871 0.906198 0 74 255 0.014225
-0.120783 -0.079595 0.905995 0 7 255 0.008660
-0.113678 -0.075417 0.908934 90 255 157 0.029251
-0.115842 -0.075182 0.910155 0 208 255 0.021404
-0.118165 -0.076697 0.908857 0 74 255 0.015184
-0.120473 -0.077902 0.908130 0 7 255 0.008732
-0.125289 -0.079510 0.905887 0 0 204 0.007239
-0.127843 -0.080890 0.904252 0 0 204 0.004565
-0.130230 -0.081596 0.903438 0 0 204 0.004171
-0.122848 -0.078395 0.907341 0 7 255 0.008621
-0.128058 -0.082930 0.902107 0 0 128 0.003377
-0.125613 -0.082117 0.903069 0 0 204 0.006588
-0.123201 -0.082058 0.903303 0 0 204 0.007676
-0.131932 -0.091339 0.893310 0 0 128 0.003390
-0.134052 -0.092573 0.891140 0 0 128 0.003025
-0.136521 -0.093080 0.889639 0 0 204 0.003952
-0.138663 -0.094336 0.887439 0 0 204 0.007280
-0.135477 -0.095214 0.887666 0 0 204 0.004163
-0.132966 -0.094657 0.889357 0 0 204 0.004423
-0.130854 -0.093451 0.891568 0 0 204 0.004002
-0.141668 -0.092773 0.887409 0 0 204 0.003950
-0.143796 -0.093443 0.885039 0 0 128 0.003234
-0.146172 -0.093363 0.883578 0 0 204 0.004402
-0.148319 -0.094058 0.881213 0 7 255 0.008545
-0.147830 -0.095576 0.879388 0 7 255 0.011425
-0.145353 -0.095610 0.881038 0 0 204 0.005941
-0.142883 -0.095650 0.882684 0 0 128 0.003889
-0.140774 -0.094983 0.885062 0 0 204 0.004390
-0.145922 -0.099161 0.874815 0 74 255 0.013340
-0.143284 -0.099192 0.876705 0 0 204 0.006386
-0.141308 -0.098334 0.879507 0 0 204 0.004037
-0.138699 -0.098412 0.881383 0 0 204 0.004662
-0.136734 -0.097617 0.884172 0 0 204 0.007430
-0.135444 -0.099400 0.882364 0 7 255 0.008620
-0.139971 -0.096593 0.883217 0 0 128 0.003335
-0.144408 -0.097385 0.878766 0 0 204 0.005143
-0.146893 -0.097376 0.877103 0 7 255 0.011244
-0.132877 -0.098823 0.884225 0 0 204 0.004683
-0.131007 -0.097373 0.886836 0 0 128 0.003642
-0.128460 -0.096858 0.888722 0 0 204 0.004717
-0.134205 -0.097045 0.885871 0 0 128 0.003874
-0.120250 -0.065512 0.931632 0 141 255 0.017459
-0.119201 -0.066625 0.929558 0 141 255 0.018184
-0.120223 -0.067943 0.926828 0 74 255 0.015603
-0.119091 -0.069031 0.924733 0 208 255 0.021064
-0.123493 -0.069418 0.923542 0 141 255 0.015790
-0.115800 -0.067647 0.927972 90 255 157 0.030063
-0.114634 -0.068723 0.925860 129 255 118 0.040024
-0.114866 -0.066375 0.930489 126 255 122 0.034719
-0.113847 -0.065133 0.932936 126 255 122 0.032161
-0.124368 -0.070498 0.921294 0 141 255 0.016434
-0.125250 -0.071564 0.919055 0 74 255 0.013788
-0.120704 -0.071051 0.920343 0 74 255 0.011732
-0.121597 -0.072096 0.918103 0 74 255 0.011799
-0.122488 -0.073128 0.915878 0 7 255 0.008746
-0.126113 -0.072611 0.916831 0 7 255 0.009103
-0.117876 -0.072652 0.917210 0 208 255 0.023073
-0.117033 -0.071666 0.919363 90 255 157 0.028637
-0.116224 -0.070693 0.921527 126 255 122 0.034605
-0.119885 -0.070047 0.922531 0 141 255 0.015875
-0.115416 -0.069712 0.923700 128 255 120 0.038276
-0.111719 -0.069111 0.922526 129 255 118 0.040877
-0.110383 -0.067360 0.926532 131 255 117 0.044156
-0.112570 -0.070017 0.920371 90 255 157 0.029116
-0.113429 -0.070960 0.918222 36 255 211 0.025616
-0.106467 -0.064320 0.931531 139 255 108 0.063087
-0.110642 -0.065602 0.931181 131 255 117 0.045891
-0.125149 -0.074059 0.913973 0 0 204 0.007120
-0.126066 -0.075598 0.911295 0 0 204 0.007051
-0.123775 -0.075245 0.911987 0 0 204 0.007579
-0.121454 -0.074866 0.912688 0 7 255 0.009423
-0.118728 -0.073941 0.914612 0 74 255 0.015167
-0.124611 -0.077031 0.909033 0 7 255 0.009414
-0.127197 -0.078251 0.907430 0 0 204 0.006325
-0.122299 -0.076666 0.909741 0 7 255 0.008823
-0.119976 -0.076310 0.910462 0 74 255 0.012195
-0.113294 -0.073603 0.911662 36 255 211 0.025013
-0.117514 -0.074730 0.911913 0 74 255 0.013566
-0.114194 -0.072060 0.915835 0 141 255 0.019093
-0.116478 -0.073009 0.915223 0 74 255 0.013943
-0.135896 -0.062929 0.926751 0 208 255 0.019826
-0.135236 -0.064782 0.924560 0 74 255 0.015087
-0.136466 -0.066133 0.921732 0 141 255 0.016832
-0.135768 -0.067870 0.919628 0 7 255 0.009615
-0.139570 -0.066986 0.918331 0 141 255 0.018062
-0.132660 -0.067032 0.923091 0 141 255 0.015883
-0.131962 -0.068804 0.920962 0 74 255 0.012757
-0.131483 -0.065683 0.925876 0 74 255 0.012656
-0.130328 -0.064235 0.928744 0 74 255 0.013957
-0.140484 -0.068160 0.916096 0 141 255 0.017127
-0.141364 -0.069328 0.913868 0 141 255 0.016551
-0.137540 -0.070172 0.915182 0 7 255 0.008308
-0.140326 -0.070926 0.912292 0 7 255 0.010881
-0.136506 -0.071777 0.913596 0 0 204 0.007770
-0.133732 -0.071088 0.916454 0 7 255 0.011671
-0.136663 -0.069025 0.917401 0 74 255 0.013494
-0.132851 -0.069949 0.918694 0 74 255 0.013179
-0.129485 -0.071246 0.917791 0 7 255 0.007990
-0.128627 -0.070164 0.919997 0 7 255 0.009243
-0.127754 -0.069067 0.922240 0 7 255 0.008895
-0.130364 -0.072368 0.915537 0 0 204 0.006726
-0.124470 -0.067938 0.925692 0 74 255 0.014201
-0.123406 -0.066589 0.928427 0 74 255 0.013856
-0.124367 -0.065051 0.930551 0 7 255 0.009344
-0.127525 -0.066272 0.927199 0 74 255 0.013842
-0.128682 -0.067633 0.924363 0 7 255 0.010622
-0.134806 -0.084353 0.899411 0 0 128 0.003739
-0.132591 -0.083322 0.901021 0 0 128 0.003221
-0.138958 -0.083530 0.899144 0 7 255 0.008243
-0.137008 -0.084735 0.898389 0 0 128 0.003873
-0.139359 -0.085957 0.896482 0 0 204 0.007514
-0.132873 -0.085567 0.898685 0 0 128 0.002313
-0.138545 -0.081857 0.900966 0 0 204 0.007150
-0.144584 -0.081110 0.898469 0 0 204 0.004714
-0.143030 -0.083081 0.897338 0 0 204 0.005129
-0.146904 -0.081813 0.896535 0 0 204 0.006758
-0.142326 -0.080488 0.900288 0 0 204 0.005454
-0.147348 -0.083556 0.894491 0 0 204 0.007052
-0.143331 -0.084732 0.895549 0 0 204 0.005692
-0.145626 -0.085432 0.893492 0 0 204 0.004716
-0.147949 -0.086141 0.891401 0 0 204 0.006037
-0.141597 -0.086594 0.894557 0 0 204 0.005363
-0.146058 -0.087891 0.890517 0 0 204 0.004245
-0.148306 -0.087792 0.889279 0 0 204 0.005970
-0.143822 -0.088014 0.891766 0 0 204 0.004415
-0.144162 -0.089635 0.889638 0 0 204 0.004174
-0.146398 -0.089502 0.888399 0 0 204 0.004208
-0.148655 -0.089405 0.887142 0 0 204 0.006607
-0.141941 -0.089748 0.890883 0 0 204 0.004265
-0.139724 -0.089883 0.892127 0 0 204 0.006681
-0.148736 -0.090971 0.885086 0 0 204 0.006942
-0.146380 -0.091832 0.885512 0 0 204 0.004405
-0.144009 -0.091900 0.886975 0 0 204 0.004041
-0.139418 -0.092135 0.889689 0 0 204 0.006564
-0.134610 -0.090345 0.893427 0 0 128 0.003073
-0.132480 -0.089195 0.895284 0 0 128 0.002734
-0.137163 -0.090092 0.892761 0 0 128 0.003802
-0.134951 -0.087390 0.896337 0 0 128 0.003254
-0.137275 -0.087854 0.895095 0 0 204 0.004167
-0.141430 -0.101623 0.873664 0 0 204 0.005579
-0.144241 -0.101454 0.871548 0 7 255 0.009420
-0.138634 -0.101813 0.875782 0 0 204 0.005090
-0.136906 -0.104029 0.872492 0 0 128 0.002304
-0.139726 -0.103865 0.870385 0 0 128 0.003769
-0.142558 -0.103716 0.868285 0 7 255 0.008805
-0.134984 -0.103119 0.876249 0 0 204 0.004784
-0.131338 -0.104435 0.876714 0 0 204 0.006827
-0.133407 -0.101935 0.879544 0 0 204 0.006426
-0.137040 -0.100587 0.879062 0 0 204 0.004445
-0.141279 -0.105066 0.866387 0 0 204 0.007710
-0.138288 -0.105355 0.868656 0 0 204 0.004381
-0.136990 -0.106658 0.866729 0 0 128 0.003373
-0.139992 -0.106399 0.864479 0 0 204 0.007439
-0.133994 -0.106949 0.868982 0 0 128 0.002273
-0.135675 -0.107976 0.864796 0 0 128 0.002731
-0.132673 -0.108264 0.867039 0 0 128 0.001650
-0.138692 -0.107733 0.862564 0 0 204 0.007428
-0.129666 -0.108557 0.869289 0 0 128 0.002489
-0.126873 -0.108773 0.871372 0 0 204 0.005454
-0.131161 -0.107106 0.871067 0 0 128 0.002061
-0.128372 -0.107323 0.873154 0 0 204 0.004955
-0.132649 -0.105648 0.872833 0 0 128 0.002187
-0.135469 -0.105490 0.870738 0 0 128 0.002227
-0.129860 -0.105876 0.874940 0 0 204 0.005332
-0.116049 -0.107186 0.880194 0 0 128 0.003688
-0.118693 -0.107626 0.878048 0 0 128 0.002419
-0.120266 -0.106064 0.879741 0 0 128 0.001915
-0.117633 -0.105641 0.881892 0 0 128 0.003553
-0.122924 -0.106535 0.877605 0 0 128 0.001883
-0.121829 -0.104512 0.881422 0 0 128 0.002580
-0.124467 -0.104971 0.879282 0 0 128 0.001904
-0.126015 -0.103418 0.880949 0 0 128 0.002593
-0.119202 -0.104102 0.883584 0 0 204 0.005001
-0.123376 -0.102951 0.883096 0 0 128 0.002820
-0.120771 -0.102558 0.885259 0 7 255 0.008692
-0.127127 -0.105484 0.877172 0 0 128 0.003371
-0.128661 -0.103893 0.878820 0 0 128 0.003004
-0.125634 -0.106911 0.875379 0 0 128 0.002424
-0.124132 -0.108339 0.873578 0 0 128 0.001999
-0.121406 -0.107954 0.875806 0 0 128 0.001345
-0.125554 -0.100403 0.885674 0 0 204 0.005153
-0.123013 -0.099924 0.887607 0 0 204 0.007740
-0.128105 -0.100936 0.883767 0 0 204 0.004900
-0.130756 -0.101415 0.881649 0 0 204 0.004669
-0.089662 -0.031417 0.892698 36 255 211 0.026431
-0.090945 -0.028049 0.890082 90 255 157 0.027953
-0.093067 -0.024987 0.887754 36 255 211 0.024190
-0.094235 -0.021835 0.885358 0 208 255 0.019624
-0.096207 -0.018821 0.883206 0 7 255 0.011476
-0.096925 -0.022325 0.885886 0 208 255 0.021567
-0.095710 -0.025464 0.888246 36 255 211 0.026256
-0.093519 -0.028523 0.890540 36 255 211 0.025612
-0.092210 -0.031821 0.893105 126 255 122 0.032786
-0.095602 -0.015779 0.880522 0 7 255 0.009975
-0.097770 -0.013309 0.878386 0 0 204 0.007563
-0.098929 -0.010431 0.876174 0 0 204 0.004196
-0.101056 -0.007762 0.874167 0 7 255 0.010288
-0.101793 -0.011295 0.876681 0 0 204 0.005327
-0.100608 -0.014088 0.878917 0 7 255 0.010861
-0.098430 -0.016476 0.881024 0 74 255 0.013537
-0.099636 -0.019602 0.884064 0 141 255 0.015718
-0.104745 -0.009126 0.875045 0 7 255 0.007895
-0.021479 -0.126107 0.864045 0 0 128 0.000778
-0.023269 -0.124693 0.867449 0 0 128 0.001090
-0.026728 -0.123711 0.870209 0 0 128 0.000862
-0.028550 -0.122602 0.873742 0 0 128 0.000606
-0.032036 -0.121862 0.876607 0 0 128 0.002777
-0.028727 -0.121468 0.878111 0 0 128 0.003441
-0.031850 -0.122976 0.872239 0 0 128 0.000542
-0.035343 -0.122271 0.875105 0 0 128 0.002964
-0.029987 -0.124113 0.868638 0 0 128 0.000972
-0.028127 -0.125327 0.865082 0 0 128 0.001243
-0.024685 -0.126561 0.862430 0 0 128 0.000674
-0.027883 -0.126975 0.860795 0 0 128 0.000547
-0.030410 -0.120059 0.881587 0 0 128 0.002210
-0.033794 -0.118877 0.884387 0 0 128 0.003570
-0.035508 -0.117463 0.887895 0 7 255 0.009643
-0.038901 -0.116091 0.890636 0 141 255 0.017110
-0.035515 -0.115688 0.892054 0 141 255 0.018521
-0.038888 -0.117821 0.886472 0 7 255 0.008428
-0.042291 -0.116493 0.889206 0 141 255 0.017706
-0.037138 -0.119238 0.882910 0 0 128 0.002605
-0.035411 -0.120666 0.879380 0 0 128 0.001831
-0.049100 -0.117203 0.886114 0 74 255 0.013800
-0.047300 -0.118657 0.882555 0 0 204 0.005057
-0.043857 -0.119942 0.879833 0 0 128 0.002171
-0.042077 -0.121394 0.876297 0 0 128 0.001610
-0.038647 -0.122619 0.873521 0 0 128 0.002461
-0.041958 -0.122992 0.871951 0 0 128 0.002667
-0.038777 -0.121072 0.877907 0 0 128 0.002174
-0.040497 -0.119602 0.881397 0 0 128 0.002402
-0.042247 -0.118223 0.884944 0 7 255 0.007939
-0.045694 -0.116845 0.887660 0 74 255 0.015030
-0.040023 -0.123921 0.868239 0 0 128 0.000405
-0.036503 -0.124830 0.865423 0 0 128 0.001195
-0.034601 -0.126074 0.861828 0 0 128 0.001485
-0.031097 -0.127327 0.859132 0 0 128 0.000493
-0.034324 -0.127740 0.857486 0 0 128 0.000503
-0.031386 -0.125721 0.863496 0 0 128 0.001248
-0.033243 -0.124498 0.867040 0 0 128 0.000985
-0.035109 -0.123394 0.870645 0 0 128 0.000514
-0.037912 -0.126440 0.860180 0 0 128 0.001431
-0.039809 -0.125174 0.863766 0 0 128 0.001277
-0.043422 -0.124259 0.866581 0 0 128 0.000381
-0.045348 -0.123287 0.870272 0 0 128 0.002044
-0.048736 -0.123578 0.868578 0 0 128 0.001682
-0.046790 -0.124585 0.864873 0 0 128 0.000363
-0.043177 -0.125492 0.862062 0 0 128 0.001414
-0.041246 -0.126759 0.858432 143 255 105 0.073158
-0.037653 -0.128034 0.855734 144 255 103 0.074392
-0.040996 -0.128406 0.854009 144 255 103 0.075054
-0.045491 -0.121768 0.874730 0 0 128 0.001970
-0.047264 -0.120295 0.878246 0 0 128 0.002153
-0.050799 -0.119022 0.880975 0 0 204 0.005393
-0.052595 -0.117545 0.884509 0 74 255 0.013281
-0.056087 -0.117875 0.882882 0 74 255 0.012354
-0.054240 -0.119394 0.879340 0 0 204 0.005999
-0.050709 -0.120659 0.876615 0 0 128 0.002385
-0.048876 -0.122083 0.873039 0 0 128 0.001654
-0.062714 -0.118484 0.879809 0 74 255 0.013101
-0.060833 -0.119956 0.876220 0 0 204 0.005969
-0.057340 -0.121247 0.873435 0 0 128 0.002628
-0.055461 -0.122647 0.869795 0 0 128 0.001273
-0.051971 -0.123860 0.866959 0 0 128 0.001493
-0.055211 -0.124151 0.865339 0 0 128 0.001555
-0.052232 -0.122363 0.871438 0 0 128 0.001355
-0.054059 -0.120977 0.875023 0 0 128 0.002545
-0.057558 -0.119719 0.877830 0 0 204 0.006956
-0.059400 -0.118178 0.881352 0 74 255 0.012563
-0.053253 -0.125153 0.861606 0 0 128 0.000329
-0.049694 -0.126114 0.858751 0 0 128 0.001219
-0.047744 -0.127360 0.855085 0 0 128 0.001757
-0.044203 -0.128689 0.852328 144 255 103 0.074679
-0.047412 -0.128994 0.850645 0 0 128 0.000728
-0.044545 -0.127105 0.856782 143 255 105 0.073311
-0.046469 -0.125813 0.860389 0 0 128 0.001336
-0.050032 -0.124871 0.863268 0 0 128 0.000348
-0.050779 -0.127647 0.853540 0 0 128 0.001399
-0.052718 -0.126364 0.857196 0 0 128 0.001246
-0.056098 -0.125345 0.860187 0 0 128 0.000342
-0.058053 -0.124322 0.863899 0 0 128 0.001088
-0.060894 -0.124528 0.862459 0 0 128 0.001050
-0.058919 -0.125551 0.858714 0 0 128 0.000351
-0.055545 -0.126587 0.855746 0 0 128 0.001202
-0.053586 -0.127854 0.852044 0 0 128 0.001570
-0.050223 -0.129193 0.849147 0 0 128 0.000778
-0.053041 -0.129435 0.847662 0 0 128 0.000690
-0.058516 -0.122896 0.868325 0 0 128 0.001274
-0.060391 -0.121485 0.871953 0 0 128 0.002352
-0.063691 -0.120166 0.874891 0 0 204 0.006017
-0.065564 -0.118667 0.878440 0 7 255 0.011279
-0.068427 -0.118860 0.877083 0 7 255 0.010667
-0.066537 -0.120361 0.873482 0 0 204 0.005051
-0.063238 -0.121657 0.870556 0 0 128 0.002112
-0.061359 -0.123050 0.866864 0 0 128 0.000799
-0.073599 -0.119151 0.874570 0 7 255 0.009419
-0.071726 -0.120641 0.870941 0 0 204 0.004447
-0.068546 -0.122027 0.867937 0 0 128 0.001982
-0.066660 -0.123366 0.864214 0 0 128 0.000612
-0.063485 -0.124704 0.861155 0 0 128 0.001075
-0.066080 -0.124857 0.859838 0 0 128 0.000941
-0.064079 -0.123241 0.865542 0 0 128 0.000766
-0.065958 -0.121845 0.869216 0 0 128 0.001577
-0.069136 -0.120524 0.872248 0 0 204 0.005081
-0.071010 -0.118989 0.875822 0 7 255 0.009827
-0.064086 -0.125872 0.856064 0 0 128 0.000409
-0.060827 -0.126948 0.853002 0 0 128 0.001308
-0.058843 -0.128204 0.849268 0 0 128 0.001965
-0.055604 -0.129621 0.846292 0 0 128 0.000647
-0.058160 -0.129788 0.844917 0 0 128 0.000902
-0.056294 -0.128068 0.850653 0 0 128 0.001418
-0.058249 -0.126774 0.854341 0 0 128 0.001254
-0.061515 -0.125702 0.857406 0 0 128 0.000379
-0.120549 -0.098865 0.889621 0 0 204 0.006970
-0.118093 -0.097830 0.891625 0 7 255 0.008267
-0.115845 -0.100476 0.889334 0 0 204 0.005501
-0.118307 -0.101491 0.887292 0 0 204 0.005305
-0.114515 -0.098161 0.892548 0 7 255 0.010680
-0.110958 -0.098548 0.893523 0 141 255 0.016641
-0.113130 -0.095841 0.895220 0 74 255 0.013960
-0.116693 -0.095449 0.894244 0 0 204 0.007038
-0.116820 -0.103185 0.885740 0 0 204 0.004627
-0.115249 -0.104728 0.884047 0 0 128 0.002238
-0.112874 -0.103861 0.886230 0 0 128 0.003675
-0.113672 -0.106274 0.882352 0 0 128 0.002114
-0.111292 -0.105378 0.884522 0 0 128 0.001876
-0.109712 -0.106906 0.882812 0 0 128 0.001566
-0.112093 -0.107799 0.880630 0 0 128 0.001916
-0.108949 -0.104541 0.886725 0 0 204 0.004357
-0.107362 -0.106081 0.885020 0 0 128 0.002976
-0.105011 -0.105259 0.887220 0 0 204 0.006773
-0.106508 -0.103604 0.888849 0 7 255 0.007983
-0.110431 -0.102852 0.888307 0 0 204 0.004762
-0.108000 -0.101922 0.890440 0 7 255 0.009784
-0.111909 -0.101194 0.889883 0 0 204 0.007086
-0.114366 -0.102172 0.887792 0 0 204 0.004778
-0.109480 -0.100225 0.891994 0 74 255 0.012216
-0.096139 -0.098347 0.896946 36 255 211 0.023596
-0.097730 -0.096536 0.897994 36 255 211 0.026089
-0.099839 -0.098389 0.896069 0 208 255 0.020008
-0.101418 -0.096547 0.897058 0 141 255 0.017589
-0.099324 -0.094656 0.898945 0 208 255 0.021426
-0.103545 -0.098446 0.895197 0 141 255 0.016060
-0.103024 -0.094707 0.898027 0 74 255 0.014598
-0.105134 -0.096597 0.896150 0 7 255 0.009677
-0.106720 -0.094720 0.897087 0 0 204 0.007344
-0.100884 -0.092800 0.899877 0 208 255 0.019608
-0.104589 -0.092811 0.898888 0 7 255 0.009664
-0.102452 -0.090921 0.900751 0 141 255 0.017706
-0.107256 -0.098458 0.894329 0 74 255 0.012471
-0.108835 -0.096629 0.895275 0 0 204 0.007068
-0.105774 -0.100180 0.892822 0 7 255 0.009614
-0.104283 -0.101869 0.891244 0 0 204 0.007121
-0.102063 -0.100116 0.893629 0 7 255 0.009325
-0.100575 -0.101791 0.892023 0 0 204 0.007152
-0.102791 -0.103514 0.889616 0 0 204 0.004565
-0.098360 -0.100072 0.894480 0 74 255 0.011938
-0.106652 -0.090196 0.900181 0 0 204 0.007665
-0.104426 -0.088441 0.901702 0 74 255 0.012770
-0.108874 -0.091962 0.898685 0 0 204 0.006010
-0.110995 -0.093905 0.896928 0 0 204 0.007505
-0.064027 -0.027695 0.900180 0 0 204 0.007594
-0.062031 -0.024473 0.898522 0 0 128 0.003142
-0.060461 -0.027477 0.901772 0 7 255 0.010014
-0.060020 -0.021199 0.896847 0 0 204 0.004121
-0.058461 -0.024203 0.900141 0 0 204 0.006738
