ply
format ascii 1.0
comment VCGLIB generated
element vertex 1026
property float x
property float y
property float z
property uchar red
property uchar green
property uchar blue
property float quality
end_header
0.012382 -0.094506 0.774914 0 0 204 0.004444
0.012419 -0.098929 0.774742 0 74 255 0.015483
0.011260 -0.090485 0.773758 0 0 128 0.003460
0.010150 -0.086659 0.772624 0 0 204 0.004842
0.016563 -0.102106 0.780845 0 0 204 0.004587
0.015950 -0.106977 0.781081 0 0 204 0.005721
0.016234 -0.111540 0.782403 0 74 255 0.013515
0.015554 -0.116441 0.782757 128 255 120 0.038928
0.017552 -0.115625 0.784726 128 255 120 0.035737
0.014237 -0.112359 0.780460 0 74 255 0.014869
0.013365 -0.117220 0.781006 126 255 122 0.035080
0.013989 -0.107680 0.778963 0 0 204 0.007529
0.013762 -0.103087 0.777423 0 7 255 0.009142
0.009684 -0.113763 0.776546 0 7 255 0.011219
0.010556 -0.108713 0.775473 0 7 255 0.008825
0.010414 -0.103880 0.773640 0 74 255 0.013774
0.010788 -0.099250 0.772889 0 141 255 0.017241
0.009271 -0.099422 0.770901 0 208 255 0.020722
0.011940 -0.103600 0.775424 0 74 255 0.012252
0.012132 -0.108284 0.777162 0 7 255 0.008723
0.012332 -0.112962 0.778748 0 74 255 0.013208
0.011504 -0.117942 0.779617 126 255 122 0.033326
0.008134 -0.095003 0.769468 0 7 255 0.010750
0.007746 -0.090906 0.769205 0 0 204 0.005332
0.006374 -0.087045 0.767973 0 0 204 0.006530
0.008185 -0.086917 0.770279 0 0 204 0.005046
0.009417 -0.090741 0.771388 0 0 128 0.003038
0.010537 -0.094782 0.772573 0 0 204 0.006510
-0.005277 -0.094384 0.753785 139 255 108 0.066244
-0.003465 -0.097360 0.755793 144 255 103 0.078050
-0.001954 -0.100885 0.758176 151 255 97 0.093473
-0.000630 -0.104526 0.761040 164 255 83 0.122269
-0.003889 -0.093071 0.755311 128 255 120 0.038776
-0.002103 -0.096341 0.757458 136 255 112 0.056749
-0.000088 -0.099694 0.760308 133 255 115 0.049749
0.001489 -0.103476 0.763238 131 255 117 0.045316
-0.000980 -0.122035 0.771686 126 255 122 0.035061
-0.000681 -0.117425 0.769313 149 255 98 0.088721
-0.000549 -0.112949 0.766796 153 255 95 0.095468
-0.002890 -0.121922 0.769550 139 255 108 0.063594
-0.002573 -0.117348 0.767186 151 255 97 0.091203
-0.000484 -0.108556 0.763968 163 255 85 0.120730
0.001153 -0.107779 0.765679 143 255 105 0.072543
-0.004573 -0.121490 0.767354 168 255 80 0.132159
-0.002635 -0.113172 0.764279 183 255 65 0.166796
0.001221 -0.112071 0.768282 134 255 113 0.052454
0.002886 -0.106782 0.766936 0 208 255 0.021732
0.003117 -0.102387 0.764594 0 208 255 0.020686
0.003017 -0.111357 0.769614 0 74 255 0.015375
0.001795 -0.116547 0.771281 126 255 122 0.032044
0.000994 -0.121592 0.773132 0 74 255 0.013733
-0.000794 -0.094877 0.759025 0 7 255 0.009301
-0.002634 -0.091543 0.756885 0 74 255 0.012191
-0.001038 -0.089976 0.758649 0 74 255 0.015218
0.000742 -0.093608 0.760604 0 0 204 0.007472
0.001881 -0.098016 0.762309 0 74 255 0.014143
0.001066 -0.088292 0.761013 0 141 255 0.018788
0.002218 -0.092399 0.762198 0 7 255 0.009511
0.003836 -0.096546 0.764104 0 141 255 0.015714
0.004671 -0.101355 0.765763 90 255 157 0.028884
0.005611 -0.105430 0.768858 0 74 255 0.015260
0.004768 -0.110471 0.770641 0 0 204 0.006767
0.004284 -0.115534 0.772702 0 0 204 0.007491
-0.003677 -0.126661 0.773625 0 141 255 0.017344
-0.006696 -0.130771 0.774205 0 7 255 0.011177
-0.009284 -0.135132 0.776009 0 74 255 0.012576
-0.012163 -0.138928 0.776575 36 255 211 0.025524
-0.011015 -0.139763 0.779043 131 255 117 0.045678
-0.010307 -0.134225 0.773550 0 7 255 0.010567
-0.013322 -0.137854 0.774044 0 141 255 0.016364
-0.008486 -0.130162 0.771403 126 255 122 0.031749
-0.005359 -0.126250 0.770924 133 255 115 0.049241
-0.014455 -0.143117 0.781384 133 255 115 0.049662
-0.014484 -0.142169 0.778801 134 255 113 0.053767
-0.018129 -0.145067 0.781199 136 255 112 0.056481
-0.018371 -0.145521 0.783873 136 255 112 0.057723
-0.018089 -0.144320 0.778534 141 255 107 0.070048
-0.022080 -0.147341 0.783563 153 255 95 0.094096
-0.021917 -0.146759 0.780931 151 255 97 0.091150
-0.022595 -0.147223 0.786223 141 255 107 0.066943
-0.021711 -0.146270 0.778191 149 255 98 0.088181
-0.019343 -0.143453 0.775949 126 255 122 0.034739
-0.015767 -0.141283 0.776288 90 255 157 0.028497
-0.019658 -0.141530 0.772612 0 74 255 0.013337
-0.016735 -0.139325 0.772086 0 74 255 0.014616
-0.013812 -0.136781 0.771519 0 141 255 0.016821
-0.022488 -0.144992 0.775280 131 255 117 0.045118
-0.008996 -0.128886 0.769099 134 255 113 0.052684
-0.011416 -0.132995 0.770316 90 255 157 0.030159
0.010605 -0.122292 0.781812 36 255 211 0.026352
0.009459 -0.126610 0.784135 90 255 157 0.029987
0.011571 -0.125849 0.785380 126 255 122 0.034071
0.012573 -0.121535 0.783127 90 255 157 0.028960
0.009109 -0.130281 0.787361 136 255 112 0.058171
0.008463 -0.133518 0.790779 148 255 100 0.084302
0.005817 -0.134540 0.789465 144 255 103 0.077062
0.006508 -0.131309 0.785993 133 255 115 0.050692
0.014904 -0.120602 0.784887 90 255 157 0.029018
0.014205 -0.124799 0.787099 129 255 118 0.040870
0.016329 -0.123923 0.788821 128 255 120 0.037656
0.017027 -0.119851 0.786687 90 255 157 0.028976
0.014285 -0.128351 0.790432 141 255 107 0.067374
0.014058 -0.131425 0.793926 154 255 93 0.099048
0.011321 -0.132511 0.792310 153 255 95 0.096717
0.011631 -0.129398 0.788734 139 255 108 0.063269
0.004994 -0.137150 0.803922 0 74 255 0.013056
0.006319 -0.136299 0.799569 0 208 255 0.020732
0.001819 -0.138178 0.802236 0 74 255 0.012076
0.003076 -0.137370 0.797909 0 141 255 0.018307
0.007442 -0.135186 0.795120 133 255 115 0.047679
0.010394 -0.134189 0.796656 134 255 113 0.051575
0.009191 -0.135366 0.801115 0 208 255 0.022734
-0.001022 -0.139218 0.800598 0 74 255 0.013757
0.000517 -0.138412 0.796419 0 208 255 0.020420
-0.003921 -0.140435 0.798854 0 141 255 0.017563
0.001995 -0.137206 0.792218 129 255 118 0.041718
0.004556 -0.136212 0.793622 129 255 118 0.040714
0.054159 -0.021334 0.804831 0 0 204 0.005106
0.056868 -0.020921 0.806363 0 0 204 0.004745
0.057212 -0.024928 0.805050 0 0 128 0.001894
0.059615 -0.020528 0.807889 0 0 204 0.004839
0.059954 -0.024573 0.806642 0 0 128 0.001494
0.062690 -0.024207 0.808264 0 0 128 0.001659
0.062409 -0.020112 0.809432 0 0 204 0.004910
0.060265 -0.028715 0.805237 0 0 128 0.002286
0.063020 -0.028366 0.806944 0 0 128 0.001195
0.063311 -0.032539 0.805312 0 7 255 0.008172
0.060692 -0.032945 0.803773 0 74 255 0.011830
0.057693 -0.029065 0.803715 0 0 204 0.004307
0.058038 -0.033375 0.802333 0 74 255 0.012894
0.055094 -0.029484 0.802257 0 0 204 0.005609
0.054660 -0.025313 0.803592 0 0 128 0.002561
0.052105 -0.025762 0.802164 0 0 128 0.003373
0.055298 -0.033900 0.800941 0 7 255 0.011067
0.052440 -0.029943 0.800844 0 0 204 0.005640
0.052524 -0.034476 0.799621 0 0 204 0.007060
0.051605 -0.021809 0.803440 0 0 204 0.004908
0.065266 -0.019655 0.810801 0 7 255 0.009081
0.068352 -0.019168 0.812303 0 74 255 0.013430
0.068301 -0.023381 0.811168 0 0 128 0.002692
0.071480 -0.018650 0.813790 0 141 255 0.015642
0.071332 -0.022966 0.812779 0 0 128 0.003441
0.071331 -0.027203 0.811598 0 0 128 0.002940
0.071585 -0.031463 0.810150 0 0 128 0.001516
0.068518 -0.027613 0.810030 0 0 128 0.001685
0.068840 -0.031788 0.808454 0 0 128 0.003478
0.065749 -0.027997 0.808462 0 0 128 0.001052
0.065471 -0.023806 0.809704 0 0 128 0.002098
0.066079 -0.032138 0.806830 0 0 204 0.006380
0.069895 -0.049631 0.805341 0 0 204 0.005234
0.070326 -0.045362 0.806145 0 0 204 0.006303
0.067545 -0.045780 0.804995 0 0 204 0.004056
0.067267 -0.049923 0.804154 0 0 204 0.005937
0.068108 -0.041162 0.805666 0 7 255 0.007906
0.064887 -0.046083 0.803748 0 0 128 0.003187
0.065352 -0.041603 0.804487 0 0 204 0.005151
0.062643 -0.042031 0.803331 0 0 128 0.002906
0.064566 -0.050425 0.803016 0 0 204 0.004855
0.062183 -0.046596 0.802587 0 0 128 0.002163
0.061825 -0.050976 0.801888 0 0 128 0.003380
0.065786 -0.036860 0.805396 0 7 255 0.009128
0.063098 -0.037312 0.804155 0 0 204 0.006747
0.068644 -0.036441 0.806904 0 7 255 0.008341
0.071432 -0.036054 0.808521 0 0 204 0.005454
0.071080 -0.040607 0.807055 0 7 255 0.010532
0.059368 -0.051350 0.800600 0 0 204 0.004208
0.059418 -0.047171 0.801228 0 0 128 0.001788
0.056942 -0.047590 0.799909 0 0 128 0.002152
0.056886 -0.051873 0.799352 0 0 204 0.004979
0.057102 -0.043133 0.800621 0 0 128 0.001188
0.054439 -0.048047 0.798583 0 0 128 0.002764
0.054544 -0.043665 0.799330 0 0 128 0.000961
0.052042 -0.044147 0.798052 0 0 128 0.000840
0.054385 -0.052408 0.798137 0 0 204 0.005371
0.051910 -0.048674 0.797405 0 0 128 0.001987
0.051949 -0.052895 0.796859 0 0 204 0.006863
0.054871 -0.038916 0.800035 0 0 128 0.003226
0.052229 -0.039545 0.798869 0 0 128 0.001424
0.057658 -0.038330 0.801377 0 0 204 0.004794
0.060405 -0.037761 0.802746 0 0 204 0.006725
0.059885 -0.042589 0.801983 0 0 128 0.002028
0.033830 -0.001415 0.845716 0 0 128 0.001431
0.037041 -0.001450 0.847401 0 0 128 0.001541
0.038277 -0.003004 0.845124 0 0 204 0.005996
0.040264 -0.001543 0.849081 0 0 128 0.001653
0.041475 -0.003044 0.846830 0 0 204 0.007221
0.044776 -0.003170 0.848562 0 7 255 0.008361
0.043550 -0.001732 0.850835 0 0 128 0.002149
0.042736 -0.004394 0.844388 0 141 255 0.016038
0.046036 -0.004484 0.846119 0 208 255 0.019651
0.047392 -0.005475 0.843542 90 255 157 0.027448
0.044161 -0.005479 0.841764 36 255 211 0.026854
0.039619 -0.004427 0.842656 0 141 255 0.016295
0.041043 -0.005515 0.840078 36 255 211 0.027094
0.036493 -0.004498 0.840981 0 141 255 0.017609
0.035140 -0.003056 0.843425 0 0 204 0.006442
0.031942 -0.003060 0.841756 0 0 204 0.006260
0.037908 -0.005594 0.838399 90 255 157 0.028278
0.033294 -0.004527 0.839330 0 141 255 0.017792
0.034721 -0.005652 0.836740 36 255 211 0.023712
0.030623 -0.001415 0.844037 0 0 128 0.001417
0.047117 -0.001841 0.852741 0 0 128 0.002296
0.050783 -0.002038 0.854690 0 0 128 0.002786
0.051950 -0.003437 0.852380 0 7 255 0.009958
0.054458 -0.002381 0.856584 0 0 204 0.004014
0.055627 -0.003718 0.854289 0 74 255 0.012470
0.056877 -0.004852 0.851827 36 255 211 0.024122
0.058263 -0.005639 0.849189 36 255 211 0.026817
0.053217 -0.004668 0.849928 0 208 255 0.021713
0.054589 -0.005551 0.847291 90 255 157 0.029385
0.049615 -0.004539 0.848017 0 208 255 0.019922
0.048326 -0.003262 0.850454 0 7 255 0.008730
0.050967 -0.005501 0.845404 90 255 157 0.028222
0.062308 -0.005902 0.840086 0 74 255 0.014393
0.058699 -0.006094 0.838363 0 74 255 0.013338
0.057156 -0.006448 0.841486 126 255 122 0.033581
0.055175 -0.006321 0.836632 0 141 255 0.015826
0.053651 -0.006544 0.839698 126 255 122 0.032558
0.050204 -0.006708 0.837955 126 255 122 0.031913
0.051732 -0.006470 0.834882 0 141 255 0.015815
0.052196 -0.006308 0.842606 128 255 120 0.038382
0.048747 -0.006353 0.840834 128 255 120 0.036351
0.055825 -0.006255 0.844492 128 255 120 0.037795
0.059529 -0.006258 0.846375 128 255 120 0.035961
0.060859 -0.006335 0.843325 126 255 122 0.031999
0.048512 -0.006566 0.833194 0 74 255 0.013623
0.045446 -0.006661 0.831510 0 74 255 0.012066
0.043811 -0.006844 0.834574 90 255 157 0.028891
0.042382 -0.006746 0.829855 0 7 255 0.010595
0.040760 -0.006909 0.832905 36 255 211 0.027218
0.037664 -0.007044 0.831254 90 255 157 0.027724
0.039270 -0.006962 0.828222 0 74 255 0.012109
0.039234 -0.006513 0.835737 126 255 122 0.033990
0.036154 -0.006630 0.834076 128 255 120 0.035230
0.042387 -0.006423 0.837419 126 255 122 0.033266
0.045516 -0.006364 0.839101 126 255 122 0.033443
0.046958 -0.006739 0.836283 90 255 157 0.029077
-0.007731 -0.124414 0.873400 0 74 255 0.013519
-0.007332 -0.126357 0.869384 0 7 255 0.008044
-0.010833 -0.124502 0.871820 0 141 255 0.017047
-0.010463 -0.126437 0.867802 0 7 255 0.011306
-0.006981 -0.128710 0.865478 0 0 128 0.003523
-0.006539 -0.131537 0.861754 0 0 204 0.006872
-0.003497 -0.131104 0.863415 0 0 204 0.005973
-0.003952 -0.128338 0.867195 0 0 128 0.003540
-0.004359 -0.126049 0.871109 0 7 255 0.008167
-0.000483 -0.130640 0.865040 0 0 204 0.005619
-0.013825 -0.124574 0.870132 0 208 255 0.022269
-0.013327 -0.126662 0.866091 0 74 255 0.013952
-0.016895 -0.124568 0.868549 90 255 157 0.029025
-0.012899 -0.129245 0.862228 0 0 204 0.004485
-0.009495 -0.131813 0.860088 0 0 204 0.005830
-0.009969 -0.128973 0.863910 0 0 128 0.003797
-0.004352 -0.137754 0.849502 36 255 211 0.027189
-0.000645 -0.138788 0.846916 128 255 120 0.035376
-0.005056 -0.136139 0.853767 36 255 211 0.023658
-0.001350 -0.137402 0.851272 36 255 211 0.026986
-0.002152 -0.135621 0.855521 0 141 255 0.018647
0.002378 -0.138501 0.848705 128 255 120 0.035806
-0.005827 -0.133865 0.857831 0 7 255 0.011378
-0.008809 -0.134371 0.856222 0 141 255 0.016428
0.001707 -0.137100 0.852972 90 255 157 0.027439
0.005321 -0.138176 0.850429 128 255 120 0.035809
0.000935 -0.135191 0.857078 0 141 255 0.017294
0.004640 -0.136646 0.854672 36 255 211 0.024624
0.003896 -0.134787 0.858753 0 141 255 0.017408
0.008305 -0.137920 0.852122 129 255 118 0.041480
0.000232 -0.133096 0.861075 0 7 255 0.010087
-0.002839 -0.133462 0.859471 0 7 255 0.010371
0.016535 -0.115686 0.883895 185 255 63 0.169201
0.018310 -0.117119 0.880770 146 255 102 0.078396
0.014971 -0.119151 0.879556 90 255 157 0.030290
0.013069 -0.117609 0.882565 128 255 120 0.036762
0.018438 -0.120196 0.877261 36 255 211 0.023669
0.018626 -0.123731 0.873713 0 0 204 0.004652
0.021889 -0.121520 0.875048 0 208 255 0.021134
0.021712 -0.118034 0.878519 149 255 98 0.088656
0.009921 -0.119634 0.881428 0 208 255 0.019891
0.011835 -0.121335 0.878385 0 141 255 0.015759
0.008605 -0.122992 0.877187 0 141 255 0.018995
0.006633 -0.121308 0.880225 0 208 255 0.021817
0.012220 -0.124436 0.874907 0 141 255 0.016563
0.012548 -0.127813 0.871256 128 255 120 0.038449
0.015585 -0.125970 0.872557 0 141 255 0.017830
0.015208 -0.122324 0.876031 0 7 255 0.009141
0.020729 -0.135929 0.858044 156 255 92 0.104773
0.020086 -0.133290 0.862075 134 255 113 0.053994
0.023653 -0.134514 0.859333 149 255 98 0.086524
0.019485 -0.130297 0.866041 90 255 157 0.028014
0.022964 -0.131613 0.863385 128 255 120 0.038094
0.022346 -0.128195 0.867301 0 7 255 0.008538
0.026549 -0.132574 0.860606 136 255 112 0.056828
0.019014 -0.127018 0.869941 0 7 255 0.007816
0.015994 -0.129049 0.868674 90 255 157 0.028529
0.016477 -0.131853 0.864723 128 255 120 0.037131
0.025933 -0.129361 0.864596 0 141 255 0.015860
0.029626 -0.130306 0.861913 90 255 157 0.027807
0.025608 -0.125952 0.868588 0 74 255 0.013748
0.029128 -0.127086 0.866057 36 255 211 0.026056
0.023678 -0.123750 0.871878 0 74 255 0.014659
0.003421 -0.122554 0.878850 36 255 211 0.025491
0.005363 -0.124291 0.875769 0 208 255 0.021042
0.002020 -0.125080 0.874300 0 141 255 0.016263
0.000106 -0.123292 0.877379 0 208 255 0.019752
0.005694 -0.126934 0.871989 0 141 255 0.016929
0.006001 -0.129586 0.868188 0 141 255 0.015958
0.009301 -0.128885 0.869738 90 255 157 0.029756
0.008962 -0.125989 0.873488 36 255 211 0.023778
-0.003050 -0.123871 0.875818 0 141 255 0.016502
-0.001153 -0.125779 0.872677 0 7 255 0.010956
-0.000809 -0.128061 0.868807 0 0 204 0.005062
0.002769 -0.130179 0.866648 0 7 255 0.008894
0.002367 -0.127545 0.870451 0 7 255 0.009791
0.007746 -0.136346 0.856240 90 255 157 0.030392
0.011475 -0.137665 0.853684 134 255 113 0.052478
0.007172 -0.134388 0.860263 0 141 255 0.019101
0.010831 -0.135822 0.857810 126 255 122 0.033765
0.010318 -0.133739 0.861869 36 255 211 0.024439
0.014521 -0.137303 0.855204 139 255 108 0.064421
0.006590 -0.132046 0.864256 0 74 255 0.013642
0.003309 -0.132607 0.862696 0 7 255 0.010231
0.014056 -0.135422 0.859297 133 255 115 0.050430
0.017623 -0.136794 0.856652 151 255 97 0.090646
0.013500 -0.132972 0.863294 126 255 122 0.033573
0.017137 -0.134655 0.860747 139 255 108 0.063978
0.013026 -0.130493 0.867267 126 255 122 0.032663
0.009777 -0.131316 0.865801 0 141 255 0.019060
0.022931 -0.136728 0.854407 151 255 97 0.091998
0.026678 -0.136800 0.851518 156 255 92 0.104399
0.028893 -0.136930 0.847841 159 255 88 0.112871
0.032640 -0.136239 0.844988 174 255 73 0.146973
0.029660 -0.137263 0.843299 164 255 83 0.123100
0.031846 -0.135593 0.849302 159 255 88 0.110937
0.035557 -0.134122 0.846438 153 255 95 0.094912
0.029609 -0.135272 0.852803 149 255 98 0.086215
0.027368 -0.134711 0.856397 146 255 102 0.079145
0.031623 -0.135967 0.839674 144 255 103 0.075883
0.035239 -0.134155 0.837142 148 255 100 0.083549
0.037399 -0.132418 0.833783 151 255 97 0.090357
0.040530 -0.130624 0.835823 146 255 102 0.079129
0.038442 -0.132451 0.838997 146 255 102 0.081661
0.036338 -0.133975 0.842286 151 255 97 0.093476
0.046258 -0.125658 0.839868 90 255 157 0.028354
0.044290 -0.127543 0.842760 90 255 157 0.030024
0.040740 -0.130405 0.844842 131 255 117 0.045506
0.038642 -0.131721 0.848052 136 255 112 0.057523
0.041401 -0.130055 0.840816 133 255 115 0.050575
0.043454 -0.128162 0.837822 131 255 117 0.046668
0.037896 -0.130707 0.852226 128 255 120 0.036118
0.035588 -0.130619 0.855620 90 255 157 0.029076
0.031793 -0.131432 0.858362 126 255 122 0.032609
0.032517 -0.133080 0.854131 133 255 115 0.047876
0.034818 -0.133234 0.850624 134 255 113 0.053869
0.024039 -0.079178 0.785589 0 7 255 0.010808
0.023568 -0.076444 0.784675 0 7 255 0.010026
0.024777 -0.073563 0.784887 0 0 204 0.007665
0.024301 -0.070317 0.784041 0 0 204 0.005921
0.027822 -0.070228 0.786244 0 0 204 0.004334
0.028144 -0.073353 0.786966 0 0 204 0.006744
0.026862 -0.076313 0.786722 0 7 255 0.011352
0.027124 -0.079028 0.787554 0 7 255 0.010152
0.025937 -0.081761 0.787300 0 74 255 0.012194
0.028852 -0.081496 0.789454 0 74 255 0.012124
0.021731 -0.067241 0.782821 0 0 128 0.002074
0.020935 -0.063869 0.782323 0 0 128 0.002783
0.022997 -0.063882 0.783671 0 0 204 0.005349
0.020179 -0.060425 0.781676 0 0 128 0.002302
0.022331 -0.060289 0.783026 0 0 128 0.003500
0.021760 -0.056708 0.782056 0 0 128 0.002737
0.019560 -0.056756 0.780884 0 0 128 0.002547
0.024463 -0.060261 0.784182 0 0 128 0.003806
0.023956 -0.056603 0.783243 0 0 128 0.003111
0.026071 -0.056549 0.784308 0 0 204 0.003967
0.026801 -0.063659 0.785718 0 0 204 0.004987
0.025420 -0.067114 0.785058 0 0 128 0.002831
0.034466 -0.055873 0.788074 0 7 255 0.011486
0.034607 -0.059560 0.788814 0 0 128 0.003185
0.032775 -0.063354 0.788634 0 0 128 0.002626
0.032896 -0.066740 0.789092 0 0 128 0.002804
0.031395 -0.070074 0.788177 0 0 204 0.004122
0.034962 -0.069782 0.790348 0 0 128 0.001925
0.029184 -0.067085 0.787145 0 0 128 0.003097
0.028848 -0.063611 0.786688 0 0 128 0.003867
0.028589 -0.060038 0.786039 0 0 128 0.002125
0.030672 -0.059894 0.787017 0 0 128 0.002198
0.030347 -0.056351 0.786133 0 7 255 0.008701
0.028281 -0.056426 0.785209 0 0 204 0.006719
0.032451 -0.056104 0.787099 0 7 255 0.010199
0.035019 -0.073016 0.790908 0 0 204 0.004530
0.033509 -0.076241 0.790391 0 141 255 0.018600
0.033620 -0.078922 0.791102 0 208 255 0.019799
0.032037 -0.081460 0.791194 0 74 255 0.014931
0.035264 -0.081441 0.792866 0 208 255 0.020894
0.030386 -0.078959 0.789450 0 74 255 0.013688
0.030207 -0.076278 0.788539 0 74 255 0.015090
0.031615 -0.073264 0.788958 0 0 204 0.006671
0.054162 -0.056740 0.797990 0 0 204 0.005029
0.056615 -0.056308 0.799183 0 0 204 0.005444
0.056421 -0.060477 0.799276 0 0 204 0.005150
0.059040 -0.055876 0.800516 0 0 128 0.003059
0.058776 -0.060125 0.800483 0 0 204 0.004181
0.061144 -0.059867 0.801826 0 0 128 0.002768
0.061442 -0.055464 0.801764 0 0 128 0.002630
0.058617 -0.064121 0.800773 0 0 204 0.005085
0.061014 -0.063881 0.801943 0 0 204 0.004575
0.060923 -0.067778 0.802229 0 0 204 0.007048
0.058632 -0.067871 0.801257 0 0 204 0.006820
0.056379 -0.064353 0.799653 0 0 204 0.007106
0.056317 -0.068022 0.800139 0 7 255 0.008347
0.054080 -0.064560 0.798670 0 0 204 0.006137
0.054159 -0.060746 0.798214 0 0 204 0.005525
0.051849 -0.061125 0.797179 0 0 204 0.004815
0.053987 -0.068114 0.799201 0 0 204 0.005615
0.051778 -0.064825 0.797773 0 0 204 0.003942
0.051630 -0.068252 0.798238 0 0 128 0.003322
0.051888 -0.057135 0.796879 0 0 204 0.005950
0.063920 -0.055127 0.802837 0 0 128 0.002635
0.066563 -0.054621 0.803963 0 0 128 0.002719
0.066051 -0.059147 0.803870 0 0 128 0.003386
0.069211 -0.054229 0.805061 0 0 128 0.002603
0.068690 -0.058684 0.804909 0 0 128 0.003341
0.068236 -0.063106 0.804881 0 0 204 0.004558
0.068082 -0.067211 0.805049 0 0 204 0.006676
0.065805 -0.063417 0.803925 0 0 204 0.004497
0.065717 -0.067381 0.804097 0 0 204 0.007210
0.063418 -0.063660 0.802928 0 0 204 0.004820
0.063622 -0.059512 0.802823 0 0 128 0.002995
0.063338 -0.067565 0.803186 0 0 204 0.007466
0.066836 -0.078757 0.807383 0 0 128 0.003492
0.064087 -0.081741 0.807136 0 0 128 0.003523
0.064836 -0.075203 0.805820 0 0 128 0.002916
0.062128 -0.078428 0.805755 0 0 204 0.003931
0.060193 -0.074921 0.804119 0 0 128 0.002909
0.059367 -0.081516 0.805287 0 0 128 0.002177
0.062823 -0.071560 0.804169 0 0 128 0.003432
0.065297 -0.071430 0.805076 0 0 204 0.004615
0.067694 -0.071408 0.805892 0 0 204 0.004411
0.067261 -0.075233 0.806743 0 0 204 0.004030
0.057387 -0.078277 0.803764 0 0 128 0.003087
0.054934 -0.081390 0.802999 0 0 128 0.003901
0.055366 -0.074783 0.802132 0 0 204 0.004525
0.052779 -0.078195 0.801756 0 0 204 0.004018
0.050844 -0.074864 0.800192 0 0 204 0.006648
0.050497 -0.081240 0.800730 0 74 255 0.012962
0.053410 -0.071451 0.800293 0 0 128 0.002689
0.055874 -0.071472 0.801156 0 0 128 0.002065
0.058244 -0.071524 0.802116 0 0 128 0.002318
0.057772 -0.074856 0.803163 0 0 204 0.004164
0.048309 -0.078118 0.799427 0 0 204 0.004191
0.046416 -0.081155 0.798549 0 208 255 0.020271
0.046402 -0.075095 0.797897 0 0 204 0.004756
0.044310 -0.078340 0.797143 0 7 255 0.008917
0.042459 -0.075449 0.795735 0 0 204 0.005887
0.042414 -0.081207 0.796513 36 255 211 0.024534
0.044498 -0.072045 0.796156 0 0 204 0.004100
0.042864 -0.068955 0.794362 0 0 128 0.001883
0.047211 -0.068445 0.796194 0 0 128 0.002194
0.048890 -0.071789 0.798336 0 0 204 0.004108
0.040469 -0.078466 0.794889 0 141 255 0.018569
0.038719 -0.081313 0.794615 36 255 211 0.025035
0.038672 -0.075711 0.793305 0 7 255 0.010723
0.036965 -0.078718 0.792933 0 208 255 0.020648
0.038681 -0.072661 0.792924 0 0 128 0.002807
0.038831 -0.069368 0.792325 0 0 128 0.001706
0.036610 -0.055585 0.788985 0 74 255 0.015185
0.038779 -0.059037 0.790422 0 7 255 0.008561
0.038733 -0.055292 0.789992 0 74 255 0.015500
0.038644 -0.062632 0.791100 0 0 128 0.002116
0.040903 -0.058782 0.791448 0 7 255 0.008283
0.040821 -0.062437 0.792102 0 0 128 0.002929
0.043023 -0.062204 0.793170 0 0 128 0.003586
0.040811 -0.054928 0.791034 0 74 255 0.014180
0.043018 -0.058462 0.792498 0 7 255 0.008024
0.042943 -0.054599 0.792152 0 74 255 0.012511
0.040712 -0.065854 0.792709 0 0 128 0.001714
0.042910 -0.065722 0.793843 0 0 128 0.001695
0.036702 -0.066326 0.790853 0 0 128 0.001733
0.045118 -0.054204 0.793185 0 74 255 0.012664
0.047369 -0.057771 0.794429 0 7 255 0.010440
0.047359 -0.053788 0.794340 0 7 255 0.011344
0.047320 -0.061599 0.794845 0 7 255 0.009325
0.049624 -0.057511 0.795640 0 7 255 0.007856
0.049560 -0.061307 0.795980 0 0 204 0.006901
0.049631 -0.053374 0.795597 0 7 255 0.008079
0.049400 -0.065049 0.796639 0 0 128 0.003720
0.052224 -0.084438 0.802651 0 74 255 0.013838
0.053900 -0.087423 0.804403 0 141 255 0.019086
0.056552 -0.084589 0.804777 0 0 204 0.006601
0.058240 -0.087688 0.806470 0 74 255 0.012590
0.055596 -0.090418 0.805895 36 255 211 0.027251
0.057225 -0.093220 0.807349 128 255 120 0.037512
0.053163 -0.092869 0.805679 128 255 120 0.037977
0.051530 -0.090027 0.803973 126 255 122 0.033464
0.049823 -0.087063 0.802329 90 255 157 0.028308
0.049015 -0.092401 0.804381 0 208 255 0.022115
0.060963 -0.084732 0.807008 0 0 204 0.006061
0.062479 -0.088019 0.808558 0 7 255 0.008052
0.065573 -0.085058 0.808938 0 7 255 0.008686
0.064071 -0.091035 0.809828 0 7 255 0.010062
0.061420 -0.093603 0.809088 90 255 157 0.029371
0.059813 -0.090678 0.807899 0 141 255 0.017221
0.058319 -0.101016 0.813229 0 141 255 0.017866
0.059273 -0.098531 0.811565 0 208 255 0.021587
0.055377 -0.098116 0.810314 0 74 255 0.013032
0.054559 -0.100706 0.812095 0 7 255 0.011678
0.058275 -0.095799 0.809535 0 208 255 0.022818
0.062503 -0.096300 0.810938 90 255 157 0.027459
0.050807 -0.100458 0.811202 0 7 255 0.010549
0.051464 -0.097817 0.809296 0 0 204 0.007224
0.047633 -0.097458 0.808372 0 74 255 0.013576
0.047122 -0.100317 0.810233 90 255 157 0.030570
0.050182 -0.095065 0.807004 0 7 255 0.008257
0.054270 -0.095486 0.808070 0 141 255 0.019200
0.026898 -0.133868 0.821695 139 255 108 0.062506
0.024760 -0.135117 0.825395 126 255 122 0.031907
0.021023 -0.136420 0.828342 0 74 255 0.012508
0.018654 -0.137469 0.832258 0 7 255 0.009727
0.014810 -0.138523 0.835325 0 141 255 0.015877
0.017648 -0.138408 0.837000 0 208 255 0.020167
0.015737 -0.137574 0.830575 0 0 204 0.006535
0.011822 -0.138486 0.833667 0 7 255 0.008789
0.018224 -0.136620 0.826627 0 7 255 0.008312
0.020701 -0.135586 0.822772 0 208 255 0.020883
0.024344 -0.134295 0.819818 134 255 113 0.053930
0.021593 -0.134704 0.818061 129 255 118 0.041982
0.015241 -0.138580 0.840938 0 74 255 0.014047
0.011381 -0.138709 0.843955 0 74 255 0.013933
0.009147 -0.138445 0.847702 0 208 255 0.022532
0.006146 -0.138657 0.846002 0 208 255 0.020035
0.008434 -0.138775 0.842284 0 7 255 0.010283
0.010883 -0.138585 0.838478 0 0 204 0.006072
-0.001387 -0.139293 0.841432 0 141 255 0.017938
0.002431 -0.139067 0.838730 0 7 255 0.008168
0.004783 -0.138842 0.834969 0 0 204 0.004855
0.008767 -0.138502 0.831988 0 0 204 0.005217
0.005709 -0.138637 0.830242 0 0 204 0.004112
0.007864 -0.138705 0.836757 0 0 204 0.005613
0.005443 -0.138861 0.840572 0 7 255 0.009645
0.003169 -0.138853 0.844234 0 141 255 0.017820
0.008241 -0.137693 0.826479 0 0 128 0.003554
0.012326 -0.136859 0.823365 0 0 204 0.004529
0.014846 -0.136073 0.819460 0 74 255 0.012858
0.018810 -0.135152 0.816290 129 255 118 0.041382
0.015855 -0.135559 0.814651 90 255 157 0.030960
0.017800 -0.135838 0.821105 0 141 255 0.016216
0.015311 -0.136735 0.825019 0 0 204 0.005918
0.012773 -0.137607 0.828939 0 0 128 0.003431
-0.004525 -0.139631 0.839499 0 74 255 0.014980
-0.002229 -0.139570 0.835861 0 7 255 0.008418
-0.005470 -0.139838 0.833992 0 0 204 0.007122
-0.007737 -0.139952 0.837580 0 74 255 0.014154
-0.001473 -0.139407 0.831281 0 0 204 0.004316
-0.000672 -0.139266 0.826735 0 0 204 0.004672
0.002520 -0.138925 0.828514 0 0 204 0.004116
0.001697 -0.139101 0.833134 0 0 204 0.004550
-0.010967 -0.140368 0.835653 0 74 255 0.014439
-0.008678 -0.140313 0.832040 0 7 255 0.007867
-0.006351 -0.139949 0.828516 0 0 204 0.004266
-0.003906 -0.139729 0.824877 0 0 204 0.004726
0.004055 -0.137512 0.813751 0 7 255 0.008277
0.006808 -0.137216 0.809950 0 74 255 0.014804
0.001352 -0.137983 0.817574 0 74 255 0.011997
0.004503 -0.137423 0.819327 0 7 255 0.011051
0.007174 -0.136925 0.815449 0 7 255 0.008324
0.009853 -0.136543 0.811525 0 141 255 0.016526
0.000284 -0.138460 0.822171 0 0 204 0.006410
-0.002968 -0.139001 0.820401 0 0 204 0.006714
0.010332 -0.136550 0.816970 0 7 255 0.008400
0.012895 -0.136053 0.813050 36 255 211 0.024484
0.007743 -0.137117 0.820911 0 0 204 0.007762
0.005090 -0.137909 0.824769 0 0 204 0.004352
0.018209 -0.110735 0.784605 0 7 255 0.010461
0.017981 -0.106217 0.783294 0 0 204 0.004600
0.018701 -0.101462 0.783263 0 0 204 0.004341
0.018336 -0.097239 0.781891 0 0 204 0.007737
0.020304 -0.096518 0.784394 0 0 204 0.005254
0.020635 -0.100604 0.785675 0 0 128 0.002719
0.020083 -0.105446 0.785631 0 0 204 0.005334
0.020285 -0.109883 0.786813 0 7 255 0.011111
0.019550 -0.114805 0.786846 126 255 122 0.032479
0.021567 -0.113922 0.789083 90 255 157 0.029930
0.016342 -0.093565 0.779891 0 0 128 0.002030
0.015313 -0.089690 0.778939 0 0 204 0.005052
0.015666 -0.085964 0.779200 0 7 255 0.010092
0.017962 -0.085577 0.781666 0 74 255 0.013226
0.017573 -0.089254 0.781507 0 7 255 0.007868
0.018401 -0.092932 0.782352 0 0 128 0.002866
0.023043 -0.084800 0.786629 0 208 255 0.019873
0.022170 -0.088242 0.786667 0 208 255 0.020616
0.022648 -0.091627 0.787630 0 74 255 0.012827
0.022339 -0.095681 0.787045 0 0 204 0.004495
0.024385 -0.094836 0.789672 0 7 255 0.008203
0.020586 -0.092330 0.785105 0 0 204 0.006381
0.019789 -0.088754 0.784103 0 74 255 0.014090
0.020457 -0.085277 0.784297 0 141 255 0.019015
0.024626 -0.098586 0.790947 0 0 204 0.004789
0.024080 -0.103477 0.790721 0 0 128 0.002139
0.024350 -0.107861 0.791752 0 0 204 0.007454
0.023631 -0.112976 0.791474 90 255 157 0.028696
0.025495 -0.111825 0.794012 0 208 255 0.019570
0.022382 -0.108911 0.789330 0 7 255 0.009504
0.022173 -0.104514 0.788109 0 0 204 0.004502
0.022675 -0.099652 0.788362 0 0 128 0.001636
0.027442 -0.134812 0.827167 128 255 120 0.038029
0.029496 -0.133401 0.823628 139 255 108 0.063677
0.025305 -0.136076 0.830807 0 141 255 0.016862
0.027987 -0.135765 0.832514 36 255 211 0.027202
0.030062 -0.134290 0.828978 128 255 120 0.037264
0.032098 -0.132808 0.825579 139 255 108 0.065282
0.024421 -0.137169 0.835443 36 255 211 0.024084
0.023570 -0.138166 0.840146 134 255 113 0.052450
0.020652 -0.138327 0.838565 126 255 122 0.031885
0.021510 -0.137366 0.833881 0 74 255 0.014032
0.032814 -0.133671 0.830894 134 255 113 0.054183
0.034829 -0.132134 0.827539 146 255 102 0.078437
0.030853 -0.135298 0.834269 131 255 117 0.046798
0.028738 -0.136678 0.837964 134 255 113 0.054552
0.026593 -0.137913 0.841674 151 255 97 0.090763
0.019950 -0.137468 0.853014 141 255 107 0.070253
0.022160 -0.137890 0.849266 139 255 108 0.063111
0.019042 -0.138354 0.847821 131 255 117 0.046820
0.016785 -0.137942 0.851567 133 255 115 0.047034
0.022831 -0.138245 0.844720 134 255 113 0.052516
0.025923 -0.137747 0.846279 149 255 98 0.088017
0.013742 -0.138246 0.850033 126 255 122 0.034059
0.016010 -0.138569 0.846229 90 255 157 0.029181
0.018299 -0.138547 0.842427 36 255 211 0.023502
0.048239 -0.084212 0.800450 36 255 211 0.026532
0.045843 -0.086886 0.800564 0 208 255 0.022869
0.047460 -0.089656 0.802422 0 208 255 0.022566
0.045118 -0.092031 0.803200 0 7 255 0.010191
0.043457 -0.089294 0.801131 0 7 255 0.010150
0.041218 -0.091752 0.802003 0 74 255 0.014145
0.041672 -0.086600 0.799047 0 74 255 0.013254
0.044051 -0.084063 0.798536 36 255 211 0.025648
0.046397 -0.094709 0.805938 0 7 255 0.010415
0.044003 -0.097456 0.807249 126 255 122 0.031364
0.043731 -0.100540 0.808933 128 255 120 0.037843
0.043612 -0.104094 0.810254 90 255 157 0.027816
0.040333 -0.104713 0.808603 126 255 122 0.031752
0.040292 -0.100874 0.807395 134 255 113 0.050930
0.040345 -0.097423 0.805984 141 255 107 0.066465
0.042573 -0.094506 0.804732 90 255 157 0.030573
0.034441 -0.106623 0.804295 0 208 255 0.023269
0.034294 -0.102380 0.803329 129 255 118 0.042733
0.035524 -0.098155 0.803320 148 255 100 0.084327
0.035516 -0.094715 0.801850 146 255 102 0.080841
0.037594 -0.091737 0.800659 128 255 120 0.037353
0.034258 -0.091874 0.799101 136 255 112 0.056454
0.038919 -0.094489 0.803485 139 255 108 0.062674
0.037255 -0.101583 0.805519 133 255 115 0.048204
0.037352 -0.105616 0.806608 36 255 211 0.026675
0.034246 -0.089004 0.797776 133 255 115 0.047912
0.036262 -0.086455 0.796903 0 141 255 0.015851
0.036567 -0.083917 0.795288 0 7 255 0.011163
0.040207 -0.083965 0.796881 0 141 255 0.017415
0.039531 -0.088978 0.799957 0 74 255 0.014222
0.026342 -0.106718 0.794415 0 0 204 0.004982
0.026045 -0.102323 0.793388 0 0 204 0.004418
0.026748 -0.097650 0.793595 0 74 255 0.012385
0.026556 -0.094008 0.792253 0 141 255 0.017323
0.028782 -0.093181 0.794694 90 255 157 0.030902
0.028859 -0.096681 0.796055 126 255 122 0.031359
0.028103 -0.101162 0.795969 0 74 255 0.012917
0.028321 -0.105376 0.796996 0 0 204 0.006533
0.027409 -0.110528 0.796664 0 74 255 0.011809
0.029507 -0.109201 0.799230 0 74 255 0.012167
0.024952 -0.090953 0.790302 36 255 211 0.026889
0.024612 -0.087672 0.789158 90 255 157 0.030025
0.025820 -0.084453 0.788967 0 208 255 0.020430
0.028605 -0.084138 0.790982 0 208 255 0.021805
0.027148 -0.087181 0.791483 129 255 118 0.040946
0.027293 -0.090250 0.792604 128 255 120 0.037935
0.033303 -0.083939 0.793807 0 7 255 0.011271
0.032975 -0.086535 0.795370 90 255 157 0.030309
0.031241 -0.089345 0.796026 138 255 110 0.061260
0.031312 -0.092442 0.797046 133 255 115 0.050545
0.029930 -0.086687 0.793589 131 255 117 0.043728
0.032561 -0.095349 0.799878 146 255 102 0.080009
0.032712 -0.099007 0.801090 138 255 110 0.060913
0.031697 -0.103506 0.800945 90 255 157 0.027638
0.031876 -0.107897 0.801824 0 141 255 0.017363
0.030259 -0.100012 0.798579 126 255 122 0.034248
0.016706 -0.134075 0.810202 0 208 255 0.022797
0.017510 -0.132627 0.805812 128 255 120 0.035260
0.013834 -0.134756 0.808589 0 208 255 0.020732
0.014764 -0.133457 0.804179 90 255 157 0.030215
0.018292 -0.131137 0.801524 138 255 110 0.060947
0.018974 -0.129328 0.797458 153 255 95 0.097499
0.021296 -0.128350 0.799293 158 255 90 0.105569
0.020715 -0.130195 0.803349 138 255 110 0.059651
0.020088 -0.131882 0.807591 128 255 120 0.038047
0.023422 -0.127300 0.801355 149 255 98 0.089638
0.010944 -0.135420 0.807027 0 74 255 0.015017
0.012153 -0.134372 0.802591 0 208 255 0.023287
0.007953 -0.136250 0.805495 0 74 255 0.013605
0.013242 -0.133102 0.798263 134 255 113 0.053680
0.016582 -0.130382 0.795705 153 255 95 0.097298
0.015772 -0.132130 0.799859 134 255 113 0.051512
0.019138 -0.118980 0.788723 90 255 157 0.028631
0.018567 -0.122914 0.790821 126 255 122 0.034584
0.020667 -0.122119 0.792848 128 255 120 0.037919
0.021190 -0.118167 0.790819 36 255 211 0.026123
0.018869 -0.126269 0.794036 136 255 112 0.057436
0.016610 -0.127355 0.792128 139 255 108 0.063078
0.023215 -0.117097 0.793181 36 255 211 0.024467
0.022737 -0.121051 0.795012 90 255 157 0.030932
0.024663 -0.120033 0.797436 36 255 211 0.025703
0.025029 -0.115958 0.795747 0 74 255 0.012293
0.023143 -0.124294 0.798078 134 255 113 0.052720
0.021030 -0.125383 0.796007 139 255 108 0.062713
0.027346 -0.131698 0.817602 131 255 117 0.044483
0.027611 -0.129621 0.813548 131 255 117 0.044765
0.024783 -0.132356 0.815617 131 255 117 0.046275
0.025123 -0.130359 0.811507 131 255 117 0.044157
0.027700 -0.127479 0.809699 133 255 115 0.048751
0.027716 -0.125244 0.805946 139 255 108 0.063325
0.029912 -0.124142 0.808436 131 255 117 0.045936
0.029985 -0.126579 0.812030 128 255 120 0.038463
0.029976 -0.128809 0.815789 128 255 120 0.035925
0.032237 -0.122954 0.810975 90 255 157 0.030378
0.022172 -0.132970 0.813648 128 255 120 0.035881
0.022664 -0.131111 0.809470 129 255 118 0.039515
0.019457 -0.133509 0.811897 90 255 157 0.031169
0.023089 -0.129234 0.805326 134 255 113 0.054682
0.025574 -0.126277 0.803550 143 255 105 0.071840
0.025396 -0.128359 0.807487 133 255 115 0.049979
0.026947 -0.114659 0.798342 0 0 204 0.007223
0.026570 -0.118746 0.799909 0 74 255 0.013606
0.028587 -0.117508 0.802588 0 7 255 0.009707
0.029050 -0.113448 0.800984 0 7 255 0.008925
0.027168 -0.122032 0.802874 90 255 157 0.031047
0.025172 -0.123229 0.800412 131 255 117 0.046624
0.031422 -0.112113 0.803569 0 74 255 0.014652
0.030887 -0.116164 0.805226 0 74 255 0.012911
0.033465 -0.114961 0.807778 0 141 255 0.015808
0.034033 -0.110778 0.806088 0 208 255 0.020862
0.031538 -0.119544 0.808160 0 74 255 0.015139
0.029236 -0.120829 0.805569 0 208 255 0.019805
0.044657 -0.107254 0.813179 90 255 157 0.029058
0.043986 -0.110830 0.815247 90 255 157 0.028946
0.041622 -0.115339 0.816189 0 74 255 0.015590
0.040782 -0.119432 0.817892 0 208 255 0.021017
0.037683 -0.120641 0.815744 0 141 255 0.018655
0.038500 -0.116556 0.814120 0 74 255 0.015012
0.040870 -0.111895 0.813465 0 208 255 0.023287
0.041590 -0.108117 0.811421 36 255 211 0.024724
0.040947 -0.122200 0.821287 0 141 255 0.016984
0.039457 -0.125459 0.823655 0 208 255 0.021553
0.036501 -0.129318 0.824895 129 255 118 0.042940
0.033653 -0.130104 0.822789 128 255 120 0.036743
0.036455 -0.126612 0.821423 0 208 255 0.021377
0.037857 -0.123335 0.819121 0 74 255 0.013895
0.029793 -0.131140 0.819723 129 255 118 0.041755
0.032471 -0.128165 0.818062 90 255 157 0.030005
0.032369 -0.125610 0.814456 36 255 211 0.025613
0.034864 -0.121811 0.813454 0 208 255 0.022612
0.034992 -0.124510 0.816851 0 141 255 0.017825
0.034178 -0.118433 0.810719 0 141 255 0.015628
0.036372 -0.113875 0.810186 0 141 255 0.016068
0.036875 -0.109591 0.808526 36 255 211 0.023837
0.030387 -0.022024 0.792818 0 208 255 0.023394
0.031016 -0.026409 0.791895 0 0 204 0.006771
0.028563 -0.027126 0.790471 0 0 204 0.006943
0.029098 -0.031579 0.789695 0 0 128 0.001636
0.031515 -0.030925 0.791062 0 0 128 0.001677
0.026617 -0.032248 0.788321 0 0 128 0.001563
0.029555 -0.035889 0.788925 0 0 128 0.000925
0.027153 -0.036436 0.787540 0 0 128 0.000841
0.027850 -0.040430 0.786703 0 0 128 0.002651
0.031930 -0.035298 0.790274 0 0 128 0.001060
0.030203 -0.039943 0.788037 0 0 128 0.001824
0.032489 -0.039497 0.789419 0 0 128 0.001001
0.024737 -0.036865 0.786180 0 0 128 0.000709
0.025476 -0.040774 0.785334 0 0 128 0.003863
0.023074 -0.041088 0.784031 0 0 204 0.004266
0.022196 -0.037176 0.784818 0 0 128 0.000808
0.024036 -0.032727 0.786889 0 0 128 0.001371
0.021441 -0.033158 0.785453 0 0 128 0.001538
0.023314 -0.028314 0.787526 0 0 204 0.006300
0.025963 -0.027739 0.789011 0 0 204 0.006622
0.025206 -0.023217 0.789826 36 255 211 0.024787
0.020686 -0.028826 0.786073 0 0 204 0.005869
0.022525 -0.023851 0.788323 0 208 255 0.022914
0.019872 -0.024510 0.786798 0 208 255 0.022695
0.027839 -0.022593 0.791331 36 255 211 0.025671
0.032932 -0.043920 0.788871 0 0 128 0.000973
0.030833 -0.044396 0.787700 0 0 128 0.001257
0.031421 -0.048587 0.787278 0 0 128 0.002477
0.033476 -0.048157 0.788451 0 0 128 0.001967
0.029371 -0.048893 0.786128 0 0 128 0.003638
0.031967 -0.052515 0.787031 0 0 204 0.007670
0.029920 -0.052772 0.786017 0 0 204 0.007342
0.034051 -0.052114 0.788058 0 0 204 0.007332
0.027764 -0.053056 0.785038 0 0 204 0.005833
0.025489 -0.053072 0.783993 0 0 204 0.004102
0.027075 -0.049148 0.784909 0 0 204 0.004688
0.024745 -0.049279 0.783794 0 0 128 0.003496
0.026228 -0.045066 0.785119 0 0 128 0.002889
0.028539 -0.044768 0.786397 0 0 128 0.002245
0.023877 -0.045292 0.783852 0 0 128 0.003252
0.016505 -0.053177 0.779390 0 0 128 0.001367
0.018902 -0.053244 0.780670 0 0 128 0.002017
0.017990 -0.049568 0.780237 0 0 128 0.003636
0.015594 -0.049541 0.778991 0 0 128 0.002740
0.020369 -0.049560 0.781554 0 0 128 0.003335
0.016945 -0.045704 0.780009 0 0 204 0.004567
0.019294 -0.045626 0.781346 0 0 128 0.003747
0.018273 -0.041556 0.781293 0 0 204 0.005268
0.014566 -0.045866 0.778658 0 0 204 0.004769
0.015863 -0.041844 0.779912 0 0 204 0.005370
0.013456 -0.041984 0.778538 0 0 204 0.005680
0.021671 -0.045567 0.782664 0 0 128 0.003548
0.020675 -0.041307 0.782660 0 0 204 0.004994
0.022570 -0.049474 0.782647 0 0 128 0.003835
0.023332 -0.053185 0.782894 0 0 128 0.003829
0.021099 -0.053256 0.781762 0 0 128 0.003145
0.012384 -0.038364 0.779037 0 0 128 0.001385
0.014902 -0.038194 0.780556 0 0 128 0.001221
0.013906 -0.034370 0.780956 0 0 128 0.001306
0.011352 -0.034599 0.779549 0 0 128 0.001668
0.016483 -0.034109 0.782466 0 0 128 0.001577
0.012944 -0.030441 0.781411 0 0 204 0.006336
0.015558 -0.029990 0.782943 0 0 204 0.006577
0.014548 -0.025813 0.783555 36 255 211 0.023733
0.010375 -0.030779 0.779961 0 0 204 0.005799
0.011959 -0.026348 0.781922 36 255 211 0.025867
0.009377 -0.026813 0.780338 36 255 211 0.027147
0.018169 -0.029500 0.784533 0 0 204 0.006083
0.017173 -0.025220 0.785177 0 208 255 0.021872
0.018962 -0.033662 0.783927 0 0 128 0.001380
0.019761 -0.037574 0.783319 0 0 128 0.001095
0.017332 -0.037926 0.781938 0 0 128 0.001159
0.049188 -0.022283 0.801975 0 0 204 0.006393
0.049635 -0.026273 0.800687 0 0 204 0.004866
0.047094 -0.026809 0.799266 0 0 204 0.005339
0.049836 -0.030558 0.799422 0 0 204 0.004716
0.047205 -0.031187 0.798035 0 0 204 0.003990
0.047252 -0.035726 0.796856 0 0 204 0.005394
0.049879 -0.035134 0.798225 0 0 204 0.006219
0.044570 -0.031870 0.796705 0 0 128 0.002887
0.044630 -0.036363 0.795551 0 0 204 0.003930
0.042070 -0.036999 0.794330 0 0 128 0.002409
0.041825 -0.032571 0.795365 0 0 128 0.001671
0.044358 -0.027379 0.797759 0 0 204 0.005473
0.041621 -0.028074 0.796366 0 0 128 0.003666
0.043944 -0.023237 0.798939 0 7 255 0.009506
0.046590 -0.022721 0.800454 0 7 255 0.008261
0.045917 -0.018812 0.801613 0 208 255 0.019580
0.041267 -0.023814 0.797484 0 7 255 0.009488
0.043295 -0.019315 0.800120 0 208 255 0.020208
0.040634 -0.019828 0.798638 0 208 255 0.020843
0.048496 -0.018338 0.803135 0 141 255 0.017397
0.049726 -0.040100 0.797605 0 0 128 0.001050
0.049600 -0.044793 0.796799 0 0 128 0.000763
0.047207 -0.045374 0.795557 0 0 128 0.000605
0.049511 -0.049273 0.796194 0 0 128 0.001850
0.047196 -0.049766 0.794927 0 0 128 0.002741
0.044900 -0.050197 0.793732 0 0 128 0.003236
0.042522 -0.050643 0.792503 0 0 128 0.003874
0.044704 -0.045922 0.794286 0 0 128 0.000531
0.042253 -0.046381 0.793024 0 0 128 0.000736
0.044607 -0.041251 0.794891 0 0 128 0.000751
0.047138 -0.040688 0.796217 0 0 128 0.000805
0.042101 -0.041824 0.793674 0 0 128 0.000554
0.036258 -0.051866 0.789174 0 0 204 0.006486
0.035730 -0.047796 0.789563 0 0 128 0.001621
0.037989 -0.047420 0.790808 0 0 128 0.001213
0.035303 -0.043427 0.790074 0 0 128 0.000795
0.037596 -0.042945 0.791286 0 0 128 0.000745
0.037313 -0.038295 0.791816 0 0 128 0.002112
0.034905 -0.038906 0.790613 0 0 128 0.001501
0.039914 -0.042365 0.792486 0 0 128 0.000705
0.039684 -0.037652 0.793051 0 0 128 0.002341
0.040155 -0.046886 0.791877 0 0 128 0.000815
0.040414 -0.051151 0.791373 0 0 204 0.004351
0.038317 -0.051542 0.790237 0 0 204 0.005283
0.034522 -0.034655 0.791544 0 0 128 0.000801
0.034126 -0.030230 0.792369 0 0 128 0.001980
0.036701 -0.029577 0.793700 0 0 128 0.002593
0.033673 -0.025736 0.793251 0 7 255 0.008467
0.036258 -0.025064 0.794634 0 7 255 0.010494
0.035601 -0.020838 0.795639 90 255 157 0.027755
0.033030 -0.021414 0.794207 90 255 157 0.027581
0.038822 -0.024458 0.796065 0 7 255 0.010071
0.038121 -0.020308 0.797108 36 255 211 0.025301
0.039162 -0.028804 0.794992 0 0 128 0.003596
0.039399 -0.033257 0.794048 0 0 128 0.001130
0.036973 -0.033962 0.792788 0 0 128 0.000926
0.027660 -0.001396 0.842413 0 0 128 0.001519
0.028978 -0.003028 0.840135 0 0 204 0.004928
0.026005 -0.003044 0.838518 0 0 204 0.004308
0.030346 -0.004504 0.837727 0 141 255 0.015627
0.027371 -0.004538 0.836097 0 74 255 0.014736
0.028801 -0.005703 0.833535 0 208 255 0.021270
0.031770 -0.005653 0.835143 0 208 255 0.022039
0.024327 -0.004582 0.834470 0 7 255 0.011213
0.025766 -0.005780 0.831900 0 141 255 0.016246
0.022675 -0.005895 0.830216 0 141 255 0.016836
0.021250 -0.004673 0.832854 0 7 255 0.011269
0.022935 -0.003061 0.836950 0 0 128 0.003064
0.019828 -0.003152 0.835363 0 0 128 0.003477
0.021547 -0.001380 0.839331 0 0 128 0.001985
0.024624 -0.001374 0.840870 0 0 128 0.001892
0.018425 -0.001451 0.837759 0 0 128 0.001915
0.033241 -0.006651 0.832453 90 255 157 0.028232
0.034767 -0.007113 0.829611 36 255 211 0.024634
0.031808 -0.007222 0.827959 36 255 211 0.023792
0.036379 -0.007031 0.826547 0 7 255 0.009820
0.033436 -0.007157 0.824863 0 7 255 0.009013
0.035166 -0.006846 0.821630 0 0 128 0.003030
0.038093 -0.006657 0.823324 0 0 128 0.002946
0.030425 -0.007366 0.823162 0 7 255 0.009347
0.032183 -0.007100 0.819914 0 0 128 0.002176
0.029129 -0.007369 0.818239 0 0 128 0.001937
0.027355 -0.007589 0.821500 0 7 255 0.008786
0.028762 -0.007372 0.826333 36 255 211 0.024274
0.025684 -0.007582 0.824627 36 255 211 0.026272
0.027220 -0.006836 0.829226 90 255 157 0.027780
0.030272 -0.006704 0.830850 36 255 211 0.026658
0.024141 -0.007019 0.827529 90 255 157 0.030134
0.018085 -0.008190 0.811651 0 0 128 0.002717
0.016341 -0.008238 0.814848 0 0 204 0.004677
0.019122 -0.008040 0.816371 0 0 204 0.004315
0.017448 -0.007924 0.819436 0 74 255 0.014908
0.014671 -0.008059 0.817857 0 74 255 0.014859
0.020224 -0.007796 0.821060 0 141 255 0.017699
0.015879 -0.007335 0.822402 0 141 255 0.019379
0.018627 -0.007230 0.824088 0 208 255 0.022719
0.017108 -0.006036 0.826903 0 74 255 0.012106
0.013110 -0.007422 0.820768 0 141 255 0.018478
0.014356 -0.006180 0.825231 0 7 255 0.011222
0.011623 -0.006276 0.823576 0 7 255 0.010359
0.021391 -0.007098 0.825740 36 255 211 0.024571
0.019903 -0.005948 0.828549 0 74 255 0.013696
0.022972 -0.007620 0.822825 0 141 255 0.019492
0.024629 -0.007724 0.819768 0 0 204 0.006097
0.021876 -0.007864 0.818030 0 0 204 0.004321
0.023615 -0.007730 0.814904 0 0 128 0.002577
0.026371 -0.007512 0.816544 0 0 128 0.002584
0.020869 -0.007957 0.813253 0 0 128 0.002756
0.010139 -0.004976 0.826382 0 0 204 0.005972
0.012884 -0.004928 0.827922 0 0 204 0.006483
0.011456 -0.003309 0.830601 0 0 128 0.001464
0.008703 -0.003402 0.829074 0 0 128 0.001587
0.014209 -0.003250 0.832100 0 0 128 0.001457
0.010090 -0.001603 0.833160 0 0 128 0.002353
0.012846 -0.001533 0.834631 0 0 128 0.002350
0.007340 -0.001724 0.831684 0 0 128 0.001676
0.015621 -0.001504 0.836141 0 0 128 0.001923
0.017023 -0.003165 0.833735 0 0 128 0.001680
0.018450 -0.004718 0.831227 0 0 204 0.007234
0.015641 -0.004815 0.829572 0 0 204 0.006704
0.026862 -0.019048 0.792862 126 255 122 0.034295
0.024248 -0.019591 0.791344 126 255 122 0.034874
0.023099 -0.016512 0.793019 128 255 120 0.036098
0.021601 -0.020219 0.789823 90 255 157 0.029284
0.020482 -0.017056 0.791497 126 255 122 0.034958
0.017827 -0.017667 0.789964 126 255 122 0.031593
0.018929 -0.020865 0.788305 0 208 255 0.023132
0.019154 -0.014448 0.793341 129 255 118 0.041330
0.016562 -0.014984 0.791778 129 255 118 0.040491
0.015150 -0.012739 0.793832 134 255 113 0.052576
0.017706 -0.012260 0.795352 134 255 113 0.053683
0.021718 -0.013976 0.794842 129 255 118 0.041185
0.020232 -0.011848 0.796914 134 255 113 0.050815
0.024255 -0.013508 0.796341 128 255 120 0.038205
0.025651 -0.016063 0.794475 126 255 122 0.035128
0.028140 -0.015622 0.795962 90 255 157 0.030301
0.022731 -0.011422 0.798463 133 255 115 0.049141
0.026746 -0.013102 0.797869 126 255 122 0.034735
0.025214 -0.011018 0.800006 133 255 115 0.047135
0.029383 -0.018605 0.794316 36 255 211 0.025659
0.016255 -0.021517 0.786795 0 208 255 0.021819
0.013609 -0.022228 0.785128 0 208 255 0.021196
0.012533 -0.018952 0.786914 36 255 211 0.023794
0.010978 -0.022876 0.783488 0 208 255 0.022092
0.009878 -0.019670 0.785266 0 208 255 0.021455
0.007309 -0.020262 0.783565 36 255 211 0.023729
0.008390 -0.023471 0.781872 0 208 255 0.021845
0.008773 -0.016723 0.787123 126 255 122 0.031973
0.006176 -0.017377 0.785421 90 255 157 0.030626
0.004969 -0.014788 0.787447 133 255 115 0.048961
0.007496 -0.014300 0.789036 133 255 115 0.049852
0.011360 -0.016144 0.788688 126 255 122 0.034146
0.010059 -0.013777 0.790632 133 255 115 0.047915
0.013967 -0.015546 0.790237 128 255 120 0.037518
0.015170 -0.018322 0.788430 36 255 211 0.027187
0.012625 -0.013260 0.792233 133 255 115 0.048581
-0.001006 -0.009801 0.799169 0 0 204 0.005592
0.001341 -0.009632 0.800743 0 0 204 0.004224
0.003000 -0.010442 0.797848 0 0 204 0.006154
0.005435 -0.010177 0.799391 0 0 204 0.006481
0.003743 -0.009445 0.802347 0 0 128 0.002837
0.007092 -0.011054 0.796487 0 74 255 0.014458
0.007867 -0.009911 0.800918 0 0 204 0.006095
0.009536 -0.010723 0.797977 0 74 255 0.013993
0.011959 -0.010389 0.799427 0 74 255 0.014056
0.006168 -0.009198 0.803897 0 0 128 0.003597
0.010256 -0.009598 0.802398 0 0 204 0.006012
0.008511 -0.009005 0.805444 0 0 128 0.003219
0.011138 -0.011779 0.795175 90 255 157 0.028058
0.013562 -0.011393 0.796599 90 255 157 0.028160
0.008639 -0.012199 0.793484 90 255 157 0.030282
0.006117 -0.012657 0.791823 90 255 157 0.029116
0.004611 -0.011391 0.794762 0 74 255 0.014881
0.002161 -0.011703 0.793023 0 141 255 0.018382
0.003617 -0.013060 0.790171 126 255 122 0.032056
0.000588 -0.010666 0.796038 0 7 255 0.008076
0.010882 -0.008759 0.806944 0 0 128 0.003698
0.012643 -0.009319 0.804044 0 0 204 0.005469
0.015091 -0.009029 0.805543 0 0 204 0.006803
0.013279 -0.008539 0.808478 0 0 128 0.003769
0.016882 -0.009682 0.802619 0 74 255 0.014014
0.017538 -0.008741 0.807047 0 0 204 0.007221
0.019350 -0.009324 0.804056 0 74 255 0.015334
0.021813 -0.008983 0.805522 0 141 255 0.016290
0.015697 -0.008361 0.810058 0 0 128 0.003251
0.019974 -0.008471 0.808573 0 0 204 0.007323
0.021072 -0.010214 0.801267 36 255 211 0.027080
0.023537 -0.009842 0.802685 90 255 157 0.028559
0.018582 -0.010591 0.799705 90 255 157 0.027677
0.016083 -0.010979 0.798155 90 255 157 0.028012
0.014402 -0.010034 0.801016 0 74 255 0.013919
-0.009503 -0.002546 0.822051 0 0 128 0.001145
-0.007107 -0.002439 0.823387 0 0 128 0.001213
