ply
format ascii 1.0
comment VCGLIB generated
element vertex 1027
property float x
property float y
property float z
property uchar red
property uchar green
property uchar blue
property float quality
end_header
-0.008039 -0.087359 0.928934 0 74 255 0.013917
-0.009713 -0.079499 0.931512 0 0 204 0.006602
-0.007107 -0.083376 0.930987 0 7 255 0.008586
-0.008709 -0.075575 0.933510 0 7 255 0.008331
-0.012220 -0.075576 0.931934 0 0 204 0.006993
0.016964 0.005171 0.858168 0 0 128 0.002350
0.015584 0.005272 0.860769 0 0 128 0.001462
0.018461 0.005309 0.862216 0 0 128 0.001646
0.017061 0.005420 0.864822 0 0 128 0.001944
0.014187 0.005387 0.863367 0 0 128 0.001854
0.019936 0.005425 0.866292 0 0 128 0.001931
0.015658 0.005535 0.867430 0 0 128 0.003292
0.018532 0.005531 0.868902 0 0 128 0.003163
0.017131 0.005641 0.871514 0 0 204 0.006775
0.012791 0.005508 0.865964 0 0 128 0.003119
0.014260 0.005642 0.870032 0 0 204 0.006093
0.011394 0.005618 0.868555 0 0 204 0.005600
0.021394 0.005520 0.870383 0 0 128 0.003009
0.019992 0.005625 0.873009 0 0 204 0.006363
0.022847 0.005588 0.874507 0 0 204 0.005525
0.024368 0.005497 0.871950 0 0 128 0.002717
0.022917 0.005426 0.867840 0 0 128 0.001924
0.025893 0.005407 0.869403 0 0 128 0.001794
0.024442 0.005332 0.865297 0 0 128 0.001827
0.021455 0.005333 0.863750 0 0 128 0.001792
0.022976 0.005242 0.861208 0 0 128 0.003160
0.027419 0.005307 0.866846 0 0 128 0.001654
0.025966 0.005245 0.862744 0 0 128 0.003228
0.028953 0.005214 0.864281 0 0 128 0.002908
0.019969 0.005222 0.859683 0 0 128 0.002888
0.009903 0.005217 0.871240 0 0 128 0.003211
0.012624 0.005249 0.872629 0 0 128 0.003706
0.011124 0.004786 0.875307 0 0 128 0.003345
0.008397 0.004755 0.873922 0 0 128 0.003213
0.013852 0.004800 0.876702 0 0 128 0.003662
0.009613 0.004248 0.877988 0 0 204 0.003925
0.012351 0.004261 0.879387 0 0 204 0.004443
0.010841 0.003635 0.882054 0 0 204 0.005179
0.006877 0.004219 0.876613 0 0 128 0.003225
0.008099 0.003644 0.880674 0 0 204 0.004705
0.005354 0.003643 0.879296 0 0 128 0.003499
0.015083 0.004256 0.880780 0 0 204 0.004927
0.013582 0.003619 0.883445 0 0 204 0.005227
0.016318 0.003596 0.884835 0 0 204 0.005547
0.017958 0.004229 0.882272 0 0 204 0.004686
0.016725 0.004799 0.878201 0 0 204 0.004146
0.019585 0.004766 0.879702 0 0 204 0.004100
0.018355 0.005240 0.875608 0 0 204 0.004705
0.015496 0.005254 0.874108 0 0 204 0.004878
0.021210 0.005203 0.877111 0 0 204 0.005074
0.026270 0.004379 0.886856 0 0 204 0.006245
0.028076 0.004880 0.884380 0 0 204 0.006205
0.025129 0.004880 0.882767 0 0 204 0.006507
0.029899 0.005307 0.881860 0 0 204 0.005245
0.026941 0.005309 0.880261 0 0 204 0.005544
0.028786 0.005681 0.877725 0 0 204 0.006663
0.031733 0.005680 0.879335 0 0 204 0.006169
0.023984 0.005276 0.878648 0 0 204 0.005741
0.025822 0.005643 0.876111 0 0 204 0.006166
0.022364 0.004836 0.881237 0 0 204 0.004765
0.020744 0.004307 0.883800 0 0 204 0.005753
0.023514 0.004356 0.885327 0 0 204 0.006334
0.021905 0.003724 0.887873 0 7 255 0.008227
0.019123 0.003671 0.886355 0 0 204 0.007373
0.024663 0.003749 0.889388 0 7 255 0.008198
0.033252 0.005598 0.876774 0 0 128 0.003625
0.034941 0.005482 0.874276 0 0 128 0.002473
0.031835 0.005490 0.872596 0 0 128 0.002335
0.036619 0.005357 0.871785 0 0 128 0.002511
0.033516 0.005382 0.870108 0 0 128 0.002424
0.035204 0.005261 0.867616 0 0 204 0.004056
0.038306 0.005219 0.869293 0 0 204 0.004036
0.030402 0.005363 0.868436 0 0 128 0.002091
0.032088 0.005260 0.865949 0 0 128 0.003665
0.028871 0.005464 0.870997 0 0 128 0.002075
0.027342 0.005572 0.873572 0 0 128 0.003285
0.030308 0.005603 0.875178 0 0 128 0.003577
0.025509 0.002535 0.893318 0 0 128 0.003041
0.028115 0.002699 0.894862 0 0 204 0.004164
0.026208 0.001406 0.897270 0 0 128 0.001125
0.023591 0.001256 0.895740 0 0 128 0.000865
0.028801 0.001537 0.898795 0 0 128 0.002393
0.024283 0.000101 0.899707 0 0 128 0.000469
0.026886 0.000219 0.901212 0 0 128 0.000719
0.024956 -0.001074 0.903662 0 0 128 0.000930
0.021650 -0.000035 0.898199 0 0 128 0.000618
0.022320 -0.001171 0.902186 0 0 128 0.000649
0.019671 -0.001268 0.900709 0 0 128 0.000478
0.029478 0.000334 0.902712 0 0 128 0.001251
0.027561 -0.000995 0.905140 0 0 128 0.001193
0.030151 -0.000940 0.906631 0 0 128 0.001302
0.032289 0.000358 0.904256 0 0 128 0.001213
0.031621 0.001620 0.900351 0 0 128 0.002824
0.034434 0.001630 0.901908 0 0 128 0.003151
0.033755 0.002829 0.898005 0 0 204 0.005493
0.030940 0.002795 0.896442 0 0 204 0.005352
0.036556 0.002814 0.899563 0 0 204 0.005202
0.017629 -0.002966 0.903279 0 0 128 0.000817
0.020048 -0.002900 0.904708 0 0 128 0.000462
0.018005 -0.004487 0.907286 0 0 128 0.000673
0.015562 -0.004512 0.905892 0 0 128 0.000863
0.020423 -0.004477 0.908694 0 0 128 0.000540
0.015911 -0.005986 0.909927 0 0 128 0.000865
0.018311 -0.005991 0.911348 0 0 128 0.001021
0.016255 -0.007518 0.913945 0 0 128 0.002883
0.013479 -0.006005 0.908538 0 0 128 0.000714
0.013818 -0.007496 0.912565 0 0 128 0.002655
0.011402 -0.007485 0.911153 0 0 128 0.002049
0.020730 -0.006010 0.912741 0 0 128 0.000950
0.018672 -0.007558 0.915342 0 0 128 0.002726
0.021089 -0.007554 0.916726 0 0 128 0.002758
0.023389 -0.006057 0.914156 0 0 128 0.000757
0.023059 -0.004466 0.910134 0 0 128 0.000577
0.025679 -0.004460 0.911588 0 0 128 0.000712
0.025329 -0.002807 0.907605 0 0 128 0.000349
0.022691 -0.002853 0.906162 0 0 128 0.000411
0.027936 -0.002776 0.909068 0 0 128 0.000334
0.030569 -0.005998 0.918678 0 0 128 0.000751
0.033121 -0.004386 0.916159 0 0 128 0.000448
0.030449 -0.004440 0.914628 0 0 128 0.000471
0.035612 -0.002634 0.913739 0 0 128 0.000366
0.032963 -0.002664 0.912167 0 0 128 0.000228
0.035439 -0.000812 0.909795 0 0 128 0.002693
0.038075 -0.000808 0.911384 0 0 128 0.003449
0.030308 -0.002726 0.910607 0 0 128 0.000190
0.032806 -0.000861 0.908215 0 0 128 0.002018
0.028067 -0.004444 0.913118 0 0 128 0.000549
0.025818 -0.006045 0.915647 0 0 128 0.000739
0.028195 -0.006030 0.917175 0 0 128 0.000734
0.025916 -0.007526 0.919732 0 0 128 0.003337
0.023500 -0.007520 0.918248 0 0 128 0.003556
0.028327 -0.007548 0.921188 0 0 128 0.002625
0.040211 0.000452 0.909016 0 0 204 0.004320
0.042626 0.001581 0.906693 0 0 204 0.004871
0.039712 0.001690 0.905079 0 0 204 0.005044
0.045036 0.002605 0.904377 0 0 204 0.006383
0.042123 0.002751 0.902765 0 0 204 0.006286
0.039205 0.002838 0.901145 0 0 204 0.006357
0.037082 0.001683 0.903493 0 0 204 0.004147
0.034941 0.000425 0.905842 0 0 128 0.002348
0.037580 0.000461 0.907423 0 0 128 0.002781
0.065785 0.003193 0.881637 0 0 128 0.002619
0.067426 0.002530 0.879424 0 0 128 0.001476
0.063850 0.002885 0.877407 0 0 128 0.001937
0.069061 0.001877 0.877210 0 0 128 0.000828
0.065473 0.002204 0.875172 0 0 128 0.001003
0.067093 0.001548 0.872940 0 0 128 0.000669
0.070709 0.001239 0.874999 0 0 128 0.000558
0.062036 0.002545 0.873214 0 0 128 0.001524
0.063639 0.001869 0.870964 0 0 128 0.001059
0.060280 0.002162 0.869041 0 0 128 0.001376
0.058751 0.002782 0.871311 0 0 128 0.001343
0.060504 0.003171 0.875486 0 0 128 0.002012
0.057225 0.003419 0.873588 0 0 128 0.001965
0.058976 0.003790 0.877752 0 0 128 0.003168
0.062320 0.003504 0.879662 0 0 128 0.002960
0.055696 0.004041 0.875863 0 0 128 0.003068
0.072000 0.000401 0.872766 0 0 128 0.001077
0.073322 -0.000361 0.870501 0 0 128 0.002540
0.069668 -0.000100 0.868484 0 0 128 0.001277
0.074675 -0.001011 0.868224 0 0 128 0.003310
0.071002 -0.000804 0.866208 0 0 128 0.002318
0.072352 -0.001376 0.863916 0 0 128 0.002568
0.076015 -0.001538 0.865935 0 0 128 0.003125
0.067522 -0.000522 0.864270 0 0 128 0.001038
0.068864 -0.001142 0.861990 0 0 128 0.001605
0.065449 -0.000912 0.860113 0 0 128 0.000918
0.064149 -0.000280 0.862353 0 0 128 0.000639
0.066215 0.000175 0.866505 0 0 128 0.000620
0.062853 0.000449 0.864582 0 0 128 0.000307
0.064925 0.000988 0.868732 0 0 128 0.000212
0.068382 0.000675 0.870712 0 0 128 0.000505
0.061564 0.001269 0.866809 0 0 128 0.000210
0.052243 -0.000117 0.852797 0 0 128 0.000288
0.050985 0.000571 0.855014 0 0 128 0.000137
0.054279 0.000430 0.856864 0 0 128 0.000174
0.053034 0.001185 0.859068 0 0 128 0.000223
0.049741 0.001334 0.857216 0 0 128 0.000251
0.056296 0.000987 0.860916 0 0 128 0.000175
0.051778 0.002007 0.861277 0 0 128 0.000788
0.055047 0.001802 0.863124 0 0 128 0.000596
0.053802 0.002665 0.865335 0 0 128 0.002304
0.048487 0.002155 0.859418 0 0 128 0.000850
0.050530 0.002852 0.863476 0 0 128 0.002525
0.047235 0.003002 0.861621 0 0 128 0.002557
0.058298 0.001569 0.864977 0 0 128 0.000424
0.057048 0.002438 0.867197 0 0 128 0.001929
0.059584 0.000731 0.862752 0 0 128 0.000180
0.060873 -0.000017 0.860530 0 0 128 0.000366
0.057580 0.000225 0.858699 0 0 128 0.000236
0.058886 -0.000452 0.856465 0 0 128 0.000499
0.062169 -0.000669 0.858291 0 0 128 0.000626
0.055574 -0.000269 0.854634 0 0 128 0.000389
0.045787 0.003537 0.863923 0 0 128 0.001906
0.048996 0.003450 0.865744 0 0 128 0.002232
0.047543 0.004009 0.868075 0 0 128 0.002370
0.044326 0.004078 0.866257 0 0 128 0.002007
0.050733 0.003885 0.869892 0 0 128 0.002546
0.046076 0.004558 0.870422 0 0 128 0.002972
0.049280 0.004458 0.872233 0 0 128 0.003372
0.042854 0.004611 0.868615 0 0 128 0.002459
0.052457 0.004293 0.874028 0 0 128 0.003439
0.053988 0.003680 0.871741 0 0 128 0.002364
0.055520 0.003058 0.869464 0 0 128 0.001843
0.052271 0.003277 0.867602 0 0 128 0.002101
0.006818 -0.109657 0.910479 0 74 255 0.011742
0.007075 -0.107562 0.914270 0 7 255 0.009319
0.010582 -0.109674 0.912305 0 7 255 0.010052
0.007363 -0.105320 0.917959 0 7 255 0.008070
0.010838 -0.107544 0.916089 0 7 255 0.007872
0.011137 -0.105278 0.919730 0 7 255 0.007976
0.014358 -0.109757 0.914185 0 7 255 0.009177
0.007676 -0.102930 0.921566 0 7 255 0.008745
0.007978 -0.100461 0.925133 0 7 255 0.009700
0.004231 -0.100373 0.923439 0 74 255 0.012892
0.003935 -0.102852 0.919871 0 74 255 0.011880
0.003644 -0.105213 0.916283 0 7 255 0.010949
0.000527 -0.100322 0.921828 0 74 255 0.015618
0.016378 -0.110051 0.915228 0 7 255 0.009553
0.014688 -0.107896 0.917998 0 0 204 0.006779
0.016706 -0.108193 0.919030 0 0 204 0.006481
0.018399 -0.110350 0.916308 0 7 255 0.010515
0.015037 -0.105939 0.921742 0 0 204 0.005602
0.018738 -0.108447 0.920096 0 0 204 0.005439
0.017075 -0.106168 0.922773 0 0 204 0.005072
0.020419 -0.110666 0.917388 0 7 255 0.008925
0.015431 -0.103815 0.925443 0 0 204 0.006021
0.011875 -0.101043 0.927115 0 7 255 0.010630
0.011502 -0.103212 0.923445 0 0 204 0.007761
0.007718 -0.091554 0.933579 0 0 204 0.007162
0.009016 -0.094789 0.931477 0 0 204 0.007186
0.005281 -0.094129 0.929515 0 7 255 0.008951
0.003996 -0.090915 0.931637 0 7 255 0.010231
0.008468 -0.097668 0.928331 0 7 255 0.008214
0.000322 -0.090799 0.929966 0 74 255 0.011850
0.001570 -0.094090 0.927844 0 7 255 0.010431
-0.002026 -0.093911 0.926219 0 7 255 0.011280
-0.003284 -0.090606 0.928351 0 7 255 0.010157
0.001033 -0.097228 0.924862 0 7 255 0.010583
0.004737 -0.097282 0.926497 0 7 255 0.009044
0.020580 -0.117207 0.884479 0 141 255 0.017270
0.020838 -0.116389 0.888650 0 74 255 0.014912
0.024468 -0.117116 0.886586 0 74 255 0.015354
0.021032 -0.115809 0.892930 0 7 255 0.010227
0.024669 -0.116491 0.890801 0 7 255 0.009853
0.024816 -0.116014 0.895100 0 7 255 0.008526
0.028310 -0.117375 0.888764 0 7 255 0.010643
0.021181 -0.115274 0.897233 0 0 204 0.005719
0.021246 -0.114832 0.901602 0 0 204 0.005447
0.017452 -0.114641 0.899544 0 0 204 0.006031
0.017321 -0.115176 0.895190 0 7 255 0.009275
0.017151 -0.115759 0.890892 0 74 255 0.014934
0.013626 -0.114552 0.897500 0 0 204 0.007447
0.030390 -0.117733 0.890006 0 0 204 0.007092
0.028640 -0.117090 0.893131 0 0 204 0.006592
0.030696 -0.117488 0.894391 0 0 128 0.003828
0.032470 -0.118156 0.891288 0 0 204 0.004424
0.028890 -0.116947 0.897567 0 0 128 0.003260
0.032745 -0.118007 0.895689 0 0 128 0.003668
0.030967 -0.117361 0.898842 0 0 128 0.002566
0.034503 -0.118718 0.892576 0 0 128 0.003148
0.029146 -0.116776 0.902037 0 0 128 0.002955
0.027349 -0.116082 0.905260 0 0 204 0.004994
0.027116 -0.116279 0.900782 0 0 128 0.003340
0.025315 -0.115648 0.904030 0 0 204 0.005463
0.025073 -0.115835 0.899548 0 0 204 0.004648
0.026862 -0.116454 0.896328 0 0 204 0.005124
0.023279 -0.115237 0.902823 0 0 204 0.005245
0.022119 -0.112234 0.914361 0 0 204 0.006340
0.020071 -0.111891 0.913235 0 7 255 0.007985
0.021784 -0.113342 0.910179 0 0 204 0.005879
0.018068 -0.111574 0.912168 0 0 204 0.007654
0.019784 -0.112909 0.909050 0 0 204 0.005903
0.017802 -0.112531 0.907941 0 0 204 0.006618
0.016070 -0.111211 0.911076 0 0 204 0.007351
0.021533 -0.114135 0.905890 0 0 204 0.005673
0.019506 -0.113765 0.904790 0 0 204 0.006101
0.023546 -0.114531 0.907082 0 0 204 0.005273
0.025592 -0.114910 0.908308 0 0 204 0.004283
0.023849 -0.113646 0.911357 0 0 204 0.004937
0.012293 -0.111118 0.909109 0 7 255 0.008368
0.014036 -0.112439 0.905904 0 0 204 0.007005
0.010208 -0.112353 0.904030 0 7 255 0.009179
0.008510 -0.111068 0.907271 0 7 255 0.010551
0.013818 -0.113574 0.901718 0 7 255 0.008069
0.009429 -0.009528 0.913704 0 0 128 0.000754
0.011627 -0.009591 0.915060 0 0 128 0.000816
0.009662 -0.011556 0.917608 0 0 128 0.000901
0.007449 -0.011471 0.916272 0 0 128 0.000967
0.011847 -0.011650 0.918946 0 0 128 0.000853
0.007679 -0.013511 0.920167 0 0 128 0.003213
0.009893 -0.013583 0.921488 0 0 128 0.002989
0.007944 -0.015531 0.923991 0 7 255 0.009764
0.005505 -0.013449 0.918797 0 0 128 0.003289
0.005738 -0.015472 0.922667 0 7 255 0.010763
0.003558 -0.015407 0.921314 0 7 255 0.009716
0.012106 -0.013707 0.922796 0 0 128 0.002447
0.010127 -0.015627 0.925323 0 7 255 0.009411
0.012316 -0.015747 0.926635 0 0 204 0.007090
0.014520 -0.013783 0.924164 0 0 128 0.002033
0.014280 -0.011709 0.920324 0 0 128 0.000821
0.016711 -0.011761 0.921693 0 0 128 0.000902
0.016474 -0.009667 0.917842 0 0 128 0.000941
0.014057 -0.009620 0.916439 0 0 128 0.000910
0.018918 -0.009717 0.919205 0 0 128 0.000885
0.001866 -0.018073 0.923504 0 7 255 0.007935
0.002255 -0.020891 0.926863 0 7 255 0.009691
0.000756 -0.023738 0.928790 0 141 255 0.018988
0.001249 -0.026642 0.931944 126 255 122 0.031344
-0.002588 -0.026625 0.929267 36 255 211 0.025189
0.004649 -0.023815 0.931422 0 208 255 0.021394
0.005088 -0.026692 0.934611 126 255 122 0.033018
0.006765 -0.023809 0.932802 0 74 255 0.014933
0.006385 -0.020982 0.929522 0 7 255 0.009275
0.008545 -0.021026 0.930852 0 0 204 0.007570
0.008234 -0.018264 0.927469 0 0 204 0.007101
0.006052 -0.018189 0.926139 0 7 255 0.007885
0.010423 -0.018369 0.928780 0 0 204 0.005854
0.012649 -0.024187 0.936881 0 74 255 0.012483
0.014698 -0.021423 0.934927 0 0 204 0.004950
0.012533 -0.021350 0.933532 0 0 204 0.006545
0.016756 -0.018704 0.932911 0 0 204 0.003920
0.014606 -0.018631 0.931517 0 0 204 0.004509
0.016686 -0.015933 0.929435 0 0 204 0.006676
0.018894 -0.016034 0.930810 0 0 204 0.005569
0.014504 -0.015832 0.928035 0 0 204 0.007404
0.008938 -0.026848 0.937402 126 255 122 0.032584
0.021057 -0.014001 0.928408 0 0 128 0.002312
0.023472 -0.011873 0.926046 0 0 128 0.001062
0.021087 -0.011903 0.924532 0 0 128 0.001097
0.025871 -0.009706 0.923661 0 0 128 0.001089
0.023499 -0.009743 0.922150 0 0 128 0.001058
0.021097 -0.009776 0.920646 0 0 128 0.000960
0.018898 -0.011852 0.923117 0 0 128 0.001039
0.016705 -0.013880 0.925578 0 0 128 0.002047
0.018908 -0.013950 0.926977 0 0 128 0.002119
-0.003578 -0.030164 0.930546 0 74 255 0.012204
-0.002707 -0.033804 0.933019 0 74 255 0.011742
-0.003661 -0.037341 0.934220 0 7 255 0.009353
-0.002840 -0.040924 0.936669 0 7 255 0.011276
-0.006480 -0.040789 0.934261 0 7 255 0.010512
-0.000050 -0.037484 0.936716 0 7 255 0.010091
0.000735 -0.041029 0.939155 0 7 255 0.011505
0.001000 -0.033860 0.935606 0 74 255 0.013767
0.002060 -0.030229 0.934484 0 141 255 0.019078
-0.006975 -0.044589 0.934887 0 7 255 0.009171
-0.005649 -0.048470 0.936598 0 74 255 0.011960
-0.006192 -0.052219 0.937181 0 74 255 0.012557
-0.002611 -0.052434 0.939372 0 74 255 0.013063
-0.002047 -0.048659 0.938856 0 74 255 0.012477
-0.001538 -0.044824 0.938359 0 7 255 0.009391
0.004215 -0.053118 0.944505 0 74 255 0.014703
0.003100 -0.049067 0.942707 0 7 255 0.010961
0.005363 -0.045246 0.943735 0 7 255 0.010576
0.004208 -0.041227 0.941950 0 141 255 0.015752
0.001988 -0.045071 0.940903 0 7 255 0.009923
0.000820 -0.052681 0.941871 0 74 255 0.014311
0.007046 -0.037793 0.942248 0 141 255 0.016892
0.006429 -0.034141 0.939701 0 74 255 0.014811
0.009535 -0.030529 0.940016 36 255 211 0.023693
0.005760 -0.030420 0.937177 0 208 255 0.022726
0.003555 -0.037565 0.939442 0 74 255 0.012267
0.097658 -0.136551 0.932391 0 7 255 0.008315
0.099733 -0.135122 0.935501 0 7 255 0.008977
0.102867 -0.134159 0.936832 0 7 255 0.008752
0.105061 -0.132894 0.940060 0 7 255 0.011335
0.106983 -0.133686 0.936363 0 7 255 0.009319
0.100939 -0.133374 0.940541 0 0 204 0.006646
0.103157 -0.132073 0.943775 0 7 255 0.009700
0.099538 -0.132867 0.942979 0 0 204 0.005265
0.097379 -0.134244 0.939813 0 0 204 0.005476
0.095974 -0.133742 0.942262 0 0 204 0.004049
0.093860 -0.135216 0.939151 0 0 204 0.004629
0.095269 -0.135699 0.936693 0 0 204 0.005685
0.092451 -0.134727 0.941613 0 0 204 0.004246
0.110081 -0.131751 0.937360 0 74 255 0.012314
0.112779 -0.129588 0.939632 0 141 255 0.016727
0.116020 -0.127724 0.940717 36 255 211 0.025600
0.118783 -0.125581 0.943030 90 255 157 0.029380
0.119746 -0.126150 0.940598 129 255 118 0.042762
0.115071 -0.127161 0.943161 0 208 255 0.021391
0.117877 -0.125001 0.945486 36 255 211 0.023709
0.111345 -0.128896 0.942697 0 74 255 0.014434
0.107692 -0.130652 0.942275 0 7 255 0.010380
0.117249 -0.123953 0.950841 0 7 255 0.010163
0.113117 -0.125620 0.950961 0 0 204 0.006845
0.109547 -0.127614 0.949143 0 0 204 0.006150
0.105513 -0.129312 0.949300 0 0 204 0.005849
0.102094 -0.131417 0.947610 0 74 255 0.012401
0.100992 -0.130737 0.951425 0 141 255 0.016596
0.106585 -0.129999 0.945464 0 0 204 0.006580
0.110237 -0.128211 0.945880 0 7 255 0.010987
0.113945 -0.126466 0.946336 0 74 255 0.015234
0.117562 -0.124474 0.948173 0 74 255 0.014711
0.096127 -0.131245 0.951733 0 0 128 0.003760
0.097911 -0.131866 0.948720 0 0 204 0.006218
0.093101 -0.132479 0.949111 0 0 128 0.003140
0.091316 -0.131865 0.952140 0 0 204 0.005072
0.094875 -0.133073 0.946075 0 0 128 0.003554
0.088338 -0.133222 0.949603 0 7 255 0.009241
0.090116 -0.133809 0.946556 0 0 204 0.004873
0.086560 -0.132620 0.952645 0 141 255 0.017767
0.120377 -0.121450 0.949630 128 255 120 0.035889
0.120667 -0.121980 0.946934 133 255 115 0.047787
0.121568 -0.122697 0.943530 143 255 105 0.071405
0.122515 -0.123270 0.941086 146 255 102 0.080713
0.113604 -0.124649 0.954246 0 0 204 0.004792
0.117675 -0.123136 0.953582 0 0 204 0.007319
0.109577 -0.126171 0.954903 0 0 204 0.005203
0.110011 -0.125341 0.957661 0 0 204 0.006418
0.114046 -0.123828 0.956997 0 0 204 0.004706
0.118092 -0.122311 0.956326 0 0 204 0.004552
0.105802 -0.127286 0.956969 0 7 255 0.007837
0.102081 -0.128440 0.959061 36 255 211 0.024962
0.101534 -0.129594 0.955234 0 141 255 0.019060
0.105237 -0.128429 0.953132 0 0 204 0.007104
0.115182 -0.122716 0.959966 0 7 255 0.007980
0.111444 -0.124037 0.961056 0 7 255 0.010348
0.112275 -0.123110 0.963599 0 141 255 0.015642
0.108146 -0.124924 0.963414 0 141 255 0.016079
0.104874 -0.125785 0.965772 126 255 122 0.031932
0.103478 -0.127120 0.962410 36 255 211 0.026871
0.106730 -0.126223 0.960031 0 7 255 0.010546
0.089943 -0.125464 0.971146 138 255 110 0.061180
0.092978 -0.126176 0.968119 0 208 255 0.020203
0.087995 -0.127180 0.967404 133 255 115 0.049265
0.096008 -0.126911 0.965097 0 7 255 0.008119
0.091007 -0.127851 0.964338 0 141 255 0.017340
0.094006 -0.128547 0.961268 0 7 255 0.008247
0.086051 -0.128933 0.963679 134 255 113 0.053510
0.099054 -0.127663 0.962080 0 7 255 0.008255
0.100418 -0.126313 0.965404 0 7 255 0.010741
0.097356 -0.125535 0.968391 0 74 255 0.012008
0.084983 -0.130047 0.961056 134 255 113 0.053776
0.089771 -0.129330 0.960584 0 141 255 0.017113
0.088702 -0.130410 0.957935 0 141 255 0.017253
0.083927 -0.131185 0.958436 136 255 112 0.055530
0.093505 -0.129769 0.957513 0 0 204 0.006416
0.087631 -0.131503 0.955289 0 141 255 0.016038
0.092409 -0.130806 0.954815 0 0 204 0.006753
0.082868 -0.132338 0.955824 136 255 112 0.056535
0.097233 -0.130246 0.954444 0 0 204 0.004445
0.097767 -0.129052 0.958252 0 0 204 0.006783
0.102780 -0.116707 0.983855 131 255 117 0.046280
0.104811 -0.117759 0.981554 131 255 117 0.043422
0.100617 -0.118102 0.982095 133 255 115 0.048051
0.102638 -0.119161 0.979757 128 255 120 0.037313
0.105747 -0.119540 0.978313 128 255 120 0.038235
0.098458 -0.119507 0.980335 134 255 113 0.050965
0.107772 -0.120625 0.975964 128 255 120 0.039007
0.079483 -0.101731 0.989399 0 0 204 0.005472
0.080436 -0.105754 0.987191 0 0 204 0.004522
0.076593 -0.103013 0.987591 0 7 255 0.008375
0.077524 -0.107053 0.985354 0 0 204 0.007231
0.081392 -0.109790 0.984963 0 7 255 0.011275
0.082335 -0.113829 0.982698 126 255 122 0.032645
0.084939 -0.112356 0.984568 0 208 255 0.022924
0.083995 -0.108299 0.986812 0 0 204 0.007767
0.083042 -0.104254 0.989033 0 0 204 0.005095
0.087526 -0.110894 0.986490 0 208 255 0.021693
0.073858 -0.104520 0.985552 0 7 255 0.009476
0.074986 -0.108724 0.983004 0 7 255 0.008306
0.070960 -0.105965 0.983343 0 74 255 0.012775
0.072099 -0.110171 0.980789 0 74 255 0.011900
0.076121 -0.112931 0.980430 0 74 255 0.014199
0.077260 -0.117130 0.977827 129 255 118 0.040428
0.079805 -0.115467 0.980249 126 255 122 0.033125
0.078666 -0.111252 0.982820 0 7 255 0.011664
0.088061 -0.122556 0.974065 36 255 211 0.024978
0.092031 -0.123918 0.973753 134 255 113 0.053823
0.086169 -0.119648 0.976969 0 74 255 0.014667
0.090146 -0.120975 0.976654 0 208 255 0.023413
0.088228 -0.118050 0.979512 0 74 255 0.012975
0.094118 -0.122384 0.976389 134 255 113 0.051453
0.084237 -0.116745 0.979826 0 74 255 0.014105
0.081714 -0.118351 0.977353 0 141 255 0.016520
0.083610 -0.121232 0.974441 0 141 255 0.017263
0.092501 -0.119497 0.978950 0 208 255 0.020377
0.096291 -0.120940 0.978350 133 255 115 0.048822
0.090848 -0.116631 0.981481 0 7 255 0.010195
0.094645 -0.118043 0.980892 0 208 255 0.020594
0.092989 -0.115161 0.983402 0 74 255 0.014578
0.089208 -0.113751 0.984001 0 7 255 0.011455
0.086593 -0.115200 0.982052 0 74 255 0.011991
0.100800 -0.120451 0.977925 129 255 118 0.039371
0.103138 -0.121428 0.975510 126 255 122 0.034991
0.098609 -0.121874 0.975927 126 255 122 0.031630
0.100940 -0.122791 0.973495 36 255 211 0.027108
0.105489 -0.122388 0.973092 90 255 157 0.029748
0.107828 -0.123341 0.970659 131 255 117 0.043663
0.109362 -0.122184 0.972572 131 255 117 0.046490
0.096805 -0.123211 0.973740 36 255 211 0.027285
0.099499 -0.124054 0.971086 0 141 255 0.017240
0.094696 -0.124714 0.971073 0 208 255 0.020075
0.102189 -0.124914 0.968435 0 141 255 0.017488
0.106355 -0.124581 0.968205 128 255 120 0.038738
0.103642 -0.123676 0.970852 36 255 211 0.026195
0.113771 -0.121902 0.966041 0 141 255 0.018689
0.110786 -0.122604 0.968357 0 208 255 0.022598
0.109304 -0.123824 0.965906 0 141 255 0.017902
0.060335 -0.111961 0.972463 0 7 255 0.008770
0.063032 -0.115629 0.970245 0 0 128 0.003557
0.064407 -0.114911 0.971925 0 0 128 0.003844
0.065756 -0.119239 0.968032 0 0 204 0.007203
0.067128 -0.118567 0.969806 0 0 204 0.007696
0.069834 -0.122176 0.967623 0 141 255 0.017138
0.068479 -0.122867 0.965888 0 141 255 0.018077
0.068500 -0.117895 0.971559 0 7 255 0.009913
0.071196 -0.121533 0.969414 36 255 211 0.024287
0.072558 -0.120910 0.971203 126 255 122 0.032386
0.067110 -0.113771 0.974903 0 0 204 0.007123
0.063041 -0.110749 0.975309 0 7 255 0.010372
0.071913 -0.124744 0.963909 0 0 204 0.005625
0.075588 -0.127246 0.961191 0 0 128 0.003647
0.076636 -0.126013 0.963740 0 0 204 0.004740
0.079242 -0.129779 0.958502 0 141 255 0.016400
0.080304 -0.128582 0.961082 0 74 255 0.014927
0.081354 -0.127407 0.963672 0 74 255 0.014505
0.082725 -0.126878 0.965544 0 208 255 0.021491
0.077997 -0.125431 0.965570 0 0 204 0.006503
0.079360 -0.124862 0.967409 0 7 255 0.009739
0.074600 -0.123468 0.967472 0 7 255 0.008935
0.073246 -0.124097 0.965679 0 0 204 0.006775
0.075963 -0.122879 0.969293 0 74 255 0.012090
0.085626 -0.124187 0.971061 0 208 255 0.021416
0.081273 -0.123010 0.971035 0 74 255 0.012013
0.079277 -0.120078 0.974456 0 141 255 0.016635
0.074916 -0.118994 0.974516 126 255 122 0.031955
0.073392 -0.114431 0.977953 0 141 255 0.017712
0.069492 -0.111769 0.978104 0 7 255 0.010816
0.068200 -0.107507 0.980951 0 74 255 0.014999
0.065579 -0.109150 0.978312 0 74 255 0.015068
0.071016 -0.116355 0.974677 0 74 255 0.012572
0.097000 -0.116671 0.982732 36 255 211 0.027057
0.095522 -0.113828 0.985105 0 141 255 0.018795
0.099142 -0.115228 0.984484 90 255 157 0.028668
0.097661 -0.112354 0.986832 0 208 255 0.020549
0.094052 -0.110951 0.987463 0 141 255 0.016288
0.092570 -0.108113 0.989793 0 141 255 0.017022
0.090049 -0.109502 0.988122 0 141 255 0.017330
0.091504 -0.112329 0.985780 0 74 255 0.014715
0.101415 -0.113909 0.986161 128 255 120 0.037423
0.097486 -0.109014 0.989888 0 141 255 0.019524
0.094937 -0.106882 0.991329 0 141 255 0.018196
0.090040 -0.096920 0.995797 0 74 255 0.014068
0.090885 -0.100665 0.993822 0 74 255 0.012827
0.087481 -0.097979 0.994228 0 7 255 0.010423
0.088291 -0.101708 0.992234 0 7 255 0.009035
0.091731 -0.104395 0.991804 0 74 255 0.012868
0.094091 -0.103143 0.993338 0 141 255 0.017665
0.084947 -0.099223 0.992684 0 7 255 0.009523
0.085790 -0.103105 0.990642 0 0 204 0.007295
0.082183 -0.100397 0.991100 0 0 204 0.007054
0.086667 -0.106988 0.988577 0 7 255 0.009338
0.089171 -0.105603 0.990196 0 7 255 0.010484
-0.145018 -0.015634 0.862569 0 0 128 0.003024
-0.143292 -0.015105 0.864325 0 0 128 0.001794
-0.145853 -0.016103 0.865009 0 0 128 0.001653
-0.141596 -0.014551 0.866036 0 0 128 0.001436
-0.144140 -0.015501 0.866758 0 0 128 0.001586
-0.142454 -0.014934 0.868462 0 0 128 0.002195
-0.146676 -0.016413 0.867457 0 0 128 0.002568
-0.139937 -0.013941 0.867746 0 0 128 0.001948
-0.138325 -0.013318 0.869420 0 0 128 0.003796
-0.136993 -0.012449 0.866111 0 0 204 0.004971
-0.138638 -0.013090 0.864434 0 0 128 0.003454
-0.145041 -0.016122 0.870302 0 0 128 0.001294
-0.143222 -0.015594 0.871886 0 0 128 0.001186
-0.147360 -0.016966 0.871086 0 0 128 0.001866
-0.141464 -0.015029 0.873477 0 0 128 0.001423
-0.139154 -0.014054 0.872724 0 0 128 0.002556
-0.131533 -0.012454 0.876075 0 0 204 0.003979
-0.133191 -0.012734 0.874412 0 0 128 0.002175
-0.134846 -0.012971 0.872735 0 0 128 0.001936
-0.130471 -0.011649 0.873177 0 0 204 0.004955
-0.132160 -0.011915 0.871517 0 0 128 0.002983
-0.136573 -0.013159 0.871085 0 0 128 0.002252
-0.137436 -0.013868 0.874392 0 0 128 0.001864
-0.129087 -0.010719 0.870428 0 0 204 0.005969
-0.133287 -0.011836 0.868615 0 0 128 0.002890
-0.130654 -0.010933 0.868611 0 0 128 0.003095
-0.134388 -0.011659 0.865905 0 0 128 0.003165
-0.095437 -0.032304 0.894071 144 255 103 0.075146
-0.094917 -0.035454 0.896129 168 255 80 0.132667
-0.094455 -0.038813 0.898329 180 255 68 0.157629
-0.097516 -0.032526 0.894845 154 255 93 0.098846
-0.094103 -0.042405 0.900590 186 255 62 0.174732
-0.093918 -0.046129 0.902859 185 255 63 0.168854
-0.097230 -0.035529 0.896989 173 255 75 0.143436
-0.096543 -0.038759 0.899094 178 255 70 0.154014
-0.096250 -0.059324 0.907993 183 255 65 0.165923
-0.095478 -0.056070 0.906855 193 255 55 0.187658
-0.094867 -0.052794 0.905650 191 255 57 0.186447
-0.094341 -0.049493 0.904318 195 255 53 0.191493
-0.094471 -0.060501 0.907568 166 255 82 0.125058
-0.093498 -0.057083 0.906441 174 255 73 0.144646
-0.092666 -0.053628 0.905222 178 255 70 0.153178
-0.091962 -0.050171 0.903909 185 255 63 0.170886
-0.095755 -0.045451 0.903554 195 255 53 0.193955
-0.096257 -0.048534 0.905131 210 255 38 0.230351
-0.096336 -0.042138 0.901468 186 255 62 0.175148
-0.099790 -0.032540 0.896041 171 255 77 0.139255
-0.099255 -0.035333 0.898075 178 255 70 0.153384
-0.101597 -0.032129 0.897507 174 255 73 0.147874
-0.098777 -0.038091 0.900574 195 255 53 0.191643
-0.097845 -0.041142 0.902676 190 255 58 0.183183
-0.096836 -0.051334 0.907023 206 255 42 0.220786
-0.097043 -0.054499 0.908185 186 255 62 0.175029
-0.097360 -0.057612 0.909241 174 255 73 0.148419
-0.094734 -0.064288 0.907635 161 255 87 0.116680
-0.096673 -0.067258 0.907686 154 255 93 0.099078
-0.098647 -0.070192 0.907717 153 255 95 0.094934
-0.100657 -0.073028 0.907649 134 255 113 0.054417
-0.099111 -0.074654 0.907334 90 255 157 0.029574
-0.097143 -0.071805 0.907395 128 255 120 0.036277
-0.096586 -0.063095 0.907825 164 255 83 0.123936
-0.098641 -0.065699 0.908117 169 255 78 0.136504
-0.100412 -0.068470 0.908208 159 255 88 0.111126
-0.109819 -0.080890 0.905102 0 141 255 0.017651
-0.107614 -0.078974 0.905698 90 255 157 0.027848
-0.105352 -0.076996 0.906331 129 255 118 0.041993
-0.108564 -0.083036 0.904286 0 7 255 0.009620
-0.103019 -0.075047 0.907012 134 255 113 0.051500
-0.106144 -0.081113 0.904977 0 141 255 0.016365
-0.103641 -0.079168 0.905728 0 208 255 0.019824
-0.106882 -0.085366 0.903512 0 0 204 0.007294
-0.104496 -0.083421 0.904188 0 0 204 0.005487
-0.101111 -0.077184 0.906448 36 255 211 0.027075
-0.111105 -0.076804 0.907474 126 255 122 0.031969
-0.109074 -0.075103 0.907790 134 255 113 0.052259
-0.106998 -0.073362 0.908135 144 255 103 0.076001
-0.110661 -0.078797 0.906087 36 255 211 0.025154
-0.104797 -0.071679 0.908520 148 255 100 0.085184
-0.102652 -0.069886 0.908874 159 255 88 0.109391
-0.098255 -0.061557 0.908617 186 255 62 0.172180
-0.099964 -0.063443 0.909336 185 255 63 0.168728
-0.101401 -0.065952 0.909658 158 255 90 0.106750
-0.130619 -0.085214 0.900167 0 0 128 0.002477
-0.128020 -0.085004 0.900610 0 0 128 0.002788
-0.125450 -0.084812 0.901085 0 0 204 0.004045
-0.130392 -0.087379 0.898239 0 0 128 0.003032
-0.127798 -0.087173 0.898688 0 0 128 0.002069
-0.122843 -0.084645 0.901586 0 0 204 0.005069
-0.120211 -0.084516 0.902127 0 0 204 0.006265
-0.120752 -0.082030 0.904002 0 0 204 0.007628
-0.129884 -0.089529 0.896460 0 0 204 0.004081
-0.124792 -0.087532 0.899047 0 0 128 0.003037
-0.127115 -0.089220 0.897179 0 0 128 0.002781
-0.122035 -0.087277 0.899802 0 0 128 0.003446
-0.119243 -0.087047 0.900620 0 0 204 0.004182
-0.112448 -0.081780 0.904271 0 141 255 0.017241
-0.115056 -0.082677 0.903507 0 74 255 0.013370
-0.117657 -0.083582 0.902802 0 7 255 0.009109
-0.113210 -0.079619 0.905490 0 141 255 0.019348
-0.115762 -0.080393 0.904962 0 141 255 0.019155
-0.118277 -0.081195 0.904463 0 74 255 0.014800
-0.113921 -0.085194 0.902140 0 0 204 0.006922
-0.116593 -0.086109 0.901353 0 0 204 0.005080
-0.118220 -0.088964 0.899630 0 0 204 0.005757
-0.111250 -0.084108 0.903171 0 0 204 0.006788
-0.123993 -0.089653 0.897427 0 0 128 0.002358
-0.126147 -0.091328 0.895597 0 0 128 0.002877
-0.128702 -0.092318 0.894272 0 0 204 0.005832
-0.122921 -0.091584 0.896223 0 0 128 0.003124
-0.120749 -0.089950 0.898093 0 0 128 0.003422
-0.125193 -0.097280 0.890414 0 7 255 0.009351
-0.122703 -0.096212 0.892128 0 0 204 0.005709
-0.120877 -0.094299 0.894362 0 0 204 0.004086
-0.118384 -0.093279 0.896096 0 0 204 0.005030
-0.116560 -0.091380 0.898331 0 0 204 0.007625
-0.115243 -0.093151 0.897358 0 7 255 0.009982
-0.124750 -0.093552 0.894032 0 0 204 0.003941
-0.126582 -0.095516 0.891833 0 7 255 0.009205
-0.113017 -0.091374 0.898774 0 0 204 0.004110
-0.111381 -0.088852 0.900528 0 0 128 0.003480
-0.109135 -0.087105 0.901985 0 0 128 0.003822
-0.114919 -0.088813 0.900012 0 0 128 0.003625
-0.154812 -0.064256 0.905090 0 0 204 0.007243
-0.154934 -0.067089 0.902534 0 0 204 0.005631
-0.155107 -0.069983 0.899970 0 0 204 0.004803
-0.157366 -0.066758 0.900178 0 0 204 0.006260
-0.152705 -0.070329 0.902311 0 0 204 0.006604
-0.150680 -0.070475 0.904466 0 7 255 0.010562
-0.152739 -0.067340 0.904777 0 0 204 0.007681
-0.150735 -0.067513 0.906924 0 7 255 0.008716
-0.158885 -0.068352 0.897294 0 0 204 0.003998
-0.156051 -0.071660 0.897636 0 0 128 0.003374
-0.158440 -0.071118 0.895573 0 0 128 0.003249
-0.160898 -0.070597 0.893456 0 0 204 0.004958
-0.155626 -0.074456 0.895933 0 0 128 0.003765
-0.153415 -0.074895 0.897911 0 0 204 0.005218
-0.152485 -0.073226 0.900228 0 0 204 0.006940
-0.146041 -0.079098 0.900101 0 7 255 0.007896
-0.147237 -0.076507 0.901474 0 0 204 0.004734
-0.148466 -0.073959 0.902812 0 0 204 0.006900
-0.145194 -0.076412 0.903196 0 7 255 0.007813
-0.149468 -0.076570 0.899597 0 0 204 0.004272
-0.144440 -0.074529 0.905652 0 7 255 0.010576
-0.147155 -0.072060 0.905870 0 0 204 0.007172
-0.145097 -0.071802 0.907896 0 0 204 0.007752
-0.143080 -0.071577 0.909946 0 7 255 0.010863
-0.147818 -0.069347 0.908127 0 7 255 0.007967
-0.112926 -0.013840 0.879947 0 74 255 0.015552
-0.114703 -0.012957 0.878366 0 141 255 0.019049
-0.117105 -0.012373 0.877481 0 141 255 0.018900
-0.118865 -0.011409 0.875877 0 74 255 0.012786
-0.121291 -0.010698 0.874986 0 74 255 0.012248
-0.120715 -0.012310 0.877860 0 74 255 0.013597
-0.118983 -0.013189 0.879294 0 141 255 0.019284
-0.116597 -0.013744 0.880177 0 208 255 0.020039
-0.114817 -0.014485 0.881596 0 141 255 0.018581
-0.122038 -0.010050 0.872362 0 7 255 0.009009
-0.124550 -0.010459 0.871993 0 7 255 0.008577
-0.126543 -0.010423 0.870759 0 0 204 0.005050
-0.126278 -0.011449 0.874322 0 7 255 0.008333
-0.123785 -0.011107 0.874638 0 7 255 0.008841
-0.127412 -0.012244 0.877008 0 7 255 0.008496
-0.123364 -0.011868 0.877979 0 74 255 0.012757
-0.128897 -0.011988 0.875190 0 0 204 0.006889
-0.122545 -0.013120 0.880798 0 74 255 0.012884
-0.120359 -0.013719 0.881473 0 141 255 0.017186
-0.118643 -0.014439 0.882730 0 208 255 0.020605
-0.116859 -0.015129 0.883956 0 141 255 0.018627
-0.096939 -0.029202 0.891618 138 255 110 0.059494
-0.099041 -0.026435 0.889600 133 255 115 0.048465
-0.100410 -0.023623 0.887317 126 255 122 0.031485
-0.102358 -0.020900 0.885426 0 141 255 0.017247
-0.099159 -0.029542 0.892583 148 255 100 0.082190
-0.102455 -0.018206 0.882431 0 74 255 0.015267
-0.104652 -0.016214 0.880686 0 141 255 0.015830
-0.105927 -0.013737 0.878500 0 74 255 0.012355
-0.107976 -0.011512 0.876847 0 7 255 0.009581
-0.108417 -0.014837 0.879877 0 74 255 0.014236
-0.106977 -0.017110 0.881961 0 208 255 0.022157
-0.104726 -0.018998 0.883682 0 208 255 0.020250
-0.111389 -0.016053 0.881918 36 255 211 0.026372
-0.109138 -0.017944 0.883467 126 255 122 0.033732
-0.107378 -0.019934 0.885408 90 255 157 0.028210
-0.104934 -0.021715 0.886970 128 255 120 0.036210
-0.110555 -0.012746 0.878334 0 74 255 0.012267
-0.104506 -0.024636 0.889684 139 255 108 0.066226
-0.102350 -0.027124 0.891379 144 255 103 0.077401
-0.114777 -0.011176 0.875478 0 74 255 0.014525
-0.112255 -0.011789 0.876646 0 74 255 0.014464
-0.115733 -0.009625 0.873239 0 7 255 0.010475
-0.116713 -0.008025 0.871026 0 141 255 0.016147
-0.119223 -0.009517 0.872943 0 74 255 0.012733
-0.109651 -0.010399 0.875051 0 7 255 0.011007
-0.111329 -0.009245 0.873254 0 7 255 0.010901
-0.112151 -0.007509 0.870993 0 7 255 0.008888
-0.113033 -0.005735 0.868734 0 141 255 0.018325
-0.121153 -0.005797 0.862472 0 7 255 0.009888
-0.119981 -0.006447 0.864609 0 0 204 0.005960
-0.122987 -0.007023 0.863888 0 0 204 0.007573
-0.118864 -0.006997 0.866775 0 0 204 0.006893
-0.121852 -0.007571 0.866036 0 0 204 0.006724
-0.120738 -0.008137 0.868173 0 7 255 0.008155
-0.124836 -0.008101 0.865352 0 0 204 0.006871
-0.117768 -0.007550 0.868897 0 7 255 0.009231
-0.115055 -0.005771 0.867166 0 7 255 0.011085
-0.124399 -0.009127 0.868228 0 0 204 0.005557
-0.127218 -0.009494 0.867814 0 0 204 0.005355
-0.101371 -0.029830 0.893941 159 255 88 0.110587
-0.107105 -0.022215 0.888540 136 255 112 0.055346
-0.104403 -0.027191 0.892779 161 255 87 0.114355
-0.113740 -0.016796 0.883983 90 255 157 0.029809
-0.111439 -0.018599 0.885367 126 255 122 0.032369
-0.109558 -0.020470 0.887140 129 255 118 0.042459
-0.115544 -0.017194 0.886205 36 255 211 0.026954
-0.113267 -0.018954 0.887410 131 255 117 0.044882
-0.111308 -0.020685 0.888987 136 255 112 0.057225
-0.109250 -0.022389 0.890571 139 255 108 0.065478
-0.107759 -0.024718 0.892601 153 255 95 0.096697
-0.103363 -0.029523 0.895514 163 255 85 0.119739
-0.119577 -0.015762 0.890440 90 255 157 0.029791
-0.123153 -0.014737 0.889536 90 255 157 0.029675
-0.126658 -0.013569 0.888596 36 255 211 0.024607
-0.125129 -0.014275 0.891534 90 255 157 0.028980
-0.121546 -0.015270 0.892342 126 255 122 0.032484
-0.119785 -0.015680 0.894137 126 255 122 0.033324
-0.128129 -0.013643 0.885887 0 74 255 0.014729
-0.131654 -0.013997 0.885706 0 7 255 0.009256
-0.133236 -0.013988 0.884018 0 0 204 0.007305
-0.133722 -0.014251 0.888288 0 7 255 0.008086
-0.130224 -0.013966 0.888433 0 141 255 0.015852
-0.132784 -0.013581 0.894481 0 208 255 0.019970
-0.129565 -0.013494 0.894095 36 255 211 0.023869
-0.127543 -0.013085 0.896241 36 255 211 0.024551
-0.128349 -0.013709 0.891610 36 255 211 0.024615
-0.131571 -0.013838 0.891968 0 141 255 0.018729
-0.123965 -0.013265 0.897669 90 255 157 0.029708
-0.120654 -0.014381 0.897779 36 255 211 0.025018
-0.118442 -0.014359 0.900036 0 208 255 0.021912
-0.124571 -0.013892 0.894610 90 255 157 0.030570
-0.121252 -0.012817 0.901088 36 255 211 0.025549
-0.120330 -0.012014 0.903634 90 255 157 0.029629
-0.123997 -0.011257 0.902022 133 255 115 0.050569
-0.123080 -0.010540 0.904584 133 255 115 0.048776
-0.122109 -0.009928 0.907031 133 255 115 0.047080
-0.119324 -0.011296 0.905947 126 255 122 0.032408
-0.118293 -0.010620 0.908207 90 255 157 0.027825
-0.116490 -0.012604 0.904798 90 255 157 0.028345
-0.115422 -0.011905 0.907038 90 255 157 0.028469
-0.114336 -0.011219 0.909248 36 255 211 0.026665
-0.117496 -0.013411 0.902506 36 255 211 0.024089
-0.126664 -0.012245 0.898911 128 255 120 0.037805
-0.130153 -0.012739 0.897638 36 255 211 0.025276
-0.129264 -0.011947 0.900325 90 255 157 0.030253
-0.128355 -0.011121 0.903071 131 255 117 0.046371
-0.127419 -0.010540 0.905584 128 255 120 0.036946
-0.123658 -0.007872 0.914756 126 255 122 0.035046
-0.123150 -0.008514 0.912184 128 255 120 0.037093
-0.120086 -0.007492 0.915383 90 255 157 0.030015
-0.119579 -0.008117 0.912803 131 255 117 0.046046
-0.122641 -0.009195 0.909640 128 255 120 0.037032
-0.126203 -0.009569 0.908694 131 255 117 0.044131
-0.126714 -0.008892 0.911213 131 255 117 0.044702
-0.114337 -0.007960 0.916462 90 255 157 0.028677
-0.115647 -0.008772 0.913813 36 255 211 0.027323
-0.111703 -0.009431 0.914575 126 255 122 0.034097
-0.110391 -0.008703 0.917233 126 255 122 0.034867
-0.113046 -0.010242 0.911944 90 255 157 0.029002
-0.117003 -0.009689 0.911055 36 255 211 0.024526
-0.129390 -0.013578 0.883434 0 7 255 0.011548
-0.125758 -0.013132 0.883802 0 208 255 0.020545
-0.130961 -0.013522 0.881710 0 0 204 0.007524
-0.132501 -0.013377 0.879976 0 0 204 0.004538
-0.124509 -0.014059 0.886737 0 208 255 0.023394
-0.120880 -0.015187 0.887867 36 255 211 0.025332
-0.122212 -0.014364 0.885115 0 141 255 0.018719
-0.124898 -0.012670 0.881213 0 74 255 0.014740
-0.118384 -0.015529 0.886582 36 255 211 0.024337
-0.128379 -0.012932 0.879739 0 0 204 0.007310
-0.129925 -0.012721 0.877894 0 0 204 0.005871
-0.137062 -0.015013 0.884370 0 0 128 0.003179
-0.140838 -0.015894 0.884648 0 0 128 0.003267
-0.138858 -0.015366 0.882877 0 0 128 0.002301
-0.139040 -0.015609 0.886133 0 0 128 0.003814
-0.135300 -0.014629 0.885801 0 0 204 0.005043
-0.142626 -0.016380 0.882237 0 0 128 0.002218
-0.144444 -0.017187 0.884209 0 0 128 0.002545
-0.146392 -0.017754 0.882786 0 0 128 0.002528
-0.148366 -0.018307 0.881329 0 0 128 0.003016
-0.148206 -0.018585 0.884705 0 0 204 0.004499
-0.146323 -0.017982 0.886107 0 0 204 0.004339
-0.142733 -0.016725 0.886591 0 0 128 0.003217
-0.146385 -0.018280 0.892235 0 7 255 0.009815
-0.143361 -0.017046 0.891102 0 0 204 0.006966
-0.140356 -0.015801 0.889901 0 0 204 0.006352
-0.141376 -0.016265 0.892828 0 7 255 0.008180
-0.145469 -0.017829 0.889324 0 0 204 0.006723
-0.137999 -0.015130 0.893387 0 0 204 0.006677
-0.136735 -0.014979 0.890667 0 0 204 0.006545
-0.134760 -0.014335 0.892558 0 7 255 0.010254
-0.145707 -0.016637 0.873805 0 0 128 0.001158
-0.147870 -0.017437 0.874587 0 0 128 0.001937
-0.143862 -0.016178 0.875274 0 0 128 0.000830
-0.146162 -0.017124 0.877232 0 0 128 0.001389
-0.142034 -0.015634 0.876753 0 0 128 0.001075
-0.140241 -0.015113 0.878175 0 0 128 0.001709
-0.144398 -0.016792 0.879726 0 0 128 0.001585
-0.140617 -0.015582 0.881410 0 0 128 0.002372
-0.134971 -0.014343 0.882572 0 0 128 0.003608
-0.136700 -0.014669 0.881103 0 0 128 0.002615
-0.138474 -0.014911 0.879655 0 0 128 0.001649
-0.134213 -0.013667 0.878433 0 0 128 0.002780
-0.135928 -0.013934 0.876910 0 0 128 0.001603
-0.091640 -0.028970 0.922385 0 141 255 0.016487
-0.092367 -0.029570 0.920329 0 141 255 0.017890
-0.091316 -0.032862 0.921263 0 208 255 0.020857
-0.090471 -0.036127 0.922364 90 255 157 0.028569
-0.092167 -0.033433 0.919289 0 141 255 0.017806
-0.091286 -0.036705 0.920413 0 208 255 0.023363
-0.092127 -0.037336 0.918449 0 208 255 0.023032
-0.093203 -0.034043 0.917073 0 141 255 0.016590
-0.093372 -0.030159 0.918097 0 141 255 0.016141
-0.094462 -0.030757 0.915872 0 74 255 0.015593
-0.094742 -0.026916 0.917068 0 141 255 0.018436
-0.093712 -0.026258 0.919298 0 208 255 0.020722
-0.095206 -0.023062 0.918459 36 255 211 0.026434
-0.095876 -0.027534 0.914835 0 141 255 0.017795
-0.096284 -0.023721 0.916203 0 208 255 0.022935
-0.097450 -0.024406 0.913997 0 208 255 0.021094
-0.094228 -0.022521 0.920724 36 255 211 0.024189
-0.090408 -0.042750 0.924759 0 141 255 0.018881
-0.090629 -0.046068 0.925945 36 255 211 0.025247
-0.090898 -0.049355 0.927138 131 255 117 0.045248
-0.092170 -0.050784 0.923742 128 255 120 0.037724
-0.091947 -0.047427 0.922315 36 255 211 0.026772
-0.091874 -0.044032 0.920957 0 141 255 0.015769
-0.091157 -0.039967 0.921595 0 74 255 0.014790
-0.091933 -0.040630 0.919657 0 74 255 0.013973
-0.094529 -0.052954 0.918244 129 255 118 0.039997
-0.094357 -0.049833 0.916788 128 255 120 0.035177
-0.093575 -0.045890 0.916626 36 255 211 0.026971
-0.093783 -0.042443 0.915142 90 255 157 0.028227
-0.093521 -0.038422 0.915273 0 208 255 0.020582
-0.094913 -0.039785 0.912305 138 255 110 0.060405
-0.093003 -0.048670 0.919509 90 255 157 0.029715
-0.093284 -0.051989 0.920976 129 255 118 0.040435
-0.096276 -0.036387 0.910655 129 255 118 0.041814
-0.096895 -0.032466 0.910891 0 208 255 0.020317
-0.098565 -0.029367 0.909664 0 141 255 0.017691
-0.099345 -0.025741 0.910400 0 141 255 0.017083
-0.101180 -0.027382 0.906768 90 255 157 0.030449
-0.094652 -0.035135 0.913879 0 74 255 0.015089
-0.116408 -0.015523 0.900971 0 74 255 0.015176
-0.114664 -0.017232 0.900557 0 141 255 0.016272
-0.112533 -0.018410 0.901377 0 141 255 0.017803
-0.110684 -0.020101 0.900883 0 208 255 0.020894
-0.109954 -0.019078 0.903373 0 74 255 0.011944
-0.113302 -0.019515 0.898904 128 255 120 0.035949
-0.111487 -0.021137 0.898470 131 255 117 0.043470
-0.115426 -0.018175 0.897850 126 255 122 0.032003
-0.117480 -0.016768 0.896751 90 255 157 0.027875
-0.107780 -0.020961 0.904191 0 74 255 0.012689
-0.105853 -0.023520 0.903931 36 255 211 0.025163
-0.103656 -0.025675 0.904814 126 255 122 0.031949
-0.102275 -0.029080 0.903898 146 255 102 0.078687
-0.104845 -0.027260 0.901752 139 255 108 0.064850
-0.107082 -0.025058 0.900634 134 255 113 0.054534
-0.108920 -0.022572 0.900735 126 255 122 0.035124
-0.102899 -0.030810 0.900923 161 255 87 0.113561
-0.107277 -0.026012 0.898218 148 255 100 0.085544
-0.109456 -0.023762 0.897649 144 255 103 0.074266
-0.111534 -0.021833 0.895631 134 255 113 0.053634
-0.113675 -0.020365 0.894400 141 255 107 0.068137
-0.115759 -0.018883 0.894028 134 255 113 0.051843
-0.117752 -0.017345 0.892728 129 255 118 0.042030
-0.108205 -0.009962 0.917643 36 255 211 0.026581
-0.107414 -0.011867 0.915618 0 74 255 0.014249
-0.104118 -0.012245 0.918493 0 74 255 0.014877
-0.103233 -0.014131 0.916419 0 208 255 0.021351
-0.106577 -0.013837 0.913536 0 74 255 0.012773
-0.105706 -0.015753 0.911429 0 208 255 0.019741
-0.107914 -0.014563 0.910909 0 74 255 0.012162
-0.108733 -0.012575 0.912984 0 74 255 0.015531
-0.110107 -0.013367 0.910410 0 74 255 0.013652
-0.110953 -0.011426 0.912497 0 208 255 0.019725
-0.109640 -0.010638 0.915166 0 208 255 0.021877
-0.112251 -0.012326 0.909829 0 74 255 0.014951
-0.099839 -0.015748 0.919319 0 74 255 0.014254
-0.097936 -0.017906 0.919748 0 7 255 0.011024
-0.099014 -0.018558 0.917487 0 7 255 0.011122
-0.096036 -0.020140 0.920178 0 74 255 0.014309
-0.097054 -0.020752 0.917908 0 74 255 0.015504
-0.098183 -0.021493 0.915682 0 74 255 0.013847
-0.099469 -0.022045 0.913283 0 74 255 0.015260
-0.100247 -0.019161 0.915053 0 74 255 0.014036
-0.101547 -0.019857 0.912649 0 74 255 0.012075
-0.102323 -0.017000 0.914450 0 74 255 0.015289
-0.101144 -0.016297 0.916974 0 7 255 0.011235
-0.103645 -0.017779 0.912063 0 74 255 0.013826
-0.102296 -0.024325 0.907832 0 74 255 0.013287
-0.104495 -0.022075 0.907000 0 7 255 0.009413
-0.105649 -0.019227 0.908209 0 7 255 0.008937
-0.107858 -0.017234 0.907428 0 74 255 0.014620
-0.111104 -0.017049 0.904879 0 0 204 0.007464
-0.113265 -0.015800 0.904126 0 7 255 0.009103
-0.112174 -0.015105 0.906321 0 7 255 0.010293
-0.115403 -0.014592 0.903338 0 7 255 0.011586
-0.114367 -0.013867 0.905603 0 7 255 0.011216
-0.110827 -0.022200 0.893039 141 255 107 0.069161
-0.112967 -0.020672 0.891673 143 255 105 0.070693
-0.115140 -0.019036 0.890995 131 255 117 0.044995
-0.117114 -0.017404 0.889562 128 255 120 0.036912
-0.104960 -0.028532 0.899043 151 255 97 0.091372
-0.109023 -0.024312 0.895188 149 255 98 0.086134
-0.106014 -0.026942 0.894668 154 255 93 0.101383
-0.099852 -0.030720 0.907046 136 255 112 0.058523
-0.098168 -0.033702 0.908324 138 255 110 0.059858
-0.097437 -0.037949 0.908257 154 255 93 0.101177
-0.096111 -0.041233 0.909956 153 255 95 0.094728
-0.099386 -0.035187 0.905738 159 255 88 0.109845
-0.101015 -0.032279 0.904257 154 255 93 0.098326
-0.094921 -0.043631 0.912954 141 255 107 0.068198
-0.094743 -0.046951 0.914463 136 255 112 0.058155
-0.095647 -0.050939 0.914321 148 255 100 0.083208
-0.095820 -0.054020 0.915749 138 255 110 0.059839
-0.096081 -0.048199 0.912122 153 255 95 0.094481
-0.096209 -0.044978 0.910641 164 255 83 0.121816
-0.097313 -0.055559 0.912836 153 255 95 0.094197
-0.097117 -0.052566 0.911622 154 255 93 0.099891
-0.096987 -0.049466 0.910294 161 255 87 0.117186
-0.097054 -0.046283 0.908932 176 255 72 0.151874
-0.097092 -0.042716 0.907959 164 255 83 0.123770
-0.098481 -0.039637 0.905674 169 255 78 0.133271
-0.101304 -0.033825 0.901891 174 255 73 0.146277
-0.099835 -0.036725 0.903507 173 255 75 0.142324
-0.097352 -0.043887 0.905943 180 255 68 0.158750
-0.097182 -0.047377 0.906950 191 255 57 0.185811
-0.100665 -0.034672 0.899778 180 255 68 0.160110
-0.103363 -0.062918 0.934282 139 255 108 0.064648
-0.102295 -0.062740 0.931904 139 255 108 0.065339
-0.103261 -0.063888 0.929802 138 255 110 0.059252
-0.102065 -0.063579 0.927437 129 255 118 0.040028
-0.106018 -0.066315 0.927715 139 255 108 0.065850
-0.099086 -0.061106 0.929285 129 255 118 0.041787
-0.097879 -0.060676 0.926988 134 255 113 0.052018
-0.098286 -0.060128 0.931119 128 255 120 0.039001
-0.097473 -0.059098 0.932924 129 255 118 0.042966
-0.105181 -0.066373 0.923958 133 255 115 0.049193
-0.107241 -0.067932 0.923764 134 255 113 0.052699
-0.103066 -0.064801 0.924108 126 255 122 0.032912
-0.104494 -0.066287 0.920284 90 255 157 0.030315
-0.106598 -0.067906 0.920076 128 255 120 0.038860
-0.108656 -0.069539 0.919807 129 255 118 0.042210
-0.102386 -0.064633 0.920465 36 255 211 0.023824
-0.100221 -0.062972 0.920582 36 255 211 0.025778
-0.098996 -0.061850 0.923864 128 255 120 0.038906
-0.095160 -0.054989 0.920431 36 255 211 0.024141
-0.095969 -0.056996 0.922620 36 255 211 0.027073
-0.094026 -0.054032 0.923172 36 255 211 0.025564
-0.094863 -0.055992 0.925382 36 255 211 0.027031
-0.096876 -0.058898 0.924807 90 255 157 0.030872
-0.098098 -0.060029 0.921720 90 255 157 0.030849
-0.097353 -0.058110 0.919582 0 208 255 0.021500
-0.092693 -0.052447 0.926299 90 255 157 0.028879
-0.093385 -0.054026 0.928891 128 255 120 0.035282
-0.091594 -0.050945 0.929778 126 255 122 0.033096
-0.094129 -0.055410 0.931557 128 255 120 0.038034
-0.094860 -0.056474 0.929785 129 255 118 0.040880
-0.095570 -0.057473 0.927980 128 255 120 0.038752
-0.094099 -0.055021 0.927137 126 255 122 0.034895
-0.107344 -0.068821 0.917796 126 255 122 0.031342
-0.109454 -0.070528 0.917412 129 255 118 0.039369
-0.106036 -0.068111 0.915795 129 255 118 0.039974
