ply
format ascii 1.0
comment VCGLIB generated
element vertex 1001
property float x
property float y
property float z
property uchar red
property uchar green
property uchar blue
property float quality
end_header
-0.031779 -0.121293 0.875206 90 255 157 0.030050
-0.033768 -0.121396 0.879277 0 7 255 0.008353
-0.036186 -0.122260 0.867958 134 255 113 0.052875
-0.038223 -0.121728 0.871927 126 255 122 0.031372
-0.041932 -0.122056 0.875180 0 0 204 0.006017
-0.043962 -0.122485 0.879340 0 0 128 0.003592
-0.047277 -0.122728 0.877531 0 0 204 0.004378
-0.045238 -0.122241 0.873400 0 0 204 0.006598
-0.041529 -0.121937 0.870182 90 255 157 0.030972
-0.039460 -0.122446 0.866118 169 255 78 0.133306
-0.035759 -0.123734 0.863212 169 255 78 0.135250
-0.039044 -0.124027 0.861469 169 255 78 0.135558
-0.044222 -0.122268 0.884233 0 0 204 0.006269
-0.045992 -0.122011 0.888096 0 141 255 0.016132
-0.049453 -0.121698 0.890970 128 255 120 0.037407
-0.051078 -0.120847 0.894527 139 255 108 0.063980
-0.054380 -0.121039 0.892667 138 255 110 0.059429
-0.052736 -0.121984 0.889159 131 255 117 0.045275
-0.049343 -0.122282 0.886354 0 141 255 0.018064
-0.047512 -0.122573 0.882489 0 0 204 0.007739
-0.060690 -0.121439 0.889215 138 255 110 0.061445
-0.058964 -0.122358 0.885697 129 255 118 0.042412
-0.055716 -0.122683 0.882900 0 208 255 0.019723
-0.053802 -0.122914 0.878931 0 0 204 0.006879
-0.050393 -0.122869 0.875800 0 0 128 0.003633
-0.053505 -0.123019 0.874004 0 0 128 0.003156
-0.050725 -0.122736 0.880729 0 0 204 0.006877
-0.052551 -0.122558 0.884630 0 208 255 0.020430
-0.055876 -0.122263 0.887476 133 255 115 0.047644
-0.057528 -0.121247 0.890915 136 255 112 0.058075
-0.051532 -0.122647 0.869932 0 0 204 0.006484
-0.047913 -0.122407 0.866730 90 255 157 0.029502
-0.045830 -0.122793 0.862686 136 255 112 0.055493
-0.042197 -0.124247 0.859783 168 255 80 0.129688
-0.045380 -0.124503 0.858041 129 255 118 0.041182
-0.042684 -0.122659 0.864434 168 255 80 0.131915
-0.044745 -0.122223 0.868469 90 255 157 0.029109
-0.048416 -0.122466 0.871703 0 0 204 0.006476
-0.048811 -0.123016 0.861052 134 255 113 0.052493
-0.050838 -0.122532 0.865049 90 255 157 0.031020
-0.054261 -0.122721 0.868387 0 0 204 0.006248
-0.056238 -0.123090 0.872431 0 0 128 0.002524
-0.058980 -0.123235 0.870823 0 0 128 0.003017
-0.056982 -0.122765 0.866737 0 0 204 0.007451
-0.053564 -0.122633 0.863491 90 255 157 0.028986
-0.051548 -0.123157 0.859481 133 255 115 0.050738
-0.048152 -0.124628 0.856492 129 255 118 0.040400
-0.050940 -0.124774 0.854945 126 255 122 0.034965
-0.056754 -0.123052 0.877275 0 0 204 0.006932
-0.058609 -0.122769 0.881266 0 141 255 0.019038
-0.061722 -0.122468 0.884209 131 255 117 0.043271
-0.063406 -0.121528 0.887706 138 255 110 0.059738
-0.066078 -0.121486 0.886147 134 255 113 0.052152
-0.064467 -0.122511 0.882645 129 255 118 0.040703
-0.061354 -0.122872 0.879699 0 141 255 0.016644
-0.059488 -0.123023 0.875653 0 0 204 0.005109
-0.070989 -0.121539 0.883305 133 255 115 0.048175
-0.069366 -0.122583 0.879760 126 255 122 0.034587
-0.066407 -0.123249 0.876741 0 208 255 0.022659
-0.064565 -0.123245 0.872725 0 0 204 0.006132
-0.061461 -0.123296 0.869363 0 0 128 0.002828
-0.063939 -0.123318 0.867909 0 0 128 0.002419
-0.062116 -0.123115 0.874176 0 0 204 0.005369
-0.063941 -0.123001 0.878185 0 141 255 0.017922
-0.066939 -0.122596 0.881276 128 255 120 0.038894
-0.068521 -0.121480 0.884713 133 255 115 0.050771
-0.061935 -0.122832 0.863794 0 7 255 0.009643
-0.058692 -0.122699 0.860483 126 255 122 0.034074
-0.056626 -0.123232 0.856449 133 255 115 0.050283
-0.053478 -0.124942 0.853532 126 255 122 0.033528
-0.055942 -0.124956 0.852052 128 255 120 0.035545
-0.054174 -0.123267 0.857974 131 255 117 0.045235
-0.056175 -0.122703 0.861939 90 255 157 0.030332
-0.059465 -0.122818 0.865292 0 7 255 0.008281
-0.118851 -0.101136 0.898555 126 255 122 0.034114
-0.116242 -0.100202 0.900669 128 255 120 0.037294
-0.113847 -0.102403 0.898223 0 208 255 0.022033
-0.116489 -0.103237 0.895956 0 208 255 0.021413
-0.112371 -0.100416 0.901624 128 255 120 0.036147
-0.108595 -0.100779 0.902740 134 255 113 0.052786
-0.111008 -0.098420 0.904394 133 255 115 0.047077
-0.114795 -0.097935 0.903264 126 255 122 0.032529
-0.114852 -0.104464 0.894108 0 7 255 0.010688
-0.113177 -0.105563 0.892057 0 0 128 0.002636
-0.110629 -0.104791 0.894610 0 0 128 0.003720
-0.111484 -0.106701 0.890014 0 0 128 0.000987
-0.108927 -0.105888 0.892527 0 0 128 0.001088
-0.107186 -0.107059 0.890426 0 0 128 0.002497
-0.109775 -0.107928 0.887877 0 0 128 0.002955
-0.106415 -0.105185 0.895051 0 0 128 0.003832
-0.104623 -0.106276 0.892946 0 0 128 0.001658
-0.102053 -0.105608 0.895489 0 0 128 0.003099
-0.103741 -0.104409 0.897440 0 7 255 0.008018
-0.108009 -0.103956 0.897000 0 7 255 0.009449
-0.105401 -0.103215 0.899329 0 141 255 0.018299
-0.109588 -0.102815 0.898825 0 208 255 0.021408
-0.112252 -0.103574 0.896487 0 7 255 0.011366
-0.106990 -0.101961 0.901122 126 255 122 0.032605
-0.092560 -0.100349 0.906890 131 255 117 0.043012
-0.094387 -0.098972 0.908126 139 255 108 0.063893
-0.096631 -0.100337 0.905789 133 255 115 0.048120
-0.098407 -0.098908 0.906768 129 255 118 0.041097
-0.096236 -0.097399 0.908996 136 255 112 0.055200
-0.100673 -0.100488 0.904690 129 255 118 0.041362
-0.100260 -0.097472 0.907688 131 255 117 0.044904
-0.102456 -0.098978 0.905614 128 255 120 0.036748
-0.104211 -0.097353 0.906429 126 255 122 0.034300
-0.098013 -0.095840 0.909772 136 255 112 0.054946
-0.101956 -0.095698 0.908198 126 255 122 0.034225
-0.099756 -0.094112 0.910290 134 255 113 0.051817
-0.104701 -0.100476 0.903641 128 255 120 0.035797
-0.106415 -0.099048 0.904626 128 255 120 0.037091
-0.103055 -0.101831 0.902031 36 255 211 0.023756
-0.101378 -0.103069 0.900230 0 74 255 0.013564
-0.099011 -0.101681 0.902975 0 208 255 0.020396
-0.097322 -0.102871 0.901065 0 7 255 0.009390
-0.099696 -0.104244 0.898313 0 0 204 0.004806
-0.094943 -0.101582 0.903977 0 208 255 0.022618
-0.104354 -0.093220 0.909064 36 255 211 0.025163
-0.102048 -0.091693 0.910483 126 255 122 0.032717
-0.106601 -0.094689 0.907709 90 255 157 0.031086
-0.108755 -0.096615 0.905997 126 255 122 0.033208
-0.061810 -0.027252 0.914734 138 255 110 0.061352
-0.060458 -0.024087 0.914057 144 255 103 0.076017
-0.058384 -0.026908 0.917527 149 255 98 0.088198
-0.059154 -0.021179 0.912840 146 255 102 0.080509
-0.057236 -0.023919 0.916550 153 255 95 0.096858
-0.055976 -0.021165 0.915180 154 255 93 0.098962
-0.055241 -0.026905 0.919664 156 255 92 0.103638
-0.057759 -0.018344 0.911276 143 255 105 0.071231
-0.056385 -0.015563 0.909536 146 255 102 0.079732
-0.059874 -0.015188 0.906910 143 255 105 0.073613
-0.061304 -0.018173 0.908432 138 255 110 0.061347
-0.062770 -0.021093 0.909975 143 255 105 0.070478
-0.063429 -0.015208 0.903855 134 255 113 0.054116
-0.053769 -0.024321 0.918720 154 255 93 0.099361
-0.051963 -0.027182 0.921538 156 255 92 0.103221
-0.052219 -0.021869 0.917465 153 255 95 0.095605
-0.050470 -0.024898 0.920297 148 255 100 0.085069
-0.048941 -0.022589 0.918802 143 255 105 0.072178
-0.048770 -0.027826 0.922881 151 255 97 0.092254
-0.050643 -0.019739 0.915588 136 255 112 0.058516
-0.048874 -0.017286 0.913569 131 255 117 0.044560
-0.052647 -0.016313 0.911749 139 255 108 0.065830
-0.054375 -0.018658 0.913769 151 255 97 0.091111
-0.047296 -0.007209 0.900064 0 0 204 0.004867
-0.049493 -0.006726 0.898978 0 0 204 0.007473
-0.049699 -0.009510 0.902571 0 0 204 0.004414
-0.051847 -0.008987 0.901413 0 7 255 0.008003
-0.051695 -0.006284 0.897852 0 7 255 0.011458
-0.051982 -0.011648 0.905057 0 7 255 0.009587
-0.053941 -0.008482 0.900173 0 7 255 0.009090
-0.054077 -0.011095 0.903769 0 74 255 0.013939
-0.056212 -0.010625 0.902404 0 141 255 0.018587
-0.053866 -0.005882 0.896690 0 74 255 0.014879
-0.056138 -0.008109 0.898914 0 74 255 0.014844
-0.056040 -0.005570 0.895423 0 141 255 0.019323
-0.054177 -0.013655 0.907361 90 255 157 0.029084
-0.056304 -0.013197 0.906007 128 255 120 0.036004
-0.050467 -0.014481 0.909425 0 208 255 0.021651
-0.048179 -0.012402 0.906912 0 0 204 0.005785
-0.058068 -0.005310 0.894245 0 208 255 0.020417
-0.059936 -0.007749 0.896537 36 255 211 0.024085
-0.060085 -0.005121 0.893017 90 255 157 0.029919
-0.059779 -0.010389 0.900051 36 255 211 0.025207
-0.061863 -0.007768 0.895017 0 208 255 0.020062
-0.061695 -0.010312 0.898466 0 208 255 0.020373
-0.063809 -0.010274 0.896968 36 255 211 0.027223
-0.062041 -0.005191 0.891717 90 255 157 0.030015
-0.063902 -0.007793 0.893691 36 255 211 0.023816
-0.064036 -0.005339 0.890487 36 255 211 0.026781
-0.061559 -0.012849 0.902025 126 255 122 0.034959
-0.063631 -0.012798 0.900422 126 255 122 0.032832
-0.072469 -0.029962 0.904345 0 0 204 0.007647
-0.071358 -0.026661 0.903440 0 0 204 0.005304
-0.070299 -0.029132 0.906676 0 7 255 0.010766
-0.070794 -0.023457 0.902109 0 0 204 0.006910
-0.069136 -0.025784 0.905921 0 7 255 0.011662
-0.068569 -0.022485 0.904404 0 74 255 0.013123
-0.067863 -0.028458 0.909039 0 141 255 0.017290
-0.070143 -0.020089 0.900362 0 7 255 0.011616
-0.069328 -0.016560 0.898617 0 141 255 0.016176
-0.071811 -0.017439 0.896585 0 7 255 0.011500
-0.072603 -0.020973 0.898298 0 7 255 0.007942
-0.073190 -0.024319 0.899768 0 0 204 0.006871
-0.074356 -0.018352 0.894694 0 7 255 0.010917
-0.066580 -0.025081 0.908600 90 255 157 0.029602
-0.064855 -0.027775 0.911906 128 255 120 0.036275
-0.065736 -0.021764 0.907291 128 255 120 0.038534
-0.063702 -0.024326 0.911353 138 255 110 0.058723
-0.064585 -0.018495 0.905677 129 255 118 0.042651
-0.066379 -0.015756 0.901191 126 255 122 0.034594
-0.067621 -0.019128 0.902908 36 255 211 0.024596
-0.067013 -0.008494 0.891605 0 74 255 0.012081
-0.067264 -0.005906 0.888571 0 208 255 0.020484
-0.066689 -0.011086 0.894631 0 7 255 0.010956
-0.069970 -0.011691 0.892417 0 0 204 0.007384
-0.070261 -0.009118 0.889586 0 7 255 0.010901
-0.070610 -0.006408 0.886871 0 208 255 0.019794
-0.068045 -0.013778 0.896685 0 74 255 0.011805
-0.072955 -0.009952 0.888023 0 7 255 0.009129
-0.073456 -0.007207 0.885542 0 74 255 0.013662
-0.072488 -0.012528 0.890661 0 7 255 0.009060
-0.075401 -0.013409 0.889204 0 7 255 0.011617
-0.075836 -0.010686 0.886729 0 7 255 0.010366
-0.076316 -0.007922 0.884330 0 7 255 0.011650
-0.073411 -0.015449 0.892627 0 7 255 0.008569
-0.070878 -0.014524 0.894427 0 7 255 0.008239
-0.085691 -0.027789 0.893294 141 255 107 0.068143
-0.083549 -0.030230 0.895718 139 255 108 0.066283
-0.082285 -0.032939 0.898303 138 255 110 0.060160
-0.086095 -0.024993 0.891248 139 255 108 0.063330
-0.086294 -0.021963 0.889432 134 255 113 0.050942
-0.089221 -0.022377 0.889396 131 255 117 0.043174
-0.080824 -0.029765 0.896390 143 255 105 0.071764
-0.079701 -0.032329 0.899075 134 255 113 0.053917
-0.081903 -0.027248 0.894020 138 255 110 0.061392
-0.082087 -0.024314 0.892068 136 255 112 0.055877
-0.082343 -0.020962 0.890318 126 255 122 0.034717
-0.086602 -0.010316 0.882334 0 74 255 0.012817
-0.086518 -0.013607 0.884101 0 208 255 0.020598
-0.088958 -0.010545 0.882307 0 7 255 0.010613
-0.086460 -0.016678 0.885885 128 255 120 0.036105
-0.088873 -0.013925 0.884051 0 141 255 0.017541
-0.088784 -0.016878 0.885711 36 255 211 0.027028
-0.091362 -0.010619 0.882472 0 7 255 0.010942
-0.086353 -0.019438 0.887637 129 255 118 0.040624
-0.083359 -0.018649 0.888177 126 255 122 0.033932
-0.092117 -0.014204 0.884316 0 7 255 0.010206
-0.094679 -0.010933 0.882950 0 7 255 0.010463
-0.071177 -0.097554 0.917645 129 255 118 0.042478
-0.071367 -0.094276 0.920271 131 255 117 0.043309
-0.072577 -0.091135 0.922123 138 255 110 0.062032
-0.072437 -0.087588 0.923944 149 255 98 0.088349
-0.073026 -0.083989 0.924622 154 255 93 0.101236
-0.070859 -0.083381 0.925625 154 255 93 0.100508
-0.074552 -0.088103 0.922765 148 255 100 0.084395
-0.075269 -0.084647 0.923378 151 255 97 0.092117
-0.074876 -0.091663 0.920843 139 255 108 0.064801
-0.074901 -0.094903 0.918305 129 255 118 0.040824
-0.073624 -0.097949 0.916174 129 255 118 0.039475
-0.076168 -0.098351 0.914771 129 255 118 0.041107
-0.069906 -0.078951 0.925149 131 255 117 0.044362
-0.069444 -0.074528 0.923861 0 7 255 0.009515
-0.067918 -0.069278 0.922724 0 0 128 0.003748
-0.067313 -0.063973 0.921403 0 7 255 0.010362
-0.070809 -0.070094 0.922313 0 7 255 0.008718
-0.072693 -0.075394 0.923117 0 74 255 0.015570
-0.072971 -0.079942 0.923918 131 255 117 0.043141
-0.071769 -0.065538 0.920429 0 74 255 0.012718
-0.073976 -0.070971 0.921553 0 141 255 0.017405
-0.075225 -0.076008 0.922400 0 208 255 0.021921
-0.076783 -0.081082 0.922110 129 255 118 0.039259
-0.077949 -0.085400 0.921798 146 255 102 0.078254
-0.079666 -0.089204 0.919515 133 255 115 0.049786
-0.078988 -0.092445 0.918167 129 255 118 0.040803
-0.079333 -0.095648 0.915674 128 255 120 0.037383
-0.078398 -0.098663 0.913443 129 255 118 0.040664
-0.080720 -0.098960 0.912196 129 255 118 0.042462
-0.077076 -0.095218 0.917061 128 255 120 0.035953
-0.076758 -0.088553 0.921384 139 255 108 0.064248
-0.071470 -0.100269 0.913057 0 0 204 0.004841
-0.071717 -0.103323 0.908581 0 0 204 0.004210
-0.073956 -0.100635 0.911749 0 0 204 0.007164
-0.074315 -0.103558 0.907315 0 0 204 0.004196
-0.072097 -0.106772 0.904331 0 0 128 0.002412
-0.072327 -0.110471 0.900125 0 0 204 0.004918
-0.069603 -0.110422 0.901513 0 0 204 0.004821
-0.069356 -0.106545 0.905636 0 0 128 0.003125
-0.069074 -0.103051 0.909990 0 0 204 0.004226
-0.066869 -0.110316 0.902918 0 0 204 0.005435
-0.076426 -0.100937 0.910314 0 0 204 0.007529
-0.076720 -0.103810 0.905952 0 0 204 0.004603
-0.078659 -0.101283 0.909127 0 7 255 0.011464
-0.078974 -0.104046 0.904744 0 0 204 0.004905
-0.077037 -0.106980 0.901695 0 0 128 0.003764
-0.077224 -0.110549 0.897529 0 0 128 0.003038
-0.074794 -0.110537 0.898860 0 0 204 0.004603
-0.074610 -0.106906 0.903087 0 0 128 0.002403
-0.071278 -0.119291 0.887237 0 208 255 0.019945
-0.071603 -0.116639 0.891262 0 0 204 0.004949
-0.068778 -0.119196 0.888595 0 141 255 0.019518
-0.069152 -0.116659 0.892721 0 0 204 0.007621
-0.071969 -0.113618 0.895549 0 0 128 0.002305
-0.074418 -0.113689 0.894312 0 0 128 0.002659
-0.074006 -0.116713 0.890023 0 0 204 0.005406
-0.066217 -0.119281 0.890080 36 255 211 0.024230
-0.066365 -0.116578 0.894048 0 0 204 0.005878
-0.063467 -0.119185 0.891563 36 255 211 0.024251
-0.063648 -0.116554 0.895602 0 7 255 0.007815
-0.066610 -0.113576 0.898367 0 0 128 0.003345
-0.069327 -0.113590 0.896969 0 0 128 0.002746
-0.082841 -0.120041 0.880591 36 255 211 0.024943
-0.086273 -0.117845 0.882239 0 0 204 0.005710
-0.087862 -0.114950 0.885643 0 0 128 0.001079
-0.091290 -0.112596 0.887518 0 0 128 0.002160
-0.087610 -0.111509 0.890877 0 0 128 0.002610
-0.091627 -0.116221 0.882435 0 0 128 0.002432
-0.095156 -0.113833 0.884259 0 0 128 0.001119
-0.089842 -0.118638 0.879518 0 7 255 0.010032
-0.087956 -0.120895 0.876666 90 255 157 0.028002
-0.088768 -0.108001 0.894763 0 74 255 0.012357
-0.091067 -0.109759 0.891942 0 0 204 0.004453
-0.092249 -0.106533 0.895839 0 7 255 0.010897
-0.089964 -0.105155 0.898818 0 7 255 0.008744
-0.094578 -0.108161 0.893021 0 0 204 0.004997
-0.093512 -0.103895 0.899872 0 0 204 0.005992
-0.095883 -0.105323 0.897050 0 0 204 0.003925
-0.091233 -0.102600 0.902869 0 7 255 0.008232
-0.098291 -0.106782 0.894186 0 0 128 0.003030
-0.098353 -0.109222 0.889556 0 0 204 0.005940
-0.094817 -0.110879 0.888538 0 0 204 0.004425
-0.108029 -0.109926 0.885023 0 0 128 0.003421
-0.106003 -0.111743 0.882575 0 0 204 0.004137
-0.103575 -0.111061 0.884622 0 0 204 0.004849
-0.104111 -0.113682 0.880409 0 0 128 0.001781
-0.101702 -0.113014 0.882381 0 0 128 0.002583
-0.099833 -0.115101 0.880178 0 0 128 0.000869
-0.102192 -0.115731 0.878314 0 0 128 0.001036
-0.099344 -0.112400 0.884360 0 0 128 0.002928
-0.097527 -0.114446 0.882177 0 0 128 0.000845
-0.100966 -0.110078 0.887062 0 0 204 0.007036
-0.102700 -0.108023 0.889944 0 0 204 0.005731
-0.105349 -0.108912 0.887436 0 0 204 0.006198
-0.100386 -0.118408 0.875364 0 7 255 0.007913
-0.098296 -0.120379 0.872851 0 208 255 0.019694
-0.096187 -0.120140 0.874419 0 141 255 0.018766
-0.096178 -0.122103 0.870265 128 255 120 0.035475
-0.094083 -0.121800 0.871812 90 255 157 0.031165
-0.091981 -0.121650 0.873448 126 255 122 0.034263
-0.093804 -0.119468 0.876387 0 74 255 0.014335
-0.095657 -0.117015 0.879246 0 0 128 0.002984
-0.098021 -0.117672 0.877236 0 0 204 0.004059
-0.058384 -0.095462 0.923365 126 255 122 0.032129
-0.058868 -0.098732 0.918936 0 7 255 0.008289
-0.061712 -0.095947 0.922009 129 255 118 0.039572
-0.059351 -0.102259 0.914590 0 0 204 0.006743
-0.062236 -0.099071 0.917563 0 0 204 0.005348
-0.062740 -0.102516 0.913179 0 0 204 0.004180
-0.065047 -0.096446 0.920558 126 255 122 0.033987
-0.059820 -0.106083 0.910282 0 0 128 0.002846
-0.060287 -0.109969 0.906056 0 0 128 0.003815
-0.056838 -0.109823 0.907736 0 0 128 0.003659
-0.056368 -0.105887 0.911896 0 0 204 0.004084
-0.055964 -0.102007 0.916288 0 0 204 0.006997
-0.053381 -0.109720 0.909354 0 0 128 0.003362
-0.065467 -0.099469 0.916003 0 0 204 0.004721
-0.068091 -0.096977 0.919163 129 255 118 0.039454
-0.065867 -0.102761 0.911473 0 0 204 0.005351
-0.068596 -0.099888 0.914562 0 0 204 0.004670
-0.066395 -0.106453 0.907093 0 0 128 0.002528
-0.063584 -0.110195 0.904513 0 0 204 0.005244
-0.063176 -0.106258 0.908782 0 0 128 0.002427
-0.060455 -0.119106 0.893103 36 255 211 0.024189
-0.060311 -0.116414 0.897148 0 0 204 0.007227
-0.057360 -0.119036 0.894938 90 255 157 0.029746
-0.057203 -0.116336 0.898977 0 141 255 0.015899
-0.060256 -0.113289 0.901409 0 0 128 0.002281
-0.063573 -0.113449 0.899917 0 0 128 0.003136
-0.054055 -0.118912 0.896680 128 255 120 0.036209
-0.053710 -0.116211 0.900644 0 208 255 0.020139
-0.050771 -0.118719 0.898534 128 255 120 0.037721
-0.050451 -0.116091 0.902607 0 208 255 0.019676
-0.053482 -0.113137 0.904888 0 0 204 0.006822
-0.056952 -0.113204 0.903194 0 0 128 0.003510
-0.062615 -0.031165 0.914788 0 141 255 0.017148
-0.063359 -0.035157 0.914898 0 0 204 0.004328
-0.065833 -0.031673 0.911975 0 7 255 0.010976
-0.066656 -0.035517 0.912153 0 0 204 0.005284
-0.063788 -0.039163 0.915411 0 0 128 0.002477
-0.064209 -0.043066 0.916063 0 0 204 0.004741
-0.061303 -0.042767 0.918360 0 0 128 0.003329
-0.060823 -0.038541 0.917806 0 0 128 0.003313
-0.060178 -0.034359 0.917593 0 7 255 0.011325
-0.058370 -0.041915 0.920833 0 74 255 0.013541
-0.068641 -0.032279 0.909461 0 7 255 0.008643
-0.069179 -0.035838 0.909987 0 7 255 0.008383
-0.071080 -0.032741 0.907115 0 7 255 0.011467
-0.071255 -0.036180 0.907944 0 7 255 0.011039
-0.069015 -0.039356 0.911148 0 7 255 0.010095
-0.068608 -0.043291 0.912695 0 7 255 0.010725
-0.066512 -0.042997 0.914265 0 7 255 0.009746
-0.066824 -0.039237 0.913025 0 0 204 0.006284
-0.064645 -0.063315 0.921832 0 7 255 0.008767
-0.064132 -0.058005 0.919589 0 208 255 0.019895
-0.063454 -0.052428 0.918041 0 208 255 0.022596
-0.062137 -0.057701 0.920362 0 208 255 0.022647
-0.061482 -0.052071 0.919395 0 74 255 0.015495
-0.062544 -0.062878 0.922363 0 7 255 0.010890
-0.063710 -0.047506 0.916979 0 7 255 0.011065
-0.065809 -0.047440 0.915356 0 74 255 0.013544
-0.065460 -0.052412 0.916822 36 255 211 0.024949
-0.060303 -0.062361 0.923285 0 7 255 0.009672
-0.059946 -0.057335 0.921516 0 141 255 0.018245
-0.059143 -0.051792 0.921088 0 7 255 0.009728
-0.057537 -0.056669 0.922799 0 74 255 0.013160
-0.056851 -0.051206 0.922614 0 0 204 0.005883
-0.057873 -0.061683 0.924313 0 7 255 0.009083
-0.058634 -0.046604 0.920933 0 0 128 0.003777
-0.061197 -0.047103 0.918877 0 0 204 0.005253
-0.086792 -0.040404 0.902792 200 255 48 0.204651
-0.085559 -0.044375 0.905595 230 255 18 0.276615
-0.082723 -0.048847 0.908678 208 255 40 0.226091
-0.083295 -0.044308 0.905581 220 255 28 0.251369
-0.087833 -0.036837 0.900237 168 255 80 0.129022
-0.081463 -0.057640 0.913318 183 255 65 0.165725
-0.082210 -0.061449 0.915206 180 255 68 0.158854
-0.083494 -0.065112 0.916766 186 255 62 0.174928
-0.080855 -0.053367 0.911058 195 255 53 0.192406
-0.078120 -0.066628 0.918600 148 255 100 0.083061
-0.076922 -0.062021 0.916392 171 255 77 0.138233
-0.077108 -0.057534 0.913905 180 255 68 0.157818
-0.077443 -0.052863 0.911320 183 255 65 0.166363
-0.079436 -0.048426 0.908856 191 255 57 0.185930
-0.079709 -0.061886 0.915778 169 255 78 0.134343
-0.080935 -0.066025 0.917659 159 255 88 0.112876
-0.080152 -0.043709 0.905775 178 255 70 0.154059
-0.082836 -0.040036 0.902803 171 255 77 0.137881
-0.084496 -0.036607 0.900253 143 255 105 0.073865
-0.074618 -0.056503 0.913948 149 255 98 0.087432
-0.074334 -0.061435 0.916842 0 141 255 0.018468
-0.075603 -0.066469 0.919389 0 74 255 0.015016
-0.074566 -0.051428 0.911584 153 255 95 0.097097
-0.075377 -0.046615 0.909329 148 255 100 0.084955
-0.077289 -0.047653 0.909038 193 255 55 0.188827
-0.071958 -0.060661 0.917262 0 74 255 0.014790
-0.071690 -0.055193 0.914419 133 255 115 0.047534
-0.072048 -0.049869 0.912114 129 255 118 0.041857
-0.073059 -0.045115 0.909948 126 255 122 0.032928
-0.077951 -0.034819 0.901635 138 255 110 0.060506
-0.077596 -0.038200 0.903805 133 255 115 0.047333
-0.080270 -0.035638 0.900863 141 255 107 0.068483
-0.076737 -0.042112 0.906374 138 255 110 0.058858
-0.074918 -0.041173 0.907101 129 255 118 0.039230
-0.080461 -0.039314 0.903006 141 255 107 0.069538
-0.081555 -0.070774 0.918655 133 255 115 0.047626
-0.085035 -0.074799 0.918049 90 255 157 0.028798
-0.084314 -0.069947 0.917455 154 255 93 0.101225
-0.088473 -0.078696 0.916971 0 208 255 0.020705
-0.091626 -0.082268 0.915774 0 208 255 0.020244
-0.089494 -0.084051 0.916342 126 255 122 0.032081
-0.086561 -0.080360 0.917437 0 208 255 0.020004
-0.083328 -0.076416 0.918645 0 74 255 0.013969
-0.087276 -0.085612 0.916710 36 255 211 0.025832
-0.088089 -0.072265 0.916694 148 255 100 0.085631
-0.093280 -0.080222 0.915439 0 208 255 0.020833
-0.100267 -0.088634 0.911702 0 74 255 0.014430
-0.098198 -0.085583 0.912904 0 7 255 0.008968
-0.096137 -0.088470 0.912638 0 141 255 0.016000
-0.098076 -0.091333 0.911380 36 255 211 0.023603
-0.094972 -0.083958 0.914302 0 74 255 0.015212
-0.094899 -0.093763 0.911104 90 255 157 0.029785
-0.093663 -0.090025 0.913089 0 208 255 0.021684
-0.093229 -0.095492 0.910669 128 255 120 0.038715
-0.091872 -0.091758 0.912693 0 141 255 0.019366
-0.090155 -0.093404 0.912296 90 255 157 0.028009
-0.091457 -0.096878 0.909736 126 255 122 0.031776
-0.090465 -0.087863 0.914723 36 255 211 0.026350
-0.088787 -0.089720 0.914511 0 141 255 0.018844
-0.092899 -0.086291 0.914351 0 141 255 0.017498
-0.065652 -0.068772 0.922904 0 0 204 0.005444
-0.067205 -0.073812 0.924436 0 0 204 0.006492
-0.067093 -0.078071 0.926035 128 255 120 0.038329
-0.068049 -0.082621 0.926693 153 255 95 0.096129
-0.065378 -0.081887 0.927568 151 255 97 0.089924
-0.064572 -0.077425 0.926683 90 255 157 0.029035
-0.064656 -0.073131 0.925064 0 0 204 0.004724
-0.063413 -0.068215 0.923559 0 7 255 0.008208
-0.069862 -0.086937 0.925316 154 255 93 0.101552
-0.069989 -0.090586 0.923497 144 255 103 0.074709
-0.068241 -0.093604 0.921809 129 255 118 0.040578
-0.065384 -0.092999 0.923122 129 255 118 0.039305
-0.067064 -0.089880 0.924791 141 255 107 0.068350
-0.067125 -0.086237 0.926471 154 255 93 0.098237
-0.058966 -0.091854 0.925759 129 255 118 0.041698
-0.060876 -0.088443 0.927150 138 255 110 0.060566
-0.061085 -0.084687 0.928391 144 255 103 0.076138
-0.062452 -0.081039 0.928496 148 255 100 0.084668
-0.059494 -0.080234 0.929282 143 255 105 0.070896
-0.064130 -0.085440 0.927566 153 255 95 0.094642
-0.064035 -0.089146 0.926017 139 255 108 0.065504
-0.062125 -0.092395 0.924566 131 255 117 0.045318
-0.058721 -0.075809 0.928216 0 208 255 0.022030
-0.059123 -0.071554 0.926492 0 7 255 0.008862
-0.058298 -0.066769 0.925242 0 74 255 0.013337
-0.060818 -0.067508 0.924327 0 74 255 0.011953
-0.061910 -0.072415 0.925721 0 0 204 0.006050
-0.061592 -0.076570 0.927466 36 255 211 0.025870
0.001992 0.001134 0.894211 0 0 204 0.004622
0.004794 0.001096 0.895352 0 0 204 0.005458
0.003048 -0.000371 0.898543 0 0 204 0.005884
0.000237 -0.000204 0.897386 0 0 128 0.003813
0.005894 -0.000510 0.899696 0 0 204 0.007082
0.001274 -0.001485 0.901839 0 0 128 0.001388
0.004102 -0.001734 0.903001 0 0 128 0.003114
0.002301 -0.002750 0.906350 0 0 128 0.000802
-0.001605 -0.001256 0.900695 0 0 128 0.000697
-0.000602 -0.002434 0.905260 0 0 128 0.002358
-0.003453 -0.002255 0.904073 0 0 128 0.002705
0.006974 -0.001974 0.904108 0 0 204 0.006521
0.005131 -0.002936 0.907522 0 0 128 0.001016
0.008039 -0.003242 0.908624 0 0 128 0.001736
0.010098 -0.002387 0.905298 0 141 255 0.016139
0.008975 -0.000658 0.900941 0 74 255 0.011886
0.012059 -0.000821 0.902221 0 141 255 0.017584
0.010928 0.001052 0.897981 0 7 255 0.008025
0.007859 0.001030 0.896622 0 0 204 0.007397
0.014023 0.001174 0.899431 0 0 204 0.007106
-0.005267 -0.003813 0.907268 0 0 128 0.001542
-0.002700 -0.003889 0.908444 0 0 128 0.001458
-0.004525 -0.005172 0.911623 0 0 128 0.003277
-0.007089 -0.005117 0.910380 0 0 128 0.003377
-0.001921 -0.005467 0.912697 0 0 128 0.001562
-0.006329 -0.006345 0.914594 0 7 255 0.010237
-0.003829 -0.006582 0.915738 0 0 204 0.005485
-0.005644 -0.007502 0.918766 0 208 255 0.022840
-0.008820 -0.006323 0.913369 0 7 255 0.009253
-0.008119 -0.007584 0.917425 0 208 255 0.022693
-0.010579 -0.007659 0.916193 36 255 211 0.023749
-0.001237 -0.006730 0.916944 0 0 128 0.003097
-0.003107 -0.007736 0.920017 0 74 255 0.014252
-0.000543 -0.007957 0.921255 0 7 255 0.008837
0.001583 -0.007023 0.918239 0 0 128 0.001309
0.000896 -0.005597 0.914011 0 0 128 0.000778
0.003733 -0.005893 0.915163 0 0 128 0.000635
0.003086 -0.004361 0.910784 0 0 128 0.000352
0.000173 -0.004104 0.909624 0 0 128 0.000668
0.005898 -0.004488 0.911959 0 0 128 0.000367
0.009540 -0.007652 0.922060 0 0 128 0.002600
0.012087 -0.006261 0.918925 0 0 128 0.002120
0.009117 -0.006089 0.917665 0 0 128 0.001077
0.014703 -0.005069 0.915570 0 0 128 0.002517
0.011670 -0.004804 0.914352 0 0 128 0.001063
0.014088 -0.003704 0.910997 0 7 255 0.008180
0.017162 -0.003969 0.912107 0 141 255 0.017375
0.008664 -0.004603 0.913140 0 0 128 0.000727
0.011063 -0.003486 0.909814 0 0 204 0.003978
0.006424 -0.006060 0.916371 0 0 128 0.000463
0.004251 -0.007289 0.919482 0 0 128 0.000851
0.006925 -0.007440 0.920790 0 0 128 0.001398
0.004729 -0.008597 0.923859 0 0 204 0.004247
0.002124 -0.008235 0.922560 0 0 204 0.005601
0.007358 -0.009024 0.925073 0 0 128 0.002600
0.019244 -0.002434 0.909117 36 255 211 0.024589
0.021453 -0.000331 0.906589 0 7 255 0.009072
0.018165 -0.000581 0.905012 0 74 255 0.013652
0.023504 0.002036 0.904380 0 0 204 0.006511
0.020286 0.001723 0.902649 0 0 204 0.004816
0.017046 0.001447 0.900945 0 0 204 0.005132
0.015093 -0.000740 0.903594 0 141 255 0.017151
0.013107 -0.002381 0.906593 0 74 255 0.015415
0.016179 -0.002426 0.907836 0 208 255 0.019930
0.029771 0.000236 0.846691 0 0 204 0.006279
0.028443 0.001608 0.849072 0 74 255 0.013028
0.031798 0.001627 0.850645 0 74 255 0.014029
0.030424 0.002812 0.853061 0 208 255 0.019620
0.027012 0.002770 0.851502 0 141 255 0.017776
0.033709 0.002725 0.854634 0 141 255 0.018022
0.028898 0.003717 0.855639 0 141 255 0.017898
0.032252 0.003676 0.857137 0 141 255 0.018286
0.030638 0.004440 0.859764 0 74 255 0.014101
0.025466 0.003664 0.854088 0 74 255 0.014658
0.027271 0.004440 0.858302 0 74 255 0.012849
0.023840 0.004347 0.856802 0 7 255 0.010198
0.035542 0.003578 0.858693 0 141 255 0.018174
0.034004 0.004418 0.861308 0 141 255 0.016511
0.037376 0.004358 0.862907 0 141 255 0.016146
0.038916 0.003477 0.860386 0 141 255 0.017181
0.036986 0.002586 0.856281 0 141 255 0.016089
0.040313 0.002418 0.857996 0 74 255 0.014243
0.038300 0.001431 0.853956 0 74 255 0.011798
0.035051 0.001569 0.852299 0 74 255 0.012731
0.036324 0.000200 0.850043 0 0 204 0.006394
0.041635 0.001209 0.855709 0 7 255 0.008357
0.039581 0.000056 0.851730 0 0 204 0.004807
0.042898 -0.000137 0.853480 0 0 128 0.003217
0.033077 0.000244 0.848353 0 0 204 0.006317
0.022124 0.004607 0.859724 0 0 128 0.002578
0.025435 0.004713 0.861109 0 0 128 0.003773
0.023696 0.004972 0.864061 0 0 128 0.000662
0.020427 0.004900 0.862685 0 0 128 0.000620
0.027002 0.005053 0.865421 0 0 128 0.001293
0.021994 0.005325 0.866991 0 0 128 0.000190
0.025259 0.005377 0.868410 0 0 128 0.000209
0.018814 0.005298 0.865588 0 0 128 0.000205
0.028605 0.005413 0.869855 0 0 128 0.000298
0.031985 0.005409 0.871408 0 0 128 0.000607
0.030416 0.005080 0.866966 0 0 128 0.001930
0.033770 0.005071 0.868560 0 0 128 0.002372
0.032214 0.004778 0.864109 0 0 204 0.006268
0.028817 0.004759 0.862571 0 0 204 0.004854
0.035599 0.004757 0.865697 0 0 204 0.007178
0.042587 0.005437 0.876694 0 0 128 0.002300
0.044563 0.005076 0.873820 0 0 204 0.006912
0.040860 0.005136 0.871918 0 0 204 0.005243
0.046520 0.004626 0.870990 0 74 255 0.014271
0.042780 0.004750 0.869142 0 74 255 0.011964
0.044689 0.004221 0.866443 0 208 255 0.022125
0.048354 0.004037 0.868327 0 208 255 0.022614
0.039134 0.004786 0.867350 0 7 255 0.009706
0.041011 0.004335 0.864664 0 208 255 0.019641
0.037304 0.005137 0.870208 0 0 128 0.003784
0.035518 0.005462 0.873096 0 0 128 0.001079
0.039030 0.005467 0.874876 0 0 128 0.001619
0.049837 0.002943 0.865896 0 141 255 0.018233
0.051291 0.001688 0.863668 0 7 255 0.009917
0.047623 0.001999 0.861698 0 74 255 0.011748
0.052678 0.000351 0.861498 0 0 128 0.003577
0.049015 0.000681 0.859539 0 0 204 0.004808
0.050327 -0.000612 0.857408 0 0 128 0.002001
0.054044 -0.000982 0.859340 0 0 128 0.001527
0.045306 0.000964 0.857595 0 0 204 0.006456
0.046617 -0.000354 0.855432 0 0 128 0.002489
0.043974 0.002256 0.859836 0 74 255 0.013544
0.042536 0.003396 0.862179 0 141 255 0.018382
0.046200 0.003200 0.864012 0 141 255 0.018038
-0.008129 -0.122858 0.877870 0 141 255 0.017908
-0.009976 -0.121580 0.881198 36 255 211 0.024722
-0.013418 -0.121009 0.884129 0 141 255 0.018983
-0.015294 -0.120957 0.888027 0 7 255 0.009868
-0.018774 -0.121369 0.891405 0 0 204 0.004683
-0.015697 -0.121244 0.892767 0 7 255 0.009072
-0.018405 -0.121033 0.886673 0 7 255 0.008559
-0.021871 -0.121384 0.889954 0 0 128 0.002087
-0.016489 -0.120993 0.882656 0 208 255 0.022440
-0.014583 -0.121659 0.878982 90 255 157 0.030156
-0.011196 -0.122957 0.876319 0 141 255 0.018448
-0.014281 -0.122878 0.874724 36 255 211 0.025805
-0.017521 -0.121337 0.896801 0 74 255 0.012992
-0.020942 -0.121401 0.900241 36 255 211 0.026151
-0.022692 -0.121070 0.904269 131 255 117 0.045132
-0.026053 -0.120292 0.907438 139 255 108 0.064310
-0.023097 -0.120205 0.908959 139 255 108 0.065225
-0.025697 -0.121056 0.902853 129 255 118 0.042386
-0.029027 -0.120244 0.905889 138 255 110 0.059463
-0.023969 -0.121371 0.898802 0 141 255 0.018154
-0.022172 -0.121426 0.894770 0 0 204 0.005645
-0.031872 -0.121104 0.900003 129 255 118 0.042633
-0.030025 -0.121363 0.895978 0 74 255 0.015098
-0.026669 -0.121339 0.892633 0 0 128 0.002789
-0.024896 -0.121407 0.888523 0 0 128 0.001271
-0.026951 -0.121315 0.897384 0 74 255 0.014770
-0.028768 -0.121032 0.901351 128 255 120 0.037661
-0.032041 -0.120299 0.904455 138 255 110 0.061678
-0.024514 -0.120981 0.883769 0 7 255 0.010509
-0.022574 -0.121009 0.879767 36 255 211 0.025752
-0.019133 -0.121522 0.876748 128 255 120 0.037418
-0.017287 -0.122888 0.873185 90 255 157 0.027446
-0.019539 -0.120950 0.881210 36 255 211 0.025654
-0.021441 -0.121001 0.885173 0 7 255 0.009164
0.014290 -0.113514 0.891612 159 255 88 0.110316
0.010623 -0.113933 0.894445 148 255 100 0.082195
0.010387 -0.113767 0.899297 138 255 110 0.060059
0.006648 -0.114925 0.902583 126 255 122 0.034758
0.006926 -0.114886 0.897541 129 255 118 0.041055
0.003206 -0.116008 0.900930 0 7 255 0.011405
0.007165 -0.115363 0.892713 134 255 113 0.052806
0.010795 -0.114893 0.889892 180 255 68 0.157898
0.014349 -0.114854 0.887329 185 255 63 0.170120
0.010892 -0.116682 0.885892 168 255 80 0.132802
0.006191 -0.114729 0.907791 128 255 120 0.036051
0.002438 -0.115216 0.911521 90 255 157 0.030213
0.000378 -0.114792 0.915947 128 255 120 0.037739
-0.001656 -0.113996 0.920243 131 255 117 0.045933
-0.004923 -0.115165 0.918820 131 255 117 0.045370
-0.002906 -0.115893 0.914418 90 255 157 0.028318
-0.000825 -0.116319 0.909860 0 141 255 0.018681
0.002869 -0.115752 0.906164 0 141 255 0.018923
-0.011129 -0.117843 0.915907 148 255 100 0.084348
-0.009131 -0.118518 0.911347 131 255 117 0.046709
-0.005569 -0.118232 0.907654 0 141 255 0.018761
-0.003589 -0.118192 0.903118 0 7 255 0.008527
-0.000046 -0.117420 0.899469 0 0 204 0.005691
-0.003217 -0.118705 0.898162 0 7 255 0.010745
-0.000414 -0.116903 0.904597 0 0 204 0.006932
-0.006051 -0.117296 0.913028 126 255 122 0.033954
-0.008036 -0.116523 0.917412 138 255 110 0.061460
-0.001319 -0.118322 0.894026 0 141 255 0.016746
0.002258 -0.117790 0.890830 90 255 157 0.029606
0.004206 -0.118415 0.887391 126 255 122 0.031870
0.007745 -0.118594 0.884780 36 255 211 0.024053
0.004529 -0.120238 0.883609 36 255 211 0.023794
0.007403 -0.116589 0.888517 131 255 117 0.045867
0.003580 -0.116226 0.895947 0 208 255 0.023064
0.001028 -0.119755 0.886286 36 255 211 0.026074
-0.000906 -0.119116 0.889721 90 255 157 0.027465
-0.004425 -0.119487 0.892929 0 208 255 0.020815
-0.006335 -0.119832 0.896932 0 141 255 0.018389
-0.009465 -0.120466 0.895536 0 141 255 0.015890
-0.007569 -0.120152 0.891526 0 141 255 0.018192
-0.004047 -0.119937 0.888455 36 255 211 0.024222
-0.002151 -0.120572 0.884884 90 255 157 0.028944
0.001355 -0.121399 0.882343 90 255 157 0.027800
-0.001856 -0.122072 0.880915 36 255 211 0.025430
-0.006662 -0.119423 0.901814 0 141 255 0.018632
-0.008653 -0.119409 0.906157 90 255 157 0.031039
-0.012107 -0.119706 0.909833 139 255 108 0.065710
-0.014112 -0.119025 0.914308 158 255 90 0.107174
-0.017139 -0.119622 0.912403 151 255 97 0.091109
-0.015099 -0.120432 0.908138 141 255 107 0.068053
-0.011650 -0.120290 0.904642 129 255 118 0.039534
-0.009758 -0.120299 0.900394 36 255 211 0.023570
-0.019694 -0.120893 0.905804 134 255 113 0.051742
-0.017843 -0.121247 0.901692 90 255 157 0.030810
-0.014397 -0.121057 0.898267 0 141 255 0.018142
-0.012570 -0.120949 0.894186 0 74 255 0.012198
-0.014698 -0.120906 0.903121 129 255 118 0.040304
-0.020083 -0.119998 0.910694 146 255 102 0.078745
-0.012217 -0.120728 0.889468 0 74 255 0.012358
-0.010318 -0.120868 0.885599 0 208 255 0.019558
-0.006864 -0.121291 0.882767 36 255 211 0.025894
-0.004973 -0.122538 0.879429 0 208 255 0.021074
-0.007176 -0.120478 0.887072 0 208 255 0.022619
-0.011472 -0.115370 0.920850 141 255 107 0.069993
-0.011662 -0.112475 0.925441 141 255 107 0.066879
-0.008357 -0.114006 0.922211 133 255 115 0.048035
-0.008547 -0.111027 0.926456 129 255 118 0.041015
-0.011787 -0.109164 0.929374 139 255 108 0.065193
-0.011769 -0.105492 0.932735 139 255 108 0.064446
-0.014884 -0.106720 0.932077 154 255 93 0.100394
-0.014865 -0.110295 0.928233 146 255 102 0.078886
-0.014778 -0.113503 0.923973 141 255 107 0.069216
-0.018013 -0.107587 0.930862 154 255 93 0.098406
-0.005178 -0.112681 0.923328 126 255 122 0.034130
-0.005309 -0.109810 0.927227 90 255 157 0.027521
-0.001885 -0.111478 0.924474 126 255 122 0.032165
-0.005256 -0.106635 0.930551 36 255 211 0.024407
-0.008478 -0.104343 0.933224 128 255 120 0.038937
-0.008573 -0.107828 0.930104 128 255 120 0.037917
-0.011232 -0.092951 0.938510 0 74 255 0.013031
-0.010559 -0.096951 0.936911 0 74 255 0.014219
-0.013801 -0.097731 0.936481 0 141 255 0.015748
-0.014519 -0.093708 0.938033 0 74 255 0.012162
-0.011291 -0.101268 0.934944 36 255 211 0.024491
-0.007937 -0.100193 0.935337 0 141 255 0.018662
-0.017715 -0.094708 0.937766 36 255 211 0.025788
-0.016982 -0.098921 0.936258 131 255 117 0.043253
-0.020056 -0.099627 0.935648 136 255 112 0.056588
-0.020877 -0.095463 0.937234 129 255 118 0.039864
-0.017609 -0.103417 0.934016 146 255 102 0.078661
-0.014478 -0.102299 0.934567 133 255 115 0.047970
-0.046986 -0.025891 0.921510 138 255 110 0.060936
-0.045492 -0.028666 0.924045 144 255 103 0.076174
-0.045047 -0.023741 0.919914 128 255 120 0.035166
-0.043521 -0.026663 0.922536 133 255 115 0.047247
-0.041386 -0.024642 0.920661 0 141 255 0.016907
-0.042059 -0.029410 0.925003 139 255 108 0.063815
-0.042903 -0.021720 0.917879 0 74 255 0.012459
-0.040603 -0.019461 0.915657 0 0 204 0.005329
-0.044792 -0.018286 0.914860 0 208 255 0.022076
-0.046986 -0.020618 0.916897 128 255 120 0.035926
-0.039770 -0.027499 0.923453 126 255 122 0.035147
-0.038485 -0.030219 0.925997 133 255 115 0.049090
-0.037328 -0.025735 0.921316 0 7 255 0.009663
-0.036086 -0.028352 0.924094 0 141 255 0.016661
-0.033460 -0.026471 0.921844 0 208 255 0.020859
-0.034772 -0.030917 0.926740 90 255 157 0.030963
-0.034797 -0.023697 0.919175 0 208 255 0.023217
-0.032324 -0.021126 0.917307 90 255 157 0.027770
-0.036459 -0.020461 0.916417 0 74 255 0.015098
-0.038947 -0.022742 0.918521 0 0 204 0.006686
-0.029420 -0.009009 0.907451 0 141 255 0.015839
-0.031668 -0.009050 0.906604 0 74 255 0.014348
-0.032355 -0.012276 0.909235 0 7 255 0.008952
-0.034559 -0.012105 0.908420 0 7 255 0.011049
-0.033866 -0.008911 0.905686 0 74 255 0.012454
-0.035111 -0.015216 0.911066 0 141 255 0.018788
-0.036777 -0.011837 0.907645 0 7 255 0.008028
-0.037354 -0.014923 0.910354 0 141 255 0.016267
-0.039547 -0.014373 0.909761 0 7 255 0.010813
-0.036106 -0.008746 0.904834 0 7 255 0.010794
-0.038995 -0.011567 0.906815 0 7 255 0.008215
-0.038298 -0.008559 0.903855 0 7 255 0.008890
-0.037887 -0.017604 0.913222 0 74 255 0.014799
-0.040107 -0.017099 0.912679 0 7 255 0.007875
-0.033749 -0.018218 0.914222 36 255 211 0.024504
-0.031034 -0.015363 0.912388 0 208 255 0.021988
-0.040586 -0.008265 0.902944 0 7 255 0.008077
-0.043341 -0.010775 0.905266 0 0 128 0.003791
-0.042839 -0.007881 0.902028 0 0 204 0.006706
-0.043707 -0.013541 0.908569 0 0 204 0.004001
-0.045589 -0.010274 0.904413 0 0 128 0.003476
-0.045993 -0.012965 0.907783 0 0 128 0.003786
-0.045116 -0.007614 0.901049 0 0 204 0.004425
-0.046323 -0.015512 0.911140 0 7 255 0.010221
-0.012216 -0.009873 0.918825 0 208 255 0.022290
-0.010037 -0.009495 0.920211 90 255 157 0.028320
-0.011705 -0.011777 0.922853 129 255 118 0.039140
-0.013894 -0.012352 0.921387 126 255 122 0.031892
-0.009510 -0.011358 0.924316 133 255 115 0.048510
-0.013168 -0.014648 0.925187 129 255 118 0.042891
-0.011086 -0.014038 0.926735 136 255 112 0.057228
-0.012248 -0.017163 0.928631 134 255 113 0.051388
-0.015235 -0.015382 0.923643 90 255 157 0.029979
-0.014259 -0.017904 0.927100 126 255 122 0.034047
-0.016287 -0.018549 0.925506 36 255 211 0.024821
-0.008901 -0.013581 0.928231 143 255 105 0.072516
-0.010163 -0.016677 0.930275 139 255 108 0.064991
-0.008067 -0.016164 0.931848 146 255 102 0.080107
-0.006481 -0.013270 0.929761 144 255 103 0.075884
-0.007107 -0.011068 0.925779 134 255 113 0.053906
-0.004606 -0.011066 0.927145 133 255 115 0.047085
-0.005143 -0.009148 0.923049 128 255 120 0.035533
-0.007616 -0.009217 0.921620 128 255 120 0.036185
-0.002583 -0.009292 0.924290 36 255 211 0.025915
-0.016803 -0.022253 0.926889 0 141 255 0.015640
-0.015364 -0.025225 0.929449 36 255 211 0.024684
-0.015688 -0.028690 0.930544 134 255 113 0.051493
-0.014173 -0.031500 0.933000 134 255 113 0.051950
-0.018264 -0.031975 0.930793 136 255 112 0.058415
-0.011866 -0.027885 0.933219 0 208 255 0.023156
-0.010250 -0.030816 0.935543 128 255 120 0.035298
-0.009886 -0.027299 0.934923 0 74 255 0.014973
-0.011493 -0.024145 0.932495 0 74 255 0.012805
-0.009458 -0.023678 0.934079 0 208 255 0.020812
-0.011032 -0.020307 0.931571 126 255 122 0.033860
-0.013008 -0.020967 0.929926 0 208 255 0.021271
-0.008899 -0.019937 0.933119 129 255 118 0.040709
-0.004250 -0.026346 0.939550 90 255 157 0.029439
-0.003746 -0.022651 0.939035 139 255 108 0.063525
-0.005644 -0.022927 0.937329 133 255 115 0.047451
-0.002781 -0.019045 0.938031 149 255 98 0.087782
-0.004840 -0.019225 0.936429 143 255 105 0.072979
-0.003644 -0.015627 0.935076 158 255 90 0.108918
-0.001331 -0.015678 0.936450 154 255 93 0.100576
-0.005833 -0.015840 0.933504 151 255 97 0.091740
-0.006550 -0.030196 0.938595 0 74 255 0.014265
0.000516 -0.013527 0.933891 138 255 110 0.061362
0.002704 -0.011801 0.931117 0 208 255 0.021631
0.000113 -0.011313 0.929907 129 255 118 0.041924
0.004986 -0.010433 0.928108 0 0 204 0.005787
0.002395 -0.009831 0.926932 0 74 255 0.015227
-0.000194 -0.009538 0.925578 0 141 255 0.018057
-0.002292 -0.011008 0.928638 133 255 115 0.049312
-0.004188 -0.013129 0.931294 149 255 98 0.086516
-0.001838 -0.013217 0.932686 146 255 102 0.078137
-0.019772 -0.029388 0.928213 143 255 105 0.072207
-0.019185 -0.026367 0.926675 139 255 108 0.062729
-0.020766 -0.023331 0.924116 128 255 120 0.038120
-0.020254 -0.019762 0.922788 0 141 255 0.018550
-0.024170 -0.020746 0.920329 129 255 118 0.039462
-0.024635 -0.024115 0.921967 143 255 105 0.073484
-0.023259 -0.026918 0.924627 151 255 97 0.090199
-0.023872 -0.029712 0.926582 136 255 112 0.058592
-0.022523 -0.032152 0.929331 128 255 120 0.037850
-0.026787 -0.031948 0.928234 0 74 255 0.015267
-0.017468 -0.015962 0.922199 0 208 255 0.021532
-0.016157 -0.012776 0.920050 36 255 211 0.024503
-0.018458 -0.013240 0.918698 36 255 211 0.023812
-0.014551 -0.010156 0.917605 0 208 255 0.022275
-0.016970 -0.010331 0.916382 90 255 157 0.027464
-0.015356 -0.008131 0.913686 0 208 255 0.020167
-0.012940 -0.007957 0.914913 0 141 255 0.017543
-0.019333 -0.010784 0.915128 0 208 255 0.021568
-0.017752 -0.008229 0.912539 0 208 255 0.019865
-0.020124 -0.008427 0.911433 0 208 255 0.021549
-0.022591 -0.014425 0.916318 0 74 255 0.013808
-0.021484 -0.017210 0.919596 0 141 255 0.017568
-0.028256 -0.011989 0.910897 0 7 255 0.010394
-0.026995 -0.015012 0.914125 0 141 255 0.016059
-0.029689 -0.018362 0.915516 90 255 157 0.028354
-0.028186 -0.021160 0.918553 133 255 115 0.048069
-0.025639 -0.017879 0.917282 0 208 255 0.020822
-0.024807 -0.014748 0.915192 0 74 255 0.013539
-0.023787 -0.011526 0.912926 0 141 255 0.016201
-0.026026 -0.011748 0.911892 0 74 255 0.013686
-0.024853 -0.008662 0.909433 0 208 255 0.022788
-0.022521 -0.008526 0.910454 36 255 211 0.025998
-0.027172 -0.008884 0.908469 0 208 255 0.021272
-0.030870 -0.024117 0.919855 128 255 120 0.035353
-0.029541 -0.026867 0.922682 126 255 122 0.033432
-0.032182 -0.028985 0.924759 0 7 255 0.010821
-0.030889 -0.031453 0.927518 0 74 255 0.015588
-0.028159 -0.029494 0.925464 36 255 211 0.026969
-0.018752 -0.035090 0.932334 133 255 115 0.049147
-0.017391 -0.037990 0.934727 90 255 157 0.028361
-0.018314 -0.040791 0.936680 0 141 255 0.017833
-0.017177 -0.043674 0.938954 126 255 122 0.032702
-0.021293 -0.043299 0.938012 139 255 108 0.064411
-0.014065 -0.041002 0.937586 0 208 255 0.023428
-0.012982 -0.043906 0.939661 0 74 255 0.015459
-0.013102 -0.037929 0.936114 134 255 113 0.051105
-0.012473 -0.034741 0.934905 141 255 107 0.068057
-0.021594 -0.046641 0.938687 129 255 118 0.041693
-0.020045 -0.050095 0.939921 90 255 157 0.030535
-0.020448 -0.053482 0.940515 0 208 255 0.023352
-0.016813 -0.053469 0.941440 0 141 255 0.019299
-0.016225 -0.050216 0.940897 0 208 255 0.021344
-0.015721 -0.047023 0.940133 0 208 255 0.020471
-0.009322 -0.053583 0.943157 0 141 255 0.019454
-0.008435 -0.050494 0.942613 36 255 211 0.023452
-0.009598 -0.047303 0.941422 0 141 255 0.019105
-0.008822 -0.044109 0.940770 36 255 211 0.025444
-0.012315 -0.050401 0.941637 0 74 255 0.013164
-0.013053 -0.053554 0.942316 0 74 255 0.015508
-0.005851 -0.041071 0.940519 136 255 112 0.057109
-0.005170 -0.037555 0.940141 138 255 110 0.058657
-0.006659 -0.034087 0.938573 129 255 118 0.039375
-0.008955 -0.037822 0.937844 143 255 105 0.072747
-0.009781 -0.041058 0.938803 131 255 117 0.046197
-0.033588 -0.093482 0.934827 134 255 113 0.053011
-0.034189 -0.097554 0.931755 90 255 157 0.027903
-0.036634 -0.093748 0.933435 133 255 115 0.047105
-0.034625 -0.101677 0.928217 0 74 255 0.011893
-0.037152 -0.097747 0.930151 0 208 255 0.021822
-0.037528 -0.101743 0.926407 0 0 204 0.007417
-0.039701 -0.093967 0.931914 131 255 117 0.045540
-0.034953 -0.105693 0.924293 0 7 255 0.011369
-0.035101 -0.109545 0.920155 0 141 255 0.015760
-0.032334 -0.109623 0.922017 36 255 211 0.025010
-0.032124 -0.105617 0.926102 0 74 255 0.015372
-0.031743 -0.101447 0.929903 0 141 255 0.016162
-0.029583 -0.109533 0.923916 126 255 122 0.035041
-0.040122 -0.097866 0.928451 0 208 255 0.019821
-0.042804 -0.094128 0.930421 129 255 118 0.039335
-0.040408 -0.101817 0.924569 0 0 204 0.007058
-0.043152 -0.097902 0.926825 0 141 255 0.017346
-0.043393 -0.101805 0.922810 0 0 204 0.006603
-0.045945 -0.094325 0.928923 129 255 118 0.039816
-0.040650 -0.105620 0.920490 0 0 128 0.003894
-0.040873 -0.109490 0.916560 0 7 255 0.009323
-0.037946 -0.109482 0.918367 0 7 255 0.011670
-0.037767 -0.105658 0.922378 0 0 204 0.006033
-0.035028 -0.118204 0.907047 126 255 122 0.034795
-0.034969 -0.115718 0.911262 0 141 255 0.018371
-0.032067 -0.118209 0.908663 128 255 120 0.037220
-0.032079 -0.115708 0.912988 0 208 255 0.019927
-0.035044 -0.112812 0.915621 0 74 255 0.012045
-0.037911 -0.112752 0.913868 0 7 255 0.009602
-0.037938 -0.115719 0.909613 0 141 255 0.017927
-0.029073 -0.118202 0.910219 126 255 122 0.033702
-0.029195 -0.115721 0.914694 0 208 255 0.020534
-0.026191 -0.118222 0.911941 129 255 118 0.041564
-0.026417 -0.115682 0.916544 90 255 157 0.028777
-0.029388 -0.112830 0.919307 0 208 255 0.022388
-0.032192 -0.112856 0.917420 0 141 255 0.015658
-0.038060 -0.118144 0.905500 126 255 122 0.033286
-0.040991 -0.115724 0.907979 0 141 255 0.017711
-0.040872 -0.112769 0.912114 0 7 255 0.008727
-0.043836 -0.109490 0.914733 0 0 204 0.007351
-0.043912 -0.112782 0.910375 0 0 204 0.007319
-0.046911 -0.109595 0.912897 0 0 204 0.005935
-0.044061 -0.115801 0.906210 0 141 255 0.016357
-0.041139 -0.118193 0.903819 126 255 122 0.032484
-0.043575 -0.105627 0.918746 0 0 128 0.003375
-0.046424 -0.101775 0.921188 0 0 204 0.007585
-0.046234 -0.097970 0.925210 0 141 255 0.015899
-0.049084 -0.094490 0.927523 129 255 118 0.040245
-0.049352 -0.098057 0.923718 0 74 255 0.014922
-0.052148 -0.094739 0.926120 128 255 120 0.038313
-0.049519 -0.101800 0.919471 0 7 255 0.008076
-0.046586 -0.105626 0.916901 0 0 128 0.003407
-0.055641 -0.098401 0.920641 0 7 255 0.010833
-0.052763 -0.101855 0.917966 0 0 204 0.006483
-0.053025 -0.105742 0.913551 0 0 128 0.003558
-0.050143 -0.109667 0.911094 0 0 204 0.004411
-0.049787 -0.105627 0.915295 0 0 128 0.003115
-0.052461 -0.098195 0.922120 0 74 255 0.012727
-0.055276 -0.095079 0.924720 128 255 120 0.036271
-0.050284 -0.112982 0.906837 0 0 204 0.005872
-0.047295 -0.115905 0.904495 0 141 255 0.016396
-0.047504 -0.118487 0.900361 128 255 120 0.036840
-0.044328 -0.118320 0.902159 128 255 120 0.036957
-0.047059 -0.112896 0.908546 0 0 204 0.006354
-0.055476 -0.060930 0.925516 0 0 204 0.005145
-0.055277 -0.056070 0.924337 0 0 204 0.007565
-0.054322 -0.050878 0.924258 0 0 204 0.004368
-0.053048 -0.055454 0.925768 0 0 204 0.004202
-0.051970 -0.050396 0.925677 0 0 204 0.004475
-0.053111 -0.060225 0.926841 0 0 128 0.002756
-0.053602 -0.045954 0.924434 0 7 255 0.010505
-0.052912 -0.041396 0.924645 90 255 157 0.027699
-0.055542 -0.041588 0.922907 0 208 255 0.021757
-0.056123 -0.046194 0.922695 0 0 204 0.006304
-0.050778 -0.059564 0.928221 0 0 128 0.003210
-0.050565 -0.055033 0.927222 0 0 204 0.004103
-0.049330 -0.050176 0.927097 0 0 204 0.004607
-0.048140 -0.054589 0.928521 0 0 204 0.005134
-0.047016 -0.049828 0.928328 0 0 204 0.004947
-0.048323 -0.059005 0.929628 0 0 204 0.006166
-0.048376 -0.045635 0.927227 0 7 255 0.008645
-0.047546 -0.041390 0.927388 0 208 255 0.021797
-0.050196 -0.041349 0.926089 36 255 211 0.023585
-0.051002 -0.045711 0.925909 0 7 255 0.010428
-0.049745 -0.030897 0.923360 131 255 117 0.043551
-0.050802 -0.034181 0.923845 90 255 157 0.030727
-0.052945 -0.030403 0.921935 138 255 110 0.061469
-0.053912 -0.033857 0.922160 126 255 122 0.031793
-0.051804 -0.037686 0.924262 0 208 255 0.021453
-0.049046 -0.037770 0.925642 0 208 255 0.019557
-0.047992 -0.034317 0.925160 36 255 211 0.026702
-0.055935 -0.030443 0.920050 133 255 115 0.050352
-0.056696 -0.034023 0.920326 36 255 211 0.023990
-0.059260 -0.030546 0.917705 129 255 118 0.039705
-0.057444 -0.037872 0.920691 0 74 255 0.015464
-0.054741 -0.037616 0.922543 0 208 255 0.021787
-0.031219 -0.097211 0.933307 126 255 122 0.031822
-0.028846 -0.101095 0.931665 36 255 211 0.024780
-0.029314 -0.105421 0.927949 36 255 211 0.023887
-0.026770 -0.109243 0.925946 133 255 115 0.050087
-0.026486 -0.105006 0.929775 126 255 122 0.034006
