ply
format ascii 1.0
comment VCGLIB generated
element vertex 1022
property float x
property float y
property float z
property uchar red
property uchar green
property uchar blue
property float quality
end_header
-0.030354 -0.138895 0.839530 0 141 255 0.017533
-0.026635 -0.140279 0.836878 0 208 255 0.022290
-0.027224 -0.138645 0.841315 0 141 255 0.017672
-0.022846 -0.141305 0.834161 36 255 211 0.025861
-0.030911 -0.136902 0.843891 0 74 255 0.014640
-0.034110 -0.137072 0.842160 0 74 255 0.012274
-0.033582 -0.139020 0.837900 0 141 255 0.017340
-0.023428 -0.140103 0.838559 36 255 211 0.023524
-0.019607 -0.141016 0.835930 90 255 157 0.029705
-0.023926 -0.138507 0.843083 0 208 255 0.021219
-0.020129 -0.139770 0.840435 36 255 211 0.023928
-0.024402 -0.136574 0.847632 36 255 211 0.026363
-0.027711 -0.136736 0.845742 0 141 255 0.018445
-0.044825 -0.126797 0.853686 0 141 255 0.017760
-0.044304 -0.129547 0.849630 0 0 128 0.003779
-0.047623 -0.126824 0.852136 0 141 255 0.018599
-0.047133 -0.129561 0.848093 0 0 204 0.004080
-0.043811 -0.132297 0.845604 0 0 128 0.001995
-0.043335 -0.134958 0.841590 0 0 204 0.005987
-0.040533 -0.134989 0.843157 0 7 255 0.007973
-0.041036 -0.132211 0.847190 0 0 128 0.002567
-0.050325 -0.127044 0.850657 0 141 255 0.016419
-0.049704 -0.129635 0.846650 0 0 204 0.004341
-0.052873 -0.127092 0.849248 0 141 255 0.016562
-0.052245 -0.129565 0.845264 0 0 204 0.005755
-0.049052 -0.132388 0.842781 0 0 128 0.002277
-0.048418 -0.135183 0.838989 0 0 204 0.007488
-0.045853 -0.135053 0.840271 0 0 204 0.006674
-0.046499 -0.132293 0.844112 0 0 128 0.001861
-0.039720 -0.142192 0.825692 36 255 211 0.024481
-0.040691 -0.141021 0.829775 0 208 255 0.023223
-0.037149 -0.142130 0.826943 36 255 211 0.025997
-0.041601 -0.139291 0.833719 0 141 255 0.015945
-0.038149 -0.140883 0.831019 0 208 255 0.023076
-0.039135 -0.139173 0.834968 0 74 255 0.013807
-0.034614 -0.141992 0.828167 36 255 211 0.025804
-0.042492 -0.137268 0.837610 0 7 255 0.009334
-0.045039 -0.137290 0.836330 0 7 255 0.009000
-0.044173 -0.139427 0.832497 0 141 255 0.016040
-0.035509 -0.140811 0.832240 0 208 255 0.021844
-0.031877 -0.141835 0.829503 0 208 255 0.021277
-0.036313 -0.139205 0.836401 0 74 255 0.014891
-0.032753 -0.140668 0.833674 0 208 255 0.021187
-0.037086 -0.137187 0.840535 0 7 255 0.009956
-0.039885 -0.137148 0.839016 0 0 204 0.007507
-0.049156 -0.149186 0.770616 90 255 157 0.028534
-0.046228 -0.149266 0.773189 126 255 122 0.032063
-0.042315 -0.149296 0.772086 131 255 117 0.045553
-0.039163 -0.149752 0.774761 146 255 102 0.080933
-0.043106 -0.149575 0.775909 133 255 115 0.047303
-0.039922 -0.149936 0.778551 141 255 107 0.069433
-0.047518 -0.148900 0.777203 0 141 255 0.018301
-0.050453 -0.148801 0.774643 0 141 255 0.018345
-0.035311 -0.148783 0.772848 136 255 112 0.058279
-0.032075 -0.147676 0.773091 128 255 120 0.035673
-0.028759 -0.146739 0.773232 128 255 120 0.038021
-0.025330 -0.146625 0.775111 138 255 110 0.060318
-0.028567 -0.148263 0.776613 149 255 98 0.088074
-0.025030 -0.148249 0.778396 178 255 70 0.152897
-0.032233 -0.148932 0.776636 143 255 105 0.072639
-0.035878 -0.149495 0.776742 144 255 103 0.074465
-0.026657 -0.148291 0.789058 146 255 102 0.079483
-0.030910 -0.147952 0.789023 128 255 120 0.037025
-0.029850 -0.148922 0.786522 144 255 103 0.076681
-0.034101 -0.148582 0.786447 131 255 117 0.044995
-0.035182 -0.147570 0.788936 0 74 255 0.013338
-0.033188 -0.149318 0.783851 141 255 107 0.069593
-0.038331 -0.148222 0.786329 0 208 255 0.020391
-0.037458 -0.149022 0.783781 128 255 120 0.038877
-0.041667 -0.148749 0.783690 36 255 211 0.027105
-0.039386 -0.147281 0.788840 0 0 204 0.006268
-0.042608 -0.147963 0.786258 0 7 255 0.011283
-0.043600 -0.147112 0.788795 0 0 204 0.005100
-0.036575 -0.149676 0.781142 139 255 108 0.066120
-0.040751 -0.149405 0.781148 131 255 117 0.045088
-0.032795 -0.149489 0.781213 144 255 103 0.078027
-0.029014 -0.149094 0.781239 156 255 92 0.103136
-0.029365 -0.149126 0.783885 149 255 98 0.089369
-0.025573 -0.148853 0.783828 164 255 83 0.122986
-0.025212 -0.148699 0.781124 169 255 78 0.132939
-0.026025 -0.148733 0.786490 156 255 92 0.104762
-0.047407 -0.146737 0.788194 0 0 128 0.002805
-0.046410 -0.147671 0.785536 0 0 204 0.006643
-0.050214 -0.147120 0.784903 0 0 128 0.002535
-0.051188 -0.146350 0.787535 0 0 128 0.003129
-0.049293 -0.147913 0.782310 0 0 204 0.005868
-0.053999 -0.146637 0.784327 0 0 128 0.002028
-0.053063 -0.147391 0.781731 0 0 128 0.002443
-0.054938 -0.146128 0.786967 0 0 128 0.003111
-0.052101 -0.148152 0.779181 0 7 255 0.007913
-0.048333 -0.148525 0.779783 0 74 255 0.013136
-0.044542 -0.148940 0.780419 36 255 211 0.024912
-0.045429 -0.148310 0.782952 0 74 255 0.011845
0.012634 -0.083127 0.775992 0 0 204 0.007721
0.011219 -0.079826 0.775274 0 7 255 0.008561
0.011250 -0.076680 0.776061 0 74 255 0.014653
0.009874 -0.073446 0.775233 0 7 255 0.011115
0.010304 -0.070210 0.775402 0 0 204 0.006302
0.006905 -0.069919 0.772953 0 7 255 0.008491
0.013089 -0.073764 0.777713 0 7 255 0.011614
0.013647 -0.070473 0.777708 0 0 204 0.005357
0.014209 -0.076799 0.778516 0 74 255 0.012767
0.015347 -0.079789 0.779245 0 74 255 0.013237
0.015156 -0.082913 0.778646 0 7 255 0.010996
0.017696 -0.082714 0.781124 0 74 255 0.012217
0.005134 -0.066750 0.772481 0 7 255 0.010673
0.007063 -0.066977 0.773827 0 0 204 0.007731
0.005448 -0.063556 0.773127 0 0 204 0.007124
0.003520 -0.063391 0.771887 0 7 255 0.010435
0.007439 -0.063743 0.774383 0 0 204 0.006876
0.004021 -0.060057 0.772365 0 0 204 0.004487
0.005998 -0.060191 0.773599 0 0 128 0.003553
0.004724 -0.056398 0.772753 0 0 128 0.002310
0.002023 -0.059916 0.771177 0 0 204 0.005720
0.002697 -0.056311 0.771551 0 0 128 0.002657
0.000663 -0.056264 0.770388 0 0 128 0.002660
0.008000 -0.060321 0.774804 0 0 128 0.002060
0.006717 -0.056556 0.773938 0 0 128 0.001774
0.008707 -0.056707 0.775158 0 0 128 0.001222
0.011062 -0.063818 0.776528 0 0 128 0.002900
0.010572 -0.067169 0.776084 0 0 204 0.005572
0.017659 -0.057158 0.780147 0 0 128 0.001672
0.018285 -0.060856 0.780998 0 0 128 0.002553
0.017171 -0.064311 0.780426 0 0 128 0.002755
0.018109 -0.067702 0.780815 0 0 128 0.001958
0.017310 -0.070760 0.780029 0 0 204 0.004480
0.020912 -0.070936 0.782271 0 0 204 0.006068
0.014389 -0.067509 0.778591 0 0 128 0.003488
0.013164 -0.064025 0.777948 0 0 128 0.003187
0.011970 -0.060459 0.777257 0 0 128 0.002019
0.014172 -0.060637 0.778610 0 0 128 0.002303
0.013187 -0.056965 0.777700 0 0 128 0.001154
0.010952 -0.056835 0.776427 0 0 128 0.001146
0.015388 -0.057091 0.778964 0 0 128 0.001109
0.021520 -0.074088 0.783105 0 0 204 0.007475
0.020558 -0.076942 0.783155 0 7 255 0.010649
0.021236 -0.079619 0.783942 0 7 255 0.011271
0.020454 -0.082496 0.783554 0 74 255 0.012452
0.023213 -0.082323 0.785759 0 74 255 0.013311
0.018261 -0.079824 0.781803 0 74 255 0.012809
0.017372 -0.076855 0.780837 0 7 255 0.009648
0.016412 -0.073837 0.779889 0 0 204 0.007226
0.004233 -0.083744 0.766244 0 7 255 0.008598
0.002440 -0.080201 0.765474 0 0 204 0.005117
0.001558 -0.076874 0.766150 0 0 204 0.004491
-0.000272 -0.073601 0.765658 0 0 204 0.004802
-0.000885 -0.070103 0.766205 0 0 204 0.006593
-0.003106 -0.070433 0.764030 0 0 128 0.003742
0.001827 -0.073344 0.767905 0 0 204 0.007399
0.001318 -0.069889 0.768265 0 0 204 0.007465
0.003634 -0.076653 0.768442 0 0 204 0.006044
0.005428 -0.079996 0.768950 0 0 204 0.005631
0.006154 -0.083554 0.768518 0 7 255 0.008121
0.008057 -0.083396 0.770814 0 0 204 0.007666
-0.005051 -0.067428 0.763815 0 0 204 0.005504
-0.005812 -0.064118 0.764585 0 7 255 0.009193
-0.007567 -0.061104 0.764030 0 0 204 0.006839
-0.007881 -0.057639 0.764222 0 0 128 0.003269
-0.010188 -0.058275 0.762230 0 0 128 0.002533
-0.005258 -0.060494 0.766144 0 7 255 0.010305
-0.005505 -0.056950 0.766125 0 0 128 0.003152
-0.003545 -0.063756 0.766647 0 74 255 0.014092
-0.001727 -0.066928 0.767016 0 7 255 0.011645
0.000539 -0.063498 0.769958 0 141 255 0.015655
0.002289 -0.066774 0.770291 0 7 255 0.011149
0.004070 -0.069918 0.770693 0 0 204 0.007341
-0.002564 -0.060185 0.768060 0 7 255 0.008787
-0.002469 -0.056551 0.768346 0 0 128 0.003105
0.006929 -0.073295 0.772815 0 7 255 0.011372
0.008496 -0.076571 0.773488 0 7 255 0.011002
0.008853 -0.079884 0.772867 0 0 204 0.006988
0.010438 -0.083273 0.773477 0 7 255 0.007897
0.005930 -0.076591 0.770943 0 7 255 0.008690
0.004233 -0.073260 0.770238 0 7 255 0.009954
-0.009473 -0.082728 0.753506 0 0 128 0.003838
-0.013439 -0.076033 0.752643 0 0 204 0.006416
-0.010495 -0.078312 0.754070 0 0 204 0.005508
-0.007609 -0.080733 0.755372 0 7 255 0.010338
-0.005781 -0.084295 0.755607 0 74 255 0.014149
-0.003268 -0.087454 0.756706 36 255 211 0.025365
-0.018626 -0.072248 0.750597 0 0 128 0.003561
-0.021610 -0.066145 0.749042 0 208 255 0.020244
-0.019199 -0.068248 0.751081 0 0 204 0.004572
-0.016593 -0.070054 0.752611 0 0 204 0.004106
-0.015108 -0.073076 0.752557 0 0 204 0.005002
-0.017271 -0.062242 0.754434 0 0 204 0.005687
-0.015455 -0.064949 0.755300 0 0 128 0.003124
-0.014299 -0.068178 0.755233 0 0 128 0.002845
-0.012165 -0.070622 0.755666 0 0 204 0.004598
-0.010532 -0.073495 0.755293 0 74 255 0.014894
-0.017742 -0.066814 0.752655 0 0 204 0.004218
-0.018698 -0.063402 0.752450 0 74 255 0.014837
-0.007108 -0.075556 0.757501 0 74 255 0.011998
-0.005451 -0.079126 0.757440 0 141 255 0.016693
-0.003248 -0.082229 0.758262 0 208 255 0.021320
-0.001546 -0.085870 0.758708 90 255 157 0.027936
-0.007957 -0.142284 0.801667 126 255 122 0.032223
-0.006001 -0.141413 0.797995 0 208 255 0.023330
-0.010072 -0.143235 0.800181 129 255 118 0.042024
-0.004034 -0.140475 0.794197 126 255 122 0.031401
-0.008267 -0.142417 0.796523 90 255 157 0.029582
-0.006313 -0.141391 0.792799 126 255 122 0.033325
-0.012282 -0.144043 0.798667 133 255 115 0.048621
-0.002170 -0.139024 0.790442 134 255 113 0.052497
-0.000525 -0.137182 0.786556 149 255 98 0.087111
0.001490 -0.136327 0.787671 148 255 100 0.085627
-0.000257 -0.138202 0.791538 131 255 117 0.045839
-0.002203 -0.139548 0.795359 36 255 211 0.023907
0.003438 -0.135561 0.788738 146 255 102 0.080259
-0.010080 -0.143253 0.795237 128 255 120 0.038240
-0.014137 -0.144824 0.797331 138 255 110 0.059759
-0.012045 -0.143969 0.794030 129 255 118 0.040292
-0.008790 -0.142520 0.791207 133 255 115 0.048852
-0.016207 -0.145311 0.796029 133 255 115 0.050166
-0.005658 -0.140564 0.788211 136 255 112 0.055997
-0.003862 -0.138505 0.784715 146 255 102 0.079248
0.004418 -0.120569 0.775562 0 74 255 0.015489
0.003167 -0.125136 0.778190 0 7 255 0.009027
0.002022 -0.129552 0.780858 0 141 255 0.018725
0.006844 -0.119722 0.777008 0 208 255 0.019898
0.000921 -0.133597 0.783740 131 255 117 0.045595
-0.001733 -0.134584 0.782379 128 255 120 0.036460
0.006164 -0.124136 0.779800 0 74 255 0.014727
0.005542 -0.128289 0.782651 0 208 255 0.022133
0.009025 -0.119009 0.778428 36 255 211 0.024775
0.008502 -0.123304 0.781192 0 141 255 0.017378
0.004678 -0.132148 0.785578 134 255 113 0.051655
-0.010846 -0.142021 0.805055 0 7 255 0.010408
-0.014871 -0.142177 0.807773 0 7 255 0.009165
-0.017614 -0.142378 0.811405 0 0 204 0.007182
-0.021492 -0.142992 0.814255 0 7 255 0.009018
-0.018960 -0.142714 0.815812 0 74 255 0.012588
-0.020108 -0.142717 0.809814 0 0 204 0.007108
-0.024057 -0.143172 0.812732 0 0 204 0.007489
-0.017215 -0.142671 0.806221 0 7 255 0.010267
-0.014171 -0.143211 0.802781 0 141 255 0.016743
-0.021564 -0.142471 0.819684 0 0 204 0.005945
-0.025477 -0.142245 0.822799 0 0 128 0.002480
-0.028037 -0.142066 0.826547 0 7 255 0.008324
-0.030810 -0.142252 0.825165 0 7 255 0.009163
-0.028162 -0.142514 0.821333 0 0 128 0.003069
-0.025485 -0.142734 0.817464 0 0 128 0.002810
-0.037119 -0.142649 0.821919 0 74 255 0.011815
-0.033244 -0.142711 0.818689 0 0 128 0.002243
-0.030394 -0.142886 0.814720 0 0 128 0.000650
-0.026398 -0.143249 0.811367 0 0 204 0.004858
-0.028775 -0.143299 0.809972 0 0 128 0.003300
-0.028047 -0.142838 0.816061 0 0 128 0.001342
-0.030759 -0.142639 0.819971 0 0 128 0.002796
-0.033386 -0.142387 0.823824 0 7 255 0.009147
-0.025678 -0.143226 0.806237 0 7 255 0.009091
-0.021506 -0.143478 0.803364 0 7 255 0.010349
-0.018321 -0.144295 0.800062 0 141 255 0.016234
-0.016309 -0.143808 0.801343 0 141 255 0.019304
-0.019405 -0.143100 0.804744 0 7 255 0.011315
-0.022322 -0.142918 0.808347 0 7 255 0.008422
-0.050932 -0.143539 0.816166 0 74 255 0.014053
-0.050949 -0.143834 0.811694 0 0 204 0.004297
-0.054934 -0.143775 0.814795 0 74 255 0.015190
-0.054990 -0.144084 0.810318 0 0 204 0.005668
-0.050996 -0.143919 0.807154 0 0 128 0.000913
-0.050974 -0.144030 0.802444 0 0 204 0.006583
-0.045690 -0.143607 0.803462 0 7 255 0.010081
-0.045855 -0.143356 0.808197 0 0 128 0.003667
-0.045903 -0.143290 0.812761 0 0 128 0.002560
-0.040480 -0.143493 0.804522 0 7 255 0.011075
-0.060004 -0.144215 0.813455 0 208 255 0.023376
-0.062527 -0.144240 0.812618 0 208 255 0.020257
-0.061268 -0.144574 0.808994 0 74 255 0.013589
-0.065062 -0.144369 0.811769 0 208 255 0.021851
-0.063774 -0.144680 0.808150 0 7 255 0.010418
-0.062422 -0.144744 0.804432 0 0 204 0.003981
-0.060387 -0.144485 0.800505 0 0 128 0.002143
-0.059331 -0.144415 0.805089 0 0 128 0.001674
-0.057289 -0.144266 0.801191 0 0 204 0.004806
-0.056200 -0.144169 0.805720 0 0 128 0.001069
-0.058133 -0.144272 0.809677 0 0 204 0.006887
-0.054170 -0.144109 0.801794 0 0 204 0.006184
-0.056698 -0.145291 0.790339 0 0 204 0.005714
-0.053013 -0.145314 0.790925 0 7 255 0.008084
-0.054802 -0.144723 0.794387 0 7 255 0.010225
-0.049252 -0.145514 0.791479 0 0 204 0.007286
-0.051128 -0.144626 0.794873 0 74 255 0.012740
-0.047336 -0.144730 0.795417 0 7 255 0.010174
-0.045447 -0.145801 0.792069 0 0 204 0.004823
-0.052910 -0.144269 0.798418 0 7 255 0.011524
-0.049200 -0.144133 0.798896 0 74 255 0.014175
-0.056062 -0.144340 0.797766 0 7 255 0.009173
-0.059172 -0.144483 0.797119 0 0 204 0.005938
-0.057953 -0.144738 0.793748 0 7 255 0.008462
-0.038499 -0.145983 0.792605 0 0 204 0.004067
-0.041988 -0.144858 0.796430 0 7 255 0.009481
-0.034309 -0.146192 0.792684 0 0 204 0.004766
-0.037773 -0.144787 0.796403 0 74 255 0.012749
-0.033562 -0.144839 0.796368 0 141 255 0.015810
-0.030149 -0.146440 0.792760 0 7 255 0.009614
-0.041203 -0.144002 0.800410 0 74 255 0.014292
-0.037083 -0.143723 0.800290 36 255 211 0.026538
0.003896 -0.137753 0.808923 0 7 255 0.011252
0.001063 -0.137972 0.812674 0 7 255 0.009497
-0.003369 -0.138812 0.815478 0 7 255 0.010954
-0.006010 -0.139557 0.819058 0 0 204 0.006217
-0.010047 -0.140875 0.821569 0 7 255 0.008064
-0.006898 -0.140188 0.823529 0 0 204 0.005528
-0.009170 -0.140443 0.817070 0 0 204 0.004756
-0.013168 -0.141552 0.819585 0 7 255 0.010527
-0.006518 -0.139795 0.813494 0 7 255 0.008430
-0.003773 -0.139416 0.809835 0 0 204 0.006699
0.000677 -0.138744 0.807133 0 7 255 0.011120
-0.002471 -0.139810 0.805263 0 74 255 0.013121
-0.009371 -0.140293 0.827158 0 0 204 0.004207
-0.013368 -0.140767 0.829833 0 0 204 0.005842
-0.015686 -0.140883 0.833331 0 74 255 0.013671
-0.018908 -0.141220 0.831604 0 74 255 0.012591
-0.016520 -0.141237 0.827981 0 0 204 0.006025
-0.014106 -0.141227 0.824283 0 0 204 0.005153
-0.025138 -0.141799 0.828177 0 7 255 0.008173
-0.022596 -0.141962 0.824459 0 0 204 0.004201
-0.018584 -0.141934 0.821566 0 0 204 0.004992
-0.016045 -0.142171 0.817697 0 74 255 0.011832
-0.019565 -0.141620 0.826218 0 0 204 0.005124
-0.022020 -0.141559 0.829787 0 7 255 0.010040
-0.014993 -0.141877 0.813193 0 0 204 0.006182
-0.012305 -0.141456 0.809585 0 7 255 0.009282
-0.008219 -0.140869 0.806992 0 7 255 0.008803
-0.005221 -0.141055 0.803489 0 208 255 0.020852
-0.009512 -0.140679 0.811505 0 7 255 0.008144
-0.012075 -0.141272 0.815065 0 0 204 0.005763
0.013603 -0.086521 0.777058 0 0 204 0.005745
0.013497 -0.090395 0.776981 0 0 128 0.003073
0.014631 -0.094267 0.777945 0 0 128 0.003350
0.014646 -0.098733 0.777686 0 74 255 0.014377
0.016591 -0.098139 0.780035 0 7 255 0.010791
0.012625 -0.094754 0.775552 0 0 204 0.004382
0.012661 -0.099176 0.775367 0 74 255 0.015539
0.011508 -0.090731 0.774383 0 0 128 0.003418
0.010405 -0.086917 0.773248 0 0 204 0.004798
0.016822 -0.102371 0.781488 0 0 204 0.004810
0.016210 -0.107239 0.781699 0 0 204 0.006088
0.016491 -0.111791 0.783011 0 74 255 0.013921
0.015824 -0.116645 0.783355 129 255 118 0.039366
0.017830 -0.115856 0.785315 128 255 120 0.036314
0.014481 -0.112585 0.781080 0 74 255 0.014822
0.013623 -0.117399 0.781618 126 255 122 0.034921
0.014230 -0.107929 0.779592 0 0 204 0.007594
0.014009 -0.103338 0.778055 0 7 255 0.010025
0.009889 -0.113934 0.777182 0 7 255 0.010510
0.010768 -0.108928 0.776105 0 7 255 0.008596
0.010634 -0.104102 0.774265 0 74 255 0.013555
0.011016 -0.099492 0.773514 0 141 255 0.016930
0.009489 -0.099639 0.771500 0 208 255 0.020336
0.012171 -0.103838 0.776050 0 74 255 0.012285
0.012356 -0.108517 0.777811 0 7 255 0.008919
0.012560 -0.113161 0.779385 0 74 255 0.014561
0.011740 -0.118098 0.780250 126 255 122 0.032003
0.008360 -0.095219 0.770060 0 7 255 0.010461
0.007977 -0.091133 0.769799 0 0 204 0.005072
0.006618 -0.087280 0.768550 0 0 204 0.006358
0.008437 -0.087162 0.770886 0 0 204 0.004826
0.009660 -0.090985 0.771996 0 0 128 0.002995
0.010772 -0.095029 0.773198 0 0 204 0.006370
-0.004995 -0.094581 0.754148 139 255 108 0.066219
-0.003203 -0.097515 0.756188 144 255 103 0.077560
-0.001713 -0.101009 0.758598 151 255 97 0.093216
-0.000415 -0.104629 0.761508 164 255 83 0.122528
-0.003610 -0.093280 0.755654 128 255 120 0.039025
-0.001842 -0.096515 0.757839 134 255 113 0.050998
0.000149 -0.099847 0.760736 136 255 112 0.055234
0.001700 -0.103626 0.763698 131 255 117 0.046019
-0.000810 -0.122068 0.772205 126 255 122 0.032236
-0.000520 -0.117476 0.769835 143 255 105 0.072993
-0.000389 -0.113018 0.767308 153 255 95 0.096214
-0.002726 -0.121934 0.770053 139 255 108 0.062953
-0.002430 -0.117371 0.767705 151 255 97 0.091878
-0.000301 -0.108642 0.764470 153 255 95 0.097187
0.001337 -0.107893 0.766189 131 255 117 0.046046
-0.004425 -0.121474 0.767864 169 255 78 0.133175
-0.002478 -0.113211 0.764795 185 255 63 0.168704
0.001388 -0.112161 0.768800 134 255 113 0.052521
0.003070 -0.106920 0.767446 0 208 255 0.022050
0.003326 -0.102559 0.765071 0 208 255 0.021275
0.003189 -0.111464 0.770137 0 74 255 0.015321
0.001965 -0.116625 0.771814 126 255 122 0.031541
0.001167 -0.121649 0.773666 0 74 255 0.013357
-0.000546 -0.095053 0.759428 0 7 255 0.009231
-0.002362 -0.091748 0.757234 0 141 255 0.016637
-0.000784 -0.090170 0.759026 0 74 255 0.013567
0.000976 -0.093800 0.761018 0 0 204 0.007696
0.002111 -0.098191 0.762756 0 74 255 0.014402
0.001308 -0.088482 0.761449 0 141 255 0.018995
0.002445 -0.092595 0.762650 0 7 255 0.009494
0.004049 -0.096742 0.764583 0 141 255 0.015842
0.004876 -0.101551 0.766251 90 255 157 0.029678
0.005795 -0.105611 0.769376 0 141 255 0.015805
0.004943 -0.110615 0.771178 0 0 204 0.006833
0.004455 -0.115635 0.773259 0 0 204 0.007386
-0.003484 -0.126694 0.774161 0 141 255 0.016502
-0.006473 -0.130802 0.774747 0 7 255 0.010584
-0.009023 -0.135186 0.776570 0 74 255 0.012422
-0.011860 -0.139013 0.777160 36 255 211 0.026153
-0.010692 -0.139881 0.779656 133 255 115 0.048516
-0.010061 -0.134254 0.774081 0 7 255 0.009273
-0.013045 -0.137905 0.774590 0 141 255 0.016398
-0.008272 -0.130162 0.771907 90 255 157 0.030926
-0.005171 -0.126256 0.771430 128 255 120 0.037412
-0.014061 -0.143267 0.782008 136 255 112 0.055261
-0.014118 -0.142310 0.779408 136 255 112 0.058180
-0.017724 -0.145223 0.781818 139 255 108 0.062622
-0.017968 -0.145665 0.784506 139 255 108 0.062892
-0.017696 -0.144472 0.779136 144 255 103 0.076680
-0.021676 -0.147490 0.784196 154 255 93 0.101374
-0.021515 -0.146916 0.781548 154 255 93 0.098932
-0.022206 -0.147331 0.786851 143 255 105 0.070573
-0.021311 -0.146432 0.778799 153 255 95 0.095831
-0.018985 -0.143572 0.776539 128 255 120 0.037111
-0.015430 -0.141395 0.776871 90 255 157 0.030841
-0.019357 -0.141586 0.773180 0 74 255 0.013460
-0.016443 -0.139363 0.772626 0 74 255 0.014787
-0.013543 -0.136789 0.772032 0 141 255 0.016755
-0.022132 -0.145117 0.775881 133 255 115 0.050430
-0.008797 -0.128862 0.769577 134 255 113 0.051494
-0.011185 -0.132990 0.770813 90 255 157 0.029680
0.010875 -0.122402 0.782431 36 255 211 0.026169
0.009746 -0.126686 0.784752 90 255 157 0.030057
0.011867 -0.125949 0.785975 126 255 122 0.034590
0.012856 -0.121663 0.783728 90 255 157 0.029616
0.009405 -0.130341 0.787982 136 255 112 0.057691
0.008748 -0.133558 0.791405 148 255 100 0.085243
0.006077 -0.134562 0.790127 146 255 102 0.080344
0.006789 -0.131357 0.786642 134 255 113 0.053688
0.015202 -0.120762 0.785469 90 255 157 0.029735
0.014526 -0.124934 0.787663 129 255 118 0.042809
0.016657 -0.124088 0.789362 129 255 118 0.040008
0.017333 -0.120041 0.787249 90 255 157 0.030290
0.014623 -0.128470 0.790980 143 255 105 0.070750
0.014391 -0.131504 0.794469 154 255 93 0.100660
0.011629 -0.132571 0.792897 154 255 93 0.098829
0.011950 -0.129487 0.789319 139 255 108 0.065296
0.005217 -0.137024 0.804499 0 74 255 0.012346
0.006581 -0.136242 0.800170 0 208 255 0.020923
0.002028 -0.138054 0.802855 0 7 255 0.011439
0.003312 -0.137306 0.798553 0 141 255 0.018403
0.007715 -0.135192 0.795739 133 255 115 0.048689
0.010696 -0.134204 0.797224 134 255 113 0.053015
0.009476 -0.135320 0.801667 0 208 255 0.022974
-0.000820 -0.139106 0.801249 0 74 255 0.013037
0.000741 -0.138353 0.797086 0 208 255 0.020304
-0.003713 -0.140354 0.799520 0 141 255 0.016675
0.002246 -0.137196 0.792900 129 255 118 0.042150
0.004811 -0.136205 0.794282 129 255 118 0.041068
0.054463 -0.021576 0.805237 0 0 204 0.004100
0.057173 -0.021163 0.806788 0 0 128 0.003788
0.057519 -0.025184 0.805481 0 0 128 0.001542
0.059924 -0.020772 0.808326 0 0 204 0.004179
0.060266 -0.024831 0.807095 0 0 128 0.001422
0.063009 -0.024463 0.808727 0 0 128 0.001951
0.062727 -0.020359 0.809882 0 0 204 0.006324
0.060593 -0.028985 0.805672 0 0 128 0.002177
0.063350 -0.028632 0.807397 0 0 128 0.001339
0.063664 -0.032808 0.805715 0 7 255 0.008989
0.061033 -0.033219 0.804154 0 74 255 0.013254
0.058019 -0.029328 0.804127 0 0 204 0.004359
0.058368 -0.033661 0.802701 0 74 255 0.014482
0.055416 -0.029748 0.802645 0 0 204 0.005952
0.054966 -0.025565 0.804002 0 0 128 0.002206
0.052408 -0.026015 0.802555 0 0 128 0.003125
0.055606 -0.034203 0.801299 0 74 255 0.012164
0.052740 -0.030213 0.801215 0 0 204 0.005308
0.052797 -0.034801 0.799968 0 0 204 0.007676
0.051906 -0.022058 0.803831 0 0 204 0.004028
0.065609 -0.019888 0.811255 0 7 255 0.008103
0.068736 -0.019379 0.812768 0 74 255 0.011876
0.068640 -0.023629 0.811676 0 0 128 0.003407
0.071919 -0.018833 0.814259 0 74 255 0.014263
0.071715 -0.023198 0.813301 0 0 204 0.004299
0.071695 -0.027458 0.812132 0 0 204 0.004419
0.071964 -0.031713 0.810641 0 0 128 0.001763
0.068859 -0.027878 0.810539 0 0 128 0.002621
0.069211 -0.032047 0.808908 0 0 128 0.003650
0.066085 -0.028264 0.808942 0 0 128 0.001411
0.065791 -0.024064 0.810198 0 0 128 0.002699
0.066441 -0.032405 0.807254 0 0 204 0.006833
0.070115 -0.049940 0.805713 0 0 204 0.005087
0.070630 -0.045621 0.806471 0 0 204 0.006811
0.067798 -0.046088 0.805358 0 0 204 0.004451
0.067489 -0.050236 0.804518 0 0 204 0.005563
0.068432 -0.041443 0.806001 0 7 255 0.009598
0.065127 -0.046405 0.804122 0 0 128 0.002950
0.065649 -0.041906 0.804833 0 0 204 0.005594
0.062925 -0.042350 0.803680 0 0 128 0.003202
0.064775 -0.050769 0.803385 0 0 204 0.004741
0.062407 -0.046947 0.802963 0 0 128 0.002244
0.062020 -0.051358 0.802271 0 0 128 0.003212
0.066138 -0.037126 0.805748 0 7 255 0.011045
0.063434 -0.037596 0.804501 0 7 255 0.008278
0.069016 -0.036691 0.807275 0 7 255 0.010081
0.071818 -0.036285 0.808917 0 0 204 0.006640
0.071443 -0.040847 0.807385 0 74 255 0.013131
0.059560 -0.051755 0.800978 0 0 204 0.004019
0.059624 -0.047555 0.801601 0 0 128 0.001791
0.057137 -0.048000 0.800273 0 0 128 0.002064
0.057075 -0.052304 0.799722 0 0 204 0.004812
0.057333 -0.043515 0.800981 0 0 128 0.001280
0.054630 -0.048480 0.798931 0 0 128 0.002734
0.054755 -0.044072 0.799679 0 0 128 0.001011
0.052236 -0.044579 0.798386 0 0 128 0.000881
0.054565 -0.052869 0.798507 0 0 204 0.004784
0.052085 -0.049133 0.797742 0 0 128 0.002179
0.052126 -0.053389 0.797213 0 0 204 0.006266
0.055141 -0.039271 0.800370 0 0 128 0.003731
0.052474 -0.039928 0.799199 0 0 128 0.001621
0.057955 -0.038657 0.801719 0 0 204 0.005568
0.060724 -0.038064 0.803090 0 7 255 0.008003
0.060150 -0.042934 0.802334 0 0 128 0.002320
0.034204 -0.001439 0.846085 0 0 128 0.001575
0.037429 -0.001480 0.847774 0 0 128 0.001671
0.038671 -0.003075 0.845490 0 0 204 0.006461
0.040667 -0.001583 0.849456 0 0 128 0.001778
0.041885 -0.003121 0.847201 0 7 255 0.007817
0.045213 -0.003254 0.848941 0 7 255 0.009001
0.043983 -0.001788 0.851224 0 0 128 0.002310
0.043146 -0.004502 0.844744 0 141 255 0.017509
0.046475 -0.004608 0.846483 0 208 255 0.021625
0.047840 -0.005625 0.843884 90 255 157 0.030636
0.044576 -0.005622 0.842098 90 255 157 0.029931
0.040016 -0.004542 0.843006 0 141 255 0.017969
0.041448 -0.005659 0.840414 90 255 157 0.030350
0.036878 -0.004607 0.841330 0 141 255 0.019356
0.035519 -0.003122 0.843791 0 0 204 0.006921
0.032306 -0.003118 0.842124 0 0 204 0.006698
0.038300 -0.005730 0.838734 36 255 211 0.026095
0.033662 -0.004631 0.839688 0 208 255 0.019684
0.035094 -0.005778 0.837079 36 255 211 0.026426
0.030979 -0.001433 0.844409 0 0 128 0.001578
0.047596 -0.001908 0.853159 0 0 128 0.002495
0.051309 -0.002118 0.855127 0 0 128 0.003048
0.052479 -0.003541 0.852810 0 7 255 0.010912
0.055035 -0.002476 0.857037 0 0 204 0.004441
0.056205 -0.003832 0.854738 0 74 255 0.013690
0.057462 -0.004984 0.852270 36 255 211 0.026537
0.058857 -0.005780 0.849612 90 255 157 0.029576
0.053749 -0.004805 0.850339 36 255 211 0.024058
0.055126 -0.005705 0.847678 90 255 157 0.028089
0.050096 -0.004668 0.848401 0 208 255 0.022003
0.048811 -0.003362 0.850861 0 7 255 0.009568
0.051456 -0.005658 0.845767 126 255 122 0.031637
0.062947 -0.005935 0.840400 0 74 255 0.014961
0.059266 -0.006136 0.838647 0 74 255 0.013871
0.057708 -0.006561 0.841812 128 255 120 0.036624
0.055686 -0.006383 0.836896 0 141 255 0.016801
0.054150 -0.006666 0.839996 128 255 120 0.035857
0.050660 -0.006826 0.838241 126 255 122 0.034757
0.052205 -0.006541 0.835136 0 141 255 0.016953
0.052691 -0.006464 0.842939 129 255 118 0.042757
0.049201 -0.006503 0.841150 129 255 118 0.040271
0.056365 -0.006405 0.844849 129 255 118 0.041940
0.060132 -0.006393 0.846766 129 255 118 0.039298
0.061478 -0.006431 0.843680 126 255 122 0.034387
0.048968 -0.006639 0.833444 0 74 255 0.014614
0.045889 -0.006728 0.831757 0 74 255 0.012853
0.044237 -0.006960 0.834853 90 255 157 0.030334
0.042811 -0.006798 0.830100 0 7 255 0.011063
0.041170 -0.007018 0.833188 90 255 157 0.029618
0.038051 -0.007146 0.831545 90 255 157 0.029992
0.039670 -0.007012 0.828475 0 74 255 0.012507
0.039628 -0.006650 0.836052 126 255 122 0.034013
0.036530 -0.006761 0.834395 128 255 120 0.038890
0.042803 -0.006567 0.837729 128 255 120 0.036856
0.045943 -0.006510 0.839414 128 255 120 0.037083
0.047396 -0.006854 0.836564 126 255 122 0.031650
-0.007735 -0.124408 0.873686 0 74 255 0.013973
-0.007325 -0.126345 0.869684 0 7 255 0.008366
-0.010806 -0.124443 0.872120 0 141 255 0.018111
-0.010422 -0.126381 0.868118 0 74 255 0.012302
-0.006954 -0.128707 0.865784 0 0 128 0.003820
-0.006483 -0.131562 0.862077 0 0 204 0.007000
-0.003479 -0.131158 0.863713 0 0 204 0.005681
-0.003959 -0.128381 0.867483 0 0 128 0.003542
-0.004373 -0.126080 0.871394 0 7 255 0.008646
-0.000488 -0.130728 0.865321 0 0 204 0.005534
-0.013771 -0.124477 0.870457 36 255 211 0.024170
-0.013254 -0.126576 0.866426 0 74 255 0.014864
-0.016815 -0.124441 0.868887 90 255 157 0.028706
-0.012810 -0.129210 0.862582 0 0 204 0.005139
-0.009415 -0.131827 0.860434 0 0 204 0.006132
-0.009911 -0.128939 0.864239 0 0 204 0.004368
-0.004213 -0.137812 0.849873 90 255 157 0.028061
-0.000497 -0.138814 0.847271 128 255 120 0.036439
-0.004944 -0.136211 0.854126 36 255 211 0.023677
-0.001224 -0.137466 0.851615 90 255 157 0.027851
-0.002065 -0.135690 0.855852 0 208 255 0.019537
0.002509 -0.138528 0.849040 128 255 120 0.036535
-0.005749 -0.133924 0.858174 0 74 255 0.012207
-0.008703 -0.134437 0.856593 0 141 255 0.016098
0.001813 -0.137171 0.853292 90 255 157 0.027508
0.005433 -0.138224 0.850732 128 255 120 0.036292
0.001007 -0.135281 0.857386 0 141 255 0.018058
0.004725 -0.136739 0.854961 36 255 211 0.025161
0.003946 -0.134912 0.859027 0 141 255 0.017969
0.008391 -0.138009 0.852391 129 255 118 0.041833
0.000264 -0.133194 0.861366 0 7 255 0.010419
-0.002780 -0.133529 0.859787 0 7 255 0.010872
0.016265 -0.115783 0.884045 181 255 67 0.162909
0.018032 -0.117253 0.880920 144 255 103 0.075543
0.014764 -0.119346 0.879768 90 255 157 0.028400
0.012848 -0.117780 0.882759 126 255 122 0.034943
0.018207 -0.120412 0.877466 0 208 255 0.021255
0.018423 -0.124020 0.873934 0 0 204 0.004779
0.021624 -0.121745 0.875234 0 141 255 0.018734
0.021411 -0.118175 0.878661 148 255 100 0.085254
0.009762 -0.119849 0.881661 0 208 255 0.020588
0.011680 -0.121572 0.878629 0 74 255 0.015065
0.008489 -0.123218 0.877448 0 208 255 0.020615
0.006514 -0.121519 0.880480 36 255 211 0.023628
0.012094 -0.124701 0.875170 0 208 255 0.020383
0.012450 -0.128104 0.871504 129 255 118 0.042657
0.015444 -0.126273 0.872800 0 208 255 0.021156
0.015027 -0.122585 0.876271 0 7 255 0.009338
0.020681 -0.136266 0.858190 159 255 88 0.109546
0.019989 -0.133676 0.862224 136 255 112 0.058471
0.023545 -0.134937 0.859438 153 255 95 0.093849
0.019349 -0.130677 0.866222 126 255 122 0.031881
0.022806 -0.132032 0.863512 129 255 118 0.042017
0.022145 -0.128589 0.867461 0 7 255 0.011034
0.026383 -0.133025 0.860686 139 255 108 0.062771
0.018845 -0.127361 0.870152 0 7 255 0.009763
0.015882 -0.129391 0.868887 126 255 122 0.032423
0.016405 -0.132194 0.864913 128 255 120 0.038259
0.025711 -0.129780 0.864700 0 141 255 0.017428
0.029406 -0.130752 0.861945 90 255 157 0.030072
0.025349 -0.126304 0.868715 0 74 255 0.012157
0.028854 -0.127481 0.866119 0 208 255 0.022148
0.023403 -0.124044 0.872042 0 74 255 0.012862
0.003339 -0.122716 0.879112 90 255 157 0.027496
0.005278 -0.124482 0.876035 0 208 255 0.022507
0.001951 -0.125219 0.874570 0 141 255 0.016893
0.000037 -0.123413 0.877648 0 208 255 0.020481
0.005629 -0.127125 0.872246 0 141 255 0.017738
0.005965 -0.129774 0.868441 0 141 255 0.016264
0.009238 -0.129135 0.869978 126 255 122 0.031624
0.008869 -0.126236 0.873744 36 255 211 0.026382
-0.003098 -0.123952 0.876089 0 141 255 0.018084
-0.001197 -0.125864 0.872950 0 7 255 0.011437
-0.000840 -0.128147 0.869083 0 0 204 0.004916
0.002742 -0.130320 0.866913 0 7 255 0.008852
0.002318 -0.127681 0.870721 0 7 255 0.009862
0.007802 -0.136479 0.856493 90 255 157 0.029806
0.011535 -0.137808 0.853924 134 255 113 0.052645
0.007194 -0.134569 0.860504 0 141 255 0.019519
0.010862 -0.136023 0.858030 126 255 122 0.033833
0.010309 -0.133972 0.862088 36 255 211 0.024173
0.014549 -0.137496 0.855416 139 255 108 0.064680
0.006584 -0.132230 0.864500 0 74 255 0.013883
0.003316 -0.132747 0.862958 0 7 255 0.009634
0.014062 -0.135677 0.859497 134 255 113 0.054263
0.017613 -0.137059 0.856830 151 255 97 0.092705
0.013466 -0.133257 0.863494 128 255 120 0.035636
0.017103 -0.134973 0.860920 141 255 107 0.066663
0.012958 -0.130794 0.867481 126 255 122 0.035001
0.009744 -0.131563 0.866030 0 208 255 0.019991
0.022892 -0.137049 0.854553 153 255 95 0.096480
0.026620 -0.137135 0.851648 161 255 87 0.114750
0.028854 -0.137241 0.847978 163 255 85 0.119695
0.032594 -0.136563 0.845113 180 255 68 0.158240
0.029647 -0.137492 0.843468 164 255 83 0.123624
0.031781 -0.135983 0.849380 163 255 85 0.120011
0.035520 -0.134497 0.846501 154 255 93 0.101347
0.029520 -0.135682 0.852881 153 255 95 0.095812
0.027259 -0.135143 0.856479 148 255 100 0.082461
0.031622 -0.136200 0.839847 146 255 102 0.079260
0.035255 -0.134436 0.837311 149 255 98 0.089295
0.037446 -0.132719 0.833975 154 255 93 0.100016
0.040627 -0.130897 0.835990 149 255 98 0.088166
0.038492 -0.132759 0.839137 151 255 97 0.090951
0.036339 -0.134302 0.842398 156 255 92 0.102112
0.046349 -0.125696 0.840006 90 255 157 0.027848
0.044362 -0.127679 0.842826 126 255 122 0.033239
0.040780 -0.130649 0.844871 133 255 115 0.048935
0.038627 -0.132036 0.848052 138 255 110 0.060942
0.041480 -0.130290 0.840918 134 255 113 0.053431
0.043562 -0.128323 0.837980 133 255 115 0.049375
0.037822 -0.131042 0.852176 90 255 157 0.029570
0.035449 -0.131026 0.855564 36 255 211 0.027043
0.031608 -0.131890 0.858348 128 255 120 0.035191
0.032389 -0.133517 0.854143 134 255 113 0.052947
0.034737 -0.133637 0.850635 138 255 110 0.059698
0.024303 -0.079639 0.786104 0 74 255 0.011751
0.023845 -0.076944 0.785165 0 7 255 0.010974
0.025054 -0.074114 0.785336 0 7 255 0.008780
0.024582 -0.070874 0.784485 0 0 204 0.006717
0.028074 -0.070802 0.786683 0 0 204 0.004760
0.028406 -0.073916 0.787404 0 7 255 0.007819
0.027132 -0.076831 0.787180 0 74 255 0.013050
0.027372 -0.079514 0.788040 0 7 255 0.011449
0.026173 -0.082181 0.787839 0 74 255 0.013392
0.029056 -0.081931 0.789971 0 74 255 0.013500
0.022004 -0.067785 0.783270 0 0 128 0.001964
0.021196 -0.064402 0.782779 0 0 128 0.003109
0.023248 -0.064434 0.784134 0 0 204 0.005682
0.020427 -0.060954 0.782121 0 0 128 0.002462
0.022576 -0.060815 0.783488 0 0 204 0.004035
0.022022 -0.057229 0.782483 0 0 128 0.002598
0.019811 -0.057277 0.781310 0 0 128 0.002332
0.024708 -0.060794 0.784646 0 0 204 0.004397
0.024214 -0.057125 0.783681 0 0 128 0.002871
0.026334 -0.057081 0.784736 0 0 128 0.003843
0.027040 -0.064225 0.786187 0 0 204 0.005594
0.025678 -0.067674 0.785516 0 0 128 0.002858
0.034703 -0.056424 0.788457 0 74 255 0.011850
0.034832 -0.060104 0.789255 0 0 128 0.003147
0.032993 -0.063920 0.789101 0 0 128 0.003141
0.033097 -0.067319 0.789566 0 0 128 0.003384
0.031618 -0.070660 0.788615 0 0 204 0.004412
0.035159 -0.070360 0.790801 0 0 128 0.002063
0.029413 -0.067664 0.787603 0 0 128 0.003321
0.029079 -0.064177 0.787155 0 0 204 0.004441
0.028838 -0.060580 0.786502 0 0 128 0.002254
0.030913 -0.060433 0.787477 0 0 128 0.002337
0.030600 -0.056895 0.786541 0 7 255 0.008713
0.028538 -0.056971 0.785630 0 0 204 0.006537
0.032699 -0.056659 0.787492 0 7 255 0.010445
0.035222 -0.073601 0.791322 0 0 204 0.005285
0.033720 -0.076813 0.790782 0 208 255 0.022671
0.033832 -0.079448 0.791498 36 255 211 0.024459
0.032227 -0.081902 0.791666 0 141 255 0.017055
0.035430 -0.081908 0.793288 36 255 211 0.024777
0.030606 -0.079464 0.789896 0 141 255 0.016364
0.030452 -0.076827 0.788955 0 141 255 0.018128
0.031843 -0.073846 0.789377 0 0 204 0.007803
0.054357 -0.057227 0.798364 0 0 204 0.005176
0.056817 -0.056774 0.799562 0 0 204 0.005593
0.056650 -0.060959 0.799665 0 0 204 0.005572
0.059237 -0.056318 0.800907 0 0 128 0.003058
0.058996 -0.060596 0.800878 0 0 204 0.004441
0.061348 -0.060324 0.802239 0 0 128 0.002839
0.061630 -0.055881 0.802162 0 0 128 0.002600
0.058866 -0.064611 0.801200 0 0 204 0.005377
0.061247 -0.064365 0.802382 0 0 204 0.004684
0.061190 -0.068272 0.802663 0 0 204 0.007530
0.058901 -0.068369 0.801696 0 0 204 0.007252
0.056628 -0.064849 0.800067 0 0 204 0.007662
0.056573 -0.068529 0.800591 0 7 255 0.008563
0.054323 -0.065062 0.799093 0 0 204 0.006528
0.054384 -0.061250 0.798607 0 0 204 0.005991
0.052079 -0.061640 0.797565 0 0 204 0.005336
0.054242 -0.068612 0.799654 0 0 204 0.005665
0.052016 -0.065332 0.798210 0 0 204 0.004038
0.051858 -0.068750 0.798726 0 0 128 0.002955
0.052094 -0.057643 0.797237 0 0 204 0.006486
0.064112 -0.055522 0.803226 0 0 128 0.002610
0.066759 -0.054982 0.804354 0 0 128 0.002677
0.066244 -0.059549 0.804286 0 0 128 0.003427
0.069409 -0.054569 0.805440 0 0 128 0.002572
0.068883 -0.059048 0.805301 0 0 128 0.003364
0.068438 -0.063526 0.805318 0 0 204 0.004539
0.068316 -0.067670 0.805497 0 0 204 0.006695
0.066024 -0.063860 0.804350 0 0 204 0.004409
0.065972 -0.067854 0.804524 0 0 204 0.007648
0.063637 -0.064127 0.803380 0 0 204 0.004794
0.063824 -0.059941 0.803230 0 0 128 0.003033
0.063587 -0.068058 0.803641 0 0 204 0.007560
0.067129 -0.079248 0.807883 0 0 128 0.003397
0.064369 -0.082200 0.807655 0 0 128 0.003154
0.065138 -0.075703 0.806303 0 0 128 0.002822
0.062411 -0.078901 0.806278 0 0 204 0.004483
0.060480 -0.075405 0.804610 0 0 128 0.003110
0.059630 -0.082000 0.805776 0 0 128 0.002497
0.063107 -0.072065 0.804635 0 0 128 0.003043
0.065582 -0.071925 0.805538 0 0 204 0.004668
0.067970 -0.071891 0.806339 0 0 204 0.004516
0.067551 -0.075730 0.807240 0 0 204 0.003938
0.057654 -0.078763 0.804246 0 0 128 0.003497
0.055176 -0.081889 0.803431 0 0 204 0.005028
0.055625 -0.075274 0.802616 0 0 204 0.005131
0.053013 -0.078693 0.802222 0 0 204 0.004700
0.051067 -0.075350 0.800680 0 7 255 0.007922
0.050719 -0.081740 0.801124 0 141 255 0.016916
0.053640 -0.071929 0.800805 0 0 128 0.003499
0.056140 -0.071953 0.801632 0 0 128 0.002146
0.058520 -0.072039 0.802581 0 0 128 0.002383
0.058035 -0.075344 0.803671 0 0 204 0.004949
0.048502 -0.078623 0.799861 0 0 204 0.005754
0.046624 -0.081645 0.798906 36 255 211 0.025338
0.046591 -0.075602 0.798349 0 0 204 0.005759
0.044474 -0.078854 0.797551 0 74 255 0.013086
0.042631 -0.075987 0.796150 0 7 255 0.007987
0.042598 -0.081695 0.796857 90 255 157 0.030851
0.044665 -0.072560 0.796653 0 0 204 0.005452
0.043048 -0.069504 0.794837 0 0 128 0.001945
0.047417 -0.068949 0.796672 0 0 128 0.002010
0.049079 -0.072297 0.798839 0 0 204 0.005438
0.040638 -0.078991 0.795264 0 208 255 0.022947
0.038878 -0.081800 0.794989 90 255 157 0.030721
0.038857 -0.076268 0.793696 0 74 255 0.013044
0.037157 -0.079253 0.793299 36 255 211 0.025864
0.038865 -0.073227 0.793357 0 0 204 0.005100
0.039006 -0.069928 0.792807 0 0 128 0.001902
0.036839 -0.056139 0.789352 0 141 255 0.015928
0.039007 -0.059573 0.790828 0 7 255 0.008700
0.038959 -0.055846 0.790339 0 141 255 0.016678
0.038848 -0.063170 0.791548 0 0 128 0.002065
0.041125 -0.059326 0.791837 0 7 255 0.008639
0.041026 -0.062985 0.792545 0 0 128 0.002744
0.043244 -0.062742 0.793593 0 0 128 0.003611
0.041026 -0.055477 0.791376 0 74 255 0.015263
0.043238 -0.059002 0.792874 0 7 255 0.008583
0.043159 -0.055137 0.792482 0 74 255 0.013652
0.040903 -0.066400 0.793176 0 0 128 0.001832
0.043106 -0.066251 0.794320 0 0 128 0.001943
0.036888 -0.066898 0.791312 0 0 128 0.002089
0.045314 -0.054742 0.793517 0 74 255 0.013600
0.047586 -0.058297 0.794783 0 7 255 0.011378
0.047542 -0.054320 0.794669 0 74 255 0.012035
0.047554 -0.062114 0.795235 0 7 255 0.010053
0.049827 -0.058034 0.795999 0 7 255 0.008494
0.049781 -0.061825 0.796375 0 0 204 0.007371
0.049805 -0.053885 0.795943 0 0 204 0.007588
0.049629 -0.065565 0.797090 0 0 128 0.003656
0.052455 -0.084915 0.803023 0 141 255 0.019142
0.054128 -0.087868 0.804733 36 255 211 0.026586
0.056810 -0.085065 0.805147 0 7 255 0.009104
0.058479 -0.088117 0.806847 0 74 255 0.015621
0.055824 -0.090833 0.806214 126 255 122 0.032782
0.057445 -0.093564 0.807636 131 255 117 0.043231
0.053362 -0.093201 0.805995 131 255 117 0.043522
0.051752 -0.090423 0.804275 129 255 118 0.040874
0.050048 -0.087510 0.802640 128 255 120 0.036020
0.049182 -0.092713 0.804747 90 255 157 0.030040
0.061224 -0.085190 0.807453 0 0 204 0.006209
0.062735 -0.088434 0.808946 0 7 255 0.008172
0.065827 -0.085472 0.809461 0 7 255 0.008278
0.064296 -0.091378 0.810237 0 74 255 0.012111
0.061638 -0.093929 0.809392 126 255 122 0.033895
0.060037 -0.091059 0.808248 0 208 255 0.019861
0.058438 -0.101142 0.813497 0 141 255 0.017175
0.059428 -0.098735 0.811817 36 255 211 0.024588
0.055525 -0.098333 0.810593 0 74 255 0.015041
0.054687 -0.100847 0.812422 0 74 255 0.012397
0.058462 -0.096070 0.809825 36 255 211 0.026865
0.062693 -0.096542 0.811224 126 255 122 0.031273
0.050927 -0.100588 0.811631 0 7 255 0.010819
0.051602 -0.098014 0.809672 0 0 204 0.007788
0.047743 -0.097619 0.808856 0 74 255 0.014678
0.047224 -0.100422 0.810762 126 255 122 0.033995
0.050323 -0.095333 0.807371 0 7 255 0.009475
0.054443 -0.095766 0.808359 0 208 255 0.022929
0.027096 -0.133892 0.822013 139 255 108 0.062606
0.024946 -0.135086 0.825703 90 255 157 0.030864
0.021191 -0.136323 0.828668 0 7 255 0.011209
0.018796 -0.137350 0.832587 0 7 255 0.008022
0.014949 -0.138374 0.835673 0 74 255 0.013111
0.017751 -0.138308 0.837317 0 141 255 0.017015
0.015902 -0.137402 0.830937 0 0 204 0.005181
0.011981 -0.138288 0.834050 0 0 204 0.006920
0.018419 -0.136476 0.826982 0 0 204 0.007405
0.020937 -0.135480 0.823123 0 208 255 0.019754
0.024577 -0.134273 0.820155 134 255 113 0.053578
0.021857 -0.134634 0.818418 129 255 118 0.041249
0.015334 -0.138508 0.841243 0 7 255 0.011496
0.011482 -0.138656 0.844267 0 74 255 0.014651
0.009246 -0.138458 0.848003 0 208 255 0.022299
0.006267 -0.138649 0.846326 0 208 255 0.020161
0.008555 -0.138695 0.842625 0 7 255 0.009686
0.011020 -0.138437 0.838838 0 0 204 0.005282
-0.001227 -0.139273 0.841810 0 141 255 0.018397
0.002585 -0.138970 0.839120 0 7 255 0.008244
0.004941 -0.138685 0.835375 0 0 204 0.004713
0.008937 -0.138296 0.832401 0 0 204 0.004360
0.005880 -0.138426 0.830685 0 0 128 0.003658
0.008017 -0.138549 0.837139 0 0 204 0.005146
0.005579 -0.138768 0.840941 0 7 255 0.009478
0.003309 -0.138815 0.844589 0 141 255 0.017869
0.008444 -0.137449 0.826928 0 0 204 0.004330
0.012557 -0.136637 0.823790 0 0 204 0.004355
0.015102 -0.135894 0.819877 0 74 255 0.011814
0.019087 -0.135049 0.816679 129 255 118 0.040308
0.016129 -0.135421 0.815072 90 255 157 0.029216
0.018052 -0.135687 0.821487 0 74 255 0.015288
0.015537 -0.136541 0.825413 0 0 204 0.004929
0.012965 -0.137392 0.829335 0 0 128 0.002904
-0.004361 -0.139635 0.839878 0 74 255 0.015577
-0.002074 -0.139502 0.836259 0 7 255 0.008375
-0.005317 -0.139799 0.834396 0 0 204 0.007233
-0.007578 -0.139978 0.837957 0 74 255 0.014757
-0.001320 -0.139277 0.831711 0 0 204 0.004174
-0.000515 -0.139088 0.827198 0 0 204 0.004378
0.002684 -0.138718 0.828971 0 0 204 0.004065
0.001860 -0.138947 0.833560 0 0 204 0.004346
-0.010811 -0.140425 0.836034 0 74 255 0.015307
-0.008531 -0.140308 0.832446 0 7 255 0.008187
-0.006208 -0.139873 0.828958 0 0 204 0.004238
-0.003763 -0.139595 0.825346 0 0 204 0.004424
0.004255 -0.137280 0.814256 0 7 255 0.008633
0.007034 -0.137030 0.810457 0 74 255 0.013332
0.001528 -0.137756 0.818085 0 74 255 0.013662
0.004705 -0.137180 0.819815 0 74 255 0.012785
0.007397 -0.136697 0.815934 0 7 255 0.008392
0.010101 -0.136364 0.812000 0 74 255 0.015133
0.000448 -0.138247 0.822663 0 7 255 0.008232
-0.002817 -0.138827 0.820899 0 0 204 0.007409
0.010574 -0.136338 0.817430 0 7 255 0.008055
0.013161 -0.135892 0.813500 0 208 255 0.022921
0.007965 -0.136879 0.821376 0 7 255 0.008763
0.005269 -0.137665 0.825235 0 0 204 0.005537
0.018468 -0.110999 0.785210 0 7 255 0.010809
0.018261 -0.106485 0.783905 0 0 204 0.005274
0.018978 -0.101726 0.783894 0 0 204 0.004958
0.018605 -0.097485 0.782544 0 7 255 0.008061
0.020565 -0.096763 0.785046 0 0 204 0.005591
0.020914 -0.100850 0.786312 0 0 128 0.003233
0.020368 -0.105716 0.786245 0 0 204 0.006250
0.020572 -0.110159 0.787411 0 74 255 0.012199
0.019835 -0.115062 0.787421 126 255 122 0.033803
0.021856 -0.114201 0.789653 126 255 122 0.031720
0.016597 -0.093816 0.780548 0 0 128 0.001919
0.015568 -0.089956 0.779599 0 0 204 0.005318
0.015929 -0.086261 0.779842 0 7 255 0.010721
0.018221 -0.085880 0.782313 0 74 255 0.014812
0.017822 -0.089525 0.782168 0 7 255 0.008460
0.018660 -0.093181 0.783015 0 0 204 0.004546
0.023259 -0.085135 0.787250 0 208 255 0.021871
0.022381 -0.088528 0.787328 36 255 211 0.024618
0.022861 -0.091870 0.788308 0 141 255 0.017747
0.022574 -0.095910 0.787713 0 0 204 0.005442
0.024573 -0.095049 0.790358 0 7 255 0.009035
0.020828 -0.092582 0.785768 0 7 255 0.008942
0.020031 -0.089034 0.784759 0 74 255 0.015124
0.020694 -0.085593 0.784939 0 208 255 0.020776
0.024843 -0.098795 0.791613 0 0 204 0.004874
0.024332 -0.103720 0.791365 0 0 128 0.002297
0.024596 -0.108133 0.792376 0 7 255 0.007874
0.023899 -0.113269 0.792053 90 255 157 0.029902
0.025719 -0.112103 0.794616 0 141 255 0.018495
0.022656 -0.109184 0.789938 0 7 255 0.010368
0.022451 -0.104776 0.788744 0 0 204 0.005173
0.022928 -0.099874 0.789019 0 0 128 0.001666
0.027572 -0.134844 0.827450 128 255 120 0.037167
0.029643 -0.133491 0.823917 139 255 108 0.064436
0.025417 -0.136077 0.831082 0 74 255 0.015573
0.028057 -0.135836 0.832759 36 255 211 0.025918
0.030154 -0.134389 0.829231 129 255 118 0.040484
0.032215 -0.132948 0.825854 141 255 107 0.066550
0.024494 -0.137183 0.835704 0 208 255 0.021910
0.023622 -0.138220 0.840389 133 255 115 0.049237
0.020723 -0.138303 0.838837 90 255 157 0.028310
0.021625 -0.137305 0.834181 0 74 255 0.011999
0.032865 -0.133848 0.831127 136 255 112 0.055655
0.034912 -0.132347 0.827790 148 255 100 0.085346
0.030894 -0.135451 0.834490 133 255 115 0.047509
0.028759 -0.136821 0.838172 136 255 112 0.054856
0.026604 -0.138070 0.841866 151 255 97 0.091153
0.019949 -0.137708 0.853191 143 255 105 0.071513
0.022165 -0.138086 0.849456 141 255 107 0.066587
0.019076 -0.138471 0.848041 131 255 117 0.045487
0.016817 -0.138110 0.851777 131 255 117 0.046858
0.022845 -0.138364 0.844936 133 255 115 0.050066
0.025914 -0.137958 0.846450 151 255 97 0.090007
0.013798 -0.138352 0.850277 126 255 122 0.033680
0.016077 -0.138606 0.846488 36 255 211 0.027004
0.018363 -0.138548 0.842690 0 208 255 0.021535
0.048455 -0.084688 0.800788 126 255 122 0.031875
0.046020 -0.087312 0.800905 90 255 157 0.028399
0.047644 -0.090029 0.802765 90 255 157 0.027491
0.045242 -0.092305 0.803660 0 7 255 0.011475
0.043589 -0.089618 0.801565 0 7 255 0.011691
0.041297 -0.091975 0.802558 0 141 255 0.016733
0.041806 -0.086984 0.799454 0 141 255 0.016186
0.044217 -0.084520 0.798889 90 255 157 0.029816
0.046516 -0.094921 0.806420 0 7 255 0.011496
0.044086 -0.097601 0.807820 126 255 122 0.035120
0.043813 -0.100619 0.809565 131 255 117 0.044319
0.043723 -0.104172 0.810881 90 255 157 0.030394
0.040435 -0.104804 0.809289 128 255 120 0.036595
0.040358 -0.100949 0.808108 138 255 110 0.060925
0.040396 -0.097528 0.806659 144 255 103 0.077343
0.042646 -0.094671 0.805319 128 255 120 0.035779
0.034541 -0.106785 0.804994 36 255 211 0.025646
0.034387 -0.102497 0.804057 133 255 115 0.048921
0.035555 -0.098242 0.804067 153 255 95 0.094030
0.035541 -0.094821 0.802576 153 255 95 0.095782
0.037636 -0.091929 0.801285 131 255 117 0.043962
0.034277 -0.092037 0.799795 141 255 107 0.067753
0.038955 -0.094632 0.804140 143 255 105 0.072992
0.037320 -0.101676 0.806245 134 255 113 0.052939
0.037450 -0.105740 0.807322 90 255 157 0.030157
0.034295 -0.089221 0.798417 136 255 112 0.056127
0.036356 -0.086774 0.797427 0 141 255 0.017831
0.036684 -0.084314 0.795754 0 74 255 0.012900
0.040346 -0.084393 0.797283 0 208 255 0.021361
0.039611 -0.089253 0.800483 0 141 255 0.017122
0.026539 -0.106966 0.795048 0 0 204 0.004939
0.026248 -0.102542 0.794039 0 0 204 0.004243
0.026905 -0.097828 0.794284 0 74 255 0.013358
0.026696 -0.094208 0.792947 0 208 255 0.019787
0.028864 -0.093353 0.795413 128 255 120 0.036668
0.028965 -0.096838 0.796761 128 255 120 0.035299
0.028259 -0.101340 0.796651 0 74 255 0.013589
0.028478 -0.105581 0.797662 0 0 204 0.006564
0.027586 -0.110796 0.797288 0 74 255 0.011962
0.029646 -0.109444 0.799876 0 74 255 0.012444
0.025115 -0.091188 0.790987 126 255 122 0.033429
0.024792 -0.087954 0.789817 126 255 122 0.033295
0.026007 -0.084797 0.789569 0 208 255 0.022500
0.028771 -0.084480 0.791566 36 255 211 0.024272
0.027293 -0.087466 0.792124 131 255 117 0.045539
0.027411 -0.090472 0.793289 131 255 117 0.043508
0.033434 -0.084316 0.794312 0 74 255 0.012588
0.033063 -0.086832 0.795951 126 255 122 0.034186
0.031306 -0.089548 0.796709 139 255 108 0.065405
0.031354 -0.092601 0.797762 138 255 110 0.060306
0.030049 -0.086950 0.794229 133 255 115 0.049840
0.032590 -0.095454 0.800627 153 255 95 0.094462
0.032771 -0.099114 0.801826 143 255 105 0.070316
0.031807 -0.103653 0.801651 90 255 157 0.030735
0.031989 -0.108104 0.802497 0 141 255 0.018393
0.030352 -0.100156 0.799287 128 255 120 0.038457
0.017003 -0.133999 0.810625 36 255 211 0.023915
0.017828 -0.132627 0.806239 126 255 122 0.033903
0.014122 -0.134661 0.809044 0 208 255 0.020269
0.015070 -0.133429 0.804639 90 255 157 0.030448
0.018624 -0.131194 0.801973 139 255 108 0.063164
0.019319 -0.129444 0.797931 156 255 92 0.101850
