ply
format ascii 1.0
comment VCGLIB generated
element vertex 967
property float x
property float y
property float z
property uchar red
property uchar green
property uchar blue
property float quality
end_header
-1.264530 -0.510176 6.328240 22 255 225 0.020213
-1.257160 -0.532038 6.325300 22 255 225 0.020235
-1.247230 -0.543086 6.342490 67 255 180 0.034534
-1.254110 -0.521298 6.345520 13 245 235 0.017682
-1.211800 -0.582980 6.364690 9 241 238 0.017060
-1.223220 -0.569785 6.357650 0 217 255 0.012920
-1.220580 -0.558293 6.376640 0 185 255 0.008778
-1.209330 -0.571587 6.383560 22 255 225 0.020110
-1.233640 -0.550893 6.360120 3 233 245 0.015545
-1.236210 -0.561810 6.339940 3 233 245 0.015613
-1.216840 -0.547158 6.395570 0 201 255 0.010992
-1.204020 -0.553962 6.410710 3 233 245 0.015908
-1.226410 -0.528478 6.398210 9 241 238 0.017091
-1.230480 -0.539665 6.379100 3 233 245 0.015844
-1.187900 -0.623989 6.352160 0 225 251 0.014555
-1.173000 -0.640044 6.351530 0 213 255 0.012434
-1.188680 -0.634891 6.332510 0 229 248 0.014860
-1.173730 -0.650931 6.331940 6 237 242 0.016033
-1.158380 -0.656149 6.350900 22 255 225 0.019886
-1.143870 -0.672210 6.350290 113 255 135 0.056485
-1.144890 -0.660984 6.367180 77 255 171 0.038809
-1.159340 -0.644951 6.367780 6 237 242 0.016409
-1.187750 -0.646416 6.312690 25 255 222 0.020998
-1.170430 -0.663094 6.311530 0 229 248 0.015090
-1.187220 -0.657225 6.289590 45 255 203 0.027216
-1.153280 -0.679831 6.310450 32 255 216 0.022383
-1.140170 -0.684314 6.329650 103 255 145 0.050605
-1.156810 -0.667666 6.330870 16 249 232 0.018627
-1.084460 -0.703122 6.365810 61 255 187 0.032719
-1.101850 -0.697447 6.355130 58 255 190 0.031066
-1.108660 -0.684239 6.371810 45 255 203 0.027102
-1.091220 -0.689959 6.382610 38 255 209 0.024790
-1.122750 -0.684906 6.352750 61 255 187 0.032611
-1.118780 -0.696758 6.332210 35 255 213 0.024032
-1.093460 -0.678964 6.397630 32 255 216 0.022796
-1.127710 -0.661483 6.386390 35 255 213 0.023574
-1.126700 -0.672670 6.369530 22 255 225 0.019823
-1.286780 -0.490026 6.221400 113 255 135 0.055442
-1.290180 -0.467275 6.213520 145 255 103 0.076032
-1.292480 -0.458708 6.236750 161 255 87 0.088383
-1.288930 -0.481183 6.244470 171 255 77 0.095048
-1.294600 -0.439992 6.217170 193 255 55 0.114840
-1.297820 -0.413131 6.221150 225 255 22 0.151423
-1.294310 -0.421265 6.198540 255 238 0 0.188949
-1.290540 -0.448425 6.194890 142 255 106 0.074778
-1.289290 -0.473106 6.264770 158 255 90 0.086588
-1.293420 -0.451391 6.256970 116 255 132 0.057140
-1.296580 -0.425359 6.259610 132 255 116 0.068273
-1.298490 -0.406364 6.241630 193 255 55 0.115624
-1.295970 -0.432531 6.239070 135 255 113 0.069896
-1.286880 -0.335303 6.234450 161 255 87 0.089234
-1.292070 -0.360812 6.229340 171 255 77 0.095005
-1.285190 -0.340133 6.213390 177 255 71 0.101018
-1.290160 -0.365739 6.208790 193 255 55 0.115358
-1.295480 -0.386823 6.225000 193 255 55 0.114775
-1.296010 -0.380066 6.245890 164 255 84 0.091499
-1.282630 -0.346226 6.191420 213 255 35 0.135178
-1.286460 -0.373443 6.185690 203 255 45 0.126414
-1.277110 -0.353309 6.168630 196 255 51 0.118797
-1.291020 -0.397241 6.191840 222 255 25 0.147639
-1.107720 -0.299043 5.941880 0 197 255 0.010372
-1.120140 -0.313918 5.942700 3 233 245 0.015908
-1.132550 -0.321494 5.954200 0 225 251 0.014334
-1.145600 -0.336248 5.954870 0 221 255 0.013398
-1.157870 -0.343915 5.966320 0 225 251 0.014104
-1.158410 -0.358422 5.945080 45 255 203 0.026275
-1.144930 -0.321870 5.976040 0 197 255 0.010255
-1.157240 -0.329560 5.987470 13 245 235 0.017912
-1.129690 -0.305670 5.975010 0 229 248 0.014947
-1.115140 -0.289264 5.973560 0 201 255 0.010639
-1.103010 -0.281570 5.962230 0 169 255 0.007311
-1.097790 -0.264147 5.982720 0 185 255 0.008842
-1.170580 -0.375601 5.945600 77 255 171 0.037992
-1.184130 -0.387674 5.957730 48 255 200 0.028094
-1.196430 -0.405362 5.958720 45 255 203 0.027063
-1.209560 -0.418123 5.971450 87 255 161 0.043390
-1.207030 -0.428950 5.948350 90 255 158 0.044765
-1.198940 -0.394720 5.981840 45 255 203 0.026536
-1.212080 -0.407305 5.994500 87 255 161 0.043483
-1.185260 -0.374961 5.979770 71 255 177 0.036137
-1.171440 -0.355790 5.978430 45 255 203 0.026503
-1.208490 -0.368109 6.029100 48 255 200 0.027572
-1.191790 -0.354938 6.014930 61 255 187 0.032208
-1.179360 -0.326793 6.024170 35 255 213 0.023876
-1.162210 -0.314180 6.010490 35 255 213 0.023538
-1.174520 -0.342095 6.001070 42 255 206 0.025525
-1.201770 -0.380799 6.004610 64 255 184 0.033105
-1.218350 -0.394351 6.019080 109 255 138 0.053360
-1.148750 -0.290345 6.021080 13 245 235 0.017756
-1.127830 -0.269015 6.021390 0 205 255 0.011422
-1.131550 -0.281644 6.008280 0 217 255 0.012753
-1.107430 -0.247838 6.021300 0 161 255 0.006355
-1.110930 -0.260124 6.008590 0 177 255 0.007838
-1.091010 -0.238721 6.008460 9 241 238 0.016688
-1.087310 -0.226433 6.021440 3 233 245 0.015650
-1.114320 -0.273025 5.995600 0 157 255 0.006035
-1.094260 -0.251259 5.995720 0 201 255 0.010678
-1.144450 -0.305614 5.997790 0 221 255 0.013770
-1.215510 -0.447359 5.949830 155 255 93 0.083062
-1.225230 -0.462805 5.964860 145 255 103 0.076789
-1.232450 -0.481891 5.966750 90 255 158 0.044750
-1.240760 -0.498222 5.982230 93 255 155 0.045552
-1.237060 -0.505106 5.956230 87 255 161 0.042455
-1.236190 -0.475080 5.992760 109 255 138 0.053462
-1.244070 -0.491612 6.008190 109 255 138 0.054161
-1.228440 -0.453644 5.989140 96 255 151 0.048085
-1.219980 -0.432923 5.985960 132 255 116 0.068359
-1.241520 -0.521716 5.973320 64 255 184 0.033951
-1.241670 -0.542035 5.961310 84 255 164 0.041125
-1.244930 -0.538521 5.990590 61 255 187 0.031767
-1.244610 -0.559087 5.978770 80 255 167 0.039423
-1.246980 -0.575670 5.995890 122 255 126 0.061885
-1.243960 -0.579164 5.966640 64 255 184 0.033784
-1.247440 -0.555336 6.007790 96 255 151 0.047232
-1.249670 -0.571807 6.024870 67 255 180 0.034756
-1.247880 -0.531812 6.016560 93 255 155 0.046452
-1.244800 -0.515054 5.999430 58 255 190 0.030643
-1.258060 -0.541773 6.066250 48 255 200 0.027979
-1.257290 -0.520299 6.060680 61 255 187 0.031770
-1.252820 -0.503447 6.041300 103 255 145 0.050329
-1.250880 -0.481950 6.035570 135 255 113 0.069395
-1.252260 -0.548376 6.035860 106 255 142 0.051954
-1.255990 -0.564994 6.055170 161 255 87 0.087655
-1.247770 -0.455169 6.045200 87 255 161 0.043320
-1.239740 -0.431965 6.040190 106 255 142 0.052696
-1.227830 -0.415998 6.023230 119 255 129 0.060017
-1.233240 -0.443327 6.014230 96 255 151 0.046727
-1.240760 -0.464811 6.017980 93 255 155 0.045713
-1.256460 -0.578233 6.074210 135 255 113 0.068794
-1.251090 -0.598207 6.062880 177 255 71 0.102268
-1.250550 -0.584987 6.043820 64 255 184 0.033872
-1.244670 -0.605162 6.032720 0 205 255 0.011118
-1.245210 -0.618322 6.051680 119 255 129 0.059810
-1.239070 -0.637889 6.040040 129 255 119 0.066279
-1.243790 -0.633251 6.073490 245 249 3 0.174529
-1.249390 -0.613159 6.084740 171 255 77 0.096602
-1.246410 -0.589530 6.012810 58 255 190 0.030689
-1.242740 -0.607243 6.000690 132 255 116 0.067698
-1.243460 -0.593270 5.983760 45 255 203 0.026987
-1.239610 -0.610621 5.971380 0 229 248 0.014718
-1.238930 -0.624523 5.988280 96 255 151 0.048213
-1.234220 -0.641933 5.975980 106 255 142 0.052720
-1.237150 -0.640095 6.008100 206 255 42 0.128106
-1.241100 -0.622625 6.020390 96 255 151 0.047155
-1.208700 -0.698769 5.972950 84 255 164 0.042121
-1.217170 -0.683823 5.989980 106 255 142 0.053268
-1.208800 -0.698979 6.005660 209 255 38 0.134108
-1.225070 -0.668697 6.006810 200 255 48 0.123631
-1.216680 -0.683845 6.022470 164 255 84 0.090415
-1.224180 -0.668419 6.039070 80 255 167 0.039400
-1.207630 -0.699223 6.038220 190 255 58 0.112124
-1.232530 -0.653275 6.023440 167 255 80 0.093544
-1.229840 -0.655363 5.991490 116 255 132 0.058098
-1.221600 -0.670704 5.974710 22 255 225 0.020122
-1.206060 -0.700116 6.059930 193 255 55 0.115354
-1.218930 -0.681664 6.055430 203 255 45 0.126055
-1.216730 -0.682521 6.077260 187 255 61 0.109907
-1.203940 -0.700879 6.081480 184 255 64 0.108314
-1.229130 -0.664087 6.072720 222 255 25 0.145423
-1.213240 -0.683716 6.098790 90 255 158 0.044673
-1.225830 -0.665084 6.094360 103 255 145 0.050740
-1.200780 -0.702196 6.103060 171 255 77 0.096597
-1.238350 -0.646427 6.089780 190 255 58 0.114333
-1.234430 -0.650857 6.056340 187 255 61 0.109729
-1.193780 -0.715168 5.981040 55 255 193 0.030502
-1.186410 -0.727240 5.960140 3 233 245 0.015663
-1.178930 -0.731328 5.988900 3 233 245 0.015788
-1.171530 -0.743107 5.967830 6 237 242 0.016329
-1.156760 -0.758770 5.975370 80 255 167 0.040546
-1.163810 -0.754815 5.946670 32 255 216 0.023259
-1.164100 -0.747191 5.996520 19 253 229 0.019731
-1.149100 -0.763071 6.004160 106 255 142 0.052387
-1.179130 -0.731589 6.021510 103 255 145 0.049951
-1.194230 -0.715237 6.013700 145 255 103 0.076069
-1.150670 -0.766969 5.935840 55 255 193 0.029691
-1.129410 -0.782655 5.936410 16 249 232 0.018756
-1.116590 -0.794102 5.925140 0 217 255 0.012899
-1.095750 -0.808991 5.925130 22 255 225 0.020012
-1.111840 -0.801988 5.902240 9 241 238 0.016763
-1.100350 -0.801463 5.948100 0 217 255 0.012769
-1.079770 -0.816148 5.947910 51 255 196 0.028592
-1.117870 -0.788226 5.962350 0 217 255 0.012737
-1.135260 -0.774807 5.976270 51 255 196 0.028543
-1.062310 -0.815650 6.002520 0 141 255 0.004908
-1.082850 -0.802832 6.019320 3 233 245 0.015786
-1.091030 -0.798929 6.003810 0 161 255 0.006533
-1.103160 -0.789336 6.035440 67 255 180 0.034163
-1.111650 -0.785303 6.019930 32 255 216 0.023140
-1.132240 -0.771052 6.035650 113 255 135 0.056802
-1.123430 -0.775149 6.051160 109 255 138 0.054313
-1.120150 -0.781386 6.004310 6 237 242 0.016536
-1.140990 -0.766895 6.019880 96 255 151 0.046878
-1.102530 -0.794742 5.990300 0 205 255 0.011479
-1.085250 -0.807628 5.976010 0 185 255 0.008979
-1.073830 -0.811611 5.989350 0 157 255 0.005966
-1.057000 -0.823968 5.974710 0 225 251 0.014051
-1.068510 -0.820103 5.961440 6 237 242 0.016405
-1.045580 -0.827877 5.987690 0 205 255 0.011525
-1.137790 -0.759977 6.060060 29 255 219 0.022051
-1.159820 -0.741074 6.074620 58 255 190 0.030524
-1.161610 -0.739918 6.053100 19 253 229 0.019378
-1.180820 -0.721849 6.088960 113 255 135 0.055749
-1.183170 -0.720650 6.067430 103 255 145 0.049965
-1.185150 -0.719450 6.045670 80 255 167 0.039479
-1.170470 -0.735691 6.037310 19 253 229 0.018998
-1.155800 -0.751524 6.028750 64 255 184 0.033742
-1.146860 -0.755721 6.044540 32 255 216 0.023214
-1.030640 -0.836285 5.971900 0 193 255 0.009733
-1.042080 -0.832717 5.959020 0 185 255 0.008922
-1.027440 -0.841477 5.943130 0 189 255 0.009318
-1.053440 -0.829122 5.945770 0 221 255 0.013687
-1.038790 -0.838015 5.929870 0 165 255 0.006954
-1.050070 -0.834063 5.916530 0 165 255 0.006768
-1.064800 -0.825100 5.932350 0 213 255 0.012451
-1.024390 -0.846877 5.913750 0 173 255 0.007696
-1.035760 -0.843183 5.900340 0 165 255 0.006787
-1.021670 -0.852043 5.883960 0 189 255 0.009133
-1.007850 -0.856261 5.895420 0 149 255 0.005508
-1.010580 -0.850834 5.925050 0 161 255 0.006448
-0.994071 -0.860276 5.906780 0 181 255 0.008190
-0.996723 -0.854336 5.936150 0 149 255 0.005510
-1.013580 -0.845338 5.954190 0 153 255 0.005884
-0.980346 -0.863629 5.918000 0 161 255 0.006493
-1.083510 -0.817344 5.911450 0 197 255 0.010271
-1.071550 -0.825461 5.897500 0 201 255 0.010640
-1.087410 -0.818798 5.874580 0 141 255 0.004863
-1.099390 -0.810488 5.888550 0 225 251 0.014348
-1.067670 -0.830330 5.871890 0 149 255 0.005474
-1.064160 -0.835261 5.846130 0 173 255 0.007432
-1.042930 -0.843724 5.865100 0 153 255 0.005739
-1.024300 -0.860433 5.780750 0 93 255 0.002270
-1.023270 -0.858634 5.806740 0 109 255 0.002889
-1.000350 -0.870426 5.796820 0 101 255 0.002594
-1.022570 -0.856709 5.832760 0 121 255 0.003551
-0.999422 -0.868280 5.822640 0 125 255 0.003711
-0.998718 -0.866270 5.848550 0 141 255 0.004749
-0.976516 -0.880116 5.812670 0 125 255 0.003869
-1.022100 -0.854500 5.858440 0 165 255 0.006620
-1.043170 -0.845923 5.839420 0 129 255 0.004099
-1.043750 -0.848104 5.813540 0 105 255 0.002682
-0.961229 -0.885144 5.822470 0 149 255 0.005316
-0.973697 -0.877599 5.842230 0 161 255 0.006364
-0.958560 -0.882159 5.851970 0 185 255 0.008782
-0.946081 -0.889880 5.832100 0 149 255 0.005478
-0.971118 -0.874337 5.871420 0 217 255 0.012993
-0.943346 -0.886483 5.861540 0 185 255 0.008724
-0.955863 -0.878451 5.881010 0 209 255 0.011845
-0.930976 -0.894390 5.841960 0 145 255 0.005169
-0.968746 -0.870504 5.900690 0 209 255 0.011719
-0.982448 -0.867260 5.889100 0 193 255 0.010008
-0.996277 -0.863399 5.877800 0 165 255 0.006668
-0.984938 -0.870541 5.860060 0 137 255 0.004515
-0.700161 -0.149120 5.689290 0 149 255 0.005475
-0.707015 -0.161998 5.675520 0 121 255 0.003590
-0.720262 -0.154805 5.696610 0 105 255 0.002727
-0.727371 -0.167772 5.682850 0 113 255 0.003139
-0.747667 -0.173646 5.690220 0 145 255 0.005125
-0.734381 -0.180890 5.669200 0 137 255 0.004499
-0.740512 -0.160752 5.704010 0 129 255 0.004135
-0.760666 -0.166797 5.711670 0 169 255 0.007135
-0.734992 -0.145822 5.722450 0 121 255 0.003527
-0.714996 -0.139892 5.714810 0 153 255 0.005742
-0.752344 -0.187095 5.675120 0 113 255 0.003042
-0.770271 -0.193578 5.681150 0 137 255 0.004666
-0.794182 -0.212233 5.676240 0 201 255 0.010916
-0.770715 -0.208079 5.661440 0 133 255 0.004337
-0.805602 -0.207201 5.693680 0 149 255 0.005428
-0.783384 -0.186749 5.702590 0 189 255 0.009411
-0.765556 -0.180050 5.696360 0 129 255 0.004032
-0.833883 -0.203694 5.727020 0 45 255 0.000852
-0.815771 -0.194131 5.722930 0 109 255 0.002887
-0.812873 -0.181370 5.739530 0 89 255 0.002002
-0.797492 -0.184758 5.718940 0 149 255 0.005482
-0.794500 -0.172094 5.735580 0 117 255 0.003425
-0.776231 -0.163067 5.731790 0 181 255 0.008285
-0.791577 -0.159455 5.752150 0 145 255 0.005021
-0.779345 -0.147897 5.759670 0 117 255 0.003438
-0.758901 -0.138997 5.754720 0 161 255 0.006289
-0.747002 -0.127507 5.762080 0 149 255 0.005309
-0.730175 -0.133485 5.737840 0 153 255 0.005706
-0.755642 -0.154438 5.727090 0 145 255 0.005049
-0.874808 -0.286176 5.637870 64 255 184 0.034000
-0.872786 -0.273403 5.655180 25 255 222 0.021271
-0.870852 -0.261022 5.672780 13 245 235 0.018173
-0.892783 -0.277474 5.665660 55 255 193 0.030171
-0.848794 -0.244977 5.679760 0 205 255 0.011525
-0.850256 -0.257024 5.661540 0 213 255 0.012166
-0.851711 -0.269757 5.643490 19 253 229 0.019488
-0.833587 -0.251543 5.656950 0 213 255 0.012221
-0.893798 -0.267887 5.683320 29 255 219 0.021728
-0.894840 -0.258812 5.701100 9 241 238 0.017133
-0.915289 -0.275062 5.693090 58 255 190 0.031414
-0.874010 -0.242747 5.709420 0 193 255 0.009691
-0.872562 -0.251725 5.690940 0 225 251 0.014038
-0.830665 -0.214391 5.706620 0 113 255 0.003080
-0.827279 -0.225681 5.686520 0 141 255 0.004935
-0.851530 -0.233737 5.698770 0 137 255 0.004553
-0.854175 -0.222864 5.717960 0 89 255 0.002101
-0.817199 -0.229929 5.671310 0 189 255 0.009402
-0.805682 -0.235310 5.653970 0 209 255 0.011675
-0.979210 -0.248181 5.826170 0 125 255 0.003714
-0.994111 -0.252170 5.842660 0 93 255 0.002201
-1.009140 -0.255819 5.858810 0 37 255 0.000670
-1.010320 -0.268785 5.837570 0 121 255 0.003486
-0.992663 -0.239388 5.863970 0 33 255 0.000654
-0.974521 -0.221305 5.868430 0 101 255 0.002591
-0.976989 -0.234690 5.847290 0 109 255 0.002991
-0.958998 -0.216476 5.851500 0 213 255 0.012318
-1.030760 -0.282617 5.844080 0 161 255 0.006463
-1.030400 -0.271514 5.865410 0 109 255 0.002892
-1.045670 -0.287628 5.858770 0 149 255 0.005297
-1.060960 -0.303660 5.852060 0 193 255 0.009732
-1.045540 -0.276462 5.879840 0 85 255 0.001906
-1.029420 -0.259902 5.886180 0 89 255 0.002072
-1.007850 -0.244291 5.879770 0 33 255 0.000647
-1.007160 -0.231139 5.902970 0 53 255 0.000961
-0.987126 -0.210722 5.909240 0 61 255 0.001154
-0.990032 -0.224811 5.886180 0 85 255 0.001885
-1.029090 -0.246724 5.909090 0 53 255 0.001042
-0.959420 -0.198260 5.887890 0 153 255 0.005831
-0.934369 -0.181659 5.879300 9 241 238 0.016851
-0.899372 -0.212589 5.784960 0 77 255 0.001596
-0.910886 -0.208347 5.804990 0 81 255 0.001817
-0.922298 -0.204047 5.824810 0 169 255 0.007312
-0.928480 -0.223669 5.802190 0 81 255 0.001741
-0.904413 -0.189321 5.827890 0 121 255 0.003522
-0.884650 -0.173547 5.830680 0 101 255 0.002567
-0.892048 -0.192859 5.807920 0 89 255 0.002074
-0.872337 -0.177031 5.810720 0 97 255 0.002424
-0.948422 -0.232424 5.812330 0 101 255 0.002505
-0.945141 -0.216573 5.833980 0 157 255 0.006081
-0.962234 -0.232393 5.830090 0 133 255 0.004276
-0.940154 -0.199719 5.855570 0 197 255 0.010517
-0.917324 -0.187684 5.846650 0 161 255 0.006328
-0.902080 -0.157651 5.880370 0 165 255 0.006885
-0.911637 -0.170046 5.870560 0 185 255 0.008889
-0.886939 -0.156849 5.861910 0 145 255 0.005082
-0.877441 -0.144581 5.871860 0 133 255 0.004343
-0.896486 -0.169127 5.852050 0 133 255 0.004308
-0.855099 -0.136451 5.860670 0 45 255 0.000869
-0.865623 -0.148947 5.850740 0 61 255 0.001201
-0.842302 -0.140230 5.839370 0 37 255 0.000715
-0.831927 -0.127676 5.849290 0 45 255 0.000842
-0.864418 -0.157255 5.835100 0 73 255 0.001568
-0.831995 -0.192121 5.742330 0 73 255 0.001505
-0.849328 -0.204443 5.742550 0 25 255 0.000523
-0.829903 -0.180985 5.757950 0 49 255 0.000945
-0.847376 -0.192848 5.757860 0 45 255 0.000803
-0.845243 -0.181695 5.773350 0 41 255 0.000779
-0.864841 -0.205193 5.757890 0 57 255 0.001044
-0.827664 -0.169758 5.773410 0 53 255 0.001008
-0.825417 -0.158571 5.788840 0 93 255 0.002206
-0.808612 -0.158962 5.770460 0 93 255 0.002226
-0.810720 -0.170169 5.754990 0 69 255 0.001447
-0.864512 -0.195216 5.773420 0 37 255 0.000695
-0.882058 -0.208901 5.771520 0 65 255 0.001279
-0.864203 -0.185224 5.788690 0 61 255 0.001209
-0.881815 -0.198647 5.786750 0 85 255 0.001957
-0.853875 -0.163760 5.811770 0 97 255 0.002419
-0.844796 -0.171914 5.788870 0 45 255 0.000800
-0.812272 -0.124409 5.833090 0 61 255 0.001212
-0.823459 -0.136855 5.824210 0 33 255 0.000652
-0.802777 -0.133834 5.806840 0 85 255 0.001940
-0.791595 -0.121519 5.815820 0 97 255 0.002329
-0.824386 -0.147917 5.806760 0 33 255 0.000650
-0.843337 -0.151138 5.821840 0 49 255 0.000923
-0.773839 -0.122641 5.795930 0 125 255 0.003849
-0.785806 -0.134350 5.788730 0 105 255 0.002644
-0.797182 -0.146615 5.779660 0 81 255 0.001833
-0.918271 -0.267895 5.710560 13 245 235 0.017696
-0.921324 -0.261279 5.728290 22 255 225 0.020202
-0.933910 -0.276870 5.712980 77 255 171 0.039285
-0.905582 -0.252536 5.726120 0 193 255 0.009590
-0.888224 -0.243957 5.723310 0 205 255 0.011220
-0.946948 -0.279151 5.725440 55 255 193 0.030304
-0.936757 -0.264811 5.740720 19 253 229 0.019744
-0.950444 -0.267953 5.752130 0 221 255 0.013400
-0.960712 -0.282280 5.736900 58 255 190 0.031199
-0.933106 -0.252306 5.761890 9 241 238 0.016884
-0.917697 -0.248786 5.749770 3 233 245 0.015792
-0.901009 -0.228813 5.761160 0 105 255 0.002671
-0.883718 -0.224911 5.747450 0 89 255 0.002084
-0.916432 -0.232414 5.773460 0 97 255 0.002432
-0.869697 -0.223619 5.733340 0 85 255 0.001910
-0.966031 -0.246902 5.810440 0 121 255 0.003524
-0.952895 -0.245565 5.794670 0 101 255 0.002625
-0.970495 -0.260268 5.792820 0 189 255 0.009437
-0.986088 -0.273442 5.790100 0 177 255 0.008177
-0.982716 -0.260710 5.808120 0 157 255 0.006086
-0.998435 -0.273710 5.805240 0 201 255 0.011022
-0.935723 -0.239586 5.784750 0 101 255 0.002498
-0.950273 -0.258343 5.771900 0 213 255 0.012256
-0.975099 -0.286622 5.747020 74 255 174 0.037012
-0.967632 -0.274071 5.762170 0 229 248 0.014736
-0.982757 -0.279271 5.770780 0 217 255 0.013023
-0.990215 -0.291724 5.755600 64 255 184 0.033602
-1.006140 -0.298147 5.763330 29 255 219 0.021919
-1.001330 -0.288298 5.778980 0 213 255 0.012425
-1.018030 -0.295842 5.786000 9 241 238 0.016766
-1.022890 -0.305839 5.770280 16 249 232 0.018904
-1.040660 -0.315076 5.777030 67 255 180 0.034951
-1.053560 -0.319550 5.789660 45 255 203 0.026935
-1.069200 -0.330935 5.786360 29 255 219 0.022168
-1.041130 -0.307353 5.802540 6 237 242 0.016678
-1.024390 -0.294662 5.805330 0 205 255 0.011114
-1.081790 -0.337140 5.797860 45 255 203 0.026905
-1.094690 -0.343065 5.809080 3 233 245 0.015456
-1.106280 -0.354141 5.795960 0 229 248 0.014772
-1.083020 -0.332149 5.822130 42 255 206 0.025440
-1.069790 -0.325608 5.810840 48 255 200 0.028030
-1.053970 -0.313140 5.814670 38 255 209 0.025125
-1.046750 -0.297463 5.839470 0 205 255 0.011309
-1.032730 -0.290897 5.826740 0 173 255 0.007659
-1.067660 -0.318743 5.827310 13 245 235 0.017447
-1.012690 -0.278874 5.819810 0 137 255 0.004555
-0.995999 -0.263626 5.823020 0 153 255 0.005725
-1.133490 -0.360365 5.862720 38 255 209 0.024605
-1.151640 -0.376877 5.873300 42 255 206 0.025682
-1.169760 -0.393566 5.883960 74 255 174 0.037862
-1.164570 -0.393133 5.864120 19 253 229 0.019414
-1.156520 -0.377419 5.893070 45 255 203 0.026312
-1.141990 -0.357476 5.901970 6 237 242 0.016349
-1.137410 -0.358946 5.882550 29 255 219 0.021994
-1.122720 -0.338873 5.891460 22 255 225 0.020355
-1.185440 -0.417312 5.864480 48 255 200 0.027943
-1.191920 -0.424285 5.884210 96 255 151 0.047477
-1.204440 -0.440679 5.874320 80 255 167 0.039529
-1.216380 -0.457333 5.864600 161 255 87 0.087086
-1.210580 -0.448200 5.894650 142 255 106 0.074875
-1.197570 -0.429122 5.903910 71 255 177 0.036499
-1.175390 -0.398353 5.903440 71 255 177 0.036084
-1.196490 -0.417217 5.936910 55 255 193 0.029705
-1.184350 -0.399368 5.936000 55 255 193 0.030488
-1.173640 -0.388029 5.924760 58 255 190 0.031655
-1.161540 -0.370727 5.924130 42 255 206 0.026042
-1.186260 -0.409593 5.914450 67 255 180 0.035073
-1.207890 -0.436912 5.926510 125 255 122 0.063457
-1.136030 -0.336858 5.933170 22 255 225 0.020245
-1.113750 -0.315259 5.921410 45 255 203 0.026958
-1.129140 -0.338431 5.911920 0 197 255 0.010200
-1.167830 -0.401316 5.803480 0 161 255 0.006308
-1.178500 -0.411520 5.817700 0 213 255 0.012338
-1.194490 -0.425330 5.824590 67 255 180 0.034166
-1.169210 -0.402471 5.831780 0 217 255 0.012912
-1.158460 -0.392234 5.817530 0 193 255 0.009778
-1.149010 -0.383433 5.831410 0 213 255 0.012214
-1.199380 -0.435019 5.856270 74 255 174 0.036890
-1.186590 -0.417264 5.839990 80 255 167 0.040564
-1.206550 -0.442330 5.839830 125 255 122 0.063168
-1.224510 -0.463392 5.847750 225 255 22 0.151196
-1.147540 -0.377064 5.855470 22 255 225 0.020159
-1.231080 -0.485587 5.874720 180 255 67 0.103578
-1.244350 -0.515517 5.886080 238 255 9 0.164397
-1.241700 -0.502455 5.864100 255 238 0 0.186924
-1.234250 -0.498311 5.896270 142 255 106 0.073863
-1.224690 -0.478237 5.905430 145 255 103 0.076658
-1.220990 -0.467763 5.885010 106 255 142 0.051670
-1.250010 -0.533379 5.876380 255 238 0 0.188542
-1.257060 -0.564484 5.876860 255 238 0 0.187250
-1.250260 -0.564422 5.900040 180 255 67 0.103819
-1.245530 -0.546522 5.909650 151 255 96 0.081130
-1.243880 -0.562385 5.951900 93 255 155 0.045221
-1.243030 -0.545667 5.936960 93 255 155 0.046678
-1.240480 -0.525381 5.946520 61 255 187 0.032866
-1.238390 -0.509041 5.931960 96 255 151 0.048020
-1.241500 -0.529232 5.922190 109 255 138 0.053656
-1.246380 -0.563126 5.924570 116 255 132 0.058392
-1.246850 -0.579949 5.939570 122 255 126 0.061533
-1.231240 -0.489488 5.942900 61 255 187 0.032143
-1.223310 -0.470056 5.940760 151 255 96 0.081529
-1.216220 -0.455433 5.927990 155 255 93 0.082312
-1.232080 -0.493457 5.918530 106 255 142 0.051624
-1.225050 -0.702532 5.870290 171 255 77 0.096050
-1.211610 -0.716647 5.878310 45 255 203 0.027125
-1.210960 -0.724506 5.863260 67 255 180 0.034624
-1.198470 -0.737868 5.870600 55 255 193 0.029870
-1.211350 -0.731638 5.847540 145 255 103 0.075211
-1.198420 -0.730455 5.886040 0 229 248 0.014700
-1.185110 -0.744046 5.893550 51 255 196 0.028600
-1.201970 -0.720149 5.903600 0 225 251 0.014405
-1.215780 -0.705846 5.895520 51 255 196 0.028585
-1.229270 -0.691567 5.887300 155 255 93 0.082912
-1.219380 -0.695104 5.912850 64 255 184 0.033522
-1.193770 -0.745786 5.851360 35 255 213 0.023784
-1.193680 -0.750523 5.834790 64 255 184 0.033999
-1.177540 -0.758990 5.854190 0 213 255 0.012171
-1.176740 -0.764232 5.837850 6 237 242 0.016670
-1.160830 -0.777154 5.840210 3 233 245 0.015339
-1.176840 -0.768969 5.820980 51 255 196 0.028434
-1.144430 -0.785481 5.859450 22 255 225 0.020546
-1.164680 -0.764921 5.876940 22 255 225 0.019828
-1.180890 -0.751953 5.874170 3 233 245 0.015850
-1.130090 -0.787928 5.900440 0 165 255 0.006908
-1.142990 -0.776156 5.911610 3 233 245 0.015512
-1.161180 -0.761685 5.909390 38 255 209 0.025029
-1.174260 -0.749640 5.920240 80 255 167 0.039558
-1.146430 -0.779529 5.879030 25 255 222 0.020725
-1.128260 -0.793814 5.880840 45 255 203 0.026396
-1.177550 -0.740303 5.938520 0 205 255 0.011191
-1.191720 -0.725386 5.930180 38 255 209 0.024411
-1.200490 -0.712036 5.951600 90 255 158 0.043817
-1.214420 -0.696817 5.942960 164 255 84 0.091052
-1.205610 -0.710394 5.921630 80 255 167 0.040540
-1.188510 -0.734726 5.911790 51 255 196 0.028964
-1.244140 -0.594666 5.954190 51 255 196 0.028831
-1.243720 -0.610244 5.941820 151 255 96 0.081898
-1.246940 -0.595091 5.926870 151 255 96 0.081241
-1.246080 -0.610958 5.914490 51 255 196 0.028314
-1.242720 -0.625598 5.929220 151 255 96 0.080856
-1.241410 -0.641144 5.916680 122 255 126 0.061581
-1.237870 -0.641859 5.946610 187 255 61 0.109453
-1.238970 -0.626303 5.959070 100 255 148 0.048919
-1.252140 -0.594598 5.900510 132 255 116 0.067060
-1.254290 -0.608860 5.889090 242 253 6 0.169561
-1.249720 -0.638952 5.891460 255 238 0 0.187636
-1.248010 -0.625085 5.903050 129 255 119 0.065049
-1.239550 -0.676871 5.875780 235 255 13 0.162798
-1.240890 -0.664495 5.889100 174 255 74 0.099740
-1.230360 -0.679765 5.901050 74 255 174 0.036803
-1.230850 -0.668298 5.914880 19 253 229 0.019748
-1.223720 -0.682071 5.928790 90 255 158 0.044588
-1.227760 -0.668602 5.944540 177 255 71 0.100246
-1.217960 -0.684023 5.958910 93 255 155 0.045217
-1.231300 -0.655263 5.960300 122 255 126 0.061454
-1.234600 -0.655058 5.930790 90 255 158 0.044505
-1.107010 -0.809680 5.857040 0 197 255 0.010516
-1.125760 -0.797685 5.858320 0 201 255 0.010963
-1.123190 -0.801594 5.835840 0 137 255 0.004646
-1.104580 -0.813598 5.834240 0 137 255 0.004509
-1.102710 -0.817258 5.811230 0 117 255 0.003237
-1.083610 -0.826330 5.828690 0 137 255 0.004630
-1.085460 -0.822531 5.851750 0 149 255 0.005570
-1.142870 -0.789220 5.839620 0 201 255 0.010791
-1.140930 -0.793225 5.820010 0 161 255 0.006283
-1.158900 -0.781115 5.820590 0 185 255 0.008884
-1.156600 -0.785124 5.800940 0 189 255 0.009484
-1.139590 -0.796621 5.799590 0 145 255 0.005263
-1.137930 -0.800383 5.779460 0 101 255 0.002545
-1.120640 -0.808931 5.795500 0 125 255 0.003696
-1.121410 -0.805537 5.815770 0 81 255 0.001746
-1.104770 -0.823183 5.724880 0 69 255 0.001387
-1.103790 -0.822101 5.747050 0 49 255 0.000945
-1.085830 -0.832051 5.738400 0 41 255 0.000744
-1.103010 -0.820965 5.768490 0 69 255 0.001365
-1.084750 -0.830960 5.760140 0 29 255 0.000557
-1.084050 -0.829481 5.781790 0 45 255 0.000812
-1.066320 -0.840766 5.751820 0 13 255 0.000376
-1.102840 -0.819265 5.790120 0 105 255 0.002697
-1.120370 -0.810792 5.774330 0 69 255 0.001359
-1.120570 -0.812362 5.752680 0 65 255 0.001333
-1.065380 -0.840052 5.775740 0 61 255 0.001162
-1.045280 -0.850652 5.766300 0 45 255 0.000813
-1.064720 -0.838632 5.799200 0 89 255 0.001999
-1.044390 -0.849704 5.789980 0 85 255 0.001882
-1.064380 -0.836920 5.822690 0 125 255 0.003694
-1.083780 -0.828062 5.805370 0 97 255 0.002331
-1.121850 -0.814313 5.732560 0 121 255 0.003610
-1.138410 -0.802896 5.759850 0 145 255 0.005049
-1.156090 -0.789236 5.782840 0 177 255 0.007991
-0.970334 -0.327510 5.603450 167 255 80 0.093848
-0.965922 -0.319440 5.620280 77 255 171 0.038526
-0.961801 -0.311603 5.637330 25 255 222 0.020745
-0.984168 -0.320423 5.627140 122 255 126 0.062348
-0.939480 -0.302764 5.647590 42 255 206 0.025358
-0.943041 -0.311174 5.630120 22 255 225 0.020375
-0.946900 -0.319278 5.612710 55 255 193 0.029982
-0.923321 -0.310966 5.622050 80 255 167 0.039571
-0.982229 -0.314944 5.644780 32 255 216 0.023056
-0.980320 -0.309586 5.662320 29 255 219 0.021571
-1.001590 -0.318440 5.651510 90 255 158 0.044275
-0.958836 -0.300531 5.673380 67 255 180 0.034929
-0.960425 -0.306192 5.655410 19 253 229 0.019276
-0.915651 -0.282532 5.674860 45 255 203 0.026392
-0.916127 -0.290278 5.656740 48 255 200 0.027639
-0.938274 -0.295181 5.665350 29 255 219 0.021553
-0.937182 -0.287698 5.683100 48 255 200 0.027346
-0.895999 -0.287942 5.647730 38 255 209 0.025065
-0.899231 -0.298560 5.629840 61 255 187 0.032637
-0.919864 -0.300620 5.639230 35 255 213 0.024149
-1.012080 -0.323720 5.629260 106 255 142 0.053147
-1.029500 -0.325605 5.635380 55 255 193 0.030104
-0.996948 -0.328272 5.606260 155 255 93 0.083161
-1.043350 -0.328195 5.697990 0 181 255 0.008334
-1.037560 -0.323324 5.717640 0 225 251 0.014540
-1.061210 -0.334264 5.709980 0 189 255 0.009416
-1.031770 -0.318440 5.737160 45 255 203 0.027152
-1.011810 -0.312086 5.725300 90 255 158 0.043761
-1.072380 -0.337741 5.726020 0 197 255 0.010382
-1.093780 -0.347387 5.726390 0 213 255 0.012688
-1.062910 -0.332568 5.740760 3 233 245 0.015813
-1.031590 -0.314062 5.755370 13 245 235 0.018058
-1.014820 -0.306327 5.748560 35 255 213 0.023319
-1.054020 -0.325873 5.755740 67 255 180 0.034396
-0.994028 -0.299359 5.736200 45 255 203 0.027005
-1.001330 -0.315587 5.669430 22 255 225 0.020292
-1.001210 -0.312512 5.687520 16 249 232 0.018786
-1.021330 -0.321754 5.676110 0 205 255 0.011196
-0.980979 -0.303221 5.698690 77 255 171 0.038550
-0.980622 -0.306338 5.680620 19 253 229 0.019421
-1.018870 -0.317328 5.704080 3 233 245 0.015448
-0.974355 -0.293528 5.720600 25 255 222 0.020980
-0.960677 -0.290264 5.709120 29 255 219 0.021505
-0.959775 -0.295401 5.691190 22 255 225 0.020412
-1.050430 -0.329856 5.675620 0 157 255 0.006170
-1.020750 -0.322480 5.658440 25 255 222 0.020869
-1.043850 -0.328216 5.653170 3 233 245 0.015363
-1.094680 -0.348789 5.743700 0 197 255 0.010406
-1.110270 -0.357045 5.748870 0 225 251 0.014555
-1.095940 -0.350046 5.761240 0 181 255 0.008192
-1.078490 -0.340873 5.755650 3 233 245 0.015732
-1.129360 -0.369429 5.761010 0 201 255 0.010809
-1.100960 -0.352147 5.778640 0 221 255 0.013792
-1.082600 -0.340376 5.773850 0 229 248 0.014988
-1.118380 -0.362688 5.782740 0 189 255 0.009281
-1.082500 -0.341649 5.711340 0 189 255 0.009416
-1.072990 -0.337436 5.694160 0 177 255 0.007802
-0.538183 -0.875682 6.322930 87 255 161 0.042569
-0.551912 -0.865739 6.349730 171 255 77 0.095926
-0.524286 -0.884698 6.295580 3 233 245 0.015769
-0.542627 -0.886541 6.287060 32 255 216 0.023191
-0.556487 -0.877272 6.314230 103 255 145 0.050444
-0.570175 -0.867153 6.340930 132 255 116 0.068435
-0.519585 -0.894428 6.263740 0 181 255 0.008287
-0.514876 -0.903570 6.231800 0 189 255 0.009089
-0.496865 -0.902209 6.241010 0 153 255 0.005748
-0.501590 -0.893158 6.273090 0 157 255 0.005965
-0.575599 -0.878111 6.303220 58 255 190 0.031518
-0.589754 -0.868637 6.329660 138 255 109 0.072754
-0.561336 -0.887236 6.276400 0 221 255 0.013513
-0.556851 -0.896152 6.243670 0 153 255 0.005607
-0.533542 -0.904451 6.221390 0 185 255 0.008854
-0.538084 -0.895389 6.254170 0 181 255 0.008305
-0.498433 -0.926775 6.133410 48 255 200 0.028268
-0.475007 -0.936807 6.111450 29 255 219 0.022046
-0.503818 -0.917607 6.165900 19 253 229 0.019091
-0.480090 -0.925853 6.143530 51 255 196 0.028539
-0.485508 -0.916780 6.176050 13 245 235 0.017906
-0.456594 -0.935957 6.121560 29 255 219 0.022103
-0.509226 -0.909744 6.198730 0 149 255 0.005523
-0.527954 -0.910823 6.188410 0 145 255 0.005076
-0.461923 -0.924534 6.153000 71 255 177 0.036433
-0.438927 -0.934640 6.131050 32 255 216 0.022387
-0.467472 -0.915359 6.185110 35 255 213 0.023451
-0.444248 -0.923367 6.162630 71 255 177 0.036104
-0.482115 -0.908236 6.213040 0 149 255 0.005448
-0.589888 -0.214482 6.490730 9 241 238 0.017280
-0.595070 -0.192152 6.471750 22 255 225 0.020431
-0.594086 -0.168703 6.455060 61 255 187 0.032473
-0.577957 -0.188542 6.476740 0 225 251 0.014231
-0.573276 -0.211280 6.495710 0 217 255 0.012956
-0.592274 -0.144471 6.438720 64 255 184 0.033280
-0.590231 -0.118771 6.423100 3 233 245 0.015430
-0.556348 -0.185892 6.485650 0 181 255 0.008495
-0.560776 -0.139718 6.449010 13 245 235 0.018055
-0.572985 -0.116619 6.428470 13 245 235 0.018010
-0.573892 -0.165390 6.461160 35 255 213 0.023664
-0.582696 -0.057944 6.373410 0 229 248 0.014623
-0.578111 -0.077562 6.391370 0 201 255 0.010561
-0.599632 -0.081276 6.386880 6 237 242 0.015998
-0.604397 -0.061259 6.369820 0 225 251 0.014345
-0.584160 -0.098747 6.406920 0 193 255 0.009613
-0.567050 -0.096209 6.412310 0 197 255 0.010342
-0.622148 -0.064288 6.367740 0 225 251 0.014568
-0.625136 -0.085967 6.383060 22 255 225 0.020572
-0.610422 -0.103448 6.401590 0 225 251 0.014284
-0.606662 -0.523324 6.605260 158 255 90 0.084878
-0.603252 -0.490299 6.604600 132 255 116 0.067102
-0.619644 -0.558187 6.601150 177 255 71 0.100766
-0.632118 -0.592121 6.595550 255 227 0 0.200827
-0.620656 -0.491719 6.600310 171 255 77 0.097041
-0.639018 -0.558127 6.596130 203 255 45 0.125834
-0.623764 -0.525355 6.600510 187 255 61 0.110242
-0.668792 -0.684466 6.545950 219 255 29 0.141994
-0.671644 -0.713077 6.531010 255 178 0 0.268692
-0.652826 -0.653781 6.564790 190 255 58 0.114014
-0.643310 -0.681121 6.553780 203 255 45 0.126654
-0.646038 -0.710156 6.538380 255 204 0 0.229931
-0.649147 -0.624368 6.578560 177 255 71 0.102058
-0.629294 -0.708195 6.545310 255 223 0 0.204030
-0.626487 -0.650251 6.573640 174 255 74 0.099684
-0.619925 -0.678278 6.563680 190 255 58 0.112099
-0.629679 -0.621408 6.585150 171 255 77 0.096991
-0.614317 -0.730213 6.525820 145 255 103 0.076232
-0.615969 -0.753799 6.499100 74 255 174 0.037594
-0.631040 -0.731870 6.518760 142 255 106 0.074482
-0.632728 -0.755481 6.492400 71 255 177 0.036094
-0.617514 -0.777424 6.472750 67 255 180 0.034601
-0.619114 -0.800727 6.446340 174 255 74 0.099939
-0.601045 -0.799523 6.454510 167 255 80 0.093110
-0.599627 -0.776210 6.481350 80 255 167 0.039518
-0.649418 -0.734376 6.508510 138 255 109 0.072103
-0.652929 -0.758554 6.478840 84 255 164 0.041324
-0.646175 -0.780780 6.455530 22 255 225 0.019929
-0.639521 -0.803882 6.433290 129 255 119 0.065089
-0.601976 -0.852690 6.355560 45 255 203 0.026407
-0.614280 -0.836440 6.381760 51 255 196 0.029354
-0.594728 -0.835262 6.393390 51 255 196 0.029112
-0.582409 -0.851459 6.367020 64 255 184 0.033551
-0.616716 -0.818826 6.413980 93 255 155 0.046131
-0.637159 -0.821886 6.401150 48 255 200 0.027782
-0.564140 -0.850458 6.375470 64 255 184 0.034027
-0.576506 -0.833777 6.401180 35 255 213 0.023895
-0.579787 -0.816593 6.432080 90 255 158 0.044037
-0.597870 -0.817745 6.423950 96 255 151 0.046756
-0.567877 -0.415919 6.598850 87 255 161 0.043517
-0.566595 -0.383554 6.586550 42 255 206 0.025798
-0.561757 -0.350301 6.575660 25 255 222 0.020916
-0.558010 -0.317803 6.564890 61 255 187 0.032249
-0.553370 -0.412013 6.603290 77 255 171 0.038858
-0.547053 -0.347189 6.581290 0 225 251 0.014515
-0.552270 -0.379893 6.591360 0 225 251 0.014262
-0.556739 -0.235279 6.518060 0 193 255 0.009623
-0.559049 -0.261863 6.532320 0 217 255 0.013175
-0.555470 -0.288953 6.549710 35 255 213 0.023996
-0.573732 -0.237590 6.510670 32 255 216 0.022371
-0.574078 -0.264170 6.527090 48 255 200 0.027289
-0.745397 0.002154 6.242590 0 221 255 0.013505
-0.759256 0.004133 6.227410 48 255 200 0.027830
-0.731921 0.000868 6.257960 48 255 200 0.028186
-0.756315 -0.004991 6.260450 32 255 216 0.022866
-0.769718 -0.003731 6.245240 3 233 245 0.015646
-0.783648 -0.001799 6.230070 106 255 142 0.052466
-0.742838 -0.006706 6.275470 93 255 155 0.046442
-0.729527 -0.008906 6.290190 171 255 77 0.095000
-0.719785 -0.002651 6.273430 64 255 184 0.033846
-0.708030 -0.005841 6.288890 138 255 109 0.071473
-0.788706 -0.008140 6.248380 106 255 142 0.052092
-0.803414 -0.006955 6.234070 148 255 100 0.077747
-0.774417 -0.008402 6.262620 87 255 161 0.042514
-0.760958 -0.010284 6.277570 109 255 138 0.053560
-0.747692 -0.012017 6.292400 209 255 38 0.132059
-0.712214 -0.044797 6.335490 55 255 193 0.030013
-0.723014 -0.034805 6.320690 25 255 222 0.020983
-0.726118 -0.021842 6.305610 61 255 187 0.032305
-0.685265 -0.040266 6.333640 22 255 225 0.020208
-0.685408 -0.028543 6.318320 6 237 242 0.016497
-0.667189 -0.037747 6.333690 19 253 229 0.019288
-0.685801 -0.015912 6.303180 0 225 251 0.014572
-0.707366 -0.018499 6.304330 48 255 200 0.027787
-0.847774 -0.029234 6.118670 16 249 232 0.018366
-0.875811 -0.046347 6.107750 38 255 209 0.024260
-0.845649 -0.026113 6.135900 48 255 200 0.027955
-0.873633 -0.043447 6.124780 0 217 255 0.012831
-0.871518 -0.040471 6.141860 0 177 255 0.008167
-0.901838 -0.059875 6.114110 0 197 255 0.010280
-0.843772 -0.022878 6.153180 16 249 232 0.018835
-0.841673 -0.020551 6.170310 0 229 248 0.014928
-0.816819 -0.010006 6.165840 48 255 200 0.027505
-0.818738 -0.012941 6.148570 64 255 184 0.033131
-0.896814 -0.053907 6.131330 0 189 255 0.009464
-0.923387 -0.069731 6.123760 0 217 255 0.013018
-0.891891 -0.047843 6.148780 0 201 255 0.010841
-0.918277 -0.063785 6.141120 0 169 255 0.007217
-0.887207 -0.041847 6.166320 29 255 219 0.021486
-0.862279 -0.027830 6.177090 87 255 161 0.042677
-0.866923 -0.033910 6.159570 0 201 255 0.011012
-0.817762 -0.011475 6.219110 64 255 184 0.032960
-0.832306 -0.015789 6.204190 35 255 213 0.023691
-0.812570 -0.010866 6.200180 9 241 238 0.017374
-0.798027 -0.006297 6.215150 51 255 196 0.028628
-0.837038 -0.017871 6.187340 38 255 209 0.024851
-0.857350 -0.025965 6.193950 48 255 200 0.027412
-0.773372 0.002040 6.211690 58 255 190 0.031074
-0.787445 -0.000755 6.195840 74 255 174 0.037476
-0.802249 -0.005096 6.180860 9 241 238 0.017123
-0.970539 -0.140301 6.021500 0 105 255 0.002756
-0.982791 -0.154902 6.010160 0 109 255 0.002866
-0.958156 -0.125557 6.033000 0 141 255 0.004942
-0.987988 -0.144362 6.038820 0 105 255 0.002795
-0.997919 -0.164133 6.013050 0 89 255 0.002110
-1.013080 -0.173138 6.015910 0 77 255 0.001580
-0.975394 -0.130132 6.050400 0 141 255 0.004741
-0.962738 -0.115906 6.062040 0 169 255 0.007162
-0.945965 -0.112607 6.044370 0 121 255 0.003572
-0.933713 -0.099654 6.055630 0 165 255 0.006910
-1.030470 -0.183734 6.020690 0 113 255 0.003068
-1.013590 -0.163424 6.032620 0 125 255 0.003762
-1.030680 -0.174180 6.037560 0 85 255 0.001909
-1.048040 -0.194213 6.025420 0 145 255 0.005270
-1.013730 -0.154166 6.049620 0 169 255 0.007336
-1.048240 -0.184622 6.042240 0 113 255 0.003134
-1.030830 -0.164997 6.054390 0 109 255 0.002901
-1.065860 -0.204403 6.030010 0 189 255 0.009421
-1.013560 -0.145171 6.066690 16 249 232 0.018385
-0.987895 -0.126303 6.073100 0 225 251 0.014335
-0.938665 -0.083508 6.110600 0 149 255 0.005534
-0.953964 -0.097272 6.097460 0 165 255 0.006618
-0.932026 -0.088413 6.087840 0 137 255 0.004539
-0.916871 -0.074338 6.100890 0 113 255 0.003126
-0.958379 -0.106502 6.079680 0 153 255 0.005912
-0.983132 -0.117577 6.090600 0 185 255 0.009017
-0.889662 -0.058728 6.094560 0 173 255 0.007456
-0.903763 -0.070759 6.081510 0 165 255 0.006726
-0.904527 -0.076630 6.065280 0 213 255 0.012478
-0.932919 -0.093874 6.071710 0 121 255 0.003503
-1.028230 -0.234076 5.931190 0 105 255 0.002786
-1.029840 -0.222205 5.952580 0 101 255 0.002619
-1.046190 -0.240510 5.944930 0 117 255 0.003406
-1.062260 -0.258545 5.937120 0 121 255 0.003652
-1.047820 -0.228484 5.966240 0 173 255 0.007679
-1.029090 -0.209683 5.973590 0 129 255 0.004074
-1.001730 -0.191477 5.968660 0 133 255 0.004318
-1.082480 -0.270265 5.949780 0 165 255 0.006748
-1.074890 -0.251686 5.969910 0 169 255 0.007177
-1.063290 -0.216573 6.005190 0 221 255 0.013536
-1.045520 -0.205979 6.000780 0 173 255 0.007434
-1.028050 -0.195348 5.996050 0 117 255 0.003357
-1.066840 -0.228873 5.992360 0 181 255 0.008450
-1.000870 -0.177533 5.991080 0 93 255 0.002240
-0.985679 -0.168334 5.988240 0 121 255 0.003544
-1.074710 -0.308350 5.865080 0 137 255 0.004567
-1.088400 -0.312749 5.877890 0 173 255 0.007616
-1.087820 -0.323028 5.857330 0 193 255 0.009829
-1.075130 -0.298149 5.885670 0 153 255 0.005843
-1.059840 -0.282007 5.893070 0 93 255 0.002213
-1.060620 -0.292843 5.872600 0 117 255 0.003426
-1.106020 -0.337216 5.859920 0 213 255 0.012191
-1.108080 -0.330718 5.880050 0 209 255 0.012082
-1.120400 -0.345563 5.871580 6 237 242 0.016288
-1.109590 -0.322900 5.899760 0 205 255 0.011379
-1.089480 -0.305111 5.897830 0 221 255 0.013703
-1.089400 -0.288237 5.929430 0 221 255 0.013867
-1.071430 -0.277325 5.916740 0 189 255 0.009376
-1.045620 -0.252828 5.923270 0 97 255 0.002414
-1.045810 -0.265324 5.901260 0 73 255 0.001540
-1.123380 -0.365364 5.807000 3 233 245 0.015596
-1.113150 -0.355252 5.820430 25 255 222 0.021336
-1.144340 -0.382321 5.801870 0 193 255 0.009998
-1.132290 -0.369531 5.830040 32 255 216 0.023126
-1.119630 -0.351478 5.853370 13 245 235 0.017673
-1.089900 -0.330891 5.840610 0 197 255 0.010465
-1.102790 -0.343276 5.834560 0 221 255 0.013339
-1.155670 -0.390099 5.788190 0 197 255 0.010424
-1.133250 -0.373501 5.785510 0 177 255 0.007885
0.859164 -0.024585 6.396400 0 105 255 0.002770
0.823796 -0.018422 6.397390 0 93 255 0.002171
0.867652 -0.026504 6.378360 0 213 255 0.012696
0.832108 -0.020019 6.379330 0 169 255 0.007348
0.840614 -0.021904 6.361250 58 255 190 0.030756
0.815128 -0.015289 6.414590 0 129 255 0.004068
0.914867 -0.051797 6.315710 67 255 180 0.034533
0.883545 -0.040976 6.319260 55 255 193 0.029495
0.877742 -0.035346 6.338670 84 255 164 0.041484
0.851875 -0.031227 6.322700 67 255 180 0.035331
0.888516 -0.046567 6.298700 61 255 187 0.032323
0.857107 -0.036572 6.302960 61 255 187 0.032310
0.862747 -0.042359 6.283100 103 255 145 0.051231
0.872149 -0.030414 6.357810 48 255 200 0.027477
0.846336 -0.026451 6.342320 103 255 145 0.050769
0.619686 -0.015087 6.307030 0 173 255 0.007641
0.648071 -0.014081 6.322320 0 125 255 0.003782
0.656326 -0.016695 6.304640 0 129 255 0.004011
0.675767 -0.013614 6.337360 0 121 255 0.003459
0.684456 -0.015969 6.319870 0 117 255 0.003364
0.712392 -0.014576 6.334790 0 129 255 0.003970
0.703578 -0.012338 6.352190 0 105 255 0.002719
0.693188 -0.017431 6.302010 0 129 255 0.004036
0.721089 -0.016361 6.317000 0 197 255 0.010249
0.729596 -0.017802 6.298780 55 255 193 0.030109
0.701997 -0.018509 6.284080 16 249 232 0.018529
0.665107 -0.018461 6.287200 0 93 255 0.002135
0.673739 -0.019570 6.269250 0 185 255 0.008956
0.636637 -0.019898 6.272120 0 141 255 0.004772
0.628078 -0.017915 6.289730 0 189 255 0.009317
0.598714 -0.019284 6.274120 25 255 222 0.021373
0.645595 -0.020985 6.254310 0 109 255 0.002859
0.607070 -0.021229 6.256400 0 213 255 0.012668
0.615324 -0.022307 6.238050 0 97 255 0.002409
0.590367 -0.016231 6.291430 13 245 235 0.017433
0.731098 -0.012818 6.367290 0 93 255 0.002212
0.758786 -0.013599 6.382760 0 105 255 0.002777
0.767337 -0.016022 6.365130 0 137 255 0.004455
0.786945 -0.014528 6.398560 0 85 255 0.001844
0.795594 -0.016803 6.381130 0 121 255 0.003593
0.803902 -0.018226 6.363040 0 213 255 0.012192
0.812457 -0.020692 6.345230 71 255 177 0.036056
0.776100 -0.017606 6.347530 0 217 255 0.013025
0.784965 -0.019344 6.329590 58 255 190 0.030653
0.748356 -0.016845 6.332110 0 189 255 0.009134
0.739738 -0.015139 6.349840 0 117 255 0.003234
0.757206 -0.018376 6.314050 48 255 200 0.027646
0.835669 -0.040701 6.267440 77 255 171 0.038385
0.829676 -0.034640 6.286770 55 255 193 0.030021
0.802778 -0.033324 6.271580 35 255 213 0.023296
0.808437 -0.038598 6.251710 77 255 171 0.038743
0.796228 -0.027872 6.290510 38 255 209 0.024546
0.775488 -0.031386 6.256260 55 255 193 0.030087
0.769195 -0.026312 6.275640 45 255 203 0.027167
0.742533 -0.025178 6.260760 71 255 177 0.035924
0.782200 -0.037241 6.236640 80 255 167 0.039928
0.748983 -0.029747 6.241100 96 255 151 0.046854
0.755167 -0.035217 6.222080 113 255 135 0.056347
0.763175 -0.021902 6.294690 55 255 193 0.029410
0.735968 -0.021152 6.279830 61 255 187 0.032255
0.790414 -0.023098 6.310130 51 255 196 0.029041
0.818282 -0.024885 6.325930 38 255 209 0.024575
0.823746 -0.029382 6.306550 45 255 203 0.026427
0.727901 -0.034836 6.207500 106 255 142 0.052551
0.721254 -0.029697 6.226570 80 255 167 0.040550
0.693517 -0.029470 6.211680 80 255 167 0.039616
0.700362 -0.034068 6.192750 116 255 132 0.057778
0.686429 -0.025874 6.230860 29 255 219 0.022032
0.664965 -0.030375 6.196710 38 255 209 0.024737
0.658297 -0.026992 6.216120 0 209 255 0.012005
0.627704 -0.027952 6.199370 0 157 255 0.006152
0.671477 -0.034101 6.177300 100 255 148 0.048806
0.633968 -0.030216 6.178940 42 255 206 0.025272
0.640398 -0.033433 6.158920 119 255 129 0.058708
0.651545 -0.023716 6.234930 0 153 255 0.005633
0.621377 -0.025147 6.218770 0 93 255 0.002256
0.680112 -0.022388 6.250070 0 229 248 0.015220
0.708265 -0.021768 6.264900 32 255 216 0.022628
0.714612 -0.025567 6.245810 51 255 196 0.028703
0.673925 -0.040233 6.154970 109 255 138 0.054740
0.703877 -0.041283 6.171840 93 255 155 0.046290
0.706972 -0.049403 6.150600 87 255 161 0.042766
0.731495 -0.042502 6.186740 77 255 171 0.038869
0.735049 -0.051270 6.166030 61 255 187 0.032323
0.762071 -0.052777 6.180870 42 255 206 0.026011
0.758538 -0.043567 6.201570 64 255 184 0.033840
0.738436 -0.060490 6.145090 74 255 174 0.037396
0.765667 -0.062362 6.160380 51 255 196 0.029140
0.769028 -0.072245 6.139510 100 255 148 0.049450
0.742471 -0.070786 6.124620 100 255 148 0.048852
0.710994 -0.058484 6.129760 96 255 151 0.047096
0.714867 -0.068310 6.108490 132 255 116 0.067374
0.681063 -0.055559 6.110900 167 255 80 0.093552
0.677438 -0.047439 6.133110 129 255 119 0.065436
0.648823 -0.046985 6.115900 135 255 113 0.069665
0.685047 -0.064716 6.088980 222 255 25 0.145831
0.653531 -0.055126 6.094400 171 255 77 0.096393
0.658317 -0.064310 6.073320 219 255 29 0.144902
0.644459 -0.039761 6.137320 119 255 129 0.060035
0.784146 -0.044999 6.215790 48 255 200 0.027427
0.811174 -0.047347 6.230810 22 255 225 0.019832
0.813282 -0.055645 6.209450 29 255 219 0.022123
0.837612 -0.048635 6.245960 48 255 200 0.027714
0.840071 -0.057656 6.224920 29 255 219 0.022257
0.866321 -0.059693 6.240160 58 255 190 0.030959
0.864506 -0.050689 6.261720 74 255 174 0.036961
0.841855 -0.066912 6.203150 61 255 187 0.032617
0.868532 -0.069464 6.218430 64 255 184 0.034048
0.869990 -0.079099 6.197070 113 255 135 0.055649
0.845127 -0.077642 6.182580 90 255 158 0.044286
0.816484 -0.065451 6.188890 42 255 206 0.025678
0.819651 -0.075992 6.168080 80 255 167 0.040579
0.791178 -0.063908 6.174420 45 255 203 0.026617
0.787801 -0.054173 6.195210 25 255 222 0.021432
0.794264 -0.074235 6.153720 84 255 164 0.041522
0.864244 -0.137295 6.109320 119 255 129 0.060094
0.840495 -0.136031 6.096390 113 255 135 0.056188
0.840745 -0.120011 6.116610 77 255 171 0.038700
0.817111 -0.118755 6.103670 71 255 177 0.036373
0.816856 -0.134680 6.083500 113 255 135 0.055461
0.817241 -0.103422 6.124280 48 255 200 0.027736
0.793368 -0.117228 6.090600 74 255 174 0.037897
0.793461 -0.102060 6.110940 55 255 193 0.029471
0.769491 -0.100334 6.098020 55 255 193 0.029717
0.793283 -0.133456 6.070550 100 255 148 0.049819
0.769631 -0.115782 6.077170 67 255 180 0.034979
0.769401 -0.131832 6.056350 100 255 148 0.049436
0.793477 -0.087855 6.131920 45 255 203 0.026212
0.769374 -0.086105 6.118560 55 255 193 0.029720
0.818536 -0.089654 6.146040 35 255 213 0.023493
0.843719 -0.091330 6.160240 38 255 209 0.025061
0.842300 -0.105317 6.138620 35 255 213 0.023694
0.867243 -0.107184 6.152430 38 255 209 0.025044
