ply
format ascii 1.0
comment Seamless Cloth Simulation with High Geometric Fidelity 
comment Sat Apr  6 09:54:22 2019
element vertex 1238
property float x
property float y
property float z
property float quality
end_header
-0.682653 -0.123842 5.72828 0.00152955 
-0.667059 -0.113114 5.73436 0.00134172 
-0.651398 -0.102389 5.74055 0.00163032 
-0.628495 -0.0236264 5.8606 0.00218602 
-0.613591 -0.0149424 5.87025 0.00131822 
-0.625311 -0.0115871 5.88328 0.00127016 
-0.640238 -0.0203686 5.87365 0.00202203 
-0.610352 -0.00285335 5.893 0.00121087 
-0.637093 -0.00824613 5.89634 0.00179459 
-0.622168 0.000551116 5.90603 0.00180191 
-0.633794 0.00388836 5.91914 0.00233005 
-0.651861 -0.0171788 5.88677 0.00267077 
-0.648707 -0.00504501 5.90943 0.00233483 
-0.663469 -0.0140477 5.89993 0.0034687 
-0.607069 0.00919318 5.9158 0.0021994 
-0.618751 0.0126271 5.92889 0.00316337 
-0.6036 0.0211496 5.93877 0.00528147 
-0.590491 0.0169748 5.92409 0.00430952 
-0.593885 0.00502189 5.90123 0.00181575 
-0.577263 0.012743 5.90956 0.00360328 
-0.580606 0.000796787 5.88671 0.00163693 
-0.597153 -0.00700061 5.8784 0.00119997 
-0.564027 0.00835144 5.89501 0.0034104 
-0.662821 -0.00373278 5.92124 0.00349325 
-0.68888 -0.013231 5.92065 0.00359147 
-0.662068 0.00660579 5.94269 0.00391661 
-0.688158 -0.00301299 5.942 0.00369159 
-0.687221 0.00711823 5.96334 0.0050467 
-0.713919 -0.0129623 5.9414 0.00572653 
-0.661152 0.0167472 5.96412 0.00633455 
-0.660028 0.0266473 5.98558 0.0094897 
-0.646129 0.0255171 5.97387 0.00743852 
-0.647137 0.0155068 5.95235 0.00410187 
-0.632079 0.0242395 5.96213 0.0054882 
-0.633011 0.0141399 5.94062 0.00361052 
-0.647959 0.00531305 5.93092 0.00275042 
-0.617904 0.0227654 5.95045 0.00542874 
-0.602997 0.0457398 6.01407 0.00503982 
-0.587557 0.0437758 6.00059 0.00422355 
-0.603303 0.0379194 5.98902 0.00330636 
-0.571992 0.0415285 5.98703 0.00362117 
-0.587723 0.0357193 5.97547 0.00288109 
-0.571986 0.0333209 5.96196 0.00294479 
-0.556244 0.0390503 5.97352 0.00346295 
-0.603453 0.0296597 5.96388 0.00336026 
-0.587899 0.0272555 5.95015 0.00327513 
-0.617741 0.0311979 5.97549 0.00326205 
-0.631832 0.0325484 5.98717 0.00523565 
-0.617385 0.0392891 6.00054 0.00398272 
-0.631358 0.0404519 6.01214 0.00617067 
-0.645693 0.0337427 5.99891 0.00731772 
-0.61704 0.0470073 6.02546 0.00731709 
-0.543151 0.0348468 5.95899 0.00258691 
-0.528649 0.0299373 5.94223 0.00203619 
-0.545718 0.0247335 5.93276 0.00153067 
-0.514102 0.0249699 5.92556 0.00217855 
-0.531168 0.019829 5.91608 0.00180028 
-0.548273 0.0143114 5.90656 0.00170901 
-0.561495 0.0188049 5.92113 0.0019207 
-0.574667 0.0231746 5.93574 0.00249862 
-0.558882 0.0291425 5.94736 0.0020155 
-0.714647 -0.0049888 5.95956 0.00622014 
-0.740559 -0.0195649 5.95446 0.00467123 
-0.715192 0.00277507 5.97759 0.00723049 
-0.741179 -0.0118578 5.97237 0.00543598 
-0.741807 -0.00406683 5.99044 0.00731705 
-0.767015 -0.0262225 5.96748 0.00643394 
-0.715727 0.0104093 5.99566 0.00989194 
-0.716136 0.0179603 6.01381 0.0153052 
-0.688297 0.0225995 5.99975 0.0103294 
-0.687803 0.0150031 5.98158 0.00709892 
-0.783453 -0.0278905 5.9872 0.00422086 
-0.795528 -0.0401431 5.9757 0.00344029 
-0.771241 -0.0155951 5.99887 0.00696341 
-0.799629 -0.0295706 6.00673 0.00395421 
-0.811818 -0.0416564 5.99519 0.00307562 
-0.824015 -0.0535895 5.98361 0.00347123 
-0.787315 -0.0175368 6.01836 0.00568324 
-0.775115 -0.00533733 6.0301 0.0109656 
-0.758495 -0.00468861 6.01039 0.00695463 
-0.745831 0.00635167 6.02193 0.0106323 
-0.721416 0.0294327 6.06611 0.0152685 
-0.71971 0.0258172 6.04873 0.0135967 
-0.691044 0.0380485 6.0585 0.0140747 
-0.689261 0.0342337 6.04093 0.0130951 
-0.717981 0.0220234 6.03132 0.0144913 
-0.747599 0.0103143 6.03929 0.0104773 
-0.74918 0.014035 6.0566 0.0107468 
-0.6617 0.0441759 6.04769 0.0138356 
-0.661216 0.0386358 6.02708 0.00981805 
-0.674784 0.0306928 6.01331 0.0090307 
-0.963707 -0.0887196 6.12429 0.0023577 
-0.98893 -0.105146 6.12193 0.00223655 
-1.00525 -0.119987 6.10952 0.00266395 
-1.03116 -0.135169 6.10714 0.00676541 
-1.01279 -0.133622 6.08729 0.00426344 
-1.02341 -0.121685 6.1295 0.00372634 
-1.04924 -0.13679 6.12699 0.00798931 
-1.0066 -0.10868 6.13938 0.00251513 
-0.990215 -0.0948236 6.14923 0.00272837 
-1.02942 -0.153964 6.07493 0.00096936 
-1.03739 -0.150979 6.09074 0.00155455 
-1.05422 -0.171032 6.07817 0.00119332 
-1.04599 -0.174238 6.06252 0.00109759 
-1.06242 -0.167705 6.09394 0.00142415 
-1.07126 -0.190964 6.06557 0.00203773 
-1.07954 -0.18752 6.08117 0.00237605 
-1.09689 -0.207281 6.06835 0.00822466 
-1.06295 -0.194523 6.0498 0.00204074 
-1.08836 -0.211168 6.05268 0.00737686 
-1.0794 -0.215253 6.03736 0.00435744 
-1.08769 -0.184157 6.09694 0.00238757 
-1.10525 -0.203633 6.08408 0.00900587 
-1.1134 -0.200228 6.09969 0.00915888 
-1.08106 -0.168524 6.11356 0.00245924 
-1.05588 -0.152065 6.1105 0.00291719 
-1.11698 -0.174334 6.14799 0.00700346 
-1.09427 -0.162077 6.14106 0.00461643 
-1.08601 -0.147602 6.15724 0.00645032 
-1.06361 -0.135161 6.15003 0.00804284 
-1.07171 -0.149585 6.1341 0.00501883 
-1.10405 -0.180859 6.12034 0.00526998 
-1.12697 -0.193207 6.12707 0.011507 
-1.05365 -0.121705 6.1715 0.00514755 
-1.02977 -0.109579 6.16978 0.00324043 
-1.02147 -0.100005 6.1851 0.00282303 
-1.00603 -0.0969167 6.16811 0.00259903 
-1.03949 -0.123119 6.14843 0.00415149 
-0.839908 -0.0635584 5.98664 0.00191101 
-0.855676 -0.0735516 5.98952 0.000995992 
-0.832303 -0.0476439 6.01249 0.0028476 
-0.848011 -0.0578148 6.01537 0.00140103 
-0.863823 -0.0677992 6.0181 0.000839485 
-0.871559 -0.0833608 5.99243 0.000683089 
-0.887461 -0.0930151 5.99524 0.000599939 
-0.840198 -0.0421365 6.04116 0.00360695 
-0.82388 -0.0331852 6.03841 0.00353861 
-0.807587 -0.0240256 6.03567 0.00491245 
-0.903384 -0.103969 5.99784 0.000238397 
-0.919456 -0.114619 6.00043 0.000269829 
-0.896546 -0.0868728 6.02336 0.00103895 
-0.912457 -0.0977917 6.02587 0.000675424 
-0.928518 -0.108498 6.02836 0.000710188 
-0.935601 -0.125106 6.00304 0.000417206 
-0.951782 -0.135592 6.00546 0.000549282 
-0.905257 -0.0812661 6.0513 0.00173764 
-0.888897 -0.0717096 6.04885 0.00168742 
-0.872666 -0.0619159 6.04634 0.00185049 
-0.88011 -0.0774931 6.02078 0.000711159 
-0.856419 -0.0521116 6.04382 0.00242602 
-0.845858 -0.0362747 6.07252 0.00438105 
-0.830017 -0.0284042 6.06988 0.00327348 
-0.814295 -0.0202263 6.06729 0.00363601 
-0.861956 -0.0464004 6.07499 0.00317613 
-0.877944 -0.0565506 6.07735 0.00183128 
-0.781838 -0.00154039 6.06199 0.00695149 
-0.765679 0.00633507 6.05923 0.00761331 
-0.794756 -0.012662 6.0488 0.00530215 
-0.745605 -0.101466 5.81422 0.00113024 
-0.759328 -0.113886 5.80508 0.00143117 
-0.731877 -0.0889232 5.8233 0.00115445 
-0.750712 -0.0862914 5.84411 0.00115604 
-0.764396 -0.0988933 5.83502 0.000958305 
-0.778067 -0.111366 5.82593 0.0014448 
-0.727626 -0.0748807 5.8428 0.00151744 
-0.723343 -0.0606537 5.86231 0.00244244 
-0.702669 -0.0648504 5.83862 0.00221482 
-0.706826 -0.0790222 5.8191 0.00141004 
-0.786248 -0.100851 5.85289 0.000631987 
-0.799037 -0.113842 5.84268 0.000952997 
-0.773532 -0.087572 5.86296 0.000800478 
-0.794341 -0.090127 5.87962 0.000548266 
-0.807072 -0.103283 5.86955 0.000662739 
-0.819954 -0.116341 5.8594 0.00118214 
-0.771274 -0.075469 5.88135 0.0012008 
-0.769007 -0.0632296 5.8997 0.00191032 
-0.746312 -0.0618633 5.88101 0.00186911 
-0.748536 -0.0741629 5.86263 0.00120619 
-0.716444 -0.0249173 5.92166 0.00348724 
-0.718813 -0.0369129 5.90197 0.00225861 
-0.69127 -0.0253196 5.90085 0.00251553 
-0.6937 -0.037453 5.88096 0.00174696 
-0.721159 -0.0488716 5.88214 0.0021562 
-0.743998 -0.0501264 5.90075 0.00186774 
-0.741614 -0.038266 5.92042 0.00217287 
-0.668189 -0.0281183 5.87859 0.00212976 
-0.656573 -0.0311726 5.86547 0.00163334 
-0.672786 -0.0420313 5.85739 0.00158344 
-0.644916 -0.0343036 5.85237 0.00149193 
-0.661193 -0.0450287 5.84426 0.00125442 
-0.677293 -0.0557951 5.83624 0.00147543 
-0.69821 -0.0513073 5.85979 0.00155964 
-0.831244 -0.11153 5.88108 0.000629309 
-0.843228 -0.124853 5.87053 0.000947983 
-0.819327 -0.0980002 5.89155 0.000807326 
-0.842599 -0.106545 5.90254 0.0010223 
-0.854545 -0.119964 5.89204 0.00122733 
-0.866592 -0.133292 5.88145 0.00199223 
-0.819116 -0.0887286 5.90752 0.00141907 
-0.818792 -0.0794392 5.92349 0.00199522 
-0.793943 -0.0714395 5.91168 0.00125248 
-0.794171 -0.080769 5.89563 0.000780699 
-0.880432 -0.133147 5.90027 0.00156195 
-0.89122 -0.146304 5.88986 0.00186104 
-0.869617 -0.120028 5.91065 0.00156382 
-0.894201 -0.132931 5.9189 0.00167117 
-0.905021 -0.146057 5.90851 0.00210963 
-0.915925 -0.159146 5.89807 0.00269796 
-0.88333 -0.119861 5.92924 0.00159406 
-0.872591 -0.106633 5.93956 0.00223789 
-0.857582 -0.106654 5.92109 0.0012682 
-0.845649 -0.0931631 5.9316 0.0014497 
-0.808519 -0.0533442 5.96464 0.0021744 
-0.8215 -0.0664794 5.95364 0.00218297 
-0.792923 -0.0532429 5.94541 0.00209989 
-0.780003 -0.0398113 5.95644 0.00307416 
-0.805865 -0.0664822 5.93443 0.00170942 
-0.833552 -0.0799225 5.94266 0.00140987 
-0.848286 -0.0803582 5.96155 0.00161411 
-0.860392 -0.0935656 5.95052 0.00157463 
-0.754397 -0.0322309 5.94402 0.00289107 
-0.768143 -0.0447883 5.93363 0.00255057 
-0.768619 -0.0540717 5.91675 0.00194917 
-0.918579 -0.896601 5.85129 0.000970344 
-0.89859 -0.901148 5.86433 0.000760333 
-0.912196 -0.892206 5.88542 0.000511321 
-0.892299 -0.896939 5.89813 0.000790308 
-0.878746 -0.906102 5.87724 0.00106622 
-0.906 -0.888215 5.91909 0.000499383 
-0.872502 -0.901952 5.91083 0.000936459 
-0.886188 -0.893082 5.93163 0.000630415 
-0.866511 -0.898431 5.94419 0.000747784 
-0.858993 -0.911172 5.88997 0.00113728 
-0.852825 -0.907232 5.92344 0.000860251 
-0.839442 -0.916674 5.90268 0.000911378 
-0.90011 -0.884702 5.95238 0.000460055 
-0.880391 -0.889958 5.96487 0.000614278 
-0.894459 -0.881956 5.98551 0.000529409 
-0.912956 -0.877332 5.9709 0.000497043 
-0.918645 -0.880301 5.9377 0.000484212 
-0.931459 -0.872782 5.9563 0.000510307 
-0.937281 -0.876198 5.92302 0.000323017 
-0.924666 -0.884159 5.9043 0.000400728 
-0.9435 -0.880595 5.8893 0.00120279 
-0.950142 -0.868705 5.94166 0.000371488 
-0.956121 -0.87262 5.90816 0.0011584 
-0.968978 -0.864901 5.92708 0.00146734 
-0.930917 -0.888333 5.87034 0.00103257 
-0.817271 -0.921007 5.91637 0.00143328 
-0.831529 -0.911031 5.93912 0.00122271 
-0.809503 -0.915567 5.95275 0.00197887 
-0.795332 -0.925692 5.93004 0.0019517 
-0.824026 -0.906168 5.97544 0.00163343 
-0.787723 -0.920422 5.9664 0.00188011 
-0.802226 -0.911056 5.98907 0.00155026 
-0.773523 -0.930346 5.94368 0.00201783 
-0.817012 -0.902451 6.01175 0.00105669 
-0.831111 -0.894701 6.03239 0.000904689 
-0.837957 -0.897986 5.9961 0.00126874 
-0.852053 -0.890044 6.0167 0.00123515 
-0.859088 -0.893787 5.98046 0.000924683 
-0.845156 -0.902048 5.95978 0.00139131 
-0.873217 -0.88586 6.00109 0.000841875 
-0.898933 -0.864592 6.11269 0.00321025 
-0.882056 -0.872613 6.09382 0.00216013 
-0.902993 -0.867371 6.07665 0.00121818 
-0.919972 -0.859313 6.0955 0.0022949 
-0.886046 -0.875083 6.05764 0.00060987 
-0.924065 -0.862353 6.05954 0.00126656 
-0.907043 -0.870179 6.04058 0.000535853 
-0.928167 -0.865577 6.02351 0.000851023 
-0.941046 -0.85415 6.07834 0.00201368 
-0.945114 -0.857345 6.04238 0.00145703 
-0.962102 -0.84909 6.0612 0.00315534 
-0.890091 -0.878156 6.0216 0.00042231 
-0.9112 -0.873639 6.00452 0.000553905 
-0.868957 -0.882381 6.0372 0.000617482 
-0.848005 -0.887207 6.05295 0.000533838 
-0.86497 -0.879753 6.07337 0.000672148 
-0.979583 -0.843318 6.04495 0.00174709 
-0.963449 -0.852044 6.02775 0.0013121 
-0.981131 -0.846828 6.0116 0.00104875 
-0.997246 -0.83789 6.02875 0.00172428 
-0.965062 -0.855766 5.99438 0.000876798 
-0.999001 -0.841831 5.99549 0.00164797 
-0.982833 -0.850791 5.97819 0.00094281 
-1.00079 -0.846167 5.96205 0.00143394 
-1.01528 -0.832736 6.01269 0.00256635 
-1.01704 -0.83682 5.97948 0.00270684 
-1.03344 -0.827508 5.99672 0.00500733 
-0.966787 -0.85984 5.96078 0.000605283 
-0.984745 -0.855533 5.94454 0.00130692 
-0.948191 -0.864287 5.97543 0.000515672 
-0.929665 -0.86875 5.98991 0.000574672 
-0.946535 -0.860426 6.00892 0.000708909 
-0.931679 -0.163133 5.91641 0.000906783 
-0.940672 -0.175212 5.90664 0.000955935 
-0.922789 -0.151102 5.92619 0.000985511 
-0.947489 -0.167022 5.93455 0.000341303 
-0.956534 -0.179063 5.92475 0.000441351 
-0.965586 -0.191145 5.91488 0.000639245 
-0.938542 -0.155042 5.94431 0.000369715 
-0.929555 -0.143179 5.9539 0.000326959 
-0.911822 -0.138137 5.9365 0.000563747 
-0.900992 -0.125071 5.94685 0.000546729 
-0.982735 -0.197552 5.93154 0.000286935 
-1.00015 -0.203754 5.94784 0.00052315 
-1.00166 -0.217036 5.92566 0.000408221 
-0.981264 -0.184637 5.95359 0.000458407 
-0.972206 -0.172674 5.96343 0.000515789 
-0.940749 -0.139267 5.97979 0.000390211 
-0.924604 -0.128767 5.97727 0.000200633 
-0.90851 -0.118185 5.97457 0.000192276 
-0.949353 -0.151066 5.97013 0.00039981 
-0.969193 -0.158873 5.98599 0.000622311 
-0.960523 -0.147191 5.99574 0.000639751 
-0.880066 -0.0998104 5.96745 0.000929906 
-0.890532 -0.112467 5.95719 0.000600072 
-1.14454 -0.190375 6.50183 0.0113272 
-1.16257 -0.20203 6.48341 0.0115733 
-1.1421 -0.198005 6.52296 0.0120718 
-1.15997 -0.210205 6.50477 0.0124564 
-1.15733 -0.217977 6.52572 0.0156412 
-1.17803 -0.222233 6.48628 0.0141279 
-1.13951 -0.20598 6.54374 0.0153313 
-1.13684 -0.214179 6.56449 0.0160455 
-1.12231 -0.193516 6.56136 0.0128779 
-1.1249 -0.185809 6.54052 0.0124368 
-1.17248 -0.231363 6.50876 0.0145852 
-1.18797 -0.245511 6.49211 0.0124208 
-1.16679 -0.24071 6.53108 0.0133786 
-1.18217 -0.254794 6.51458 0.0154082 
-1.17634 -0.264229 6.53677 0.0192493 
-1.19752 -0.269374 6.49776 0.016139 
-1.16113 -0.250211 6.5531 0.0174706 
-1.15545 -0.259727 6.57499 0.0210401 
-1.14623 -0.236757 6.5698 0.0160114 
-1.15182 -0.227285 6.54787 0.0161945 
-1.11394 -0.23663 6.64059 0.0169695 
-1.12157 -0.229442 6.61489 0.0156732 
-1.10526 -0.214037 6.63619 0.0150248 
-1.11288 -0.2069 6.61014 0.0151863 
-1.12925 -0.221783 6.58955 0.0155368 
-1.13859 -0.244628 6.59476 0.0168051 
-1.13094 -0.252376 6.61976 0.0192807 
-1.09379 -0.192349 6.63281 0.0110615 
-1.0985 -0.186086 6.60771 0.0126056 
-1.08041 -0.170868 6.63003 0.0111648 
-1.10327 -0.179825 6.58275 0.0113123 
-1.11766 -0.200357 6.58564 0.0125282 
-1.02133 -0.783185 6.24202 0.00260215 
-1.00741 -0.795586 6.22635 0.00401913 
-1.0304 -0.786837 6.21011 0.00153168 
-1.04429 -0.774369 6.22568 0.00118455 
-1.01632 -0.799042 6.19434 0.00272367 
-1.05382 -0.778223 6.1939 0.0018971 
-1.0395 -0.790325 6.17814 0.0024195 
-1.06304 -0.781609 6.16198 0.00527996 
-1.06779 -0.765715 6.20942 0.00202349 
-1.07746 -0.769417 6.17767 0.00482289 
-1.09183 -0.757 6.19319 0.00690511 
-1.02496 -0.802108 6.16211 0.00275633 
-1.04835 -0.793393 6.14601 0.00439536 
-1.03339 -0.804704 6.12979 0.0033138 
-1.01087 -0.811943 6.14705 0.00206508 
-1.00246 -0.809298 6.17941 0.00275098 
-0.988352 -0.819128 6.16422 0.00265617 
-0.979994 -0.816492 6.19668 0.00475357 
-0.993832 -0.806218 6.21162 0.00432634 
-0.966013 -0.826528 6.18155 0.00554357 
-1.11488 -0.742875 6.17603 0.00276528 
-1.09605 -0.761636 6.16079 0.0063509 
-1.11962 -0.747437 6.14356 0.00414077 
-1.13825 -0.728353 6.15862 0.00309576 
-1.10018 -0.765917 6.1281 0.00733241 
-1.14369 -0.732783 6.12613 0.00731234 
-1.12412 -0.751598 6.11084 0.00621142 
-1.14863 -0.736414 6.09329 0.0131851 
-1.16224 -0.713373 6.14099 0.00893203 
-1.16801 -0.71732 6.10834 0.0167276 
-1.18654 -0.698001 6.12323 0.0249976 
-1.10435 -0.769832 6.09526 0.00894922 
-1.12866 -0.754992 6.07796 0.0107019 
-1.10824 -0.773146 6.06242 0.00960739 
-1.08893 -0.781512 6.07942 0.00491075 
-1.08525 -0.777931 6.1123 0.0054583 
-1.06995 -0.789417 6.09623 0.00336124 
-1.06664 -0.785715 6.12917 0.0039877 
-1.0815 -0.773866 6.14507 0.00521351 
-1.0515 -0.79709 6.11301 0.00249896 
-1.0336 -0.82185 6.03002 0.00381245 
-1.01543 -0.827214 6.04615 0.00239163 
-1.0336 -0.816228 6.06335 0.00327005 
-0.99772 -0.832886 6.06234 0.00228351 
-1.01585 -0.822035 6.07959 0.00261503 
-0.998121 -0.827793 6.09582 0.00250648 
-0.980142 -0.83856 6.07854 0.00286674 
-1.03364 -0.810661 6.09661 0.00299551 
-1.01588 -0.816534 6.11292 0.00272626 
-1.05183 -0.803047 6.07987 0.00260444 
-1.07037 -0.795314 6.06312 0.00358521 
-1.05199 -0.808756 6.04667 0.0032129 
-1.07073 -0.801087 6.03011 0.00385655 
-1.08966 -0.787282 6.04644 0.00608883 
-1.05202 -0.814374 6.01358 0.00376437 
-0.957968 -0.84584 6.09573 0.00351859 
-0.93678 -0.850947 6.11291 0.00304005 
-0.953527 -0.842307 6.13019 0.00488376 
-0.915699 -0.85639 6.13015 0.00490318 
-0.932344 -0.847681 6.14746 0.00623844 
-0.948789 -0.838419 6.16463 0.00770996 
-0.971035 -0.830956 6.14731 0.00346759 
-0.993481 -0.823767 6.13014 0.0025148 
-0.975753 -0.834965 6.113 0.00265401 
-1.20187 -0.648966 6.27071 0.0208248 
-1.18163 -0.666996 6.26704 0.00851203 
-1.19926 -0.659325 6.23946 0.0193799 
-1.16205 -0.685122 6.26347 0.00635139 
-1.17902 -0.677553 6.23594 0.0092459 
-1.15883 -0.695481 6.23235 0.00521524 
-1.19634 -0.669773 6.20845 0.0177096 
-1.14208 -0.703153 6.2599 0.00624477 
-1.12192 -0.720792 6.25623 0.00993136 
-1.12928 -0.707252 6.2839 0.00984516 
-1.149 -0.689395 6.28749 0.00687558 
-1.16876 -0.67128 6.29103 0.00802545 
-1.13659 -0.693661 6.31171 0.0143935 
-1.19431 -0.677223 6.18734 0.0209527 
-1.17057 -0.692074 6.20475 0.00689056 
-1.16786 -0.699561 6.1837 0.00990961 
-1.19204 -0.684323 6.16608 0.025468 
-1.1444 -0.714125 6.20105 0.00323689 
-1.16539 -0.706692 6.16252 0.0106109 
-1.14157 -0.72136 6.17991 0.00370403 
-1.18953 -0.691252 6.14463 0.0224052 
-1.11799 -0.735694 6.19718 0.0031272 
-1.09944 -0.747963 6.20905 0.00665554 
-1.1256 -0.726652 6.21295 0.00312158 
-1.10727 -0.739061 6.22488 0.00768624 
-1.13309 -0.717445 6.22864 0.00446895 
-1.1517 -0.70486 6.21675 0.00431945 
-1.11468 -0.729942 6.24056 0.00812222 
-1.02923 -0.774721 6.25806 0.00352027 
-1.03871 -0.764927 6.27196 0.00290217 
-1.0599 -0.75702 6.25758 0.00185445 
-1.04815 -0.755086 6.28578 0.00312819 
-1.06917 -0.746935 6.27126 0.00163089 
-1.07846 -0.737025 6.28502 0.00191882 
-1.05743 -0.745215 6.29961 0.00341808 
-1.09095 -0.739181 6.25697 0.00369497 
-1.10001 -0.728955 6.2706 0.0036116 
-1.08334 -0.748116 6.24121 0.00285153 
-1.07558 -0.756845 6.22536 0.00210391 
-1.0522 -0.765752 6.24165 0.00162565 
-1.06768 -0.730572 6.32552 0.00579787 
-1.08644 -0.724104 6.31304 0.00497028 
-1.09851 -0.706988 6.3367 0.00617801 
-1.07993 -0.713687 6.34919 0.00861854 
-1.11145 -0.70908 6.31244 0.00800205 
-1.14967 -0.207821 6.13953 0.00825296 
-1.15928 -0.229551 6.12437 0.00759592 
-1.13643 -0.214918 6.11195 0.00726263 
-1.14548 -0.236936 6.09715 0.00483908 
-1.16853 -0.251725 6.10957 0.00909826 
-1.17732 -0.274644 6.09494 0.0137299 
-1.18964 -0.264134 6.12263 0.0183576 
-1.18016 -0.241772 6.13752 0.0122077 
-1.17042 -0.219801 6.15266 0.00961613 
-1.20072 -0.254034 6.15074 0.0206175 
-1.12454 -0.224532 6.08447 0.00407001 
-1.11597 -0.228481 6.06883 0.00341079 
-1.13538 -0.249666 6.06932 0.00341856 
-1.10724 -0.232525 6.05334 0.00295357 
-1.1263 -0.253917 6.05391 0.00219743 
-1.11715 -0.258481 6.03835 0.00297981 
-1.09826 -0.236852 6.03777 0.00247377 
-1.1455 -0.275563 6.0543 0.00311422 
-1.1362 -0.280148 6.03892 0.00241402 
-1.15529 -0.301935 6.03951 0.00399304 
-1.16675 -0.287981 6.06712 0.00941597 
-1.15616 -0.262181 6.08211 0.0045821 
-1.20723 -0.385936 6.05091 0.0120944 
-1.20038 -0.35748 6.06171 0.0114074 
-1.21787 -0.372491 6.07885 0.0166031 
-1.19305 -0.329329 6.07268 0.0105869 
-1.211 -0.344222 6.08962 0.0127582 
-1.20354 -0.31638 6.10047 0.0108182 
-1.22842 -0.359411 6.10682 0.0204702 
-1.18537 -0.30171 6.08376 0.00950583 
-1.17427 -0.315533 6.056 0.00646182 
-1.18181 -0.343556 6.04477 0.00693003 
-1.22261 -0.33229 6.11741 0.0181031 
-1.23936 -0.348022 6.13361 0.0282018 
-1.21607 -0.305713 6.12805 0.0160651 
-1.233 -0.320992 6.14426 0.0220641 
-1.22583 -0.29458 6.15522 0.0181221 
-1.24917 -0.336522 6.16065 0.0329176 
-1.20895 -0.2795 6.13926 0.0169876 
-1.19692 -0.290025 6.11136 0.0130548 
-1.26886 -0.52112 6.21072 0.0212685 
-1.2701 -0.498747 6.20385 0.0140182 
-1.26715 -0.481905 6.18329 0.0121097 
-1.26785 -0.459237 6.17622 0.0181876 
-1.26379 -0.442062 6.15549 0.024247 
-1.2723 -0.431123 6.18286 0.0303722 
-1.25942 -0.470375 6.14895 0.0135947 
-1.25479 -0.452698 6.128 0.0192526 
-1.25959 -0.492276 6.1551 0.0110659 
-1.25984 -0.514221 6.16133 0.0109528 
-1.2629 -0.531161 6.18192 0.0203022 
-1.25657 -0.540855 6.15286 0.018236 
-1.26767 -0.40701 6.17701 0.0225621 
-1.25742 -0.389201 6.15791 0.0175017 
-1.25125 -0.365558 6.15241 0.0245307 
-1.24082 -0.377157 6.12553 0.0170941 
-1.24767 -0.400309 6.13073 0.0167358 
-1.25377 -0.423822 6.13626 0.015977 
-1.21523 -0.407689 6.05506 0.0108402 
-1.22772 -0.424083 6.07421 0.0125973 
-1.23459 -0.446496 6.07881 0.0142613 
-1.24569 -0.463455 6.09828 0.0198868 
-1.23612 -0.474813 6.06875 0.0138056 
-1.24419 -0.435734 6.10847 0.0138183 
-1.2378 -0.41224 6.10314 0.0132962 
-1.23082 -0.388887 6.09786 0.0140597 
-1.23821 -0.495607 6.07378 0.0104822 
-1.24396 -0.51215 6.09483 0.00947376 
-1.24525 -0.532845 6.0998 0.0100491 
-1.24984 -0.549161 6.12073 0.0178069 
-1.24243 -0.557465 6.08855 0.0128971 
-1.25247 -0.524491 6.13187 0.0108332 
-1.25193 -0.502583 6.12578 0.011034 
-1.25134 -0.480257 6.11943 0.0167473 
-1.18713 -0.194147 6.23224 0.00977264 
-1.19747 -0.210076 6.22067 0.00946486 
-1.17922 -0.195053 6.21116 0.00879511 
-1.18933 -0.210856 6.19961 0.0101449 
-1.20756 -0.226275 6.2092 0.0127833 
-1.21774 -0.242567 6.19774 0.0203606 
-1.22346 -0.239814 6.21868 0.0187913 
-1.21337 -0.223425 6.23004 0.0123019 
-1.17119 -0.197717 6.1889 0.00990824 
-1.18112 -0.216329 6.17618 0.00965588 
-1.16067 -0.201099 6.16542 0.0100743 
-1.19106 -0.235045 6.16347 0.0123012 
-1.20951 -0.248338 6.17406 0.0188584 
-1.19961 -0.229409 6.1869 0.0119065 
-1.24218 -0.312358 6.16944 0.0236865 
-1.25589 -0.328929 6.18302 0.0325764 
-1.23432 -0.288805 6.17865 0.0157005 
-1.24844 -0.305014 6.19201 0.0186998 
-1.24054 -0.281415 6.20141 0.0138134 
-1.26189 -0.321468 6.2056 0.0325031 
-1.22625 -0.265466 6.18809 0.0150906 
-1.21764 -0.27135 6.16463 0.0148397 
-1.25408 -0.29989 6.21404 0.0183683 
-1.26531 -0.316379 6.22602 0.0279748 
-1.2461 -0.278587 6.22245 0.012961 
-1.25746 -0.294727 6.23447 0.017063 
-1.23778 -0.257526 6.23095 0.0153171 
-1.23221 -0.260484 6.21004 0.0132787 
-1.26128 -0.54385 6.20255 0.0148149 
-1.25405 -0.566236 6.19407 0.0144655 
-1.25545 -0.553709 6.17366 0.0149922 
-1.24795 -0.576146 6.16502 0.0121548 
-1.24651 -0.588827 6.18555 0.0134055 
-1.23902 -0.611467 6.17705 0.0211109 
-1.2425 -0.602134 6.20793 0.0202192 
-1.24987 -0.579524 6.21639 0.0140325 
-1.25698 -0.557193 6.22492 0.0134069 
-1.2456 -0.592471 6.23856 0.0229819 
-1.25031 -0.561969 6.14163 0.0161563 
-1.24441 -0.582882 6.13018 0.0169309 
-1.24371 -0.570344 6.10946 0.0130362 
-1.2374 -0.591361 6.09809 0.0113861 
-1.23819 -0.603932 6.11879 0.0177926 
-1.2317 -0.625168 6.10753 0.0226591 
-1.2337 -0.622081 6.12505 0.0235413 
-1.23998 -0.60087 6.13639 0.0173052 
-1.23554 -0.618659 6.14241 0.0213172 
-1.24185 -0.597316 6.15369 0.0147865 
-1.24627 -0.579556 6.14763 0.0136112 
-1.23727 -0.615106 6.15976 0.0189214 
-1.20038 -0.676591 6.13678 0.0169726 
-1.20261 -0.669834 6.15824 0.0163179 
-1.21337 -0.655012 6.15018 0.0121962 
-1.20495 -0.662751 6.17958 0.0141145 
-1.21558 -0.647959 6.17154 0.00935265 
-1.21754 -0.640753 6.19284 0.0105101 
-1.207 -0.655298 6.20069 0.0106152 
-1.22621 -0.633354 6.16368 0.0128393 
-1.22839 -0.62608 6.18497 0.0112201 
-1.22453 -0.636897 6.14637 0.00934502 
-1.22259 -0.640381 6.12907 0.0098426 
-1.21142 -0.658555 6.13296 0.0116259 
-1.2092 -0.66187 6.11565 0.00804672 
-1.2206 -0.643479 6.11161 0.0100467 
-1.198 -0.679863 6.11941 0.0108747 
-1.20986 -0.645345 6.23157 0.0127041 
-1.22103 -0.63117 6.2236 0.0121281 
-1.22332 -0.620798 6.25468 0.0108394 
-1.21238 -0.634973 6.26271 0.0125746 
-1.23337 -0.611813 6.2311 0.014092 
-0.938333 -0.311659 6.94554 0.0411145 
-0.949132 -0.32086 6.92421 0.0321182 
-0.951783 -0.337192 6.90557 0.0248571 
-0.968145 -0.323483 6.90001 0.0245746 
-0.932921 -0.335003 6.92958 0.0313939 
-0.935419 -0.351225 6.91113 0.0307711 
-0.922662 -0.325243 6.94998 0.0353069 
-0.89537 -0.358906 6.93817 0.0272545 
-0.885923 -0.349248 6.95722 0.0410345 
-0.905054 -0.337812 6.95386 0.0384115 
-0.915252 -0.347261 6.93363 0.0310612 
-0.915497 -0.362527 6.91558 0.0230528 
-1.12014 -0.461432 6.59281 0.0102585 
-1.12021 -0.443769 6.60456 0.00783364 
-1.1126 -0.435905 6.62049 0.00910037 
-1.11236 -0.41836 6.6321 0.00677694 
-1.09709 -0.437911 6.64065 0.0120159 
-1.128 -0.416421 6.61193 0.0100713 
-1.12781 -0.39894 6.62352 0.0133188 
-1.13665 -0.423227 6.59556 0.00745627 
-1.14536 -0.430157 6.57895 0.00667763 
-1.14544 -0.447824 6.56705 0.00429229 
-1.16318 -0.426367 6.55746 0.00582642 
-1.08782 -0.429083 6.66022 0.0169114 
-1.08512 -0.41132 6.67609 0.0131519 
-1.07545 -0.402006 6.69609 0.0133788 
-1.07228 -0.383545 6.71278 0.0133039 
-1.05891 -0.401015 6.72051 0.0160037 
-1.08903 -0.384567 6.68836 0.0130313 
-1.08568 -0.366219 6.70509 0.0162905 
-1.09954 -0.392795 6.66781 0.0118524 
-1.10984 -0.400761 6.64772 0.0115524 
-1.10316 -0.327091 6.69132 0.0188907 
-1.11499 -0.334304 6.66935 0.0213281 
-1.12138 -0.352249 6.65238 0.0154247 
-1.13286 -0.358685 6.63162 0.0152415 
-1.13875 -0.376379 6.61514 0.0104372 
-1.14967 -0.354019 6.60671 0.017797 
-1.12214 -0.381209 6.64003 0.0119076 
-1.11159 -0.373106 6.66001 0.0120344 
-1.10093 -0.365084 6.6805 0.0135694 
-1.09439 -0.346602 6.6983 0.0163142 
-1.1595 -0.359386 6.58978 0.018121 
-1.16294 -0.377433 6.57753 0.00834366 
-1.17269 -0.382899 6.56019 0.00719708 
-1.17597 -0.401111 6.54771 0.00493337 
-1.18905 -0.375931 6.53768 0.0115943 
-1.15992 -0.408127 6.57 0.00698721 
-1.15104 -0.401263 6.5866 0.0101745 
-1.14212 -0.394454 6.60312 0.0110667 
-1.00856 -0.259437 6.87719 0.0469716 
-0.997424 -0.250745 6.89984 0.0615298 
-1.00331 -0.225028 6.89143 0.0599205 
-1.0124 -0.241949 6.87141 0.046002 
-1.01629 -0.224627 6.86559 0.0491767 
-1.00442 -0.188843 6.88018 0.0670107 
-1.0155 -0.206031 6.8599 0.0427313 
-1.00531 -0.207311 6.88564 0.05657 
-0.989481 -0.267387 6.90546 0.0493353 
-1.00053 -0.275892 6.88292 0.0381172 
-0.992475 -0.292609 6.88882 0.0384721 
-0.981309 -0.283541 6.91106 0.0458493 
-0.97017 -0.274454 6.93334 0.0547611 
-0.963262 -0.306699 6.91925 0.0396019 
-0.952465 -0.297111 6.94064 0.0460379 
-0.980254 -0.307896 6.89447 0.0272966 
-1.0912 -0.318857 6.71464 0.0248141 
-1.08113 -0.301457 6.73467 0.0232298 
-1.06919 -0.293338 6.75763 0.0236001 
-1.05907 -0.275957 6.77743 0.0175411 
-1.05546 -0.294479 6.78358 0.0212193 
-1.07291 -0.274813 6.75144 0.0192681 
-1.06272 -0.257552 6.77135 0.0224108 
-1.08478 -0.282066 6.72824 0.0230372 
-1.09672 -0.289249 6.70487 0.0227476 
-1.10688 -0.306587 6.68479 0.019439 
-1.11064 -0.286329 6.67799 0.026452 
-1.04373 -0.285835 6.80697 0.022938 
-1.03398 -0.268297 6.82746 0.0193942 
-1.02224 -0.259529 6.85088 0.0298427 
-1.02623 -0.242044 6.84484 0.0319423 
-1.03776 -0.250404 6.8214 0.0189145 
-1.04929 -0.258605 6.79791 0.0220979 
-1.02681 -0.204998 6.83331 0.0355154 
-1.03883 -0.222592 6.81255 0.0232464 
-1.04922 -0.220415 6.78636 0.0195138 
-1.06116 -0.237874 6.76575 0.0182738 
-1.05079 -0.240088 6.79189 0.0213938 
-1.02755 -0.223547 6.83904 0.0335848 
-1.07239 -0.235209 6.7395 0.02033 
-1.0851 -0.252135 6.71913 0.0236449 
-1.09565 -0.248008 6.69286 0.0234136 
-1.10851 -0.264925 6.6722 0.0214483 
-1.09782 -0.269229 6.69871 0.0257053 
-1.07382 -0.254867 6.74535 0.0208541 
-0.979578 -0.333136 6.87768 0.0220662 
-0.982723 -0.349617 6.85891 0.0171268 
-0.994249 -0.359234 6.83645 0.0174392 
-0.997247 -0.375708 6.81765 0.0142475 
-1.01437 -0.36209 6.80987 0.0190156 
-0.977293 -0.373046 6.84399 0.0191068 
-0.980255 -0.389572 6.82524 0.0184247 
-0.966008 -0.363377 6.86552 0.0170575 
-0.954753 -0.353791 6.88694 0.0186704 
-1.02559 -0.371729 6.78791 0.020368 
-1.02802 -0.388221 6.77043 0.0177075 
-1.03895 -0.398003 6.74818 0.0162525 
-1.04115 -0.414813 6.72983 0.0134241 
-1.02137 -0.411902 6.7573 0.0196318 
-1.02343 -0.428636 6.73912 0.0193335 
-1.01059 -0.402071 6.77897 0.0208692 
-0.999682 -0.392375 6.80023 0.018732 
-0.97953 -0.434185 6.77549 0.0199959 
-0.96909 -0.424644 6.79613 0.0202825 
-0.969392 -0.409752 6.81268 0.0191826 
-0.958861 -0.400226 6.83287 0.0163982 
-0.990921 -0.414128 6.78756 0.0168104 
-1.00163 -0.423784 6.76605 0.0174464 
-1.00125 -0.438688 6.74884 0.0159867 
-0.937083 -0.396213 6.85803 0.0175766 
-0.926386 -0.386789 6.87824 0.0162453 
-0.92598 -0.371896 6.89563 0.0149028 
-0.947093 -0.375713 6.87216 0.0156831 
-0.958326 -0.385264 6.85062 0.0161029 
-1.01635 -0.277143 6.8569 0.0237137 
-1.02805 -0.285875 6.83349 0.0197171 
-1.03577 -0.303439 6.81324 0.0184682 
-1.0474 -0.312071 6.78989 0.0212797 
-1.03941 -0.329737 6.79622 0.0194002 
-1.02766 -0.320583 6.81932 0.0197474 
-1.01997 -0.303024 6.83962 0.0192612 
-1.00823 -0.293661 6.86273 0.0234118 
-1.06312 -0.31236 6.76426 0.0202081 
-1.075 -0.320383 6.74136 0.0203986 
-1.08256 -0.33836 6.72167 0.0190913 
-1.07408 -0.357121 6.72831 0.0195077 
-1.06666 -0.339051 6.748 0.0204084 
-1.05507 -0.329976 6.77054 0.018244 
-1.05421 -0.383073 6.74005 0.0161233 
-1.04309 -0.373223 6.76239 0.0166483 
-1.03824 -0.355499 6.78103 0.0180422 
-1.02688 -0.345885 6.80303 0.0190139 
-1.05599 -0.356547 6.75506 0.0189227 
-1.00903 -0.344785 6.82959 0.0189343 
-0.997396 -0.334974 6.85215 0.0213258 
-0.991864 -0.317657 6.87191 0.023206 
-1.00973 -0.319325 6.84591 0.0215415 
-1.05961 -0.418012 6.70479 0.0150079 
-1.06918 -0.427334 6.68453 0.01419 
-1.06943 -0.443747 6.66939 0.0117417 
-1.07868 -0.45267 6.64976 0.0105498 
-1.06034 -0.467541 6.65885 0.0179533 
-1.05124 -0.458201 6.6784 0.015973 
-1.05109 -0.441663 6.69372 0.0155349 
-1.04174 -0.431862 6.71394 0.0174776 
-1.09502 -0.453616 6.62932 0.0108023 
-1.10259 -0.461497 6.61342 0.0101212 
-1.10036 -0.47735 6.60201 0.0120439 
-1.0813 -0.49275 6.61104 0.0161016 
-1.08353 -0.476889 6.62257 0.0130133 
-1.07664 -0.468425 6.63843 0.0132239 
-1.04632 -0.508918 6.6248 0.0108864 
-1.05101 -0.495093 6.63622 0.0119582 
-1.0444 -0.486465 6.65223 0.0119855 
-1.03774 -0.477876 6.66827 0.0101136 
-1.01747 -0.473725 6.69291 0.0210981 
-1.00839 -0.464116 6.71277 0.0169298 
-1.01038 -0.448986 6.72839 0.0159765 
-1.03089 -0.453788 6.70314 0.0153396 
-1.16202 -0.529725 6.49103 0.00284185 
-1.17867 -0.525692 6.47657 0.00539722 
-1.15188 -0.545335 6.48908 0.00305578 
-1.16842 -0.541202 6.47463 0.00343477 
-1.15824 -0.556803 6.47269 0.00328254 
-1.18517 -0.537164 6.4601 0.00671599 
-1.14181 -0.560931 6.48707 0.00301227 
-1.13177 -0.576705 6.48519 0.00543195 
-1.12658 -0.56426 6.50103 0.00534319 
-1.17359 -0.553144 6.45848 0.00386356 
-1.18949 -0.548992 6.44389 0.00652786 
-1.16202 -0.569187 6.4569 0.00293812 
-1.17773 -0.564975 6.44237 0.00411857 
-1.16608 -0.581011 6.44086 0.00339972 
-1.19375 -0.560751 6.42782 0.00861155 
-1.15049 -0.585232 6.45534 0.0036348 
-1.13902 -0.60138 6.45373 0.00657739 
-1.13539 -0.589075 6.46947 0.00555671 
-1.1468 -0.572944 6.4711 0.00346646 
-1.0907 -0.614016 6.48286 0.00340187 
-1.10446 -0.601616 6.48366 0.0033286 
-1.08788 -0.601689 6.4978 0.00363768 
-1.10142 -0.589243 6.49867 0.00365772 
-1.11814 -0.589185 6.48442 0.00344101 
-1.12166 -0.60148 6.46878 0.00379059 
-1.10793 -0.613936 6.46798 0.00343699 
-1.08203 -0.582851 6.52063 0.00429073 
-1.09444 -0.570413 6.52194 0.00341723 
-1.11143 -0.570482 6.50778 0.0043742 
-1.1819 -0.358498 6.55105 0.0118784 
-1.1719 -0.352954 6.56846 0.0117174 
-1.16458 -0.335676 6.5814 0.0154487 
-1.15458 -0.33049 6.59836 0.0173697 
-1.15938 -0.307 6.58981 0.0231594 
-1.16969 -0.310633 6.57182 0.0204446 
-1.1773 -0.327755 6.55901 0.0148494 
-1.18761 -0.331644 6.54053 0.0118086 
-1.19518 -0.349061 6.52725 0.00915635 
-1.20104 -0.322217 6.51649 0.0144451 
-1.14038 -0.337312 6.62411 0.0191123 
-1.12869 -0.330803 6.64489 0.0206476 
-1.11881 -0.313785 6.66288 0.0203255 
-1.12291 -0.291876 6.65513 0.0253362 
-1.13294 -0.30878 6.63733 0.0250726 
-1.145 -0.313793 6.6156 0.0197881 
-1.11986 -0.259822 6.64652 0.0217103 
-1.13331 -0.275655 6.6272 0.0183262 
-1.14434 -0.267821 6.60105 0.0199881 
-1.15753 -0.283216 6.58252 0.0200964 
-1.14649 -0.291274 6.60839 0.0228184 
-1.16701 -0.274877 6.56074 0.0208987 
-1.17842 -0.290442 6.54629 0.016733 
-1.18795 -0.279872 6.52215 0.0159205 
-1.19951 -0.295658 6.50722 0.010666 
-1.18974 -0.306218 6.53154 0.0146425 
-1.25595 -0.277721 6.33396 0.0124803 
-1.26084 -0.291085 6.34592 0.0162113 
-1.25209 -0.274672 6.35243 0.0123405 
-1.24333 -0.258342 6.35885 0.0145458 
-1.25671 -0.287993 6.36457 0.0175207 
-1.23808 -0.24528 6.34682 0.0141733 
-1.22894 -0.229383 6.35327 0.0215548 
-1.24765 -0.272805 6.3708 0.0121157 
-1.2503 -0.285255 6.38326 0.012792 
-1.23821 -0.25794 6.3772 0.0123759 
-1.24123 -0.270112 6.38956 0.012429 
-1.23208 -0.255137 6.39594 0.0125592 
-1.24382 -0.28246 6.40201 0.0132369 
-1.22892 -0.243049 6.38353 0.0149982 
-1.21956 -0.228247 6.38986 0.0204093 
-1.22429 -0.228889 6.37155 0.0208702 
-1.23368 -0.243652 6.36525 0.0140352 
-1.193 -0.195642 6.37951 0.0124367 
-1.20492 -0.206655 6.37079 0.0132963 
-1.19758 -0.194169 6.35303 0.0145835 
-1.22051 -0.218187 6.33557 0.0127709 
-1.20914 -0.206134 6.34422 0.0128758 
-1.18939 -0.393854 6.53074 0.00587635 
-1.2026 -0.385166 6.51379 0.00904001 
-1.18974 -0.411876 6.52373 0.00408995 
-1.20289 -0.403124 6.50678 0.00477071 
-1.2033 -0.421179 6.49978 0.00342788 
-1.21653 -0.394495 6.48968 0.00820974 
-1.18995 -0.42987 6.5168 0.00428252 
-1.19034 -0.447935 6.50983 0.00528497 
-1.17661 -0.437096 6.53365 0.00592195 
-1.17628 -0.41905 6.54062 0.0051727 
-1.21499 -0.412559 6.48548 0.00469574 
-1.22618 -0.402942 6.47138 0.00755244 
-1.21345 -0.430657 6.48132 0.00347538 
-1.2248 -0.4211 6.46725 0.00515739 
-1.22321 -0.439191 6.46312 0.00466416 
-1.23621 -0.411433 6.45313 0.0097608 
-1.21208 -0.448859 6.47716 0.0043125 
-1.21056 -0.467074 6.47311 0.00709776 
-1.20027 -0.457395 6.4915 0.00506269 
-1.20176 -0.439256 6.4956 0.0031866 
-1.17665 -0.49742 6.49717 0.00367068 
-1.18107 -0.480794 6.5014 0.00320522 
-1.17163 -0.47053 6.51963 0.00350539 
-1.18565 -0.464302 6.5056 0.00366761 
-1.19568 -0.473908 6.48725 0.00322422 
-1.19119 -0.490551 6.48305 0.00346234 
-1.14921 -0.470455 6.54823 0.00407017 
-1.16073 -0.442988 6.55028 0.00462571 
-1.17409 -0.453752 6.52659 0.00338948 
-1.21396 -0.624785 6.28637 0.0117529 
-1.20309 -0.638541 6.29397 0.015033 
-1.22494 -0.610993 6.27862 0.0106535 
-1.22603 -0.600735 6.30189 0.0098768 
-1.21493 -0.614393 6.30961 0.0101943 
-1.20412 -0.628089 6.31717 0.0155821 
-1.23646 -0.592199 6.28254 0.0112673 
-1.24803 -0.573311 6.28642 0.0184458 
-1.24689 -0.58297 6.26248 0.0183633 
-1.23517 -0.601788 6.25858 0.0122971 
-1.21448 -0.603954 6.32935 0.00748958 
-1.2037 -0.6174 6.33649 0.0113344 
-1.22562 -0.59056 6.32205 0.00721708 
-1.22479 -0.579948 6.34139 0.00513151 
-1.21393 -0.593286 6.34865 0.00661574 
-1.2031 -0.606771 6.35589 0.0107472 
-1.23636 -0.571807 6.32438 0.00803619 
-1.24732 -0.553216 6.32683 0.0152812 
-1.2478 -0.563281 6.30655 0.0148708 
-1.23689 -0.581928 6.30417 0.00931943 
-1.27677 -0.485187 6.29834 0.0232554 
-1.26977 -0.507149 6.29517 0.0130384 
-1.27647 -0.494057 6.27766 0.0218324 
-1.26243 -0.529216 6.29225 0.0108571 
-1.26914 -0.51622 6.27482 0.0126705 
-1.2618 -0.538272 6.2719 0.0129214 
-1.27561 -0.502999 6.25725 0.0244763 
-1.25521 -0.551293 6.28937 0.012303 
-1.2548 -0.541292 6.30959 0.00968233 
-1.26183 -0.519271 6.3126 0.00847773 
-1.26792 -0.525304 6.25259 0.0167784 
-1.27228 -0.512198 6.23396 0.0222369 
-1.26033 -0.547826 6.24802 0.0153963 
-1.26473 -0.534585 6.22939 0.0153169 
-1.25293 -0.570062 6.24326 0.0143782 
-1.25414 -0.560629 6.2673 0.0130118 
-1.26509 -0.446909 6.37934 0.0175517 
-1.26527 -0.424735 6.38178 0.0105986 
-1.25894 -0.437833 6.39801 0.0135663 
-1.26552 -0.402575 6.38415 0.00776321 
-1.25898 -0.415792 6.40051 0.00856779 
-1.25899 -0.393708 6.40297 0.00725191 
-1.25271 -0.428776 6.41668 0.013919 
-1.26517 -0.380555 6.38665 0.00855465 
-1.26454 -0.358531 6.38907 0.0131839 
-1.27056 -0.364751 6.37003 0.0138461 
-1.27093 -0.386814 6.36768 0.0094388 
-1.27098 -0.408998 6.36538 0.00915734 
-1.27613 -0.370926 6.35113 0.0172815 
-1.25213 -0.408291 6.41913 0.00815235 
-1.24443 -0.420087 6.43485 0.0101173 
-1.2512 -0.387749 6.42159 0.00563687 
-1.24349 -0.39964 6.43742 0.00593384 
-1.24256 -0.379153 6.43996 0.00494107 
-1.24992 -0.367264 6.42409 0.00615076 
-1.24879 -0.346845 6.4265 0.00952701 
-1.2566 -0.352711 6.40779 0.0093817 
-1.25781 -0.373201 6.40542 0.00663107 
-1.24941 -0.301286 6.39877 0.00874431 
-1.25478 -0.320228 6.39551 0.00718801 
-1.25583 -0.304103 6.38008 0.00845451 
-1.26131 -0.32311 6.37688 0.0082321 
-1.2598 -0.339331 6.39228 0.00882414 
-1.25188 -0.333598 6.41112 0.00705797 
-1.24685 -0.314571 6.41438 0.00708083 
-1.26207 -0.308475 6.36117 0.0105326 
-1.26717 -0.329127 6.35778 0.00920642 
-1.26633 -0.311649 6.34257 0.0112174 
-1.27156 -0.332357 6.33921 0.011387 
-1.27197 -0.349984 6.35441 0.0117359 
-1.26616 -0.343857 6.3734 0.0094033 
-1.19667 -0.205826 6.39931 0.0131859 
-1.21173 -0.227517 6.41042 0.0158741 
-1.19862 -0.216005 6.42019 0.0132905 
-1.18693 -0.205722 6.42898 0.0119601 
-1.18416 -0.195152 6.40864 0.0136437 
-1.22293 -0.252368 6.41663 0.0104276 
-1.23333 -0.267355 6.4094 0.011076 
-1.23453 -0.279632 6.42263 0.0114213 
-1.2243 -0.264572 6.42991 0.00925339 
-1.22555 -0.276747 6.44305 0.0149642 
-1.20967 -0.238889 6.43398 0.0132043 
-1.19922 -0.258496 6.48136 0.0122557 
-1.20101 -0.247647 6.46461 0.0104596 
-1.18944 -0.234843 6.47557 0.0127659 
-1.19085 -0.224305 6.45882 0.0156499 
-1.21319 -0.262195 6.45393 0.0108598 
-1.21127 -0.272893 6.47063 0.0144933 
-1.17604 -0.212867 6.47165 0.0133331 
-1.17396 -0.20371 6.45683 0.0128238 
-1.16038 -0.193253 6.46879 0.0124379 
-1.1718 -0.194535 6.44203 0.0126054 
-1.18885 -0.215006 6.44399 0.0131141 
-1.20558 -0.285548 6.4898 0.0106411 
-1.21347 -0.302 6.48178 0.00927972 
-1.21951 -0.289404 6.46251 0.00935385 
-1.22774 -0.305889 6.4543 0.00712196 
-1.22139 -0.318501 6.4736 0.00774328 
-1.22933 -0.335199 6.46521 0.00916291 
-1.21494 -0.328681 6.49107 0.0101386 
-1.20728 -0.312164 6.49916 0.00880214 
-1.2316 -0.294083 6.43898 0.00784026 
-1.2375 -0.311542 6.43486 0.00635455 
-1.24073 -0.297019 6.41856 0.0080858 
-1.24313 -0.32914 6.43075 0.00633146 
-1.23887 -0.341032 6.44591 0.00717458 
-1.23339 -0.323405 6.45012 0.0062044 
-1.23463 -0.392342 6.45609 0.00596894 
-1.23305 -0.373238 6.4592 0.00505574 
-1.22466 -0.383889 6.47442 0.00489472 
-1.22319 -0.364934 6.47752 0.00558923 
-1.23128 -0.354188 6.46226 0.00585114 
-1.24088 -0.360076 6.44294 0.00530856 
-1.21271 -0.376314 6.49654 0.00642221 
-1.20903 -0.358242 6.50327 0.00754444 
-1.19884 -0.367036 6.52055 0.00856968 
-1.20511 -0.340223 6.50994 0.00927535 
-1.21909 -0.346775 6.48439 0.00707365 
-1.25788 -0.462591 6.38547 0.0109703 
-1.24772 -0.472855 6.40044 0.00668359 
-1.24043 -0.488537 6.40662 0.00659471 
-1.23073 -0.498784 6.42142 0.00965193 
-1.23603 -0.509633 6.4041 0.0124146 
-1.23511 -0.477751 6.42398 0.0058223 
-1.2255 -0.487922 6.43883 0.0104308 
-1.23897 -0.458308 6.42777 0.00649007 
-1.24871 -0.448087 6.41293 0.00724938 
-1.22285 -0.516464 6.41809 0.00517218 
-1.2144 -0.535033 6.41598 0.00427803 
-1.21008 -0.523343 6.43208 0.00312297 
-1.20179 -0.542 6.42994 0.00408545 
-1.19749 -0.530235 6.44609 0.00335391 
-1.20506 -0.512447 6.44936 0.00407103 
-1.21778 -0.505607 6.43538 0.00492573 
-1.1851 -0.507623 6.4795 0.00329049 
-1.19825 -0.500982 6.46594 0.00255264 
-1.20438 -0.483979 6.4695 0.0039399 
-1.21792 -0.477439 6.45594 0.00709922 
-1.21176 -0.494418 6.45238 0.00454186 
-1.19166 -0.519039 6.46303 0.00321829 
-1.22072 -0.45751 6.45905 0.00393504 
-1.23114 -0.44798 6.44497 0.00392102 
-1.23364 -0.429682 6.44908 0.00543329 
-1.24171 -0.438382 6.43087 0.00631231 
-1.22827 -0.467869 6.44187 0.00523814 
-1.27915 -0.460004 6.30122 0.0149315 
-1.27507 -0.475589 6.31882 0.0189763 
-1.28102 -0.434905 6.30416 0.0123925 
-1.27717 -0.450591 6.32189 0.0121645 
-1.27887 -0.425557 6.32501 0.0110801 
-1.27306 -0.46607 6.33946 0.0197433 
-1.28254 -0.409734 6.3072 0.014321 
-1.28333 -0.384731 6.31043 0.020972 
-1.28481 -0.392054 6.28952 0.0221295 
-1.28378 -0.41722 6.28652 0.016915 
-1.28206 -0.442477 6.28361 0.0130446 
-1.28586 -0.399412 6.26883 0.0279684 
-1.27449 -0.442185 6.34222 0.0123884 
-1.26911 -0.456485 6.35932 0.0164968 
-1.27542 -0.418384 6.34512 0.0096697 
-1.27031 -0.432712 6.36227 0.010678 
-1.27591 -0.394583 6.34823 0.0105604 
-1.27972 -0.37788 6.33085 0.0163096 
-1.27945 -0.40163 6.32792 0.0116479 
-1.2703 -0.316501 6.323 0.013009 
-1.27508 -0.33907 6.31875 0.0106657 
-1.27252 -0.320378 6.30304 0.0137533 
-1.27738 -0.343028 6.29883 0.0125264 
-1.27951 -0.36179 6.31453 0.0131232 
-1.27582 -0.355045 6.33499 0.0115094 
-1.27401 -0.325816 6.28269 0.0148147 
-1.27861 -0.350065 6.27793 0.0138763 
-1.27391 -0.330501 6.26219 0.0167993 
-1.27833 -0.354885 6.25747 0.0169707 
-1.28255 -0.374619 6.27324 0.0178848 
-1.28136 -0.367445 6.29417 0.014205 
-1.18147 -0.57685 6.42591 0.00473477 
-1.19661 -0.572441 6.41053 0.00766705 
-1.16918 -0.59295 6.42406 0.00366231 
-1.1842 -0.588563 6.40862 0.00461181 
-1.17182 -0.604638 6.40677 0.00404477 
-1.19948 -0.584169 6.39325 0.00937535 
-1.15696 -0.609069 6.4222 0.00427134 
-1.14478 -0.625222 6.42027 0.00806107 
-1.1419 -0.61331 6.43699 0.00619139 
-1.15395 -0.597159 6.43897 0.00364997 
-1.18634 -0.600079 6.39142 0.00518754 
-1.20122 -0.595407 6.37457 0.00810464 
-1.17323 -0.61608 6.38962 0.00402734 
-1.18796 -0.6114 6.37279 0.00495999 
-1.17476 -0.627356 6.37099 0.00476422 
-1.16032 -0.632163 6.38783 0.00551162 
-1.14739 -0.648217 6.38603 0.0111236 
-1.1461 -0.636729 6.40314 0.00802361 
-1.15895 -0.620674 6.40496 0.00431164 
-1.09823 -0.660688 6.42088 0.00472188 
-1.11369 -0.648873 6.4207 0.00398216 
-1.09783 -0.649379 6.43593 0.00422744 
-1.11319 -0.63754 6.43579 0.0039394 
-1.12919 -0.637044 6.42045 0.00475591 
-1.13046 -0.648562 6.4034 0.00558044 
-1.11485 -0.660297 6.40359 0.00501249 
-1.09622 -0.637828 6.45176 0.00411485 
-1.11042 -0.625724 6.45248 0.0036157 
-1.09364 -0.626096 6.4673 0.00388928 
-1.12475 -0.613571 6.45312 0.00394084 
-1.12751 -0.625426 6.43638 0.00385936 
-1.26186 -0.47289 6.36598 0.0101445 
-1.25412 -0.489248 6.37289 0.00663886 
-1.25796 -0.49894 6.35295 0.00704397 
-1.26568 -0.48255 6.34612 0.012085 
-1.24884 -0.510456 6.36965 0.0080943 
-1.24322 -0.531765 6.36656 0.0132476 
-1.23975 -0.52072 6.3853 0.0115105 
-1.24511 -0.499478 6.38847 0.00770971 
-1.26771 -0.492618 6.32584 0.0107284 
-1.26043 -0.509537 6.33289 0.00784516 
-1.25378 -0.531343 6.3298 0.00864857 
-1.24524 -0.542415 6.34667 0.0121315 
-1.25157 -0.520688 6.34979 0.00731055 
-1.21203 -0.582207 6.36794 0.00527365 
-1.22287 -0.569104 6.36124 0.00434817 
-1.22077 -0.557793 6.37994 0.00417629 
-1.21001 -0.57097 6.38658 0.00538035 
-1.23291 -0.550337 6.36388 0.0061579 
-1.23482 -0.561096 6.34399 0.00609932 
-1.21759 -0.546805 6.39857 0.00440136 
-1.20544 -0.553701 6.41325 0.00467168 
-1.22687 -0.528231 6.40127 0.0066583 
-1.2303 -0.539241 6.38256 0.00626552 
-1.18842 -0.622613 6.35507 0.00597229 
-1.17374 -0.638424 6.35419 0.00524239 
-1.18872 -0.633268 6.33566 0.00681051 
-1.17396 -0.649068 6.33483 0.00647504 
-1.15924 -0.654316 6.35335 0.00734346 
-1.14483 -0.670171 6.35256 0.0133011 
-1.14611 -0.659182 6.36933 0.0108498 
-1.1605 -0.64333 6.37014 0.00614604 
-1.18723 -0.64451 6.31579 0.00869035 
-1.1702 -0.660878 6.3144 0.00659645 
-1.18601 -0.654936 6.29251 0.0091252 
-1.15331 -0.677305 6.31305 0.00809852 
-1.14074 -0.681969 6.33208 0.0120855 
-1.15731 -0.66553 6.33344 0.00710825 
-1.08573 -0.701457 6.36766 0.00808996 
-1.10297 -0.695515 6.35711 0.00734839 
-1.11002 -0.682446 6.37368 0.00658219 
-1.09271 -0.688404 6.38429 0.00775139 
-1.12381 -0.682876 6.35484 0.00737391 
-1.1195 -0.694455 6.33442 0.00732717 
-1.09522 -0.677484 6.39917 0.00621136 
-1.12928 -0.659847 6.38825 0.0065703 
-1.12803 -0.670843 6.37153 0.00702075 
-1.2744 -0.489773 6.22657 0.0152142 
-1.27629 -0.467391 6.21916 0.0176426 
-1.27973 -0.458615 6.24264 0.0173212 
-1.27769 -0.480794 6.24992 0.015837 
-1.2797 -0.440521 6.22345 0.0240249 
-1.28245 -0.413874 6.22792 0.0339997 
-1.27768 -0.422533 6.20532 0.0330676 
-1.27463 -0.449267 6.20106 0.0218135 
-1.279 -0.472591 6.27027 0.0149788 
-1.28172 -0.451092 6.26279 0.0158747 
-1.28406 -0.425273 6.26569 0.0203121 
-1.28434 -0.406733 6.24819 0.0292548 
-1.28229 -0.432657 6.2454 0.0180133 
-1.27291 -0.336259 6.24148 0.0198639 
-1.27697 -0.361863 6.23663 0.01991 
-1.26986 -0.341583 6.22104 0.0219242 
-1.27376 -0.367319 6.21642 0.0257577 
-1.28003 -0.387789 6.23211 0.0240859 
-1.2818 -0.380629 6.25269 0.0196875 
-1.26595 -0.3483 6.19944 0.0293459 
-1.26895 -0.37555 6.19356 0.0268752 
-1.25952 -0.355993 6.17698 0.0264907 
-1.27369 -0.398974 6.19928 0.0253133 
-1.10131 -0.299446 5.94406 0.0035137 
-1.11297 -0.314564 5.94526 0.00401367 
-1.12429 -0.322611 5.95735 0.00430169 
-1.1362 -0.337733 5.95847 0.00500466 
-1.14743 -0.345851 5.97047 0.00519552 
-1.14811 -0.360042 5.94887 0.00491015 
-1.13552 -0.323578 5.98001 0.00405243 
-1.1468 -0.331704 5.99199 0.0046076 
-1.12163 -0.306908 5.97835 0.0039075 
-1.10807 -0.290169 5.97654 0.00319613 
-1.09678 -0.282081 5.96456 0.00349969 
-1.09197 -0.264789 5.98512 0.00257096 
-1.15877 -0.377637 5.94989 0.0073036 
-1.17062 -0.390251 5.96269 0.00811884 
-1.18133 -0.408235 5.96402 0.010088 
-1.19275 -0.421293 5.97715 0.00996069 
-1.19051 -0.43172 5.95372 0.00973044 
-1.18356 -0.39795 5.98745 0.00801324 
-1.19504 -0.410933 6.00053 0.00875883 
-1.17151 -0.377915 5.98514 0.00715972 
-1.1594 -0.358305 5.9832 0.00589495 
-1.1926 -0.372107 6.03586 0.00877771 
-1.17768 -0.35841 6.02106 0.00775223 
-1.16683 -0.330049 6.03015 0.00584557 
-1.15138 -0.316761 6.01567 0.00524946 
-1.1623 -0.344933 6.00643 0.00548538 
-1.18638 -0.384444 6.01073 0.00921107 
-1.20116 -0.39841 6.02575 0.0119211 
-1.13935 -0.292663 6.02592 0.00372251 
-1.12034 -0.270747 6.02545 0.00266765 
-1.12352 -0.283322 6.01233 0.00311378 
-1.10138 -0.249089 6.02486 0.00229439 
-1.10458 -0.261416 6.01182 0.00243722 
-1.08593 -0.239566 6.01121 0.00374041 
-1.08265 -0.22726 6.02432 0.00389321 
-1.10754 -0.274117 5.99877 0.00249284 
-1.08882 -0.252102 5.99827 0.00273283 
-1.13522 -0.307508 6.00211 0.00409609 
-1.19741 -0.450048 5.95524 0.0129966 
-1.20588 -0.465352 5.97015 0.0110375 
-1.21208 -0.484069 5.97189 0.0125115 
-1.21954 -0.499882 5.98701 0.0123326 
-1.21617 -0.506399 5.96077 0.0124297 
-1.21547 -0.47759 5.99816 0.0110781 
-1.22276 -0.493549 6.01326 0.0112752 
-1.20868 -0.456716 5.99487 0.00946622 
-1.2016 -0.436291 5.99182 0.00901121 
-1.22018 -0.522458 5.9774 0.0099948 
-1.22045 -0.541922 5.96471 0.0107832 
-1.22367 -0.538563 5.99409 0.00834436 
-1.22378 -0.558162 5.98143 0.00845307 
-1.22671 -0.574093 5.99796 0.00804224 
-1.22358 -0.577417 5.96858 0.0114857 
-1.22671 -0.554599 6.01064 0.00751165 
-1.22958 -0.570423 6.02714 0.00655994 
-1.22673 -0.532045 6.02022 0.00785039 
-1.22343 -0.516026 6.00367 0.0100029 
-1.23811 -0.541744 6.06987 0.00810335 
-1.23665 -0.520997 6.06491 0.0092847 
-1.23169 -0.504894 6.04605 0.00961322 
-1.22966 -0.484231 6.04107 0.0128064 
-1.23175 -0.547962 6.039 0.00707918 
-1.23633 -0.564074 6.0579 0.00961171 
-1.22687 -0.458487 6.05146 0.010848 
-1.2197 -0.435848 6.04685 0.0099603 
-1.20913 -0.420031 6.02983 0.0104836 
-1.2133 -0.446877 6.0204 0.00927264 
-1.22 -0.467673 6.02375 0.0104234 
-1.23782 -0.576747 6.07649 0.0107445 
-1.23282 -0.595891 6.06439 0.0124033 
-1.23131 -0.583132 6.04571 0.00809075 
-1.22599 -0.602423 6.03371 0.00768526 
-1.22753 -0.615181 6.05233 0.0143512 
-1.22201 -0.634048 6.03996 0.0155233 
-1.22747 -0.629706 6.07385 0.0177177 
-1.23264 -0.610374 6.0859 0.0145826 
-1.22682 -0.587372 6.01434 0.0079411 
-1.22376 -0.604325 6.00153 0.0101243 
-1.22372 -0.590908 5.98513 0.00867253 
-1.22051 -0.607568 5.97211 0.0113523 
-1.22055 -0.620975 5.98854 0.0105867 
-1.21686 -0.637637 5.97551 0.0123222 
-1.21971 -0.636045 6.00785 0.0155218 
-1.22301 -0.619202 6.02078 0.0129559 
