ply
format ascii 1.0
comment VCGLIB generated
element vertex 1025
property float x
property float y
property float z
property uchar red
property uchar green
property uchar blue
property float quality
end_header
0.727971 -1.062010 6.359360 0 0 178 0.995905
0.752356 -1.057600 6.329470 0 0 201 0.994308
0.764022 -1.057850 6.331520 0 0 201 0.994273
0.774978 -1.051980 6.299500 0 5 255 0.987868
0.739420 -1.056720 6.326930 0 0 201 0.994231
0.763568 -1.052170 6.297080 0 9 255 0.987275
0.750341 -1.051400 6.294260 0 1 255 0.988193
0.785809 -1.051740 6.301910 0 5 255 0.987969
0.743237 -1.071100 6.469810 0 0 142 0.998713
0.730581 -1.073310 6.460590 0 0 173 0.996390
0.720993 -1.069970 6.495530 0 0 151 0.998110
0.733814 -1.068920 6.504720 0 0 142 0.998798
0.707937 -1.071780 6.486790 0 0 169 0.996651
0.710639 -1.068030 6.529990 0 0 169 0.996571
0.697913 -1.068970 6.521620 0 0 178 0.996043
0.724746 -1.068790 6.539590 0 0 183 0.995603
0.684259 -1.070260 6.513070 0 0 210 0.993497
0.671025 -1.068790 6.510480 0 0 219 0.992519
0.696017 -1.071050 6.484690 0 0 183 0.995559
0.682476 -1.069770 6.481800 0 0 201 0.994066
0.707200 -1.072220 6.455920 0 0 192 0.994708
0.719350 -1.072900 6.458390 0 0 178 0.995782
0.693678 -1.071120 6.452960 0 0 214 0.993165
0.629869 -1.054790 6.481650 0 0 183 0.995747
0.641249 -1.056020 6.454850 0 0 173 0.996459
0.655285 -1.060870 6.462590 0 0 178 0.996075
0.652517 -1.057600 6.427650 0 0 178 0.995796
0.666781 -1.062470 6.435590 0 0 187 0.995139
0.678080 -1.064430 6.408320 0 0 219 0.992633
0.663687 -1.059690 6.400120 0 0 219 0.992823
0.680375 -1.067050 6.443260 0 0 196 0.994544
0.691753 -1.068850 6.416140 0 0 228 0.991771
0.669348 -1.065410 6.472390 0 0 187 0.995154
0.658018 -1.064230 6.501230 0 0 192 0.994736
0.644289 -1.059510 6.491600 0 0 183 0.995697
0.674980 -1.054380 6.367680 0 0 178 0.995999
0.686637 -1.049520 6.337130 0 0 164 0.997036
0.700670 -1.053840 6.343120 0 0 169 0.996780
0.698000 -1.044870 6.306420 0 0 183 0.995748
0.712423 -1.049120 6.312700 0 0 183 0.995481
0.723639 -1.044410 6.281800 0 0 242 0.990668
0.709115 -1.040700 6.274860 0 0 255 0.989788
0.726287 -1.053100 6.318630 0 0 196 0.994560
0.737559 -1.048060 6.288020 0 0 255 0.989429
0.715138 -1.058310 6.351520 0 0 173 0.996397
0.703692 -1.063520 6.384090 0 0 183 0.995481
0.689431 -1.058930 6.375730 0 0 178 0.995976
0.719528 -1.026490 6.240730 0 0 223 0.992311
0.730473 -1.011140 6.207930 0 0 205 0.993947
0.744575 -1.013270 6.214770 0 0 192 0.994987
0.740946 -0.994101 6.174650 0 0 223 0.992160
0.755124 -0.996157 6.182360 0 0 210 0.993454
0.765355 -0.978942 6.149280 0 9 255 0.987289
0.750660 -0.976568 6.141330 0 25 255 0.985885
0.768866 -0.998460 6.189440 0 0 201 0.993973
0.779221 -0.980956 6.156940 0 0 255 0.988486
0.791895 -0.982426 6.164360 0 0 255 0.989699
0.782391 -1.001550 6.197400 0 0 205 0.993809
0.759137 -1.016790 6.222580 0 0 192 0.994726
0.772511 -1.019610 6.230210 0 0 201 0.994299
0.748783 -1.032930 6.255740 0 0 214 0.993097
0.734827 -1.029720 6.248530 0 0 210 0.993326
0.761602 -1.035990 6.262510 0 0 223 0.992338
0.785641 -0.924592 6.089920 0 0 196 0.994605
0.797003 -0.897990 6.061290 0 0 210 0.993464
0.822499 -0.901292 6.077000 0 0 187 0.995204
0.799373 -0.926678 6.097930 0 0 183 0.995619
0.812274 -0.928579 6.106170 0 0 173 0.996289
0.789144 -0.954204 6.127570 0 0 205 0.993835
0.775432 -0.952260 6.119260 0 0 223 0.992332
0.801720 -0.955870 6.135340 0 0 192 0.994962
0.864036 -0.898641 6.099040 0 0 146 0.998566
0.844331 -0.926542 6.122260 0 0 146 0.998567
0.835036 -0.953851 6.150250 0 0 164 0.997150
0.815876 -0.981755 6.173330 0 0 233 0.991392
0.835446 -0.980492 6.181340 0 0 223 0.992486
0.844512 -0.899943 6.088540 0 0 160 0.997430
0.826421 -0.999850 6.212760 0 0 183 0.995438
0.816074 -1.000120 6.209160 0 0 187 0.995202
0.806635 -1.018600 6.240420 0 0 187 0.995350
0.816597 -1.018010 6.243670 0 0 183 0.995611
0.796089 -1.019130 6.237160 0 0 192 0.994961
0.796320 -1.035470 6.271440 0 0 210 0.993579
0.785594 -1.035990 6.268580 0 0 219 0.992691
0.806526 -1.035150 6.274260 0 0 210 0.993352
0.833134 -1.013000 6.246780 0 0 155 0.997583
0.843309 -0.994732 6.216390 0 0 160 0.997465
0.852965 -0.975515 6.185310 0 0 187 0.995084
0.871408 -0.971324 6.189570 0 0 178 0.996090
0.863167 -0.989881 6.218880 0 0 160 0.997429
0.854269 -1.007740 6.247310 0 0 155 0.997634
0.834919 -1.027140 6.275520 0 0 169 0.996508
0.816027 -1.046140 6.303670 0 0 233 0.991619
0.837171 -1.041370 6.303510 0 0 214 0.992960
0.852323 -0.951655 6.158030 0 0 151 0.998130
0.861610 -0.924244 6.130970 0 0 137 0.999128
0.880627 -0.895706 6.107830 0 0 137 0.999098
0.900079 -0.893436 6.115440 0 0 137 0.999072
0.879503 -0.920870 6.137620 0 0 137 0.999170
0.870459 -0.947158 6.162760 0 0 137 0.998941
0.940513 -0.889124 6.129610 0 0 137 0.999209
0.920337 -0.914516 6.150670 0 0 137 0.999213
0.911174 -0.938388 6.173060 0 0 137 0.999209
0.892199 -0.965303 6.193420 0 0 160 0.997187
0.913700 -0.960513 6.196730 0 0 169 0.996606
0.890011 -0.943597 6.169030 0 0 137 0.999122
0.899519 -0.917689 6.144540 0 0 137 0.999112
0.920128 -0.891507 6.123690 0 0 137 0.999162
0.906645 -0.978142 6.222990 0 0 151 0.997975
0.887560 -0.998784 6.249580 0 0 151 0.998125
0.880652 -1.015860 6.275420 0 0 160 0.997200
0.861265 -1.035220 6.301930 0 0 201 0.994056
0.886209 -1.029990 6.300360 0 0 219 0.992707
0.855969 -1.022040 6.276800 0 0 160 0.997362
0.883845 -0.984092 6.221870 0 0 151 0.998228
0.904512 -1.010330 6.277310 0 0 164 0.996929
0.911328 -0.992780 6.251650 0 0 151 0.997951
0.929226 -0.972273 6.228180 0 0 146 0.998485
0.936177 -0.954641 6.202220 0 0 155 0.997573
0.959179 -0.949784 6.207400 0 0 160 0.997523
0.952593 -0.966707 6.231810 0 0 146 0.998407
0.934098 -0.986749 6.255010 0 0 151 0.998226
0.928032 -1.003950 6.279130 0 0 164 0.996892
0.909868 -1.023670 6.302320 0 0 205 0.993919
0.933915 -1.018290 6.304140 0 0 214 0.993206
0.933130 -0.934664 6.179000 0 0 137 0.999175
0.942170 -0.910933 6.156890 0 0 133 0.999392
0.963519 -0.886706 6.138210 0 0 137 0.999287
0.986726 -0.883613 6.145270 0 0 137 0.999255
0.965221 -0.907407 6.163870 0 0 133 0.999464
0.956311 -0.929584 6.184670 0 0 133 0.999308
1.033640 -0.877232 6.160830 0 0 137 0.999037
1.011540 -0.900247 6.177550 0 0 137 0.999265
1.002360 -0.921178 6.197180 0 0 137 0.999103
0.982264 -0.944822 6.213490 0 0 155 0.997875
1.005720 -0.940312 6.219470 0 0 155 0.997784
0.979035 -0.925821 6.191140 0 0 137 0.999133
0.988409 -0.903815 6.170680 0 0 133 0.999359
1.009910 -0.880924 6.153430 0 0 137 0.999117
0.998387 -0.956423 6.242510 0 0 142 0.998660
0.980058 -0.975828 6.263630 0 0 146 0.998265
0.973500 -0.992410 6.286770 0 0 155 0.997611
0.955761 -1.012050 6.307880 0 0 192 0.995031
0.977792 -1.006380 6.311440 0 0 178 0.995790
0.951118 -0.998531 6.282820 0 0 160 0.997188
0.957244 -0.981304 6.258730 0 0 151 0.998019
0.975379 -0.961758 6.237560 0 0 146 0.998584
0.995050 -0.987366 6.291300 0 0 151 0.997898
1.001990 -0.970469 6.268460 0 0 146 0.998522
1.019950 -0.951788 6.248350 0 0 142 0.998669
1.026950 -0.935497 6.225260 0 0 151 0.998152
1.048280 -0.930908 6.230790 0 0 146 0.998354
1.040790 -0.946470 6.253150 0 0 146 0.998564
1.023300 -0.965331 6.273470 0 0 146 0.998495
1.015500 -0.981533 6.295440 0 0 151 0.998162
0.997873 -1.000720 6.315450 0 0 169 0.996640
1.018650 -0.995335 6.319580 0 0 164 0.997148
1.025120 -0.917584 6.203800 0 0 137 0.998949
1.034440 -0.896495 6.184360 0 0 137 0.999166
1.055080 -0.874361 6.168070 0 0 142 0.998924
1.076790 -0.870560 6.174460 0 0 146 0.998496
1.056300 -0.892791 6.190790 0 0 137 0.999058
1.046700 -0.912760 6.209650 0 0 137 0.999043
1.118840 -0.864282 6.186380 0 0 155 0.997627
1.098120 -0.885610 6.202090 0 0 151 0.998073
1.088910 -0.905038 6.220550 0 0 151 0.998063
1.068980 -0.926826 6.235850 0 0 160 0.997386
1.089860 -0.922820 6.240730 0 0 164 0.997101
1.067880 -0.909272 6.215390 0 0 142 0.998735
1.077560 -0.889105 6.196740 0 0 146 0.998507
1.097550 -0.867910 6.180580 0 0 155 0.997821
1.081810 -0.938022 6.262320 0 0 155 0.997817
1.063670 -0.956226 6.281860 0 0 160 0.997490
1.055830 -0.972240 6.303390 0 0 164 0.996982
1.038400 -0.990809 6.323360 0 0 178 0.995964
1.058960 -0.986436 6.327070 0 0 183 0.995727
1.035800 -0.976989 6.299700 0 0 151 0.997947
1.043770 -0.960541 6.277790 0 0 151 0.998105
1.061180 -0.942539 6.257970 0 0 151 0.998168
1.077120 -0.969130 6.307170 0 0 173 0.996333
1.084620 -0.952626 6.285590 0 0 169 0.996718
1.103590 -0.935689 6.266170 0 0 178 0.996016
1.111510 -0.920221 6.244650 0 0 178 0.995843
1.106120 -0.950045 6.288820 0 0 183 0.995593
1.098140 -0.966287 6.309810 0 0 201 0.994083
1.079540 -0.984026 6.329660 0 0 205 0.993818
1.110160 -0.902311 6.225320 0 0 160 0.997383
1.119410 -0.882642 6.207080 0 0 155 0.997578
1.141010 -0.862615 6.191680 0 0 178 0.995951
1.151530 -0.823105 6.157230 0 0 201 0.994022
0.644277 -0.838810 5.966410 0 0 255 0.988810
0.630914 -0.858910 5.990660 0 0 210 0.993372
0.616400 -0.850230 5.982770 0 0 205 0.993711
0.617475 -0.879406 6.015290 0 0 201 0.994237
0.602973 -0.870813 6.007250 0 0 192 0.994992
0.589031 -0.890491 6.032660 0 0 228 0.992044
0.604198 -0.898932 6.040840 0 0 228 0.992087
0.588668 -0.861680 5.999780 0 0 187 0.995344
0.575006 -0.881892 6.024480 0 0 214 0.993114
0.560688 -0.873084 6.016590 0 0 201 0.994161
0.587489 -0.836003 5.970700 0 0 192 0.994822
0.615590 -0.824760 5.953710 0 0 246 0.990309
0.642769 -0.812911 5.938210 0 69 255 0.981539
0.613632 -0.799096 5.926790 0 33 255 0.984987
0.590369 -0.910913 6.069060 0 0 183 0.995700
0.577746 -0.923291 6.098890 0 0 155 0.997557
0.562394 -0.913517 6.089080 0 0 160 0.997485
0.565455 -0.934747 6.129510 0 0 155 0.997751
0.549692 -0.924748 6.119870 0 0 151 0.997948
0.534389 -0.915253 6.109900 0 0 155 0.997793
0.519456 -0.906060 6.102020 0 0 160 0.997233
0.547553 -0.904538 6.081020 0 0 160 0.997200
0.533270 -0.896167 6.072800 0 0 169 0.996574
0.560931 -0.893305 6.052540 0 0 173 0.996154
0.575515 -0.902103 6.060820 0 0 178 0.996099
0.547021 -0.884623 6.044520 0 0 178 0.996038
0.462563 -0.880115 6.071250 0 0 246 0.990299
0.490244 -0.875512 6.049930 0 0 210 0.993542
0.504253 -0.864986 6.022730 0 0 201 0.994155
0.532281 -0.859947 6.002680 0 0 214 0.993017
0.504187 -0.847187 5.989420 0 0 223 0.992474
0.532071 -0.877592 6.036740 0 0 183 0.995610
0.518429 -0.889142 6.064880 0 0 169 0.996553
0.504541 -0.899701 6.093850 0 0 178 0.996049
0.489894 -0.892894 6.086020 0 0 187 0.995201
0.516881 -0.829574 5.968090 0 0 219 0.992775
0.543794 -0.817033 5.952450 0 0 214 0.992959
0.556634 -0.799699 5.931760 0 0 251 0.989971
0.583665 -0.787169 5.917020 0 33 255 0.985215
0.554492 -0.776301 5.907630 0 21 255 0.986106
0.586193 -0.811685 5.941340 0 0 237 0.991229
0.559837 -0.847850 5.986500 0 0 192 0.994931
0.732624 -0.617062 5.882830 0 0 255 0.988842
0.722813 -0.648753 5.884940 0 5 255 0.987981
0.698155 -0.676830 5.883160 0 41 255 0.984117
0.688189 -0.707573 5.886660 0 101 255 0.978126
0.657929 -0.699643 5.878210 0 73 255 0.981174
0.666835 -0.670801 5.875290 0 1 255 0.988079
0.692023 -0.643440 5.875930 0 0 255 0.988816
0.700643 -0.613430 5.873720 0 0 246 0.990471
0.692712 -0.737921 5.902110 0 65 255 0.981869
0.680790 -0.765366 5.915680 0 37 255 0.984791
0.655017 -0.786318 5.923590 0 29 255 0.985654
0.625218 -0.774522 5.913680 0 0 255 0.988393
0.651657 -0.754645 5.905270 0 25 255 0.985865
0.662699 -0.729592 5.893080 0 41 255 0.984452
0.565087 -0.753386 5.896520 0 0 255 0.989125
0.591454 -0.734939 5.888870 0 1 255 0.988158
0.601467 -0.711797 5.878930 0 0 242 0.990684
0.626909 -0.692475 5.871730 0 29 255 0.985455
0.595445 -0.684636 5.865480 0 0 255 0.989237
0.632842 -0.720334 5.885130 0 25 255 0.985935
0.621997 -0.744908 5.896240 0 13 255 0.986935
0.595834 -0.763341 5.904220 0 5 255 0.987686
0.603045 -0.658294 5.861890 0 0 205 0.993598
0.627625 -0.633533 5.860800 0 0 214 0.993218
0.634886 -0.605617 5.856910 0 0 201 0.994225
0.668706 -0.608816 5.864720 0 0 228 0.991894
0.660271 -0.638513 5.867890 0 0 246 0.990474
0.636140 -0.664427 5.867050 0 0 255 0.988801
0.527701 -0.789908 5.921840 0 0 251 0.990129
0.515465 -0.807752 5.941260 0 0 246 0.990597
0.489133 -0.821440 5.956950 0 0 242 0.990687
0.476849 -0.839360 5.978380 0 0 242 0.990778
0.450137 -0.832333 5.968110 0 0 255 0.989037
0.461510 -0.814452 5.947740 0 0 255 0.989235
0.486835 -0.799824 5.932050 0 0 255 0.989836
0.498600 -0.782221 5.913300 0 0 246 0.990321
0.525076 -0.768465 5.899030 0 17 255 0.986567
0.495094 -0.760344 5.892260 0 0 251 0.990259
0.476939 -0.854956 6.009430 0 0 255 0.989756
0.463097 -0.865910 6.037120 0 9 255 0.987556
0.436791 -0.873430 6.058130 0 61 255 0.982472
0.424259 -0.885543 6.084940 0 17 255 0.986497
0.400260 -0.883081 6.070230 0 65 255 0.982040
0.412741 -0.869505 6.045350 0 81 255 0.980405
0.437540 -0.859010 6.025320 0 61 255 0.982448
0.450389 -0.847493 5.998610 0 17 255 0.986734
0.355078 -0.892151 6.041060 0 13 255 0.986948
0.367078 -0.876312 6.018160 0 21 255 0.986369
0.390179 -0.858579 6.001080 0 41 255 0.984465
0.401777 -0.843888 5.977320 0 25 255 0.985972
0.425465 -0.829775 5.958230 0 1 255 0.988078
0.401420 -0.829438 5.948280 0 0 255 0.989119
0.425568 -0.843750 5.988290 0 45 255 0.983992
0.413309 -0.856865 6.013520 0 77 255 0.980474
0.389853 -0.871765 6.031760 0 45 255 0.983750
0.377470 -0.886396 6.055930 0 37 255 0.984736
0.410728 -0.808968 5.929820 0 0 255 0.989729
0.433346 -0.790607 5.915930 0 0 246 0.990623
0.443130 -0.771747 5.897670 0 0 219 0.992584
0.466904 -0.755368 5.884140 0 0 237 0.991106
0.438668 -0.751345 5.875630 0 0 228 0.992062
0.470592 -0.776022 5.905560 0 0 237 0.991373
0.459644 -0.794239 5.923780 0 0 251 0.989960
0.436051 -0.811185 5.938680 0 0 255 0.988839
-0.428726 -1.056650 5.651460 0 0 133 0.999628
-0.436822 -1.052850 5.674960 0 0 128 0.999659
-0.460879 -1.049030 5.666210 0 0 137 0.999265
-0.469067 -1.047190 5.690070 0 0 133 0.999455
-0.445088 -1.050160 5.698720 0 0 128 0.999646
-0.493137 -1.045010 5.681350 0 0 137 0.999266
-0.477031 -1.046260 5.714050 0 0 128 0.999720
-0.500970 -1.044430 5.705430 0 0 128 0.999672
-0.508935 -1.044570 5.729350 0 0 133 0.999569
-0.453143 -1.048530 5.722710 0 0 128 0.999660
-0.485068 -1.045820 5.738020 0 0 133 0.999562
-0.461148 -1.047560 5.746550 0 0 137 0.999217
-0.524912 -1.043540 5.696720 0 0 128 0.999710
-0.532765 -1.044010 5.720780 0 0 133 0.999297
-0.556301 -1.043670 5.712090 0 0 142 0.998636
-0.549686 -1.043870 5.689130 0 0 133 0.999399
-0.518178 -1.044460 5.673810 0 0 133 0.999625
-0.543020 -1.044960 5.666290 0 0 133 0.999509
-0.511433 -1.046210 5.651030 0 0 133 0.999578
-0.486157 -1.047160 5.658650 0 0 137 0.999284
-0.479322 -1.050070 5.636140 0 0 133 0.999519
-0.536243 -1.045920 5.643450 0 0 133 0.999592
-0.504639 -1.048420 5.628530 0 0 133 0.999615
-0.529451 -1.047840 5.621230 0 0 133 0.999537
-0.454010 -1.052740 5.643790 0 0 128 0.999669
-0.470979 -1.045160 5.772830 0 0 146 0.998413
-0.492933 -1.043180 5.763120 0 0 137 0.999160
-0.502607 -1.041310 5.789210 0 0 160 0.997254
-0.480476 -1.042720 5.798810 0 0 173 0.996430
-0.524452 -1.040040 5.779600 0 0 151 0.997902
-0.511857 -1.038150 5.815080 0 0 196 0.994481
-0.533701 -1.037190 5.805630 0 0 187 0.995237
-0.542553 -1.032220 5.831230 0 0 223 0.992389
-0.489764 -1.038980 5.824530 0 0 205 0.993675
-0.520718 -1.032770 5.840560 0 0 228 0.992013
-0.498671 -1.033670 5.850030 0 0 242 0.990928
-0.555516 -1.036650 5.796080 0 0 187 0.995052
-0.564405 -1.032270 5.821720 0 0 237 0.991334
-0.585910 -1.032560 5.812310 0 0 255 0.989204
-0.578922 -1.037420 5.787710 0 0 228 0.991881
-0.548052 -1.040070 5.771300 0 0 164 0.996850
-0.571425 -1.040270 5.762740 0 0 187 0.995294
-0.540501 -1.042160 5.746110 0 0 146 0.998568
-0.516686 -1.042390 5.754610 0 0 137 0.999097
-0.563942 -1.042140 5.737390 0 0 155 0.997643
-0.681220 -1.023070 5.765590 0 21 255 0.986374
-0.674927 -1.026940 5.740630 0 0 255 0.989666
-0.650352 -1.029740 5.752600 0 0 228 0.991839
-0.643891 -1.031940 5.727400 0 0 187 0.995364
-0.668280 -1.029100 5.715550 0 0 205 0.993676
-0.619212 -1.034760 5.739300 0 0 178 0.996066
-0.636956 -1.032830 5.702300 0 0 151 0.998049
-0.612477 -1.035720 5.714040 0 0 146 0.998423
-0.605443 -1.036740 5.688790 0 0 137 0.999240
-0.661378 -1.030100 5.690380 0 0 169 0.996525
-0.629828 -1.033830 5.677060 0 0 142 0.998863
-0.654242 -1.031440 5.665270 0 0 160 0.997407
-0.587886 -1.039100 5.725790 0 0 151 0.998209
-0.580858 -1.039930 5.700420 0 0 137 0.999285
-0.595384 -1.037460 5.751000 0 0 178 0.996011
-0.602759 -1.034500 5.776080 0 0 214 0.993044
-0.626480 -1.031940 5.764410 0 0 210 0.993446
-0.633467 -1.027680 5.789310 0 0 251 0.989971
-0.609729 -1.030090 5.800860 0 0 255 0.989819
-0.657181 -1.025330 5.777720 0 0 255 0.988860
-0.647219 -1.031590 5.642990 0 0 146 0.998379
-0.623168 -1.033840 5.654350 0 0 133 0.999363
-0.616282 -1.034300 5.632010 0 0 133 0.999443
-0.640234 -1.032200 5.620970 0 0 142 0.998724
-0.592159 -1.037080 5.643080 0 0 133 0.999518
-0.609441 -1.034990 5.610010 0 0 133 0.999368
-0.585309 -1.037810 5.620970 0 0 133 0.999338
-0.578402 -1.039240 5.599310 0 0 137 0.999203
-0.633301 -1.032960 5.599390 0 0 142 0.998832
-0.602547 -1.036660 5.588720 0 0 137 0.999228
-0.626357 -1.034100 5.578190 0 0 142 0.998810
-0.561050 -1.041490 5.632100 0 0 133 0.999533
-0.554149 -1.043130 5.610050 0 0 133 0.999484
-0.567637 -1.040430 5.654590 0 0 128 0.999641
-0.574310 -1.039810 5.677440 0 0 128 0.999678
-0.598807 -1.036580 5.665850 0 0 133 0.999583
-0.375532 -1.029030 5.895410 0 0 205 0.993815
-0.390711 -1.019180 5.921740 0 0 192 0.994875
-0.416807 -1.007330 5.941640 0 0 178 0.996016
-0.431084 -0.993561 5.966420 0 0 160 0.997429
-0.456468 -0.979334 5.985860 0 0 151 0.998235
-0.433864 -0.979005 5.996650 0 0 151 0.998057
-0.453935 -0.994435 5.955680 0 0 155 0.997549
-0.478824 -0.979821 5.974950 0 0 146 0.998331
-0.441685 -1.008770 5.931470 0 0 183 0.995624
-0.429212 -1.021140 5.906500 0 0 201 0.994022
-0.402590 -1.030200 5.885590 0 0 210 0.993515
-0.429531 -1.031910 5.875650 0 0 223 0.992251
-0.447068 -0.960822 6.020810 0 0 133 0.999397
-0.470735 -0.943268 6.039490 0 0 151 0.998006
-0.483963 -0.926895 6.064050 0 0 196 0.994370
-0.504800 -0.927185 6.052520 0 0 205 0.993930
-0.492319 -0.943519 6.028220 0 0 155 0.997801
-0.479992 -0.961154 6.004240 0 0 137 0.999258
-0.570653 -0.926477 6.017350 0 0 210 0.993412
-0.545219 -0.943811 6.000910 0 0 155 0.997612
-0.534254 -0.962215 5.977540 0 0 133 0.999375
-0.508275 -0.979700 5.960990 0 0 146 0.998445
-0.537790 -0.980580 5.947670 0 0 151 0.998000
-0.505031 -0.962039 5.991490 0 0 133 0.999351
-0.517103 -0.943875 6.015430 0 0 155 0.997651
-0.529378 -0.926749 6.039300 0 0 201 0.994089
-0.528589 -0.996407 5.924050 0 0 178 0.996038
-0.511643 -0.995757 5.930360 0 0 164 0.996946
-0.501937 -1.010430 5.906710 0 0 205 0.993753
-0.518900 -1.010720 5.900190 0 0 205 0.993766
-0.484987 -1.009900 5.912840 0 0 187 0.995315
-0.491660 -1.022490 5.881990 0 0 214 0.993217
-0.474818 -1.022370 5.888290 0 0 214 0.993120
-0.464036 -1.032130 5.862710 0 0 219 0.992500
-0.509111 -1.023860 5.875870 0 0 233 0.991427
-0.481374 -1.032620 5.856360 0 0 223 0.992172
-0.457676 -1.022160 5.894630 0 0 210 0.993444
-0.446942 -1.032040 5.869230 0 0 223 0.992338
-0.482001 -0.995533 5.944030 0 0 164 0.996893
-0.730182 -0.924394 5.931120 0 0 160 0.997300
-0.707960 -0.924951 5.942040 0 0 173 0.996372
-0.699617 -0.941943 5.919560 0 0 142 0.998849
-0.721953 -0.941592 5.908600 0 0 137 0.999006
-0.677687 -0.943022 5.930530 0 0 142 0.998626
-0.691687 -0.959777 5.897450 0 0 137 0.999206
-0.669626 -0.961181 5.908780 0 0 137 0.999286
-0.661630 -0.978486 5.886770 0 0 160 0.997523
-0.714025 -0.958682 5.885930 0 0 142 0.998687
-0.683963 -0.977186 5.875370 0 0 164 0.997139
-0.706404 -0.976079 5.863600 0 0 173 0.996127
-0.647537 -0.962276 5.919890 0 0 133 0.999383
-0.639215 -0.979187 5.897810 0 0 151 0.997977
-0.617154 -0.980489 5.908870 0 0 155 0.997801
-0.626612 -0.962813 5.931880 0 0 137 0.999282
-0.656566 -0.943065 5.942270 0 0 146 0.998357
-0.635832 -0.944061 5.954320 0 0 146 0.998549
-0.665934 -0.925442 5.965470 0 0 192 0.994907
-0.686779 -0.925508 5.954020 0 0 178 0.995889
-0.645195 -0.926357 5.977250 0 0 192 0.994979
-0.701057 -0.991530 5.840560 0 0 233 0.991548
-0.677419 -0.992900 5.851730 0 0 205 0.993876
-0.671378 -1.006460 5.827990 0 0 246 0.990336
-0.695060 -1.004100 5.816430 0 0 255 0.988927
-0.647737 -1.008520 5.839340 0 0 237 0.991322
-0.664800 -1.017420 5.803230 0 1 255 0.988111
-0.641169 -1.019970 5.814850 0 0 255 0.988781
-0.688682 -1.015110 5.791300 0 21 255 0.986436
-0.617444 -1.021590 5.826110 0 0 255 0.989870
-0.594771 -1.023360 5.837810 0 0 255 0.989356
-0.625220 -1.009800 5.851050 0 0 233 0.991558
-0.602719 -1.011280 5.862570 0 0 242 0.990902
-0.632691 -0.995937 5.875010 0 0 196 0.994442
-0.654969 -0.994245 5.863430 0 0 196 0.994477
-0.610167 -0.997062 5.886280 0 0 201 0.994287
-0.529565 -1.023010 5.865770 0 0 219 0.992517
-0.539408 -1.010530 5.890440 0 0 201 0.994001
-0.559637 -1.010300 5.880540 0 0 201 0.994313
-0.548684 -0.996160 5.914400 0 0 173 0.996128
-0.568764 -0.996159 5.904790 0 0 173 0.996129
-0.577506 -0.979647 5.927890 0 0 146 0.998507
-0.557678 -0.979933 5.937750 0 0 146 0.998357
-0.588953 -0.996402 5.895120 0 0 183 0.995692
-0.597506 -0.980108 5.918420 0 0 146 0.998310
-0.581289 -1.010520 5.871550 0 0 210 0.993455
-0.573288 -1.023050 5.847250 0 0 237 0.991138
-0.551481 -1.023030 5.856490 0 0 228 0.992105
-0.567609 -0.961983 5.960260 0 0 133 0.999436
-0.578236 -0.943070 5.983400 0 0 164 0.997152
-0.596950 -0.943437 5.973280 0 0 155 0.997569
-0.589252 -0.926034 6.006980 0 0 214 0.993214
-0.607695 -0.925724 5.996490 0 0 210 0.993492
-0.626237 -0.926366 5.986680 0 0 201 0.994186
-0.616486 -0.943592 5.963760 0 0 151 0.998078
-0.607022 -0.962423 5.941330 0 0 133 0.999429
-0.587287 -0.961698 5.950540 0 0 133 0.999500
0.225408 -0.819311 5.311710 0 85 255 0.979919
0.224536 -0.839752 5.319420 0 65 255 0.981852
0.223314 -0.860437 5.327240 0 173 255 0.970625
0.222170 -0.881011 5.335020 0 221 255 0.964746
0.133727 -0.707081 5.281560 0 37 255 0.984837
0.139216 -0.726217 5.296280 0 0 255 0.989058
0.157879 -0.728210 5.288400 0 0 255 0.989807
0.163084 -0.749381 5.302950 0 0 251 0.990123
0.144434 -0.746911 5.311040 0 0 237 0.991023
0.181816 -0.752207 5.294710 0 0 242 0.990713
0.167673 -0.770699 5.316750 0 0 233 0.991662
0.185776 -0.772344 5.308190 0 0 233 0.991616
0.189441 -0.792574 5.321620 0 5 255 0.987723
0.149037 -0.768148 5.324940 0 0 233 0.991654
0.171339 -0.789844 5.330100 0 0 255 0.988662
0.153249 -0.787580 5.338630 0 0 255 0.989838
0.204125 -0.774537 5.299300 0 0 255 0.988939
0.208096 -0.795940 5.312340 0 1 255 0.988084
0.201673 -0.755256 5.286110 0 0 255 0.989594
0.198094 -0.735585 5.273000 0 5 255 0.987676
0.178263 -0.731869 5.280640 0 13 255 0.987023
0.173836 -0.712788 5.267200 0 37 255 0.984790
0.194363 -0.715899 5.258770 0 73 255 0.981126
0.154119 -0.709880 5.274360 0 45 255 0.983850
0.153405 -0.810041 5.347820 0 0 255 0.989815
0.170755 -0.811854 5.338930 0 0 237 0.991314
0.170700 -0.833624 5.347320 0 5 255 0.987716
0.152947 -0.832499 5.356580 0 0 255 0.989498
0.187758 -0.834640 5.338680 0 25 255 0.985961
0.169787 -0.855227 5.355810 0 61 255 0.982297
0.187484 -0.856326 5.346280 0 65 255 0.981836
0.186533 -0.878458 5.354320 0 189 255 0.968540
0.152703 -0.853822 5.364720 0 53 255 0.983146
0.169011 -0.876907 5.363580 0 165 255 0.971408
0.151283 -0.876432 5.372790 0 129 255 0.975430
0.204844 -0.857721 5.337010 0 97 255 0.978748
0.204264 -0.879372 5.344880 0 229 248 0.963722
0.206024 -0.837046 5.329290 0 61 255 0.982291
0.207377 -0.816880 5.320720 0 5 255 0.987838
0.188787 -0.813792 5.330050 0 0 255 0.989152
0.157528 -1.051660 5.196080 0 221 255 0.964734
0.138975 -1.052990 5.176040 0 133 255 0.974859
0.122326 -1.052100 5.155780 0 69 255 0.981449
0.095527 -1.053110 5.162920 0 53 255 0.983169
0.078077 -1.054160 5.179740 0 0 255 0.988546
0.112796 -1.053810 5.183420 0 93 255 0.979152
0.095407 -1.054860 5.200590 0 49 255 0.983447
0.061041 -1.055210 5.196510 0 0 246 0.990505
0.043906 -1.056180 5.213260 0 0 237 0.991098
0.023012 -1.054660 5.192130 0 0 210 0.993359
0.040050 -1.053690 5.175670 0 0 223 0.992321
0.057258 -1.052830 5.159280 0 1 255 0.988347
0.002208 -1.053580 5.171110 0 0 223 0.992159
0.132760 -1.052830 5.203880 0 137 255 0.974521
0.117996 -1.051620 5.221280 0 113 255 0.977070
0.152267 -1.048260 5.223810 0 229 248 0.963995
0.137254 -1.046780 5.241380 0 185 255 0.969221
0.103298 -1.050260 5.238360 0 61 255 0.982443
0.089195 -1.048610 5.255480 0 53 255 0.983222
0.066231 -1.052420 5.234250 0 0 251 0.990094
0.080698 -1.053780 5.217430 0 17 255 0.986690
-0.009986 -1.051970 5.280730 0 9 255 0.987290
0.004004 -1.053100 5.263570 0 0 255 0.989442
-0.035974 -1.054270 5.258570 0 0 233 0.991491
0.017509 -1.054240 5.246730 0 0 233 0.991508
-0.021817 -1.055580 5.241500 0 0 228 0.991836
-0.008034 -1.056920 5.224970 0 0 228 0.992016
-0.061233 -1.056990 5.236580 0 0 237 0.991176
0.030829 -1.055140 5.229830 0 0 228 0.991839
0.053011 -1.051440 5.251080 0 0 251 0.990203
0.040293 -1.050450 5.267990 0 0 255 0.989343
-0.044909 -1.056300 5.219820 0 0 219 0.992710
-0.084818 -1.054980 5.214880 0 0 214 0.992945
-0.029206 -1.055410 5.203410 0 0 210 0.993500
-0.068362 -1.054560 5.198340 0 0 219 0.992820
-0.052668 -1.053800 5.182160 0 0 233 0.991535
-0.107466 -1.053870 5.193360 0 0 237 0.991266
-0.013430 -1.054550 5.187140 0 0 214 0.993144
0.007745 -1.055830 5.208400 0 0 214 0.992983
0.172862 -1.041180 5.242410 48 255 200 0.956512
0.160162 -1.037240 5.259260 29 255 219 0.959422
0.179780 -1.025800 5.276300 90 255 158 0.949835
0.147226 -1.032890 5.276080 22 255 226 0.960511
0.135010 -1.028470 5.292530 0 213 255 0.965741
0.112323 -1.038670 5.273930 0 117 255 0.976614
0.124450 -1.042880 5.257810 0 149 255 0.973245
0.200187 -1.009320 5.289730 171 255 77 0.935210
0.187290 -1.002310 5.305600 177 255 71 0.933895
0.175366 -0.994714 5.320820 142 255 106 0.940611
0.154659 -1.011940 5.307070 55 255 193 0.955600
0.167134 -1.018980 5.291540 80 255 167 0.951130
0.090568 -1.001640 5.354660 0 193 255 0.967919
0.101813 -1.008580 5.339070 0 157 255 0.972124
0.066385 -1.018460 5.338780 0 125 255 0.975719
0.113095 -1.014970 5.323250 0 153 255 0.972795
0.077818 -1.025350 5.323410 0 69 255 0.981628
0.089449 -1.031600 5.307650 0 93 255 0.979012
0.042227 -1.034840 5.322310 0 93 255 0.978947
0.124153 -1.022060 5.307910 0 201 255 0.967080
0.144461 -1.005140 5.322620 55 255 193 0.955637
0.133676 -0.997720 5.338190 29 255 219 0.959619
0.054471 -1.038730 5.305540 0 57 255 0.982534
0.015373 -1.043730 5.301640 0 37 255 0.984856
0.066418 -1.041820 5.288530 0 29 255 0.985549
0.028328 -1.047190 5.284840 0 5 255 0.987684
0.078057 -1.045310 5.271850 0 25 255 0.985947
0.100809 -1.035350 5.291000 0 101 255 0.978060
0.218299 -0.957147 5.324360 145 255 103 0.939629
0.204660 -0.945761 5.338310 135 255 113 0.941680
0.189925 -0.970478 5.329870 145 255 103 0.940045
0.203407 -0.981509 5.316340 161 255 87 0.936653
0.213716 -0.914127 5.337180 77 255 171 0.951922
0.159350 -0.912175 5.364870 0 201 255 0.967068
0.140146 -0.913118 5.374340 0 153 255 0.972584
0.177817 -0.911528 5.356000 0 221 255 0.964768
0.166773 -0.946455 5.356810 113 255 135 0.945549
0.147941 -0.947118 5.365610 48 255 200 0.956764
0.128193 -0.948183 5.374860 29 255 219 0.959451
0.191041 -0.928903 5.347260 90 255 158 0.949756
0.131099 -0.973379 5.356400 0 213 255 0.965608
0.109221 -0.975468 5.365250 0 165 255 0.971321
0.151770 -0.971527 5.348000 25 255 222 0.959975
0.163295 -0.983412 5.334780 93 255 155 0.949204
0.178499 -0.958830 5.343180 103 255 145 0.947507
0.158837 -0.688462 5.237540 0 81 255 0.980465
0.178692 -0.691352 5.230780 0 89 255 0.979633
0.162887 -0.668612 5.199990 0 161 255 0.971783
0.149932 -0.676930 5.222090 0 137 255 0.974490
0.141547 -0.665634 5.206600 0 157 255 0.972091
0.128745 -0.673997 5.228560 0 89 255 0.979586
0.137528 -0.685507 5.244440 0 81 255 0.980100
0.115478 -0.682473 5.250530 0 41 255 0.984488
0.119447 -0.662887 5.212370 0 129 255 0.975210
0.106654 -0.671625 5.234960 0 41 255 0.984342
0.097647 -0.660642 5.219090 0 97 255 0.978578
0.124745 -0.694176 5.265990 0 21 255 0.986186
0.163844 -0.660802 5.165020 32 255 216 0.958862
0.144120 -0.651370 5.136240 96 255 151 0.948357
0.122299 -0.648430 5.141960 71 255 177 0.952953
0.110629 -0.650502 5.162710 0 209 255 0.966441
0.087821 -0.648253 5.168470 0 137 255 0.974268
0.075553 -0.650932 5.189490 0 85 255 0.979879
0.053428 -0.643025 5.159410 0 157 255 0.972227
0.143297 -0.658088 5.171110 0 221 255 0.964857
0.066530 -0.644845 5.141530 0 221 255 0.964802
0.089154 -0.646646 5.135730 29 255 219 0.959322
0.101241 -0.649793 5.117680 64 255 184 0.953841
0.123621 -0.652282 5.111920 74 255 174 0.952157
0.103213 -0.654669 5.087740 119 255 129 0.944840
0.080002 -0.651855 5.093620 109 255 138 0.946275
0.067701 -0.648634 5.111370 35 255 213 0.958743
0.043933 -0.646857 5.116780 0 201 255 0.967221
0.030724 -0.645061 5.134750 0 105 255 0.977604
0.008798 -0.647148 5.110580 0 121 255 0.976061
0.126591 -0.657804 5.080370 193 255 55 0.930135
0.097773 -0.673291 5.052060 135 255 113 0.941751
0.083612 -0.664712 5.068760 100 255 148 0.947996
0.063934 -0.675363 5.049770 64 255 184 0.953854
0.039988 -0.672351 5.055350 25 255 222 0.960076
0.026243 -0.665139 5.070180 0 205 255 0.966593
0.001828 -0.663243 5.075840 0 113 255 0.976723
-0.012753 -0.657320 5.091120 0 105 255 0.977903
-0.032869 -0.666344 5.072980 0 129 255 0.975044
0.023199 -0.653331 5.095170 0 153 255 0.972700
0.046783 -0.654934 5.089540 0 201 255 0.966984
0.060625 -0.661938 5.074290 25 255 222 0.960183
0.668383 -0.092872 5.954140 0 173 255 0.970209
0.665037 -0.072135 5.970380 0 205 255 0.966796
0.642815 -0.074481 5.961060 0 169 255 0.970866
0.646048 -0.095028 5.944590 0 141 255 0.973969
0.638449 -0.056595 5.979890 0 165 255 0.971352
0.620325 -0.077116 5.951780 0 153 255 0.972521
0.616108 -0.059641 5.970600 0 125 255 0.975835
0.593372 -0.062209 5.961310 0 121 255 0.976109
0.623531 -0.096797 5.935260 0 121 255 0.976014
0.597676 -0.079409 5.942400 0 109 255 0.977455
0.600888 -0.099467 5.925770 0 81 255 0.980099
0.611152 -0.045043 5.990710 0 117 255 0.976662
0.588602 -0.047988 5.981190 0 97 255 0.978752
0.583002 -0.036822 6.002800 0 93 255 0.979017
0.606779 -0.034300 6.013770 0 97 255 0.978539
0.634799 -0.042227 6.001340 0 141 255 0.973797
0.630245 -0.031506 6.024590 0 121 255 0.976095
0.658274 -0.039388 6.012020 0 177 255 0.969966
0.662066 -0.053911 5.990420 0 189 255 0.968594
0.653679 -0.028282 6.035390 0 205 255 0.966812
0.579355 -0.101685 5.916100 0 61 255 0.982281
0.574863 -0.081699 5.931570 0 113 255 0.976994
0.553203 -0.084071 5.921890 0 89 255 0.979614
0.557783 -0.104051 5.906130 0 53 255 0.983136
0.547773 -0.066868 5.939430 0 109 255 0.977432
0.531393 -0.086726 5.912180 0 73 255 0.981214
0.525943 -0.069386 5.929820 0 97 255 0.978765
0.503888 -0.072079 5.920230 0 77 255 0.980555
0.536018 -0.106752 5.896320 0 37 255 0.984694
0.509454 -0.089469 5.902580 0 53 255 0.983055
0.514059 -0.109473 5.886560 0 17 255 0.986565
0.519877 -0.054705 5.948710 0 97 255 0.978563
0.497910 -0.057341 5.939000 0 69 255 0.981347
0.491013 -0.045752 5.959350 0 61 255 0.982382
0.514425 -0.043487 5.970250 0 65 255 0.981874
0.543075 -0.052330 5.959450 0 101 255 0.978009
0.537541 -0.041131 5.981090 0 69 255 0.981475
0.565957 -0.050148 5.970300 0 89 255 0.979605
0.570747 -0.064549 5.950340 0 109 255 0.977433
0.560342 -0.038916 5.991990 0 69 255 0.981432
0.456279 -0.033430 6.048680 0 0 137 0.999096
0.480915 -0.031657 6.060560 0 0 137 0.998961
0.488533 -0.032642 6.037180 0 0 173 0.996326
0.512841 -0.030714 6.049030 0 0 169 0.996693
0.505236 -0.030100 6.072410 0 0 142 0.998828
0.520421 -0.032611 6.025730 0 0 233 0.991654
0.536911 -0.028740 6.060610 0 0 178 0.995845
0.544500 -0.030592 6.037270 0 0 233 0.991482
0.568233 -0.028494 6.048820 0 0 237 0.991331
0.529278 -0.028304 6.084040 0 0 142 0.998632
0.560471 -0.027237 6.072510 0 0 183 0.995756
0.552819 -0.027164 6.096020 0 0 142 0.998675
0.552038 -0.033459 6.013790 0 21 255 0.986085
0.575967 -0.031402 6.025030 0 21 255 0.986276
0.529090 -0.035952 6.003160 0 13 255 0.986900
0.505845 -0.038159 5.992470 0 9 255 0.987449
0.497309 -0.034741 6.014740 0 0 223 0.992132
0.473838 -0.037074 6.003950 0 0 214 0.992931
0.482415 -0.040518 5.981770 0 0 251 0.989905
0.465011 -0.035003 6.026470 0 0 164 0.997012
0.577550 -0.025439 6.107890 0 0 146 0.998322
0.584207 -0.024751 6.083630 0 0 187 0.995291
0.608503 -0.022168 6.095730 0 0 214 0.993157
0.601934 -0.022942 6.120000 0 0 160 0.997368
0.615220 -0.023082 6.071110 0 9 255 0.987382
0.633130 -0.019305 6.108270 0 0 237 0.991267
0.639584 -0.020170 6.083410 0 33 255 0.985113
0.627079 -0.019524 6.132820 0 0 178 0.995922
0.646315 -0.022723 6.058430 0 113 255 0.976804
0.622892 -0.026268 6.047510 0 77 255 0.980702
0.599463 -0.028879 6.036460 0 57 255 0.982887
0.591902 -0.025623 6.059900 0 0 255 0.989480
0.416696 -0.769710 5.888200 0 0 214 0.993045
0.407855 -0.789286 5.906440 0 0 237 0.991334
0.387218 -0.810895 5.919000 0 0 237 0.991157
0.378859 -0.832431 5.937500 0 0 251 0.990199
0.355347 -0.836003 5.925020 0 0 242 0.990824
0.362940 -0.812238 5.908000 0 0 237 0.991367
0.382882 -0.789200 5.896570 0 0 223 0.992270
0.390906 -0.768203 5.878660 0 0 205 0.993852
0.412131 -0.748944 5.866280 0 0 210 0.993263
0.385662 -0.747350 5.856110 0 0 196 0.994340
0.379200 -0.847340 5.965650 0 0 255 0.988422
0.367702 -0.863765 5.988290 0 5 255 0.987861
0.345111 -0.884331 6.004370 0 0 246 0.990342
0.333714 -0.901654 6.026860 0 0 255 0.989522
0.311549 -0.911101 6.011650 0 0 255 0.988864
0.322887 -0.892514 5.990110 0 0 223 0.992229
0.345553 -0.870418 5.975340 0 0 237 0.991123
0.356573 -0.852101 5.953470 0 0 242 0.990945
0.267434 -0.928773 5.981740 0 33 255 0.985254
0.278312 -0.908581 5.960550 0 0 228 0.992074
0.300294 -0.885292 5.947140 0 0 205 0.993706
0.311066 -0.864379 5.926270 0 0 210 0.993410
0.332289 -0.840596 5.912080 0 0 223 0.992438
0.309514 -0.846349 5.898400 0 0 210 0.993357
0.333656 -0.858511 5.940200 0 0 233 0.991569
0.323088 -0.877978 5.961510 0 0 223 0.992134
0.300955 -0.901691 5.975760 0 0 233 0.991679
0.289991 -0.920947 5.997050 0 29 255 0.985609
0.316361 -0.819931 5.882640 0 0 210 0.993358
0.334972 -0.793868 5.872890 0 0 214 0.993004
0.341621 -0.770224 5.856650 0 0 201 0.993974
0.360622 -0.747169 5.845700 0 0 192 0.995039
0.335815 -0.747711 5.834180 0 0 187 0.995087
0.366019 -0.768924 5.867890 0 0 201 0.994203
0.358495 -0.790934 5.885230 0 0 219 0.992535
0.339875 -0.816385 5.895410 0 0 223 0.992283
0.278645 -0.043516 5.953250 0 0 133 0.999618
0.300240 -0.041750 5.965100 0 0 133 0.999536
0.309991 -0.044867 5.944220 0 0 142 0.998629
0.331453 -0.043334 5.955990 0 0 146 0.998546
0.321591 -0.040473 5.977150 0 0 133 0.999519
0.341196 -0.046425 5.934630 0 0 183 0.995573
0.352818 -0.041971 5.967730 0 0 146 0.998516
0.362549 -0.045098 5.946420 0 0 183 0.995569
0.384065 -0.043827 5.958010 0 0 183 0.995685
0.342890 -0.039450 5.989090 0 0 133 0.999534
0.374165 -0.041173 5.979710 0 0 151 0.998159
0.364279 -0.038580 6.001170 0 0 133 0.999373
0.372416 -0.049002 5.924850 0 0 237 0.991063
0.393847 -0.047691 5.936660 0 0 242 0.990879
0.403482 -0.053521 5.915280 0 29 255 0.985526
0.383038 -0.055008 5.903790 0 33 255 0.984999
0.352046 -0.050318 5.913260 0 0 242 0.990677
0.362599 -0.056660 5.892350 0 37 255 0.984798
0.331721 -0.051856 5.901640 0 0 246 0.990516
0.320853 -0.047802 5.923160 0 0 183 0.995513
0.300369 -0.049673 5.911560 0 0 178 0.995771
0.342240 -0.058237 5.880810 0 41 255 0.984468
0.311221 -0.053829 5.890240 0 0 242 0.990955
0.321792 -0.060242 5.869480 0 33 255 0.984959
0.289528 -0.046451 5.932630 0 0 142 0.998735
0.387220 -0.037248 6.013220 0 0 133 0.999319
0.396037 -0.039551 5.991000 0 0 151 0.997958
0.419073 -0.037915 6.002900 0 0 160 0.997272
0.410213 -0.036059 6.025180 0 0 137 0.999262
0.428010 -0.040108 5.980350 0 0 205 0.993863
0.442069 -0.036415 6.014690 0 0 164 0.997106
0.450971 -0.038503 5.992100 0 0 219 0.992785
0.433215 -0.034706 6.036970 0 0 137 0.999163
0.459548 -0.041963 5.969890 0 0 255 0.989300
0.469169 -0.047540 5.948380 0 53 255 0.983101
0.437706 -0.043706 5.958790 0 0 255 0.989327
0.447378 -0.049412 5.937360 0 53 255 0.983030
0.415880 -0.045640 5.947690 0 0 255 0.989720
0.406130 -0.041832 5.969140 0 0 187 0.995170
0.425485 -0.051318 5.926320 0 53 255 0.983295
0.493640 -0.111484 5.876230 0 1 255 0.988077
0.487702 -0.091483 5.891380 0 57 255 0.982744
0.467078 -0.093525 5.881130 0 37 255 0.984830
0.473183 -0.113570 5.865870 0 0 255 0.988548
0.460311 -0.076154 5.898120 0 65 255 0.982018
0.446556 -0.095682 5.870840 0 9 255 0.987298
0.439670 -0.078248 5.887870 0 57 255 0.982698
0.418954 -0.080448 5.877650 0 17 255 0.986596
0.452680 -0.115775 5.855520 0 0 255 0.989810
0.425931 -0.097953 5.860640 0 1 255 0.988257
0.432070 -0.117962 5.845170 0 0 242 0.990838
0.432238 -0.063340 5.906080 0 49 255 0.983387
0.411542 -0.065617 5.895950 0 41 255 0.984156
0.454173 -0.061267 5.917070 0 53 255 0.982928
0.475995 -0.059248 5.928090 0 61 255 0.982371
0.482099 -0.074082 5.909170 0 81 255 0.980250
0.412829 -0.119938 5.834210 0 0 246 0.990310
0.405450 -0.099793 5.849260 0 5 255 0.987953
0.386255 -0.101802 5.838360 0 5 255 0.987846
0.393524 -0.121950 5.823480 0 0 251 0.990156
0.378171 -0.084035 5.854820 0 25 255 0.985977
0.366990 -0.103780 5.827670 0 1 255 0.988006
0.358987 -0.085814 5.844000 0 25 255 0.985934
0.339662 -0.087884 5.833300 0 21 255 0.986336
0.374323 -0.124146 5.812800 0 0 251 0.990164
0.347685 -0.105797 5.817090 0 1 255 0.988259
0.355067 -0.126313 5.802210 0 0 251 0.990213
0.350216 -0.070863 5.861690 0 25 255 0.985978
0.330894 -0.072744 5.851000 0 21 255 0.986222
0.370608 -0.068938 5.873060 0 33 255 0.984908
0.391019 -0.067251 5.884540 0 33 255 0.985180
0.398526 -0.082212 5.866240 0 21 255 0.986226
0.536789 -0.132669 5.882780 0 0 219 0.992785
0.558453 -0.130076 5.892860 0 0 228 0.991905
0.558532 -0.158023 5.880840 0 0 183 0.995533
0.580064 -0.127484 5.902870 0 0 255 0.989858
0.579970 -0.155777 5.891290 0 0 187 0.995235
0.601255 -0.153258 5.901700 0 0 205 0.993844
0.601444 -0.125307 5.912980 0 0 255 0.988417
0.579342 -0.185325 5.880740 0 0 155 0.997776
0.600301 -0.183628 5.891860 0 0 151 0.997974
0.599683 -0.213077 5.881570 0 0 137 0.999009
0.580126 -0.214173 5.871210 0 0 142 0.998848
0.559432 -0.186777 5.870960 0 0 151 0.997938
0.560528 -0.215382 5.860930 0 0 142 0.998641
0.539593 -0.188384 5.861220 0 0 151 0.998073
0.538314 -0.160392 5.871700 0 0 173 0.996314
0.517968 -0.162449 5.862670 0 0 169 0.996760
0.540740 -0.217170 5.850850 0 0 146 0.998503
0.519524 -0.190312 5.851750 0 0 146 0.998262
0.520781 -0.218960 5.840830 0 0 146 0.998264
0.516302 -0.135042 5.874000 0 0 201 0.994174
0.622592 -0.124150 5.921350 0 5 255 0.987682
0.645048 -0.121742 5.931120 0 29 255 0.985567
0.643049 -0.150594 5.919630 0 0 210 0.993418
0.667406 -0.119706 5.940640 0 61 255 0.982200
0.665515 -0.148536 5.929470 0 0 246 0.990369
0.662550 -0.179966 5.920230 0 0 164 0.996922
0.660937 -0.210721 5.912250 0 0 142 0.998916
0.641849 -0.180831 5.910780 0 0 160 0.997322
0.640427 -0.211668 5.902450 0 0 137 0.998968
0.621125 -0.182299 5.901420 0 0 155 0.997599
0.622212 -0.152175 5.910720 0 0 201 0.994268
0.620057 -0.212441 5.892220 0 0 137 0.999071
0.650163 -0.335951 5.873720 0 0 151 0.998174
0.651306 -0.307838 5.883810 0 0 128 0.999671
0.632632 -0.307461 5.873780 0 0 133 0.999391
0.631359 -0.335470 5.863930 0 0 160 0.997494
0.633944 -0.277174 5.883480 0 0 128 0.999754
0.613585 -0.307010 5.863990 0 0 137 0.999097
0.615197 -0.276871 5.873540 0 0 128 0.999708
0.596230 -0.276756 5.863810 0 0 133 0.999538
0.612159 -0.335227 5.854130 0 0 164 0.996947
0.594518 -0.306675 5.854180 0 0 142 0.998632
0.592523 -0.335325 5.845080 0 0 164 0.997039
0.616605 -0.245877 5.882760 0 0 128 0.999637
0.597854 -0.245713 5.873110 0 0 128 0.999666
0.636775 -0.245343 5.893740 0 0 133 0.999393
0.656852 -0.244908 5.904630 0 0 137 0.999035
0.653832 -0.277289 5.895080 0 0 133 0.999402
0.573243 -0.336230 5.836040 0 0 164 0.997077
0.574530 -0.307958 5.843440 0 0 151 0.998139
0.555503 -0.308896 5.834420 0 0 151 0.998139
0.553851 -0.336987 5.827320 0 0 164 0.997152
0.556799 -0.278891 5.842090 0 0 142 0.998650
0.536218 -0.309991 5.825860 0 0 146 0.998386
0.537891 -0.280122 5.833010 0 0 146 0.998558
0.518790 -0.281226 5.824440 0 0 142 0.998696
0.533915 -0.338482 5.819370 0 0 151 0.997931
0.516550 -0.311566 5.817840 0 0 142 0.998848
0.513843 -0.340523 5.811820 0 0 142 0.998693
0.538998 -0.249308 5.841160 0 0 142 0.998821
0.520139 -0.250580 5.832280 0 0 142 0.998766
0.558850 -0.247550 5.851510 0 0 137 0.999131
0.578391 -0.246154 5.862130 0 0 133 0.999455
0.576656 -0.277644 5.852790 0 0 137 0.999128
0.618659 -0.022811 6.155080 0 0 137 0.999141
0.593152 -0.025703 6.141880 0 0 137 0.999271
0.584532 -0.028014 6.163080 0 0 142 0.998667
0.568631 -0.027962 6.129970 0 0 137 0.999143
0.559970 -0.029556 6.151030 0 0 151 0.998202
0.535256 -0.031038 6.139410 0 0 155 0.997840
0.543947 -0.029761 6.118150 0 0 137 0.998976
0.551273 -0.030728 6.171960 0 0 173 0.996457
0.526601 -0.031561 6.160150 0 0 178 0.995960
0.518233 -0.030430 6.180140 0 0 192 0.995003
0.543307 -0.030838 6.192670 0 0 192 0.994789
0.576441 -0.030119 6.184830 0 0 169 0.996507
0.568669 -0.031044 6.205830 0 0 201 0.993998
0.603314 -0.028398 6.199080 0 0 160 0.997218
0.610903 -0.025917 6.177410 0 0 137 0.999119
0.596175 -0.030152 6.220440 0 0 196 0.994482
0.519603 -0.030980 6.106130 0 0 137 0.999025
0.495597 -0.031999 6.094360 0 0 137 0.999028
0.486206 -0.032991 6.115500 0 0 160 0.997420
0.471189 -0.033368 6.082650 0 0 142 0.998895
0.461782 -0.033795 6.103810 0 0 160 0.997343
0.437156 -0.034545 6.091790 0 0 164 0.997053
0.446526 -0.034678 6.070720 0 0 142 0.998716
0.452747 -0.032382 6.123810 0 0 173 0.996265
0.428312 -0.032683 6.111750 0 0 178 0.995893
0.419894 -0.028681 6.130520 0 0 169 0.996479
0.444742 -0.029082 6.143270 0 0 178 0.995981
0.477656 -0.032356 6.136250 0 0 173 0.996122
0.469437 -0.029575 6.155880 0 0 178 0.995875
0.502294 -0.032081 6.148360 0 0 178 0.995984
0.510884 -0.032245 6.127540 0 0 155 0.997543
0.494052 -0.029935 6.168030 0 0 178 0.995856
0.418259 -0.014638 6.195420 0 0 146 0.998255
0.442709 -0.016830 6.208700 0 0 155 0.997681
0.451206 -0.022742 6.191580 0 0 169 0.996524
0.466696 -0.019338 6.221770 0 0 169 0.996794
0.475410 -0.024660 6.204490 0 0 187 0.995354
0.499473 -0.026916 6.217300 0 0 201 0.994187
0.490625 -0.022081 6.234770 0 0 187 0.995093
0.484593 -0.028377 6.186520 0 0 187 0.995052
0.508685 -0.029939 6.199160 0 0 205 0.993798
0.460153 -0.027112 6.174160 0 0 183 0.995509
0.435561 -0.025993 6.161450 0 0 178 0.995855
0.426751 -0.021051 6.178810 0 0 164 0.997031
0.402127 -0.019794 6.165840 0 0 160 0.997316
0.410856 -0.025095 6.148550 0 0 178 0.996114
0.393697 -0.012906 6.182360 0 0 142 0.998713
0.515675 -0.024739 6.247820 0 0 201 0.994036
0.541218 -0.027379 6.261690 0 0 233 0.991667
0.550049 -0.030594 6.243510 0 0 246 0.990549
0.569438 -0.028916 6.277140 0 0 251 0.989911
0.577993 -0.031410 6.258820 0 0 255 0.989236
0.587155 -0.031872 6.239900 0 0 246 0.990636
0.559242 -0.032002 6.225100 0 0 233 0.991457
0.533792 -0.031122 6.211880 0 0 219 0.992572
0.524553 -0.028983 6.230180 0 0 219 0.992710
0.246765 -0.910323 6.237050 0 0 228 0.992072
0.260450 -0.915945 6.212600 0 0 242 0.990709
0.286391 -0.914814 6.195820 0 5 255 0.987688
0.300333 -0.917195 6.171040 0 0 255 0.988607
0.326251 -0.914338 6.154210 0 1 255 0.988320
0.302345 -0.923263 6.138270 0 0 255 0.988540
0.324885 -0.908891 6.187200 0 13 255 0.987009
0.350622 -0.907571 6.170380 0 1 255 0.988351
0.311917 -0.906594 6.211700 0 5 255 0.987716
0.299084 -0.903749 6.235800 0 0 255 0.989193
0.273187 -0.902443 6.252160 0 0 237 0.991146
0.299785 -0.897029 6.267840 0 0 242 0.990819
0.315627 -0.917328 6.114100 0 0 255 0.989000
0.340127 -0.906022 6.097550 0 25 255 0.985726
0.353196 -0.897880 6.072990 0 21 255 0.986142
0.375843 -0.892508 6.088160 0 45 255 0.983723
0.363110 -0.899455 6.112830 0 45 255 0.983926
0.350691 -0.905384 6.137470 0 37 255 0.984519
0.399469 -0.897292 6.137210 0 49 255 0.983559
0.387985 -0.902129 6.162930 0 13 255 0.986912
0.376610 -0.906536 6.188380 0 0 255 0.989681
0.399456 -0.890051 6.103450 0 65 255 0.981925
0.377674 -0.905583 6.222340 0 0 246 0.990507
0.366195 -0.903685 6.247180 0 0 228 0.991844
0.352044 -0.902749 6.237880 0 0 255 0.989704
0.354664 -0.901208 6.271710 0 0 228 0.992069
0.340302 -0.900292 6.262330 0 0 223 0.992178
0.328667 -0.897300 6.286490 0 0 210 0.993434
0.342838 -0.898955 6.295850 0 0 196 0.994419
0.325964 -0.900006 6.253060 0 0 246 0.990464
0.314294 -0.896824 6.277250 0 0 228 0.992032
0.351151 -0.904939 6.204220 0 13 255 0.987193
0.157336 -0.838786 6.394860 29 255 219 0.959374
0.184036 -0.843798 6.379680 0 165 255 0.971332
0.196533 -0.852716 6.357370 0 129 255 0.975170
0.222718 -0.862709 6.343030 0 41 255 0.984432
0.194979 -0.867179 6.328320 0 49 255 0.983422
0.224150 -0.851299 6.372780 0 89 255 0.979327
0.250441 -0.862124 6.358560 0 25 255 0.985883
0.211916 -0.843723 6.395270 0 129 255 0.975411
0.199039 -0.838327 6.418300 0 121 255 0.976069
0.207831 -0.877863 6.306020 0 17 255 0.986460
0.233968 -0.884799 6.290860 0 13 255 0.986941
0.246942 -0.896047 6.267770 0 0 246 0.990276
0.273575 -0.889716 6.283020 0 0 255 0.989241
0.261283 -0.880100 6.305720 0 17 255 0.986574
0.248952 -0.870325 6.328200 0 29 255 0.985398
0.330749 -0.891971 6.318670 0 0 187 0.995365
0.318853 -0.885076 6.341070 0 0 205 0.993779
0.304054 -0.882889 6.332000 0 0 219 0.992640
0.306756 -0.878778 6.363560 0 0 210 0.993412
0.292037 -0.875301 6.354290 0 0 205 0.993920
0.279866 -0.868901 6.377040 0 0 219 0.992617
0.294416 -0.873104 6.386170 0 0 205 0.993956
0.277145 -0.872107 6.345190 0 0 255 0.989042
0.265117 -0.864962 6.367670 0 0 251 0.990013
0.289645 -0.880170 6.322520 0 0 242 0.990693
0.301736 -0.887796 6.299760 0 0 255 0.989871
0.316343 -0.890045 6.309310 0 0 219 0.992688
0.281724 -0.866033 6.408700 0 0 214 0.993081
0.268964 -0.860204 6.431300 0 0 219 0.992733
0.254651 -0.854085 6.422090 0 0 255 0.988844
0.255531 -0.856456 6.454620 0 0 219 0.992716
0.241550 -0.849327 6.445060 0 0 255 0.989701
0.227243 -0.843895 6.435680 0 45 255 0.983734
0.240335 -0.848613 6.412420 0 61 255 0.982264
0.252889 -0.855909 6.389920 0 37 255 0.984856
0.267292 -0.860315 6.399240 0 0 255 0.989375
0.528434 -0.370060 5.816470 0 0 137 0.999143
0.548509 -0.368494 5.824120 0 0 142 0.998869
0.543394 -0.398770 5.820800 0 0 137 0.999087
0.568494 -0.367016 5.832160 0 0 142 0.998614
0.563396 -0.397638 5.828560 0 0 137 0.999086
0.583760 -0.396148 5.836260 0 0 142 0.998642
0.588265 -0.366300 5.840660 0 0 146 0.998501
0.559119 -0.427184 5.824510 0 0 142 0.998620
0.579235 -0.426023 5.831830 0 0 146 0.998547
0.575332 -0.455060 5.827680 0 0 160 0.997367
0.556568 -0.455723 5.821430 0 0 160 0.997467
0.540409 -0.427935 5.818060 0 0 142 0.998730
0.537909 -0.456354 5.815540 0 0 151 0.997932
0.522246 -0.428551 5.811560 0 0 142 0.998844
0.525055 -0.399846 5.814130 0 0 137 0.999117
0.507100 -0.400325 5.807050 0 0 137 0.999063
0.519568 -0.456804 5.809450 0 0 151 0.998198
0.504013 -0.429317 5.805110 0 0 142 0.998842
0.501512 -0.457251 5.803490 0 0 146 0.998410
