ply
format ascii 1.0
comment VCGLIB generated
element vertex 996
property float x
property float y
property float z
property uchar red
property uchar green
property uchar blue
property float quality
end_header
-0.027987 -0.136370 0.700267 255 133 0 0.580598
-0.035254 -0.136046 0.701750 255 133 0 0.579665
-0.031309 -0.137238 0.701957 255 133 0 0.580164
-0.034548 -0.138086 0.703698 255 133 0 0.579770
-0.027251 -0.138424 0.702167 255 149 0 0.550759
-0.038317 -0.136908 0.703417 255 133 0 0.579074
-0.039202 -0.134517 0.701233 255 143 0 0.560095
-0.036164 -0.133628 0.699586 255 133 0 0.579276
-0.030221 -0.139175 0.704149 255 133 0 0.580510
-0.025918 -0.140030 0.704362 255 133 0 0.581400
-0.033141 -0.139943 0.706177 255 133 0 0.580093
-0.028945 -0.140783 0.706382 255 133 0 0.580984
-0.031890 -0.141589 0.708423 255 139 0 0.567342
-0.024579 -0.141655 0.706594 255 133 0 0.581835
-0.035909 -0.140749 0.708152 255 133 0 0.579503
-0.037280 -0.138856 0.705648 255 139 0 0.567036
0.003502 -0.136161 0.692263 255 131 0 0.584778
0.003089 -0.134224 0.690924 255 131 0 0.584120
0.002644 -0.132318 0.689590 255 131 0 0.583512
0.002664 -0.130050 0.688646 255 129 0 0.589690
0.006756 -0.141376 0.698895 255 141 0 0.562927
0.010144 -0.140811 0.696945 255 129 0 0.587211
0.005538 -0.140045 0.696817 255 139 0 0.569264
0.008952 -0.139511 0.694873 255 129 0 0.586741
0.004570 -0.138570 0.694905 255 131 0 0.585529
-0.024794 -0.133616 0.696937 255 133 0 0.580783
-0.028939 -0.132003 0.696984 255 133 0 0.579952
-0.020959 -0.132839 0.695596 255 133 0 0.580995
-0.025065 -0.131293 0.695574 255 133 0 0.580404
-0.021180 -0.130531 0.694181 255 133 0 0.580603
-0.029180 -0.129634 0.695578 255 133 0 0.579620
-0.017134 -0.132035 0.694262 255 139 0 0.568404
-0.013370 -0.131221 0.692909 255 133 0 0.581467
-0.013074 -0.133287 0.694263 255 131 0 0.582067
-0.016849 -0.134133 0.695606 255 131 0 0.584120
-0.020695 -0.134945 0.696944 255 133 0 0.581641
-0.012786 -0.135379 0.695614 255 131 0 0.582387
-0.025062 -0.128857 0.694451 255 133 0 0.578408
-0.028790 -0.126934 0.694702 255 133 0 0.579428
-0.020975 -0.128028 0.693335 255 133 0 0.580191
-0.024679 -0.126170 0.693568 255 133 0 0.579754
-0.017040 -0.128402 0.692645 255 133 0 0.580535
-0.013140 -0.128752 0.691984 255 133 0 0.581030
-0.001370 -0.129748 0.689514 255 145 0 0.558083
-0.005392 -0.129461 0.690357 255 133 0 0.581926
-0.005437 -0.131760 0.691302 255 131 0 0.582288
-0.001435 -0.132033 0.690477 255 131 0 0.582657
-0.009396 -0.130330 0.691651 255 133 0 0.580778
-0.009172 -0.127899 0.690700 255 135 0 0.574588
-0.001064 -0.134020 0.691829 255 143 0 0.558708
-0.005136 -0.133813 0.692674 255 145 0 0.557272
-0.004726 -0.135753 0.694001 255 131 0 0.583306
-0.000644 -0.135954 0.693153 255 143 0 0.560963
-0.008950 -0.134577 0.694142 255 141 0 0.566336
-0.009273 -0.132520 0.692809 255 131 0 0.582109
0.004143 -0.142584 0.702047 255 141 0 0.565781
0.000993 -0.143057 0.704115 255 131 0 0.585804
0.005771 -0.143574 0.704504 255 129 0 0.586393
0.002616 -0.144075 0.706591 255 129 0 0.586046
-0.002163 -0.143545 0.706173 255 131 0 0.585594
-0.005254 -0.144038 0.708204 255 131 0 0.585377
-0.007126 -0.142886 0.705806 255 141 0 0.565704
-0.004013 -0.142413 0.703776 255 131 0 0.585082
-0.000842 -0.141927 0.701730 255 135 0 0.575076
-0.008979 -0.141818 0.703404 255 143 0 0.560815
0.007797 -0.144454 0.707034 255 129 0 0.586628
0.005006 -0.144774 0.709214 255 129 0 0.586561
0.009879 -0.145059 0.709730 255 137 0 0.572095
0.002251 -0.145101 0.711394 255 143 0 0.559823
-0.002896 -0.144705 0.710869 255 131 0 0.585813
-0.000106 -0.144399 0.708728 255 131 0 0.583387
-0.012801 -0.145104 0.714437 255 131 0 0.584549
-0.017966 -0.144679 0.713929 255 135 0 0.574633
-0.010298 -0.144741 0.712369 255 131 0 0.583988
-0.015441 -0.144378 0.711835 255 131 0 0.583988
-0.012913 -0.144031 0.709775 255 139 0 0.566796
-0.020534 -0.144020 0.711319 255 131 0 0.582668
-0.007791 -0.144403 0.710298 255 122 0 0.599872
-0.005371 -0.145087 0.712952 255 145 0 0.556634
-0.017618 -0.143489 0.709313 255 131 0 0.583439
-0.022572 -0.142822 0.708956 255 133 0 0.580475
-0.014754 -0.142931 0.707353 255 139 0 0.570198
-0.019635 -0.142281 0.706955 255 131 0 0.582883
-0.016779 -0.141767 0.704983 255 139 0 0.570068
-0.011850 -0.142388 0.705376 255 131 0 0.584156
-0.010021 -0.143465 0.707790 255 131 0 0.584646
0.000093 -0.137637 0.694899 255 131 0 0.584312
-0.004049 -0.137519 0.695775 255 131 0 0.583695
-0.003296 -0.139164 0.697521 255 137 0 0.571940
0.000827 -0.139282 0.696658 255 131 0 0.584632
-0.007751 -0.138227 0.697477 255 131 0 0.583402
-0.011388 -0.138924 0.699138 255 141 0 0.564689
-0.012100 -0.137147 0.697370 255 127 0 0.591715
-0.008406 -0.136434 0.695679 255 129 0 0.586352
0.002024 -0.140665 0.698761 255 143 0 0.560816
-0.002036 -0.140608 0.699609 255 131 0 0.584702
-0.005487 -0.141216 0.701505 255 131 0 0.584384
-0.010166 -0.140357 0.701268 255 131 0 0.583895
-0.006734 -0.139762 0.699397 255 131 0 0.583967
-0.021217 -0.141003 0.704683 255 131 0 0.582328
-0.017963 -0.140316 0.702839 255 131 0 0.582957
-0.022551 -0.139390 0.702471 255 133 0 0.581892
-0.019216 -0.138718 0.700607 255 137 0 0.572004
-0.014671 -0.139627 0.700993 255 131 0 0.583306
-0.013470 -0.141067 0.703126 255 137 0 0.570528
-0.023567 -0.137687 0.700456 255 133 0 0.581476
-0.019930 -0.136938 0.698823 255 137 0 0.570725
-0.024280 -0.135686 0.698562 255 127 0 0.590752
-0.016345 -0.136155 0.697192 255 131 0 0.582280
-0.015660 -0.137932 0.698987 255 137 0 0.570989
-0.027280 -0.142247 0.708731 255 143 0 0.561062
-0.029941 -0.142851 0.710873 255 133 0 0.580514
-0.025236 -0.143443 0.711050 255 133 0 0.581625
-0.028024 -0.144024 0.713274 255 131 0 0.582626
-0.032448 -0.143436 0.713032 255 133 0 0.579810
-0.034805 -0.144006 0.715145 255 133 0 0.578950
-0.036623 -0.142734 0.712643 255 141 0 0.563360
-0.034347 -0.142175 0.710551 255 133 0 0.579462
-0.022867 -0.144377 0.713510 255 131 0 0.582077
-0.025442 -0.144685 0.715866 255 133 0 0.581340
-0.020246 -0.145075 0.716116 255 137 0 0.572022
-0.027861 -0.144992 0.718193 255 133 0 0.580658
-0.032448 -0.144614 0.717803 255 137 0 0.571470
-0.030327 -0.144334 0.715557 255 133 0 0.580095
-0.040105 -0.144698 0.720289 255 135 0 0.578094
-0.037567 -0.144700 0.719497 255 133 0 0.578330
-0.039894 -0.144053 0.716720 255 133 0 0.578262
-0.042423 -0.144060 0.717519 255 125 0 0.595742
-0.036203 -0.144359 0.717337 255 133 0 0.578680
-0.033871 -0.144987 0.719999 255 133 0 0.578747
-0.044269 -0.142705 0.714910 255 135 0 0.577929
-0.041676 -0.142764 0.714224 255 139 0 0.567003
-0.040085 -0.142156 0.712145 255 133 0 0.578305
-0.038263 -0.143409 0.714677 255 133 0 0.578599
-0.063383 -0.141626 0.719558 255 133 0 0.579816
-0.063448 -0.142701 0.721830 255 131 0 0.585749
-0.060897 -0.144635 0.724988 255 133 0 0.580137
-0.063526 -0.143767 0.724098 255 125 0 0.596374
-0.063602 -0.144864 0.726370 255 133 0 0.580430
-0.066270 -0.142814 0.723066 255 133 0 0.580126
-0.066195 -0.141726 0.720788 255 147 0 0.552279
-0.066133 -0.140703 0.718480 255 143 0 0.560120
-0.068954 -0.140837 0.719710 255 133 0 0.580788
-0.056305 -0.145674 0.727419 255 133 0 0.579572
-0.056011 -0.146342 0.729738 255 133 0 0.579480
-0.058607 -0.146638 0.731183 255 133 0 0.579876
-0.058916 -0.145946 0.728878 255 133 0 0.579913
-0.060585 -0.145365 0.727278 255 137 0 0.570363
-0.063461 -0.147073 0.734253 255 133 0 0.580477
-0.063947 -0.146386 0.731873 255 133 0 0.580638
-0.065678 -0.145779 0.730263 255 141 0 0.564571
-0.066153 -0.145052 0.727925 255 133 0 0.580500
-0.068698 -0.145246 0.729405 255 133 0 0.580768
-0.063152 -0.145574 0.728750 255 125 0 0.596253
-0.061462 -0.146175 0.730347 255 133 0 0.580306
-0.061020 -0.146857 0.732726 255 133 0 0.580159
-0.068745 -0.144097 0.726995 255 133 0 0.580271
-0.071397 -0.143091 0.726021 255 147 0 0.554447
-0.068798 -0.142981 0.724578 255 133 0 0.580385
-0.071501 -0.141999 0.723589 255 131 0 0.583004
-0.071572 -0.140932 0.721133 255 133 0 0.580655
-0.074230 -0.141044 0.722539 255 133 0 0.580593
-0.068889 -0.141881 0.722156 255 133 0 0.580185
-0.066191 -0.143908 0.725498 255 133 0 0.581152
-0.051448 -0.130600 0.701134 255 133 0 0.579089
-0.054653 -0.128367 0.700694 255 131 0 0.582398
-0.048830 -0.129546 0.699819 255 133 0 0.578934
-0.051947 -0.127351 0.699344 255 133 0 0.579554
-0.049284 -0.126271 0.698085 255 143 0 0.561360
-0.055149 -0.125142 0.698892 255 127 0 0.590859
-0.046227 -0.128422 0.698617 255 133 0 0.578850
-0.043638 -0.127299 0.697450 255 133 0 0.578843
-0.043327 -0.130125 0.699060 255 139 0 0.567363
-0.045894 -0.131242 0.700233 255 133 0 0.578724
-0.052026 -0.124205 0.697948 255 133 0 0.579865
-0.054932 -0.121738 0.697801 255 133 0 0.580684
-0.048961 -0.123209 0.697087 255 133 0 0.579491
-0.051774 -0.120781 0.696890 255 137 0 0.571334
-0.046106 -0.123713 0.696770 255 133 0 0.578971
-0.043296 -0.124229 0.696508 255 133 0 0.578808
-0.032625 -0.126300 0.695235 255 133 0 0.579110
-0.036317 -0.125714 0.695737 255 133 0 0.578764
-0.036715 -0.128435 0.696617 255 143 0 0.561182
-0.033028 -0.129009 0.696131 255 133 0 0.579366
-0.040044 -0.126496 0.696600 255 133 0 0.578729
-0.039697 -0.123436 0.695678 255 133 0 0.578643
-0.032721 -0.131600 0.697566 255 133 0 0.579473
-0.036384 -0.131245 0.698143 255 133 0 0.579142
-0.039754 -0.132095 0.699407 255 133 0 0.578998
-0.040065 -0.129270 0.697827 255 139 0 0.567607
-0.079522 -0.109146 0.701189 255 127 0 0.590760
-0.077248 -0.107690 0.700600 255 129 0 0.587218
-0.077424 -0.105053 0.700746 255 127 0 0.590154
-0.075065 -0.103704 0.700218 255 129 0 0.589634
-0.074960 -0.106287 0.699993 255 129 0 0.589566
-0.072688 -0.104923 0.699346 255 129 0 0.588947
-0.074467 -0.108689 0.699796 255 129 0 0.589639
-0.076679 -0.110132 0.700459 255 118 0 0.606121
-0.078946 -0.111595 0.701090 255 141 0 0.565488
-0.076062 -0.112582 0.700335 255 139 0 0.566729
-0.074963 -0.101512 0.700800 255 129 0 0.589723
-0.071987 -0.098268 0.701280 255 129 0 0.586261
-0.068672 -0.100293 0.699961 255 141 0 0.564738
-0.071196 -0.101199 0.700179 255 129 0 0.588951
-0.065075 -0.102261 0.698933 255 129 0 0.586602
-0.067623 -0.103124 0.699108 255 129 0 0.587834
-0.070038 -0.106059 0.698762 255 135 0 0.577182
-0.066157 -0.105750 0.698253 255 139 0 0.570046
-0.068053 -0.109007 0.698335 255 129 0 0.587168
-0.070252 -0.110325 0.698914 255 133 0 0.581781
-0.072496 -0.111650 0.699495 255 129 0 0.588968
-0.070142 -0.114411 0.699114 255 137 0 0.571265
-0.072268 -0.107377 0.699282 255 129 0 0.588924
-0.055618 -0.132850 0.704258 255 131 0 0.584096
-0.057126 -0.134025 0.706008 255 133 0 0.579486
-0.054514 -0.135491 0.706732 255 127 0 0.592198
-0.056007 -0.136644 0.708477 255 141 0 0.563974
-0.058643 -0.135178 0.707753 255 133 0 0.579577
-0.060181 -0.136294 0.709528 255 133 0 0.579855
-0.061250 -0.133524 0.707008 255 122 0 0.598208
-0.059703 -0.132373 0.705220 255 133 0 0.580303
-0.058160 -0.131186 0.703469 255 135 0 0.574420
-0.062342 -0.130763 0.704431 255 133 0 0.581058
-0.053149 -0.137894 0.709415 255 135 0 0.574702
-0.054389 -0.138815 0.711359 255 133 0 0.578212
-0.051562 -0.140002 0.712150 255 135 0 0.577829
-0.058517 -0.138488 0.712366 255 133 0 0.578877
-0.057249 -0.137547 0.710435 255 133 0 0.578989
-0.063346 -0.138319 0.713846 255 133 0 0.579401
-0.063387 -0.136156 0.710453 255 133 0 0.580485
-0.065761 -0.137146 0.712816 255 133 0 0.580322
-0.060911 -0.139531 0.714802 255 133 0 0.579379
-0.067141 -0.134564 0.710055 255 131 0 0.585704
-0.066054 -0.133268 0.708357 255 129 0 0.586854
-0.064982 -0.131939 0.706624 255 133 0 0.581971
-0.068151 -0.131712 0.707485 255 131 0 0.583418
-0.067081 -0.130440 0.705729 255 131 0 0.583141
-0.062321 -0.134835 0.708735 255 127 0 0.592670
-0.094662 -0.135380 0.732275 255 139 0 0.567101
-0.095980 -0.133903 0.730513 255 139 0 0.568652
-0.097344 -0.132466 0.728692 255 137 0 0.570773
-0.094533 -0.133440 0.726471 255 137 0 0.573312
-0.091934 -0.136286 0.729972 255 139 0 0.569850
-0.092060 -0.137335 0.732815 255 139 0 0.567413
-0.092214 -0.138426 0.735663 255 139 0 0.567332
-0.089525 -0.139342 0.733282 255 135 0 0.577909
-0.099109 -0.128627 0.725247 255 137 0 0.573747
-0.099990 -0.126728 0.723494 255 147 0 0.553983
-0.100877 -0.124817 0.721722 255 135 0 0.577350
-0.098224 -0.125851 0.719511 255 133 0 0.580527
-0.097236 -0.127725 0.721331 255 133 0 0.578763
-0.096248 -0.129590 0.723125 255 135 0 0.576468
-0.096777 -0.131005 0.725922 255 145 0 0.556666
-0.093047 -0.127315 0.715945 255 131 0 0.584469
-0.092008 -0.129119 0.717753 255 131 0 0.585790
-0.092437 -0.130625 0.720344 255 133 0 0.580281
-0.091559 -0.132458 0.722002 255 133 0 0.578278
-0.092013 -0.134026 0.724571 255 135 0 0.575892
-0.089442 -0.134644 0.722616 255 133 0 0.578169
-0.094130 -0.131855 0.723897 255 135 0 0.575748
-0.094674 -0.128438 0.719540 255 139 0 0.566496
-0.095654 -0.126579 0.717737 255 131 0 0.582915
-0.089443 -0.135756 0.725322 255 135 0 0.575253
-0.086924 -0.137406 0.726051 255 135 0 0.575271
-0.089432 -0.136916 0.728006 255 137 0 0.572545
-0.086963 -0.138615 0.728695 255 137 0 0.573248
-0.087053 -0.139869 0.731323 255 137 0 0.573055
-0.084564 -0.140358 0.729321 255 135 0 0.574897
-0.089442 -0.138108 0.730662 255 156 0 0.536218
-0.091968 -0.135155 0.727297 255 137 0 0.572400
-0.081132 -0.129232 0.710168 255 145 0 0.556122
-0.081554 -0.127047 0.708884 255 129 0 0.588208
-0.080415 -0.125106 0.707247 255 129 0 0.588709
-0.080848 -0.122890 0.705957 255 135 0 0.575433
-0.079650 -0.120965 0.704282 255 129 0 0.589625
-0.082745 -0.120347 0.705105 255 149 0 0.550741
-0.077756 -0.123477 0.705115 255 129 0 0.588641
-0.076603 -0.121569 0.703409 255 122 0 0.599397
-0.077285 -0.125527 0.706303 255 129 0 0.589221
-0.076945 -0.127589 0.707447 255 129 0 0.586703
-0.078023 -0.129483 0.709137 255 129 0 0.586171
-0.074948 -0.129800 0.708037 255 139 0 0.568077
-0.082544 -0.117927 0.704214 255 127 0 0.591298
-0.080877 -0.115980 0.703049 255 127 0 0.591062
-0.080638 -0.113540 0.702214 255 139 0 0.568547
-0.077848 -0.114497 0.701485 255 122 0 0.600415
-0.077981 -0.116757 0.702266 255 135 0 0.577428
-0.078087 -0.119025 0.703038 255 139 0 0.567203
-0.071838 -0.116183 0.700178 255 129 0 0.588016
-0.070257 -0.118547 0.700489 255 129 0 0.586921
-0.073469 -0.117970 0.701241 255 137 0 0.573958
-0.071860 -0.120335 0.701608 255 125 0 0.595820
-0.073446 -0.122112 0.702715 255 129 0 0.587899
-0.070321 -0.122655 0.701935 255 129 0 0.586625
-0.075039 -0.119763 0.702338 255 135 0 0.577952
-0.074799 -0.115283 0.700778 255 125 0 0.594650
-0.071521 -0.124455 0.703465 255 129 0 0.586609
-0.069476 -0.126496 0.704058 255 131 0 0.585287
-0.072695 -0.126248 0.704974 255 129 0 0.586434
-0.070669 -0.128274 0.705601 255 131 0 0.585216
-0.071795 -0.130042 0.707127 255 135 0 0.577822
-0.073873 -0.128024 0.706502 255 129 0 0.586222
-0.074604 -0.123907 0.704238 255 133 0 0.581464
-0.060751 -0.104067 0.697995 255 131 0 0.584732
-0.058998 -0.106680 0.697290 255 143 0 0.558655
-0.061031 -0.109506 0.697064 255 131 0 0.584296
-0.062929 -0.106909 0.697719 255 131 0 0.585329
-0.053770 -0.106599 0.696798 255 139 0 0.566693
-0.053524 -0.109970 0.696316 255 139 0 0.567027
-0.056645 -0.110797 0.696504 255 139 0 0.569676
-0.057816 -0.108737 0.696890 255 131 0 0.583301
-0.056212 -0.116126 0.696824 255 133 0 0.581793
-0.058989 -0.117281 0.697369 255 131 0 0.582696
-0.057771 -0.113915 0.696919 255 131 0 0.582614
-0.060611 -0.115063 0.697454 255 139 0 0.569641
-0.062264 -0.112819 0.697510 255 139 0 0.570214
-0.063508 -0.116187 0.697993 255 131 0 0.584612
-0.059393 -0.111719 0.696988 255 141 0 0.565325
-0.055083 -0.112976 0.696425 255 129 0 0.588585
-0.066088 -0.113500 0.698308 255 133 0 0.578840
-0.067125 -0.111252 0.698325 255 129 0 0.586546
-0.064749 -0.110066 0.697827 255 139 0 0.568586
-0.056911 -0.119674 0.697609 255 135 0 0.575255
-0.059153 -0.121018 0.698547 255 139 0 0.568955
-0.057125 -0.123079 0.698717 255 133 0 0.580225
-0.059344 -0.124401 0.699702 255 129 0 0.589771
-0.061436 -0.122366 0.699504 255 129 0 0.587848
-0.063724 -0.123700 0.700488 255 131 0 0.583649
-0.063586 -0.119931 0.699215 255 135 0 0.574847
-0.061265 -0.118617 0.698279 255 131 0 0.583517
-0.056940 -0.126579 0.700234 255 131 0 0.583523
-0.058740 -0.127986 0.701625 255 129 0 0.587343
-0.056389 -0.129793 0.702065 255 133 0 0.580202
-0.060533 -0.129393 0.703004 255 127 0 0.591751
-0.063019 -0.127227 0.702464 255 131 0 0.582546
-0.061177 -0.125826 0.701063 255 122 0 0.597787
-0.066235 -0.127026 0.703316 255 131 0 0.583941
-0.068246 -0.124846 0.702654 255 139 0 0.568244
-0.066994 -0.123178 0.701257 255 133 0 0.579568
-0.064986 -0.125367 0.701909 255 131 0 0.583841
-0.064258 -0.128887 0.703883 255 133 0 0.581004
-0.068634 -0.121049 0.700938 255 129 0 0.586245
-0.066900 -0.119418 0.699931 255 147 0 0.554084
-0.068547 -0.116924 0.699539 255 129 0 0.586550
-0.065219 -0.117785 0.698958 255 131 0 0.585153
-0.065298 -0.121572 0.700231 255 137 0 0.573964
-0.078910 -0.130867 0.711102 255 131 0 0.585063
-0.076685 -0.132509 0.711972 255 131 0 0.584031
-0.075860 -0.131128 0.709985 255 131 0 0.584859
-0.073715 -0.132811 0.710798 255 131 0 0.583688
-0.074570 -0.134209 0.712759 255 133 0 0.580886
-0.072499 -0.135952 0.713504 255 147 0 0.554074
-0.075350 -0.135863 0.714807 255 131 0 0.582364
-0.077441 -0.134141 0.714056 255 131 0 0.582789
-0.079646 -0.132491 0.713162 255 131 0 0.584062
-0.078219 -0.135818 0.716079 255 131 0 0.582264
-0.072825 -0.131299 0.708913 255 131 0 0.584030
-0.070705 -0.132837 0.709779 255 139 0 0.569038
-0.068074 -0.136002 0.711893 255 133 0 0.580885
-0.071592 -0.134383 0.711657 255 131 0 0.582427
-0.065552 -0.139376 0.716350 255 133 0 0.579881
-0.067823 -0.138180 0.715455 255 133 0 0.579893
-0.068375 -0.139463 0.717568 255 120 0 0.605037
-0.070669 -0.138278 0.716623 255 133 0 0.580976
-0.070134 -0.137044 0.714498 255 133 0 0.580986
-0.071192 -0.139509 0.718860 255 133 0 0.580301
-0.073481 -0.138223 0.717982 255 145 0 0.558111
-0.073852 -0.139608 0.720275 255 133 0 0.580233
-0.076184 -0.138328 0.719352 255 133 0 0.580509
-0.075846 -0.136995 0.717054 255 135 0 0.574291
-0.072979 -0.137063 0.715734 255 133 0 0.581192
-0.093484 -0.124835 0.714440 255 143 0 0.561330
-0.092629 -0.122741 0.712114 255 129 0 0.588911
-0.093029 -0.120234 0.710629 255 156 0 0.535425
-0.091938 -0.118065 0.708506 255 145 0 0.557019
-0.094884 -0.117236 0.709749 255 129 0 0.589445
-0.090102 -0.121031 0.709312 255 127 0 0.590015
-0.088921 -0.118916 0.707215 255 129 0 0.589385
-0.089732 -0.123420 0.710691 255 129 0 0.589744
-0.089197 -0.125791 0.712172 255 129 0 0.588259
-0.090230 -0.127866 0.714346 255 129 0 0.586178
-0.087282 -0.128438 0.712787 255 137 0 0.573515
-0.094575 -0.114441 0.708703 255 127 0 0.590522
-0.092792 -0.112194 0.707151 255 131 0 0.585702
-0.092278 -0.109375 0.706249 255 139 0 0.569051
-0.089510 -0.110573 0.705105 255 127 0 0.591376
-0.089882 -0.113209 0.705977 255 141 0 0.564914
-0.090205 -0.115846 0.706880 255 141 0 0.563749
-0.083688 -0.112655 0.703075 255 127 0 0.591213
-0.083924 -0.115101 0.703889 255 139 0 0.569630
-0.085740 -0.117165 0.705245 255 135 0 0.576701
-0.085821 -0.119617 0.706186 255 127 0 0.592579
-0.086993 -0.114173 0.704805 255 127 0 0.591821
-0.086544 -0.111552 0.704016 255 141 0 0.564187
-0.084035 -0.122370 0.706924 255 153 0 0.540218
-0.083551 -0.124614 0.708251 255 143 0 0.560999
-0.084663 -0.126611 0.710206 255 129 0 0.588082
-0.084219 -0.128825 0.711494 255 129 0 0.586823
-0.086666 -0.124049 0.709446 255 129 0 0.589335
-0.087024 -0.121666 0.708059 255 127 0 0.590535
-0.074102 -0.142090 0.725069 255 133 0 0.579918
-0.074000 -0.143124 0.727588 255 133 0 0.579752
-0.071337 -0.144171 0.728510 255 131 0 0.583422
-0.071240 -0.145259 0.731010 255 133 0 0.580236
-0.073900 -0.144184 0.730094 255 133 0 0.579498
-0.073756 -0.145235 0.732608 255 133 0 0.579212
-0.076565 -0.143039 0.729212 255 139 0 0.566898
-0.076709 -0.142023 0.726681 255 133 0 0.578715
-0.076831 -0.141001 0.724144 255 133 0 0.579519
-0.079407 -0.140947 0.725737 255 133 0 0.578205
-0.068145 -0.145922 0.731796 255 137 0 0.573990
-0.066380 -0.146515 0.733427 255 133 0 0.580536
-0.065831 -0.147151 0.735839 255 133 0 0.580303
-0.068286 -0.147162 0.737441 255 133 0 0.579899
-0.068829 -0.146554 0.735010 255 133 0 0.580361
-0.070661 -0.145917 0.733407 255 139 0 0.570070
-0.072699 -0.146928 0.740949 255 133 0 0.578587
-0.073429 -0.146394 0.738465 255 133 0 0.578514
-0.075409 -0.145682 0.736884 255 143 0 0.558599
-0.076143 -0.145082 0.734391 255 133 0 0.578404
-0.078545 -0.144868 0.736191 255 133 0 0.578707
-0.072996 -0.145889 0.735066 255 133 0 0.579382
-0.071151 -0.146542 0.736669 255 133 0 0.579306
-0.070421 -0.147111 0.739152 255 131 0 0.582660
-0.080038 -0.143709 0.734526 255 135 0 0.575867
-0.080251 -0.142727 0.731894 255 135 0 0.575774
-0.081751 -0.141601 0.730171 255 135 0 0.574940
-0.082016 -0.140669 0.727536 255 151 0 0.543447
-0.079190 -0.141905 0.728368 255 135 0 0.577051
-0.076343 -0.144060 0.731793 255 133 0 0.580293
-0.081840 -0.130738 0.712402 255 131 0 0.585188
-0.082581 -0.132261 0.714604 255 131 0 0.583784
-0.080352 -0.134006 0.715426 255 147 0 0.551920
-0.081096 -0.135619 0.717618 255 133 0 0.581529
-0.083269 -0.133831 0.716852 255 141 0 0.564175
-0.083931 -0.135435 0.719097 255 133 0 0.581194
-0.085528 -0.131872 0.716015 255 131 0 0.584201
-0.084895 -0.130346 0.713729 255 147 0 0.552557
-0.078551 -0.137024 0.718526 255 145 0 0.558050
-0.078853 -0.138296 0.720947 255 129 0 0.586002
-0.076535 -0.139660 0.721769 255 133 0 0.580182
-0.079120 -0.139608 0.723357 255 133 0 0.578870
-0.081611 -0.138107 0.722531 255 133 0 0.578409
-0.081368 -0.136845 0.720065 255 129 0 0.586728
-0.084381 -0.139074 0.726792 255 135 0 0.575220
-0.084251 -0.137845 0.724233 255 135 0 0.577094
-0.086813 -0.136198 0.723472 255 135 0 0.576940
-0.086724 -0.135044 0.720846 255 149 0 0.548095
-0.084119 -0.136634 0.721674 255 133 0 0.579046
-0.081830 -0.139357 0.725008 255 135 0 0.577210
-0.088924 -0.133042 0.720151 255 133 0 0.580414
-0.089760 -0.131206 0.718530 255 137 0 0.571639
-0.089267 -0.129684 0.716033 255 147 0 0.550783
-0.086140 -0.133442 0.718425 255 133 0 0.582028
-0.084094 -0.141279 0.732077 255 137 0 0.573848
-0.082573 -0.142399 0.733803 255 137 0 0.574131
-0.082151 -0.143358 0.736538 255 137 0 0.574179
-0.080695 -0.144492 0.738225 255 145 0 0.557081
-0.082799 -0.144137 0.740279 255 135 0 0.574526
-0.084450 -0.142880 0.738583 255 137 0 0.572865
-0.084879 -0.141943 0.735830 255 137 0 0.572306
-0.086559 -0.140747 0.734058 255 137 0 0.571433
-0.077394 -0.145499 0.738817 255 135 0 0.577518
-0.075444 -0.146193 0.740388 255 135 0 0.577766
-0.074303 -0.146746 0.743010 255 133 0 0.579841
-0.076156 -0.146431 0.745067 255 129 0 0.586490
-0.077300 -0.145907 0.742456 255 135 0 0.576926
-0.079512 -0.145123 0.740853 255 116 0 0.609949
-0.078766 -0.145690 0.749243 255 135 0 0.576170
-0.081214 -0.144836 0.747625 255 151 0 0.544846
-0.082579 -0.144314 0.744622 255 131 0 0.583607
-0.085061 -0.143404 0.742919 255 143 0 0.560731
-0.079240 -0.145481 0.744918 255 143 0 0.560731
-0.087819 -0.141823 0.742490 255 137 0 0.572490
-0.089721 -0.140499 0.740646 255 153 0 0.542128
-0.090294 -0.139664 0.737567 255 139 0 0.567646
-0.087239 -0.141319 0.738135 255 151 0 0.543149
-0.102686 -0.121671 0.721151 255 135 0 0.577914
-0.101960 -0.119594 0.718215 255 131 0 0.582129
-0.103578 -0.116384 0.717708 255 135 0 0.576593
-0.102645 -0.114231 0.714989 255 137 0 0.571412
-0.101095 -0.117507 0.715444 255 131 0 0.584889
-0.100082 -0.115371 0.712819 255 129 0 0.586963
-0.099264 -0.120701 0.716079 255 131 0 0.584684
-0.100061 -0.122763 0.718911 255 133 0 0.580878
-0.103658 -0.110576 0.714819 255 131 0 0.585905
-0.101976 -0.108109 0.712672 255 129 0 0.587948
-0.102453 -0.104322 0.712944 255 133 0 0.581173
-0.100075 -0.105669 0.710689 255 137 0 0.573238
-0.099357 -0.109329 0.710580 255 151 0 0.545382
-0.101119 -0.111783 0.712646 255 129 0 0.587368
-0.095034 -0.108234 0.707545 255 127 0 0.590629
-0.095566 -0.111106 0.708400 255 141 0 0.565460
-0.097257 -0.113471 0.710168 255 129 0 0.589572
-0.097565 -0.116302 0.711235 255 141 0 0.565153
-0.097505 -0.106966 0.709014 255 153 0 0.539735
-0.095952 -0.119425 0.711974 255 135 0 0.575364
-0.095399 -0.121977 0.713631 255 143 0 0.558779
-0.096249 -0.124099 0.716044 255 145 0 0.556460
-0.098446 -0.118533 0.713616 255 133 0 0.579901
-0.110816 -0.075423 0.741245 255 137 0 0.573223
-0.110918 -0.077539 0.740028 255 135 0 0.575518
-0.107345 -0.074933 0.739046 255 139 0 0.568174
-0.111074 -0.079590 0.738743 255 135 0 0.575761
-0.107460 -0.077031 0.737854 255 145 0 0.558086
-0.107639 -0.079104 0.736590 255 135 0 0.577440
-0.103899 -0.074432 0.736878 255 187 0 0.477803
-0.111184 -0.081688 0.737462 255 133 0 0.578780
-0.111351 -0.083741 0.736077 255 133 0 0.579133
-0.114394 -0.083703 0.738458 255 133 0 0.580256
-0.114197 -0.081644 0.739843 255 133 0 0.581529
-0.114088 -0.079590 0.741203 255 151 0 0.545157
-0.117449 -0.083671 0.740949 255 172 0 0.506607
-0.101512 -0.073874 0.735323 255 199 0 0.455405
-0.104303 -0.076954 0.735206 255 141 0 0.563680
-0.101939 -0.076360 0.733595 255 145 0 0.555407
-0.099076 -0.073256 0.733696 255 151 0 0.544943
-0.104764 -0.079400 0.733382 255 178 0 0.494124
-0.099534 -0.075767 0.731941 255 149 0 0.548905
-0.102392 -0.078846 0.731764 255 143 0 0.559174
-0.096794 -0.072631 0.732093 255 102 0 0.638421
-0.105277 -0.081846 0.731463 255 176 0 0.499755
-0.108603 -0.084021 0.732829 255 149 0 0.550234
-0.108162 -0.081586 0.734732 255 153 0 0.539287
-0.114140 -0.092142 0.732811 255 131 0 0.583343
-0.115789 -0.094778 0.732828 255 131 0 0.584841
-0.112342 -0.089531 0.732769 255 149 0 0.548896
-0.115061 -0.088852 0.736171 255 131 0 0.584168
-0.116791 -0.091397 0.736216 255 131 0 0.585089
-0.118578 -0.094016 0.736198 255 129 0 0.586878
-0.111875 -0.086659 0.734438 255 133 0 0.581756
-0.119783 -0.091041 0.738687 255 164 0 0.521994
-0.121462 -0.093345 0.738767 255 129 0 0.587429
-0.118071 -0.088785 0.738625 255 145 0 0.558331
-0.120910 -0.088125 0.741245 255 151 0 0.546835
-0.122610 -0.090350 0.741325 255 129 0 0.586570
-0.124322 -0.092604 0.741380 255 131 0 0.583848
-0.117763 -0.086234 0.739804 255 125 0 0.596407
-0.114720 -0.086281 0.737382 255 151 0 0.543117
-0.124334 -0.095466 0.740385 255 127 0 0.590809
-0.124164 -0.098403 0.739527 255 127 0 0.591129
-0.121414 -0.096174 0.737859 255 129 0 0.589162
-0.121212 -0.099103 0.737037 255 114 0 0.615049
-0.123894 -0.101360 0.738778 255 137 0 0.572904
-0.123448 -0.104378 0.738143 255 127 0 0.590157
-0.126471 -0.102936 0.740544 255 127 0 0.593488
-0.126858 -0.099922 0.741261 255 114 0 0.613304
-0.127103 -0.096944 0.742123 255 127 0 0.591475
-0.129492 -0.101495 0.743021 255 127 0 0.593091
-0.118493 -0.097178 0.734910 255 129 0 0.588693
-0.118302 -0.100427 0.733758 255 133 0 0.581623
-0.119400 -0.103073 0.734319 255 127 0 0.591709
-0.120387 -0.105725 0.734969 255 145 0 0.554760
-0.121269 -0.113176 0.738114 255 125 0 0.596155
-0.122701 -0.109962 0.738542 255 125 0 0.596149
-0.123319 -0.114485 0.740627 255 125 0 0.596214
-0.124754 -0.111246 0.741042 255 125 0 0.596649
-0.120736 -0.108338 0.736005 255 120 0 0.603361
-0.126766 -0.112568 0.743159 255 125 0 0.596148
-0.128075 -0.109553 0.743274 255 135 0 0.576877
-0.129216 -0.106531 0.743479 255 122 0 0.600748
-0.130194 -0.110561 0.745320 255 135 0 0.577805
-0.131432 -0.107520 0.745513 255 135 0 0.574616
-0.125553 -0.105935 0.740227 255 125 0 0.595435
-0.119590 -0.118132 0.739010 255 125 0 0.595762
-0.121295 -0.119022 0.741563 255 135 0 0.576413
-0.118844 -0.122055 0.741598 255 127 0 0.593168
-0.120587 -0.122925 0.744139 255 143 0 0.560053
-0.122990 -0.119861 0.744151 255 135 0 0.574554
-0.124628 -0.120694 0.746726 255 125 0 0.594626
-0.124886 -0.117117 0.744389 255 139 0 0.567895
-0.118426 -0.125180 0.744769 255 125 0 0.593898
-0.117608 -0.126835 0.747088 255 137 0 0.572394
-0.120523 -0.125322 0.747832 255 147 0 0.553857
-0.116696 -0.128514 0.749385 255 131 0 0.584012
-0.119626 -0.127005 0.750147 255 127 0 0.593393
-0.118650 -0.128658 0.752455 255 131 0 0.585539
-0.115799 -0.130193 0.751671 255 114 0 0.616912
-0.122456 -0.125446 0.750936 255 127 0 0.593358
-0.121497 -0.127105 0.753208 255 127 0 0.591777
-0.124303 -0.125451 0.754001 255 127 0 0.591657
-0.124530 -0.123058 0.750351 255 131 0 0.583963
-0.122617 -0.123005 0.747276 255 143 0 0.558989
-0.132133 -0.120467 0.757035 255 129 0 0.588975
-0.130390 -0.120572 0.754424 255 129 0 0.589283
-0.132158 -0.118233 0.753957 255 139 0 0.567414
-0.128552 -0.120671 0.751878 255 127 0 0.591769
-0.130373 -0.118334 0.751346 255 139 0 0.567895
-0.128475 -0.118387 0.748770 255 135 0 0.576946
-0.132189 -0.115990 0.750859 255 127 0 0.592246
-0.126604 -0.120700 0.749283 255 125 0 0.594169
-0.126464 -0.123059 0.752903 255 143 0 0.561859
-0.128321 -0.122978 0.755433 255 139 0 0.568543
-0.130472 -0.115405 0.748665 255 135 0 0.577680
-0.132107 -0.112782 0.748675 255 131 0 0.583256
-0.128714 -0.114797 0.746447 255 125 0 0.594837
-0.126720 -0.117757 0.746574 255 129 0 0.588347
-0.130486 -0.122135 0.759106 255 129 0 0.586116
-0.128739 -0.123828 0.761233 255 129 0 0.587180
-0.126603 -0.124695 0.757595 255 129 0 0.588886
-0.124932 -0.126377 0.759695 255 129 0 0.586457
-0.127143 -0.125500 0.763300 255 158 0 0.535115
-0.125518 -0.127176 0.765406 255 116 0 0.612431
-0.129257 -0.124861 0.765718 255 135 0 0.578033
-0.130905 -0.123184 0.763629 255 133 0 0.580168
-0.132564 -0.121501 0.761545 255 131 0 0.585228
-0.133005 -0.122557 0.766071 255 127 0 0.592970
-0.122146 -0.127184 0.757311 255 127 0 0.591782
-0.119455 -0.128836 0.756519 255 141 0 0.564368
-0.120115 -0.128875 0.760558 255 147 0 0.554086
-0.116678 -0.130396 0.755756 255 127 0 0.591047
-0.117426 -0.130553 0.759791 255 129 0 0.589679
-0.118030 -0.130594 0.763824 255 131 0 0.584435
-0.118437 -0.131030 0.766605 255 108 0 0.625426
-0.120454 -0.129332 0.763387 255 131 0 0.584395
-0.120731 -0.129776 0.766217 255 133 0 0.579385
-0.122853 -0.128052 0.762938 255 131 0 0.583975
-0.122505 -0.127634 0.760147 255 129 0 0.587895
-0.123138 -0.128475 0.765773 255 133 0 0.578791
-0.120676 -0.130168 0.781118 255 145 0 0.554718
-0.120076 -0.130184 0.777796 255 172 0 0.506783
-0.122350 -0.129049 0.776971 255 143 0 0.562129
-0.122920 -0.129027 0.780278 255 98 0 0.648176
-0.121806 -0.129112 0.773657 255 141 0 0.565817
-0.124648 -0.127942 0.776126 255 139 0 0.566408
-0.124176 -0.127985 0.772791 255 139 0 0.568769
-0.126459 -0.126892 0.771966 255 127 0 0.591704
-0.125156 -0.127927 0.779470 255 110 0 0.624429
-0.126998 -0.126815 0.775301 255 141 0 0.565418
-0.127431 -0.126829 0.778672 255 147 0 0.554264
-0.123578 -0.128124 0.769538 255 137 0 0.574050
-0.126011 -0.127016 0.768668 255 153 0 0.540381
-0.121347 -0.129417 0.769868 255 87 0 0.667964
-0.119002 -0.130733 0.770271 255 67 0 0.703241
-0.119543 -0.130441 0.773984 255 110 0 0.623123
-0.130584 -0.124722 0.775029 255 139 0 0.568607
-0.131067 -0.124847 0.777689 255 139 0 0.568005
-0.130080 -0.124628 0.772402 255 137 0 0.570669
-0.133785 -0.122674 0.771394 255 135 0 0.577868
-0.134188 -0.122800 0.774087 255 139 0 0.568307
-0.134614 -0.122943 0.776779 255 160 0 0.528109
-0.131597 -0.123556 0.769211 255 151 0 0.544536
-0.121373 -0.129708 0.784116 255 145 0 0.556681
-0.122067 -0.129115 0.787514 255 133 0 0.581732
-0.124268 -0.128142 0.786286 255 139 0 0.567142
-0.122759 -0.128506 0.790914 255 129 0 0.589489
-0.124960 -0.127582 0.789716 255 135 0 0.575377
-0.125677 -0.126966 0.793148 255 120 0 0.603040
-0.123476 -0.127827 0.794321 255 135 0 0.576904
-0.127171 -0.126663 0.788571 255 106 0 0.629206
-0.127885 -0.126079 0.792026 255 131 0 0.583910
-0.130113 -0.125177 0.790921 255 129 0 0.585965
-0.129401 -0.125611 0.787846 255 120 0 0.605291
-0.126455 -0.127110 0.785533 255 139 0 0.569999
-0.128727 -0.126008 0.784768 255 137 0 0.573072
-0.125796 -0.127513 0.782481 255 141 0 0.565127
-0.123586 -0.128587 0.783277 255 141 0 0.563873
-0.128071 -0.126408 0.781707 255 139 0 0.568622
-0.124471 -0.126929 0.797001 255 129 0 0.587345
-0.125524 -0.125896 0.800006 255 125 0 0.596654
-0.127640 -0.125293 0.798623 255 108 0 0.627154
-0.126627 -0.124833 0.803038 255 118 0 0.606573
-0.128751 -0.124258 0.801674 255 92 0 0.657576
-0.130902 -0.123660 0.800355 255 116 0 0.610989
-0.133143 -0.122880 0.799295 255 116 0 0.612067
-0.129860 -0.124537 0.797594 255 122 0 0.601485
-0.132096 -0.123712 0.796516 255 106 0 0.632188
-0.128843 -0.125345 0.794816 255 127 0 0.590907
-0.126629 -0.126163 0.795892 255 127 0 0.589918
-0.131100 -0.124463 0.793719 255 125 0 0.594357
-0.140056 -0.120193 0.795249 255 112 0 0.619890
-0.137294 -0.121554 0.793494 255 116 0 0.609870
-0.136333 -0.122139 0.790917 255 122 0 0.601393
-0.133647 -0.123557 0.789218 255 116 0 0.611013
-0.137218 -0.121882 0.787482 255 127 0 0.590750
-0.136551 -0.121609 0.797132 255 114 0 0.614564
-0.136509 -0.122147 0.784799 255 133 0 0.581599
-0.134026 -0.123349 0.782574 255 137 0 0.573522
-0.133423 -0.123585 0.779886 255 149 0 0.549759
-0.132940 -0.123915 0.786085 255 133 0 0.580978
-0.095427 -0.021535 0.781503 255 168 0 0.513252
-0.096600 -0.023461 0.779548 255 120 0 0.601674
-0.093691 -0.023191 0.777960 255 120 0 0.604545
-0.094822 -0.025214 0.776084 255 137 0 0.572009
-0.097776 -0.025449 0.777603 255 129 0 0.588029
-0.098946 -0.027477 0.775679 255 100 0 0.644415
-0.100341 -0.025933 0.778605 255 129 0 0.586354
-0.099140 -0.023969 0.780579 255 92 0 0.658311
-0.092301 -0.024971 0.774811 255 129 0 0.587904
-0.093863 -0.027041 0.773249 255 104 0 0.634504
-0.090930 -0.027007 0.771487 255 129 0 0.587956
-0.092437 -0.029156 0.769957 255 122 0 0.598148
-0.095426 -0.029165 0.771658 255 122 0 0.601233
-0.097013 -0.031278 0.770053 255 98 0 0.644540
-0.097988 -0.029325 0.772830 255 189 0 0.474286
-0.096410 -0.027259 0.774452 255 106 0 0.632469
-0.105145 -0.035718 0.770363 255 120 0 0.604807
-0.103607 -0.033492 0.771654 255 131 0 0.584855
-0.102065 -0.031380 0.772977 255 102 0 0.638710
-0.104190 -0.031688 0.774058 255 133 0 0.581791
-0.102654 -0.029662 0.775387 255 131 0 0.582446
-0.100487 -0.029407 0.774328 255 129 0 0.586692
-0.099540 -0.031321 0.771501 255 127 0 0.590525
-0.101093 -0.033384 0.770173 255 127 0 0.591847
-0.106841 -0.031353 0.776367 255 135 0 0.574600
-0.105714 -0.029388 0.777959 255 135 0 0.577345
-0.104562 -0.027519 0.779555 255 133 0 0.579461
-0.107865 -0.030028 0.778843 255 137 0 0.572145
-0.101489 -0.027779 0.776991 255 118 0 0.605492
-0.117003 -0.038101 0.775810 255 147 0 0.554231
-0.113799 -0.035731 0.776588 255 145 0 0.556265
-0.112947 -0.037055 0.774416 255 131 0 0.582895
-0.117839 -0.040463 0.773593 255 145 0 0.555975
-0.112588 -0.033845 0.777799 255 143 0 0.560480
-0.107979 -0.033198 0.774929 255 137 0 0.573532
-0.108858 -0.037237 0.771231 255 139 0 0.569438
-0.112523 -0.038797 0.772289 255 147 0 0.553318
-0.110395 -0.039382 0.770163 255 116 0 0.612257
-0.109356 -0.035400 0.773503 255 137 0 0.571262
-0.113773 -0.041634 0.770010 255 125 0 0.594430
-0.115813 -0.041078 0.771734 255 137 0 0.571383
-0.119058 -0.043179 0.771443 255 145 0 0.556880
-0.117013 -0.043670 0.769702 255 143 0 0.560049
-0.109792 -0.055830 0.755087 255 139 0 0.569569
-0.106772 -0.056045 0.753277 255 187 0 0.476591
-0.103653 -0.056217 0.751470 255 36 0 0.761818
-0.103862 -0.053674 0.753342 255 141 0 0.565915
-0.106556 -0.058538 0.751384 255 172 0 0.505811
-0.109330 -0.060572 0.751408 255 133 0 0.581760
-0.109592 -0.058263 0.753285 255 131 0 0.585667
-0.112316 -0.060309 0.753338 255 139 0 0.569023
-0.099227 -0.051871 0.752322 255 182 0 0.485280
-0.096735 -0.050911 0.751819 255 149 0 0.548038
-0.098968 -0.054566 0.750190 255 207 0 0.438379
-0.096483 -0.053569 0.749635 255 182 0 0.484674
-0.094338 -0.049956 0.751286 255 168 0 0.512475
-0.100963 -0.057855 0.748722 255 187 0 0.479310
-0.103118 -0.063741 0.745463 255 153 0 0.539410
-0.103240 -0.061327 0.747433 255 156 0 0.537144
-0.106271 -0.063447 0.747672 255 149 0 0.549818
-0.109304 -0.065465 0.747941 255 145 0 0.557637
-0.106409 -0.060948 0.749581 255 172 0 0.505461
-0.112114 -0.065015 0.749864 255 149 0 0.549112
-0.114979 -0.064528 0.751775 255 164 0 0.520903
-0.114972 -0.066831 0.750083 255 141 0 0.564637
-0.112165 -0.062693 0.751538 255 209 0 0.435030
-0.109291 -0.063071 0.749705 255 145 0 0.557724
-0.105345 -0.044970 0.761825 255 122 0 0.600140
-0.101252 -0.044240 0.760065 255 114 0 0.613947
-0.097182 -0.043671 0.758365 255 92 0 0.656837
-0.098420 -0.041761 0.760727 255 114 0 0.616023
-0.100045 -0.046139 0.757688 255 104 0 0.634183
-0.102823 -0.048515 0.757154 255 127 0 0.591860
-0.104113 -0.046760 0.759451 255 81 0 0.679256
-0.106701 -0.048988 0.759080 255 139 0 0.569735
-0.093636 -0.039907 0.759989 255 77 0 0.685790
-0.091704 -0.040416 0.758528 255 104 0 0.634565
-0.089257 -0.039443 0.758089 255 110 0 0.622335
-0.090370 -0.042325 0.755920 217 0 0 0.853869
-0.092746 -0.043241 0.756443 255 87 0 0.667464
-0.095191 -0.044171 0.756905 255 71 0 0.696341
-0.095087 -0.047857 0.753579 255 133 0 0.578994
-0.097483 -0.048758 0.754087 255 131 0 0.583334
-0.099977 -0.049741 0.754584 235 3 0 0.826890
-0.092620 -0.046882 0.753090 255 87 0 0.664095
-0.104515 -0.051648 0.755480 255 143 0 0.559655
-0.107197 -0.053760 0.755276 255 145 0 0.556347
-0.107805 -0.051661 0.757390 255 135 0 0.574358
-0.102893 -0.035657 0.768953 255 129 0 0.588423
-0.100591 -0.035722 0.767625 255 125 0 0.595131
-0.098790 -0.033457 0.768837 255 87 0 0.666162
-0.096483 -0.033525 0.767480 255 114 0 0.614998
-0.098257 -0.035743 0.766297 255 118 0 0.606061
-0.095943 -0.035764 0.764921 255 34 0 0.767344
-0.100284 -0.037802 0.765450 255 122 0 0.599976
-0.102644 -0.037793 0.766747 255 110 0 0.623725
-0.104945 -0.037862 0.768113 255 137 0 0.573666
-0.104741 -0.040065 0.765919 255 131 0 0.585260
-0.094295 -0.031466 0.768535 255 118 0 0.608063
-0.091625 -0.031539 0.766957 255 94 0 0.653146
-0.089787 -0.029281 0.768393 255 127 0 0.590756
-0.088948 -0.031692 0.765435 255 129 0 0.589480
-0.091055 -0.033765 0.764442 255 118 0 0.607433
-0.093727 -0.033711 0.765993 255 110 0 0.622455
-0.088674 -0.036786 0.760285 255 127 0 0.590110
-0.091109 -0.037731 0.760752 255 100 0 0.644343
-0.093515 -0.037387 0.762276 255 92 0 0.656485
-0.096040 -0.038309 0.762650 255 52 0 0.732287
-0.088666 -0.034167 0.762902 255 122 0 0.598362
-0.100564 -0.041595 0.762113 255 102 0 0.637945
-0.102742 -0.041418 0.763487 255 114 0 0.616662
-0.098162 -0.038067 0.764057 255 116 0 0.611934
-0.115328 -0.044620 0.767905 255 141 0 0.563518
-0.111987 -0.042550 0.768207 255 127 0 0.591777
-0.111886 -0.044533 0.766299 255 141 0 0.565567
-0.115130 -0.046441 0.766157 255 129 0 0.588171
-0.118516 -0.046604 0.767836 255 143 0 0.561989
-0.118360 -0.048391 0.766089 255 151 0 0.546188
-0.108491 -0.040346 0.767956 255 118 0 0.607612
-0.108367 -0.042352 0.766017 255 139 0 0.570287
-0.108837 -0.045830 0.763122 255 133 0 0.580308
-0.112183 -0.046670 0.764481 255 139 0 0.567825
-0.110753 -0.047875 0.762480 255 137 0 0.571113
-0.106883 -0.043635 0.763892 255 122 0 0.601279
-0.114055 -0.049666 0.762731 255 125 0 0.597025
-0.117099 -0.050423 0.763611 255 139 0 0.567444
-0.118795 -0.052279 0.762919 255 133 0 0.579571
-0.112591 -0.055848 0.756595 255 137 0 0.573291
-0.115294 -0.055874 0.758089 255 151 0 0.544801
-0.114873 -0.057698 0.756282 255 147 0 0.554664
-0.112988 -0.053993 0.758384 255 137 0 0.572547
-0.110608 -0.051796 0.758790 255 137 0 0.573680
-0.110228 -0.053838 0.756962 255 143 0 0.559919
-0.118035 -0.058852 0.756876 255 135 0 0.577352
-0.120476 -0.058886 0.757933 255 135 0 0.574453
-0.122625 -0.060524 0.757506 255 137 0 0.573748
-0.119367 -0.056726 0.759222 255 174 0 0.503095
-0.117194 -0.054780 0.759764 255 143 0 0.560607
-0.116423 -0.052806 0.761154 255 137 0 0.570923
-0.113664 -0.052259 0.760295 255 137 0 0.572091
-0.119500 -0.054263 0.761483 255 141 0 0.563709
-0.109824 -0.049536 0.760409 255 137 0 0.573800
-0.107634 -0.047267 0.761090 255 135 0 0.575879
-0.121214 -0.062139 0.755926 255 135 0 0.576332
-0.118161 -0.061088 0.755553 255 149 0 0.547648
-0.119765 -0.063748 0.754350 255 135 0 0.576040
-0.122828 -0.064603 0.754753 255 135 0 0.575964
-0.124244 -0.063052 0.756365 255 158 0 0.533547
-0.125828 -0.065508 0.755167 255 151 0 0.543895
-0.114877 -0.060048 0.754711 255 151 0 0.543301
-0.112341 -0.057959 0.754895 255 145 0 0.558451
-0.114818 -0.062218 0.753098 255 168 0 0.515405
-0.118535 -0.067675 0.751226 255 170 0 0.508861
-0.118360 -0.065531 0.752609 255 137 0 0.570776
-0.120907 -0.067236 0.752549 255 141 0 0.564042
-0.123433 -0.068894 0.752465 255 137 0 0.573241
-0.126404 -0.069558 0.752826 255 149 0 0.550190
-0.124687 -0.067207 0.753822 255 147 0 0.553864
-0.127643 -0.067903 0.754215 255 135 0 0.576048
-0.129372 -0.070253 0.753229 255 156 0 0.537578
-0.124714 -0.076926 0.748180 255 160 0 0.530841
-0.122685 -0.078394 0.746657 255 137 0 0.572494
-0.120766 -0.079820 0.745041 255 137 0 0.570511
-0.119524 -0.076426 0.745906 255 189 0 0.475222
-0.124024 -0.081792 0.745765 255 153 0 0.540543
-0.127021 -0.083216 0.746281 255 160 0 0.530091
-0.125873 -0.080095 0.747324 255 135 0 0.577551
-0.128909 -0.081580 0.747904 255 141 0 0.565521
-0.116122 -0.076050 0.744136 255 141 0 0.564747
-0.117763 -0.078127 0.744161 255 137 0 0.571827
-0.119093 -0.081762 0.743006 255 170 0 0.510050
-0.122187 -0.083463 0.743924 255 135 0 0.577365
-0.125714 -0.089872 0.743228 255 135 0 0.576508
-0.125551 -0.087584 0.744183 255 131 0 0.585585
-0.128841 -0.091403 0.744191 255 129 0 0.589315
-0.128765 -0.089079 0.745127 255 141 0 0.562669
-0.125425 -0.085287 0.745001 255 131 0 0.582678
-0.122333 -0.085753 0.743089 255 133 0 0.581521
-0.131904 -0.090650 0.745748 255 127 0 0.592160
-0.130449 -0.087004 0.746451 255 143 0 0.561373
-0.133535 -0.088280 0.746928 255 141 0 0.562726
-0.131873 -0.084675 0.747748 255 135 0 0.576182
-0.132266 -0.077675 0.750310 255 131 0 0.583970
-0.129264 -0.077391 0.749605 255 135 0 0.576773
-0.131892 -0.081661 0.748711 255 166 0 0.519340
-0.135013 -0.092131 0.746523 255 120 0 0.604780
-0.133364 -0.094750 0.745614 255 127 0 0.593609
-0.136183 -0.096242 0.746564 255 125 0 0.595105
-0.130283 -0.093514 0.744540 255 149 0 0.548033
-0.130164 -0.096134 0.743897 255 137 0 0.571027
-0.127228 -0.094372 0.742626 255 135 0 0.575175
-0.129902 -0.098803 0.743417 255 143 0 0.560709
-0.132650 -0.100051 0.744630 255 125 0 0.593796
-0.133018 -0.097403 0.745163 255 137 0 0.570910
-0.133729 -0.108608 0.747084 255 125 0 0.594293
-0.134854 -0.105830 0.746880 255 125 0 0.594534
-0.135845 -0.103097 0.746879 255 125 0 0.594609
-0.137286 -0.106713 0.748378 255 131 0 0.582052
-0.138449 -0.103861 0.748211 255 125 0 0.595204
-0.136841 -0.100361 0.746920 255 133 0 0.581393
-0.131855 -0.102764 0.744568 255 135 0 0.578121
-0.144134 -0.115283 0.762127 255 129 0 0.588787
-0.142065 -0.115603 0.760327 255 127 0 0.590047
-0.140251 -0.117125 0.762145 255 133 0 0.581271
-0.140071 -0.115886 0.758481 255 131 0 0.585383
-0.142317 -0.116820 0.763992 255 129 0 0.586385
-0.140509 -0.118357 0.765839 255 127 0 0.591521
-0.144254 -0.116571 0.765228 255 133 0 0.579384
-0.138212 -0.117601 0.760379 255 131 0 0.584356
-0.136103 -0.118171 0.757715 255 131 0 0.585564
-0.136417 -0.119263 0.762302 255 129 0 0.586764
-0.134287 -0.119856 0.759642 255 135 0 0.577200
-0.134641 -0.120927 0.764220 255 137 0 0.571089
-0.136750 -0.120455 0.765928 255 145 0 0.557714
-0.138448 -0.118827 0.764057 255 141 0 0.562879
-0.137756 -0.120820 0.773477 255 139 0 0.569626
-0.139257 -0.119676 0.770727 255 141 0 0.564936
-0.139896 -0.120149 0.775103 255 139 0 0.569234
-0.141403 -0.118953 0.772328 255 137 0 0.571971
-0.137047 -0.120521 0.768603 255 129 0 0.589712
-0.143338 -0.118419 0.773931 255 137 0 0.572637
-0.145010 -0.117269 0.771412 255 135 0 0.577139
-0.146572 -0.116182 0.768956 255 135 0 0.574852
-0.146897 -0.116810 0.772692 255 135 0 0.576751
-0.142608 -0.117654 0.767678 255 137 0 0.571810
-0.136056 -0.110597 0.749745 255 127 0 0.593245
-0.134064 -0.113340 0.750283 255 122 0 0.600437
-0.136013 -0.113851 0.751924 255 131 0 0.585182
-0.138059 -0.111133 0.751379 255 127 0 0.590457
-0.139996 -0.111608 0.752967 255 133 0 0.581772
-0.139673 -0.108655 0.750942 255 125 0 0.594660
-0.134202 -0.116011 0.752783 255 127 0 0.590774
-0.136228 -0.115986 0.754675 255 133 0 0.580818
-0.134206 -0.118195 0.755828 255 141 0 0.563097
-0.138166 -0.115954 0.756554 255 120 0 0.602788
-0.140067 -0.113743 0.755726 255 129 0 0.588743
-0.138104 -0.113813 0.753832 255 131 0 0.584159
-0.142028 -0.113869 0.757096 255 129 0 0.587830
-0.136812 -0.121838 0.778624 255 139 0 0.568418
-0.137563 -0.121525 0.781246 255 137 0 0.573216
-0.139744 -0.120514 0.783138 255 133 0 0.580434
-0.140380 -0.120303 0.785880 255 127 0 0.590585
-0.143678 -0.118744 0.784246 255 127 0 0.592901
-0.140899 -0.119819 0.779868 255 137 0 0.573073
-0.142141 -0.119040 0.776927 255 137 0 0.571745
-0.139626 -0.120659 0.789078 255 120 0 0.603601
-0.140604 -0.120124 0.791647 255 114 0 0.614628
-0.143076 -0.118905 0.793293 255 106 0 0.632060
-0.146130 -0.117550 0.791523 255 106 0 0.631489
-0.143745 -0.118696 0.789845 255 112 0 0.619169
-0.142930 -0.119073 0.787409 255 118 0 0.606079
-0.150326 -0.115820 0.788762 255 110 0 0.623214
-0.151069 -0.115514 0.785742 255 112 0 0.618057
-0.148124 -0.116834 0.787259 255 112 0 0.617271
-0.148925 -0.116514 0.784204 255 120 0 0.603745
-0.146797 -0.117409 0.782643 255 120 0 0.604824
-0.149853 -0.116109 0.781070 255 127 0 0.591156
-0.145944 -0.117747 0.785678 255 120 0 0.602816
-0.147902 -0.116781 0.779361 255 131 0 0.585041
-0.149190 -0.116032 0.776541 255 133 0 0.580033
-0.145799 -0.117561 0.777738 255 135 0 0.576965
-0.144726 -0.118127 0.780947 255 116 0 0.611767
-0.153070 -0.114735 0.787115 255 112 0 0.618728
-0.128574 -0.044872 0.773001 255 145 0 0.557096
-0.126258 -0.045220 0.771770 255 145 0 0.556831
-0.129471 -0.046538 0.770842 255 143 0 0.558669
-0.131794 -0.046196 0.771934 255 145 0 0.558448
-0.132776 -0.047810 0.769884 255 145 0 0.556348
-0.121909 -0.041389 0.774826 255 147 0 0.553085
-0.122867 -0.043405 0.772554 255 145 0 0.556299
-0.125253 -0.043272 0.773958 255 145 0 0.554915
-0.120352 -0.045579 0.769257 255 143 0 0.559445
-0.123919 -0.046546 0.769520 255 145 0 0.558195
-0.127034 -0.048728 0.768044 255 129 0 0.588734
-0.130489 -0.049185 0.767968 255 143 0 0.560322
-0.137868 -0.047535 0.770581 255 143 0 0.562436
-0.135573 -0.048536 0.768897 255 143 0 0.562152
-0.133357 -0.050816 0.766429 255 143 0 0.562101
-0.136424 -0.050811 0.766231 255 141 0 0.564485
-0.131718 -0.057255 0.761403 255 141 0 0.563780
-0.128771 -0.057081 0.761290 255 149 0 0.548978
-0.125890 -0.056921 0.761185 255 149 0 0.550679
-0.128057 -0.059111 0.759659 255 156 0 0.536087
-0.130932 -0.059251 0.759833 255 141 0 0.565946
-0.123661 -0.054448 0.762573 255 135 0 0.578101
-0.121483 -0.055938 0.760645 255 139 0 0.568127
-0.125120 -0.060521 0.758089 255 137 0 0.570616
-0.128105 -0.061497 0.758111 255 149 0 0.550277
-0.123939 -0.058527 0.759333 255 153 0 0.539961
-0.131239 -0.062326 0.757728 255 139 0 0.569815
-0.133433 -0.061453 0.758486 255 137 0 0.570734
-0.128470 -0.050985 0.766074 255 143 0 0.560004
-0.125169 -0.049838 0.766849 255 143 0 0.558693
-0.126577 -0.052100 0.764959 255 143 0 0.559523
-0.131677 -0.052134 0.765437 255 143 0 0.560218
-0.129829 -0.053203 0.764319 255 145 0 0.558485
-0.121976 -0.047330 0.768101 255 143 0 0.560868
-0.121705 -0.049976 0.765678 255 143 0 0.561975
-0.121891 -0.051884 0.764085 255 141 0 0.563011
-0.126824 -0.054795 0.762814 255 139 0 0.568437
-0.134585 -0.052736 0.764544 255 145 0 0.554836
-0.134696 -0.056988 0.761297 255 145 0 0.555247
-0.132974 -0.054950 0.762971 255 137 0 0.571951
-0.132648 -0.064336 0.756654 255 137 0 0.573858
-0.129555 -0.063596 0.756998 255 141 0 0.563842
-0.131091 -0.065798 0.755886 255 141 0 0.565476
-0.132348 -0.070711 0.753367 255 133 0 0.578351
-0.130731 -0.068551 0.754277 255 135 0 0.577068
-0.133814 -0.059189 0.759840 255 141 0 0.564054
-0.044643 -0.139671 0.821520 255 139 0 0.568964
-0.048004 -0.138205 0.824358 255 141 0 0.564364
-0.048851 -0.136444 0.828479 255 145 0 0.557799
-0.052159 -0.134664 0.831252 255 147 0 0.553761
-0.051329 -0.136607 0.827149 255 143 0 0.559076
-0.054641 -0.134861 0.829920 255 149 0 0.547852
-0.050480 -0.138555 0.822980 255 139 0 0.566740
