ply
format ascii 1.0
comment VCGLIB generated
element vertex 1009
property float x
property float y
property float z
property uchar red
property uchar green
property uchar blue
property float quality
end_header
0.039709 -0.067279 0.980933 255 164 0 0.523426
0.040463 -0.056572 0.980668 255 168 0 0.514672
0.043417 -0.056916 0.982806 255 170 0 0.510746
0.043073 -0.062204 0.982951 255 170 0 0.509057
0.042742 -0.067536 0.983013 255 182 0 0.484921
0.042478 -0.051487 0.981717 255 139 0 0.566975
0.039552 -0.051155 0.979482 255 170 0 0.509825
0.050735 -0.032463 0.981383 255 189 0 0.474866
0.050447 -0.037276 0.983221 255 178 0 0.494016
0.047497 -0.041846 0.982946 255 158 0 0.533154
0.047275 -0.046724 0.984667 255 205 0 0.443390
0.050154 -0.042156 0.984926 255 178 0 0.495849
0.049944 -0.047066 0.986576 255 178 0 0.495450
0.053163 -0.037598 0.985405 255 176 0 0.499903
0.053487 -0.032728 0.983686 255 178 0 0.493513
0.045293 -0.051718 0.983747 255 151 0 0.543663
0.046195 -0.056985 0.984741 255 137 0 0.571642
0.045763 -0.062266 0.984707 255 172 0 0.506995
0.045373 -0.067574 0.984650 255 211 0 0.433568
0.048064 -0.067541 0.986522 255 176 0 0.497894
0.048438 -0.062407 0.986471 255 172 0 0.505031
0.048868 -0.057282 0.986464 255 172 0 0.507037
0.048073 -0.051985 0.985660 255 164 0 0.522600
0.052570 -0.062102 0.989078 255 172 0 0.504508
0.053023 -0.057207 0.989114 255 189 0 0.474522
0.052136 -0.052202 0.988290 255 174 0 0.500540
0.052738 -0.047251 0.988392 255 176 0 0.497204
0.050747 -0.067304 0.988141 255 199 0 0.455209
0.055678 -0.042664 0.988832 255 178 0 0.495630
0.057257 -0.038015 0.988369 255 201 0 0.451332
0.057549 -0.033158 0.986881 255 178 0 0.494044
0.052944 -0.042424 0.986948 255 178 0 0.495936
0.064514 -0.007489 0.957129 255 174 0 0.500534
0.060792 -0.009616 0.959144 255 174 0 0.501328
0.058387 -0.011517 0.962716 255 182 0 0.488264
0.054625 -0.013824 0.964677 255 193 0 0.466329
0.057309 -0.013401 0.967661 255 176 0 0.498837
0.061157 -0.011143 0.965772 255 176 0 0.499055
0.063619 -0.009216 0.962261 255 191 0 0.471518
0.067130 -0.006989 0.960264 255 176 0 0.498833
0.050310 -0.017212 0.965022 255 166 0 0.518077
0.047359 -0.020472 0.966756 255 178 0 0.493875
0.045863 -0.023856 0.969905 255 178 0 0.494741
0.048635 -0.023829 0.972680 255 178 0 0.494673
0.050136 -0.020393 0.969651 255 182 0 0.487015
0.053084 -0.016957 0.967963 255 187 0 0.480423
0.052593 -0.023867 0.976711 255 184 0 0.480948
0.055296 -0.020199 0.975151 255 178 0 0.495851
0.056877 -0.016661 0.972180 255 178 0 0.492647
0.059837 -0.013142 0.970564 255 176 0 0.498204
0.052821 -0.020244 0.972476 255 199 0 0.453516
0.064657 -0.010657 0.970105 255 174 0 0.502520
0.068478 -0.008406 0.968228 255 178 0 0.494588
0.071050 -0.006407 0.964823 255 178 0 0.493832
0.066016 -0.008765 0.965294 255 187 0 0.477733
0.070720 -0.017315 0.986198 255 176 0 0.496920
0.068173 -0.021198 0.987323 255 193 0 0.466632
0.067093 -0.025300 0.989529 255 178 0 0.492364
0.069749 -0.025806 0.991614 255 180 0 0.491655
0.052577 -0.108892 0.974009 255 197 0 0.459394
0.051365 -0.109027 0.973087 255 180 0 0.490276
0.053596 -0.112766 0.970714 255 191 0 0.472291
0.052409 -0.112915 0.969681 255 168 0 0.512906
0.050169 -0.109135 0.972063 255 213 0 0.426333
0.054676 -0.116640 0.967248 255 205 0 0.444629
0.051172 -0.113018 0.968516 255 187 0 0.479954
0.053464 -0.116758 0.966110 255 222 0 0.413002
0.052239 -0.116865 0.964836 255 224 0 0.409613
0.048922 -0.109229 0.970913 255 193 0 0.467323
0.049939 -0.113127 0.967270 255 220 0 0.415439
0.047656 -0.109317 0.969640 255 166 0 0.516000
0.055767 -0.120405 0.963584 255 205 0 0.442467
0.054588 -0.120534 0.962392 255 189 0 0.473824
0.056899 -0.124109 0.959842 255 215 0 0.423546
0.058319 -0.124050 0.961062 255 211 0 0.429759
0.057207 -0.120347 0.964750 255 205 0 0.444584
0.059753 -0.123977 0.962232 255 215 0 0.422661
0.058617 -0.120203 0.965753 255 222 0 0.412147
0.056096 -0.116539 0.968277 255 228 0 0.400779
0.057566 -0.116429 0.969236 255 201 0 0.450206
0.061153 -0.123820 0.963261 255 205 0 0.442170
0.060068 -0.120077 0.966770 255 195 0 0.463499
0.062627 -0.123685 0.964345 255 218 0 0.421151
0.055081 -0.112704 0.971678 255 187 0 0.478646
0.046273 -0.108727 0.968437 255 184 0 0.482994
0.048259 -0.112323 0.966117 255 187 0 0.477938
0.046799 -0.111720 0.964753 255 197 0 0.459235
0.044816 -0.108126 0.967074 255 184 0 0.482787
0.048777 -0.115237 0.962363 255 174 0 0.502237
0.045295 -0.111066 0.963298 255 189 0 0.474229
0.047326 -0.114593 0.960948 255 230 0 0.395671
0.043305 -0.107463 0.965622 255 135 0 0.575615
0.049360 -0.118063 0.958533 255 232 0 0.394120
0.051676 -0.121682 0.956046 255 184 0 0.483862
0.051121 -0.118924 0.959902 255 199 0 0.453332
0.053500 -0.122554 0.957429 255 215 0 0.422240
0.052867 -0.119754 0.961192 255 187 0 0.478346
0.050555 -0.116083 0.963676 255 215 0 0.424165
0.055184 -0.123350 0.958661 255 211 0 0.430033
0.058024 -0.128332 0.947722 255 209 0 0.437483
0.060126 -0.129269 0.948991 255 207 0 0.440476
0.057677 -0.126986 0.951857 255 149 0 0.546885
0.062139 -0.130158 0.950169 255 193 0 0.468201
0.059746 -0.127899 0.953036 255 201 0 0.450536
0.061706 -0.128708 0.954115 255 222 0 0.411196
0.064103 -0.130956 0.951224 255 205 0 0.445129
0.057308 -0.125587 0.955918 255 211 0 0.433368
0.059326 -0.126439 0.956994 255 176 0 0.499336
0.055600 -0.124793 0.954645 255 201 0 0.450381
0.053807 -0.123943 0.953282 247 246 1 0.365836
0.055938 -0.126156 0.950505 255 182 0 0.485424
0.065510 -0.130879 0.952492 255 172 0 0.504155
0.067921 -0.130859 0.953330 255 218 0 0.418346
0.064536 -0.128537 0.956554 255 222 0 0.412807
0.070409 -0.130846 0.954172 249 244 0 0.368598
0.066973 -0.128464 0.957272 255 228 0 0.401327
0.069637 -0.128640 0.958302 255 230 0 0.394830
0.073054 -0.131192 0.955359 255 218 0 0.419468
0.063538 -0.126112 0.960444 255 218 0 0.418479
0.066151 -0.126165 0.961309 255 211 0 0.430551
0.062137 -0.126263 0.959362 255 220 0 0.416557
0.060726 -0.126388 0.958221 255 195 0 0.462157
0.063144 -0.128659 0.955378 255 203 0 0.447813
0.041594 -0.102488 0.967303 255 197 0 0.460439
0.043140 -0.103150 0.968763 255 189 0 0.472659
0.041391 -0.098108 0.970389 255 187 0 0.478153
0.044611 -0.103773 0.970105 255 182 0 0.487700
0.042891 -0.098766 0.971709 255 112 0 0.618045
0.044337 -0.099412 0.972914 255 218 0 0.420460
0.046034 -0.104366 0.971350 255 133 0 0.581558
0.041088 -0.093712 0.973278 255 178 0 0.493610
0.042603 -0.094361 0.974484 255 195 0 0.462141
0.040786 -0.089326 0.976024 255 166 0 0.519381
0.039399 -0.088880 0.974975 255 65 0 0.709933
0.039710 -0.093269 0.972095 255 213 0 0.429673
0.037958 -0.088422 0.973796 255 172 0 0.504310
0.038209 -0.092785 0.970787 255 112 0 0.620468
0.039955 -0.097657 0.969056 255 222 0 0.414052
0.036414 -0.087928 0.972510 255 203 0 0.448048
0.048430 -0.104225 0.973560 255 174 0 0.502252
0.046638 -0.099274 0.974942 255 176 0 0.496970
0.049661 -0.104153 0.974587 255 195 0 0.463460
0.047926 -0.099240 0.975995 255 211 0 0.432662
0.049263 -0.099216 0.977089 255 213 0 0.428423
0.050886 -0.104079 0.975543 255 224 0 0.408767
0.046196 -0.094303 0.977419 255 149 0 0.549880
0.047582 -0.094313 0.978561 255 182 0 0.486952
0.045899 -0.089369 0.980066 255 211 0 0.429970
0.043257 -0.089357 0.977990 255 213 0 0.426691
0.041957 -0.072893 0.981128 255 149 0 0.548259
0.041319 -0.078301 0.979353 255 218 0 0.418174
0.039018 -0.072679 0.979193 255 135 0 0.575973
0.038588 -0.078210 0.977569 255 172 0 0.505858
0.040954 -0.083828 0.977677 255 151 0 0.546356
0.043669 -0.083891 0.979737 255 180 0 0.489111
0.044270 -0.078453 0.981543 255 114 0 0.614464
0.036028 -0.072128 0.977182 255 143 0 0.561481
0.035561 -0.077212 0.975400 255 108 0 0.625808
0.036745 -0.082803 0.974649 255 160 0 0.528283
0.038249 -0.083304 0.975771 255 158 0 0.533108
0.037088 -0.077720 0.976568 255 170 0 0.508121
0.053268 -0.102990 0.977772 255 187 0 0.476878
0.054926 -0.107551 0.976440 255 226 0 0.402690
0.051602 -0.098412 0.979059 255 162 0 0.524894
0.054070 -0.097185 0.981609 255 174 0 0.503088
0.055717 -0.101748 0.980351 255 191 0 0.472108
0.057337 -0.106295 0.979060 255 230 0 0.396929
0.051197 -0.093188 0.981595 255 166 0 0.515648
0.050827 -0.087976 0.984112 255 215 0 0.422546
0.048318 -0.088668 0.982032 255 166 0 0.517123
0.058139 -0.100310 0.982477 255 236 0 0.386090
0.059730 -0.104560 0.981450 255 182 0 0.487749
0.056587 -0.096066 0.983562 252 240 0 0.377859
0.059000 -0.094394 0.985876 255 220 0 0.415155
0.060514 -0.098624 0.984831 249 244 0 0.368216
0.062102 -0.102879 0.983850 255 226 0 0.403971
0.056224 -0.090971 0.985705 255 226 0 0.403932
0.055863 -0.085886 0.987828 255 203 0 0.448371
0.053347 -0.086907 0.985921 255 226 0 0.403536
0.053690 -0.092046 0.983770 255 224 0 0.409247
0.052708 -0.072242 0.988276 255 182 0 0.486938
0.052063 -0.077437 0.986861 255 213 0 0.427722
0.050081 -0.072521 0.986692 255 205 0 0.442478
0.049464 -0.077780 0.985297 255 187 0 0.477651
0.051409 -0.082679 0.985460 255 149 0 0.549554
0.053994 -0.081682 0.987332 255 213 0 0.426043
0.054613 -0.076512 0.988709 255 189 0 0.475174
0.047454 -0.072928 0.984892 255 189 0 0.473684
0.046840 -0.078344 0.983234 255 182 0 0.485915
0.044766 -0.072975 0.983074 255 131 0 0.582975
0.046296 -0.083841 0.981637 255 141 0 0.566069
0.048872 -0.083187 0.983664 255 201 0 0.449267
0.063249 -0.097298 0.986639 255 236 0 0.385636
0.064726 -0.101349 0.985767 255 207 0 0.440373
0.061766 -0.093267 0.987534 255 234 0 0.388161
0.064389 -0.091795 0.989417 255 211 0 0.432541
0.065854 -0.095833 0.988585 255 230 0 0.397601
0.067364 -0.099905 0.987806 255 224 0 0.408510
0.061643 -0.088495 0.989352 255 168 0 0.512875
0.061586 -0.083773 0.991209 255 191 0 0.469404
0.058755 -0.084804 0.989494 255 230 0 0.396840
0.058859 -0.089584 0.987693 255 218 0 0.417987
0.068670 -0.094657 0.990257 233 255 15 0.333758
0.070060 -0.098572 0.989451 255 232 0 0.392782
0.067297 -0.090765 0.991069 252 240 0 0.377630
0.070054 -0.089470 0.992745 255 222 0 0.413386
0.071334 -0.093369 0.991919 233 255 15 0.334616
0.072664 -0.097301 0.991129 249 244 0 0.370874
0.067365 -0.086242 0.992735 252 240 0 0.375122
0.067484 -0.081745 0.994449 255 205 0 0.441685
0.064531 -0.082742 0.992787 227 255 21 0.324104
0.064410 -0.087256 0.991065 255 176 0 0.496296
0.064548 -0.069674 0.994869 255 166 0 0.516300
0.063512 -0.074356 0.993591 255 162 0 0.524227
0.061505 -0.070276 0.993286 255 176 0 0.496250
0.060487 -0.074986 0.992014 255 187 0 0.477785
0.062505 -0.079061 0.992352 255 228 0 0.400826
0.065479 -0.078055 0.993964 255 207 0 0.438867
0.066548 -0.073357 0.995235 255 201 0 0.452607
0.058493 -0.071056 0.991627 255 182 0 0.485710
0.057597 -0.075979 0.990341 255 187 0 0.478158
0.055511 -0.071543 0.990007 255 170 0 0.508702
0.056713 -0.080916 0.989061 255 156 0 0.537739
0.059597 -0.079882 0.990722 255 222 0 0.410229
0.073970 -0.092321 0.993438 255 215 0 0.425265
0.075292 -0.096147 0.992680 255 189 0 0.473940
0.072733 -0.088537 0.994251 242 253 6 0.353266
0.075337 -0.087349 0.995751 255 213 0 0.425911
0.076598 -0.091149 0.994991 255 226 0 0.403763
0.077862 -0.094978 0.994249 249 244 0 0.370839
0.072852 -0.084175 0.995831 255 222 0 0.411256
0.072938 -0.079841 0.997385 255 197 0 0.458397
0.070196 -0.080793 0.995864 255 189 0 0.472826
0.070090 -0.085122 0.994287 255 203 0 0.446302
0.079125 -0.090191 0.996571 255 213 0 0.426876
0.080272 -0.093935 0.995793 242 253 6 0.352327
0.077926 -0.086471 0.997371 255 195 0 0.461408
0.078017 -0.082239 0.998937 255 218 0 0.418009
0.076876 -0.078490 0.999730 255 215 0 0.424305
0.075427 -0.083128 0.997333 255 230 0 0.397972
0.074687 -0.071160 0.999768 255 174 0 0.502418
0.072975 -0.067471 0.999441 255 170 0 0.509802
0.072084 -0.071786 0.998196 255 176 0 0.496943
0.073785 -0.075497 0.998553 255 213 0 0.426318
0.070253 -0.068250 0.997941 255 172 0 0.505615
0.069354 -0.072726 0.996750 255 184 0 0.482631
0.067447 -0.068883 0.996408 255 184 0 0.482039
0.068366 -0.077232 0.995556 255 180 0 0.491170
0.071098 -0.076285 0.996992 255 187 0 0.480228
0.015703 -0.064175 0.959876 255 187 0 0.478910
0.013683 -0.059427 0.959067 255 193 0 0.467874
0.014479 -0.067832 0.957314 255 197 0 0.459641
0.012460 -0.063053 0.956542 255 170 0 0.508547
0.011175 -0.066678 0.954047 249 244 0 0.369836
0.010524 -0.058360 0.955680 255 187 0 0.479140
0.013215 -0.071517 0.954778 231 255 17 0.328267
0.011963 -0.075245 0.952312 255 162 0 0.525302
0.013752 -0.076089 0.953871 251 242 0 0.372691
0.014973 -0.072358 0.956413 255 195 0 0.463927
0.015537 -0.076931 0.955501 255 189 0 0.473630
0.016789 -0.073195 0.958067 255 191 0 0.469886
0.016252 -0.068634 0.958992 255 193 0 0.464972
0.017393 -0.077775 0.957090 255 182 0 0.484568
0.009182 -0.061985 0.953329 255 189 0 0.472819
0.007412 -0.057591 0.952483 255 184 0 0.484072
0.007803 -0.065658 0.951059 255 176 0 0.497914
0.006071 -0.061215 0.950146 255 205 0 0.443851
0.004695 -0.064869 0.947988 255 201 0 0.451423
0.004348 -0.056904 0.949282 255 205 0 0.443229
0.006443 -0.069335 0.948795 255 197 0 0.457722
0.005091 -0.073091 0.946626 255 189 0 0.473383
0.008496 -0.074156 0.949453 255 191 0 0.469294
0.009817 -0.070385 0.951754 255 213 0 0.428053
0.009527 -0.085479 0.943229 255 174 0 0.503647
0.011451 -0.086051 0.944499 255 158 0 0.531935
0.010337 -0.081970 0.946184 255 180 0 0.491607
0.013395 -0.086614 0.945793 255 174 0 0.501559
0.012254 -0.082547 0.947550 255 211 0 0.433348
0.014195 -0.083155 0.948912 255 180 0 0.488661
0.015355 -0.087159 0.947131 255 218 0 0.418784
0.011139 -0.078564 0.949231 255 215 0 0.423874
0.013035 -0.079156 0.950660 255 189 0 0.475741
0.007651 -0.077484 0.946462 255 145 0 0.555980
0.006851 -0.080919 0.943554 255 176 0 0.497011
0.017233 -0.087995 0.948645 255 203 0 0.446785
0.019301 -0.089004 0.950186 255 184 0 0.480550
0.017903 -0.084834 0.951977 255 180 0 0.488543
0.021432 -0.090009 0.951744 255 176 0 0.497086
0.019986 -0.085839 0.953558 255 191 0 0.470772
0.018598 -0.081704 0.955345 255 184 0 0.481295
0.016702 -0.080871 0.953733 255 187 0 0.479560
0.014844 -0.080022 0.952152 255 187 0 0.476935
0.016037 -0.083987 0.950428 255 203 0 0.446110
0.023096 -0.031293 0.956301 255 182 0 0.485889
0.019608 -0.034788 0.955994 255 191 0 0.469840
0.019541 -0.031236 0.953107 255 184 0 0.483871
0.016163 -0.034711 0.952681 255 209 0 0.435694
0.016237 -0.038286 0.955561 255 189 0 0.476094
0.013075 -0.041962 0.954846 255 211 0 0.432773
0.016201 -0.042417 0.958271 255 189 0 0.474757
0.019465 -0.038743 0.958818 255 187 0 0.480153
0.016067 -0.030967 0.950005 255 203 0 0.446538
0.012773 -0.034315 0.949623 255 203 0 0.448662
0.012362 -0.030752 0.946972 255 184 0 0.481945
0.009202 -0.034213 0.946441 255 191 0 0.471499
0.009689 -0.037779 0.948998 255 207 0 0.437939
0.006804 -0.041406 0.948199 255 201 0 0.451066
0.009914 -0.041656 0.951544 255 230 0 0.395362
0.012938 -0.038107 0.952203 255 193 0 0.468564
0.006553 -0.053130 0.950583 255 205 0 0.441887
0.008669 -0.049372 0.952038 255 215 0 0.423215
0.009617 -0.053836 0.953832 255 199 0 0.454778
0.011747 -0.050062 0.955311 255 205 0 0.441809
0.010833 -0.045650 0.953501 255 199 0 0.456655
0.007821 -0.045403 0.950032 255 203 0 0.447967
0.005679 -0.049117 0.948628 255 207 0 0.439135
0.012679 -0.054463 0.957253 255 197 0 0.458236
0.014768 -0.050534 0.958915 255 193 0 0.468357
0.015823 -0.055472 0.960695 255 195 0 0.464748
0.017059 -0.046654 0.960364 255 184 0 0.480720
0.013898 -0.046194 0.956898 255 187 0 0.479737
0.002847 -0.060575 0.947350 255 203 0 0.449211
0.001150 -0.056522 0.946478 255 176 0 0.497223
0.001363 -0.064327 0.945428 255 149 0 0.548446
-0.000352 -0.060232 0.944630 255 176 0 0.498447
-0.001876 -0.063968 0.942876 255 209 0 0.435161
-0.002054 -0.056193 0.943812 255 178 0 0.493325
-0.000157 -0.068118 0.943634 255 178 0 0.493219
-0.001654 -0.072034 0.941965 255 147 0 0.554016
0.001702 -0.072527 0.944205 255 187 0 0.479916
0.003173 -0.068660 0.946066 255 168 0 0.513164
-0.003644 -0.059959 0.942314 255 193 0 0.467265
-0.005367 -0.056091 0.941575 255 218 0 0.418157
-0.005270 -0.063808 0.940962 255 164 0 0.523322
-0.007003 -0.059827 0.940237 255 180 0 0.489113
-0.008664 -0.063716 0.939062 255 164 0 0.520783
-0.008913 -0.055933 0.939568 255 176 0 0.499108
-0.006853 -0.067718 0.939681 255 180 0 0.490249
-0.008482 -0.071778 0.938539 255 174 0 0.501063
-0.005007 -0.071914 0.940190 255 164 0 0.522300
-0.003460 -0.067886 0.941423 255 158 0 0.533325
-0.005774 -0.088191 0.934160 255 151 0 0.545611
-0.004766 -0.084014 0.936067 255 164 0 0.521441
-0.002241 -0.088186 0.935485 255 164 0 0.520150
-0.003706 -0.079889 0.937938 255 170 0 0.509570
-0.001200 -0.084034 0.937445 255 168 0 0.514361
-0.000159 -0.079931 0.939438 255 172 0 0.504574
0.001322 -0.088183 0.936873 255 166 0 0.519347
-0.002656 -0.075864 0.939859 255 174 0 0.500385
-0.006076 -0.075793 0.938262 255 170 0 0.511676
-0.007161 -0.079844 0.936427 255 168 0 0.515210
0.002317 -0.084247 0.939121 255 170 0 0.511271
0.004991 -0.088651 0.938634 255 166 0 0.516110
0.003253 -0.080394 0.941456 255 189 0 0.476236
0.005942 -0.084724 0.940967 255 170 0 0.508168
0.004171 -0.076667 0.943950 255 180 0 0.488433
0.000791 -0.076143 0.941713 255 178 0 0.494811
-0.114137 -0.108484 0.880547 255 174 0 0.503372
-0.116909 -0.108822 0.878237 255 172 0 0.506305
-0.115012 -0.110315 0.876160 255 170 0 0.508521
-0.117835 -0.110774 0.873907 255 195 0 0.463954
-0.119736 -0.109280 0.875964 255 170 0 0.510391
-0.115917 -0.112279 0.871863 255 151 0 0.544035
-0.120664 -0.111306 0.871705 255 168 0 0.512497
-0.118730 -0.112825 0.869692 255 168 0 0.512039
-0.121597 -0.113434 0.867542 255 170 0 0.511219
-0.122563 -0.109780 0.873740 255 168 0 0.511739
-0.123490 -0.111891 0.869547 255 172 0 0.506387
-0.125407 -0.110354 0.871553 255 170 0 0.511329
-0.116798 -0.114325 0.867663 255 168 0 0.512009
-0.119641 -0.114921 0.865512 255 170 0 0.510812
-0.117664 -0.116401 0.863497 255 170 0 0.509877
-0.114850 -0.116054 0.865515 255 170 0 0.509629
-0.113984 -0.114010 0.869714 255 170 0 0.511108
-0.112039 -0.115732 0.867552 255 170 0 0.508426
-0.111176 -0.113752 0.871783 255 172 0 0.507789
-0.113108 -0.112028 0.873957 255 170 0 0.508750
-0.110314 -0.111839 0.876082 255 172 0 0.504462
-0.109248 -0.115464 0.869608 255 187 0 0.476797
-0.108399 -0.113557 0.873888 255 172 0 0.503919
-0.106469 -0.115268 0.871700 255 174 0 0.503013
-0.112244 -0.110147 0.878306 255 172 0 0.504504
-0.128486 -0.110124 0.869314 255 168 0 0.514717
-0.126622 -0.111670 0.867305 255 174 0 0.502803
-0.129777 -0.111539 0.865133 255 166 0 0.516339
-0.131612 -0.109995 0.867108 255 166 0 0.515954
-0.127891 -0.113074 0.863133 255 166 0 0.516094
-0.132918 -0.111460 0.862963 255 187 0 0.478821
-0.131076 -0.113007 0.860999 255 199 0 0.456025
-0.134212 -0.112894 0.858858 255 199 0 0.456915
-0.134751 -0.109886 0.864915 255 168 0 0.512814
-0.136093 -0.111364 0.860815 255 195 0 0.461260
-0.137913 -0.109817 0.862751 255 170 0 0.510116
-0.129141 -0.114491 0.858980 255 187 0 0.476904
-0.132301 -0.114402 0.856846 255 197 0 0.459665
-0.130323 -0.115839 0.854800 255 168 0 0.514639
-0.127126 -0.115969 0.856965 255 166 0 0.515704
-0.125917 -0.114596 0.861142 255 166 0 0.515812
-0.123923 -0.116074 0.859122 255 170 0 0.511073
-0.122760 -0.114733 0.863315 255 168 0 0.513596
-0.124724 -0.113210 0.865320 255 168 0 0.514744
-0.120777 -0.116205 0.861291 255 168 0 0.513337
-0.120561 -0.119881 0.845180 255 158 0 0.531910
-0.117510 -0.120123 0.847252 255 160 0 0.529894
-0.119980 -0.119409 0.849826 255 166 0 0.517444
-0.116917 -0.119620 0.851903 255 170 0 0.508596
-0.114509 -0.120419 0.849326 255 162 0 0.525018
-0.119285 -0.118634 0.854421 255 156 0 0.537285
-0.113870 -0.119856 0.853981 255 168 0 0.515385
-0.116209 -0.118837 0.856507 255 168 0 0.513765
-0.113157 -0.119054 0.858600 255 170 0 0.510656
-0.111484 -0.120654 0.851405 255 158 0 0.531553
-0.110844 -0.120110 0.856069 255 170 0 0.511618
-0.108499 -0.120952 0.853505 255 166 0 0.516042
-0.118497 -0.117591 0.858989 255 168 0 0.512911
-0.115432 -0.117797 0.861077 255 170 0 0.509450
-0.121631 -0.117444 0.856810 255 168 0 0.514991
-0.124809 -0.117306 0.854638 255 191 0 0.472312
-0.122422 -0.118456 0.852257 255 189 0 0.475071
-0.125556 -0.118262 0.850075 255 166 0 0.518118
-0.127997 -0.117160 0.852468 255 166 0 0.515768
-0.123089 -0.119176 0.847645 255 164 0 0.522118
-0.105816 -0.120893 0.855303 255 143 0 0.561008
-0.108104 -0.119813 0.858104 255 170 0 0.511691
-0.105391 -0.119770 0.859920 255 170 0 0.510109
-0.103152 -0.120858 0.857138 255 182 0 0.484472
-0.107605 -0.118423 0.862665 255 170 0 0.509040
-0.102700 -0.119748 0.861792 255 158 0 0.531276
-0.104887 -0.118409 0.864508 255 172 0 0.506834
-0.102212 -0.118462 0.866388 255 174 0 0.503695
-0.100513 -0.120879 0.859025 255 170 0 0.510675
-0.100037 -0.119847 0.863690 255 172 0 0.504196
-0.097856 -0.120965 0.860902 255 172 0 0.507169
-0.107040 -0.116868 0.867182 255 172 0 0.506611
-0.104335 -0.116906 0.869052 255 174 0 0.503376
-0.109827 -0.117132 0.865124 255 170 0 0.508863
-0.112629 -0.117465 0.863098 255 170 0 0.509334
-0.110362 -0.118716 0.860620 255 189 0 0.473537
-0.083499 -0.119850 0.871354 255 176 0 0.497926
-0.083010 -0.121017 0.866755 255 174 0 0.500750
-0.086647 -0.120153 0.869107 255 176 0 0.497816
-0.082486 -0.121948 0.862076 255 170 0 0.510639
-0.086147 -0.121356 0.864498 255 174 0 0.502968
-0.085608 -0.122287 0.859832 255 168 0 0.513828
-0.089810 -0.120522 0.866869 255 168 0 0.515305
-0.081928 -0.122673 0.857333 255 158 0 0.535111
-0.081347 -0.123412 0.852603 255 160 0 0.531187
-0.078483 -0.123406 0.854431 255 149 0 0.548991
-0.079032 -0.122683 0.859174 255 164 0 0.523276
-0.079583 -0.121980 0.863935 255 172 0 0.505316
-0.075600 -0.123409 0.856260 255 153 0 0.540841
-0.091820 -0.120565 0.865350 255 174 0 0.501733
-0.089616 -0.121435 0.862135 255 160 0 0.531131
-0.091609 -0.121491 0.860633 255 170 0 0.509444
-0.093822 -0.120696 0.863859 255 174 0 0.503652
-0.089366 -0.122126 0.857341 255 158 0 0.534453
-0.093590 -0.121569 0.859153 255 168 0 0.512931
-0.091332 -0.122125 0.855860 255 160 0 0.531070
-0.093319 -0.122232 0.854396 255 162 0 0.523515
-0.095834 -0.120807 0.862370 255 172 0 0.505068
-0.095603 -0.121726 0.857686 255 168 0 0.514029
-0.089087 -0.122629 0.852518 255 172 0 0.505771
-0.091053 -0.122680 0.851053 255 153 0 0.542789
-0.088777 -0.123087 0.847684 255 172 0 0.504632
-0.085052 -0.123250 0.850130 255 153 0 0.540622
-0.085338 -0.122707 0.854970 255 151 0 0.545188
-0.080594 -0.126788 0.833516 255 176 0 0.498545
-0.080691 -0.125341 0.838081 255 174 0 0.503344
-0.076875 -0.126793 0.835593 255 178 0 0.495681
-0.080859 -0.124367 0.842819 255 172 0 0.507675
-0.076991 -0.125416 0.840203 255 187 0 0.480141
-0.077182 -0.124533 0.845004 255 172 0 0.505423
-0.073186 -0.126945 0.837723 255 178 0 0.493748
-0.081093 -0.123758 0.847684 255 164 0 0.520290
-0.084803 -0.123644 0.845238 255 180 0 0.491129
-0.084566 -0.124365 0.840430 255 170 0 0.511048
-0.073701 -0.125478 0.842191 255 176 0 0.496965
-0.070331 -0.126909 0.839321 255 180 0 0.490414
-0.074301 -0.124436 0.846804 255 174 0 0.502967
-0.070856 -0.125466 0.843820 255 178 0 0.495856
-0.071478 -0.124494 0.848452 255 176 0 0.499516
-0.067483 -0.126909 0.840936 255 180 0 0.489401
-0.074942 -0.123796 0.851518 255 168 0 0.514858
-0.077810 -0.123837 0.849699 255 168 0 0.515402
-0.102300 -0.125957 0.821221 255 160 0 0.529334
-0.099354 -0.125995 0.822863 255 172 0 0.507800
-0.101253 -0.124362 0.826069 255 160 0 0.530503
-0.098346 -0.124543 0.827716 255 166 0 0.519051
-0.096457 -0.126084 0.824486 255 158 0 0.532443
-0.100377 -0.123294 0.830968 255 162 0 0.525200
-0.095471 -0.124695 0.829334 255 166 0 0.516838
-0.097498 -0.123530 0.832621 255 164 0 0.522768
-0.094648 -0.123818 0.834283 255 166 0 0.519392
-0.093583 -0.126253 0.826119 255 168 0 0.513799
-0.092630 -0.124954 0.830977 255 168 0 0.514905
-0.090710 -0.126461 0.827777 255 170 0 0.510729
-0.099604 -0.122706 0.835988 255 158 0 0.532705
-0.096757 -0.123038 0.837659 255 158 0 0.533116
-0.098917 -0.122501 0.841102 255 143 0 0.559457
-0.101742 -0.122135 0.839193 255 145 0 0.558047
-0.102438 -0.122460 0.834132 255 156 0 0.536536
-0.104585 -0.121847 0.837309 255 143 0 0.559325
-0.105293 -0.122220 0.832272 255 176 0 0.499123
-0.103228 -0.123132 0.829133 255 160 0 0.530118
-0.106124 -0.123045 0.827301 255 156 0 0.537751
-0.107454 -0.121565 0.835441 255 143 0 0.561690
-0.108196 -0.122061 0.830422 255 151 0 0.545876
-0.110372 -0.121400 0.833596 255 139 0 0.567049
-0.104145 -0.124345 0.824246 255 178 0 0.492868
-0.088189 -0.126492 0.829196 255 172 0 0.504377
-0.090120 -0.124947 0.832532 255 170 0 0.509977
-0.087583 -0.125036 0.833964 255 172 0 0.507229
-0.085658 -0.126544 0.830615 255 166 0 0.519108
-0.089619 -0.123944 0.837454 255 168 0 0.513279
-0.085068 -0.125217 0.835441 255 172 0 0.506130
-0.087089 -0.124124 0.838924 255 168 0 0.512551
-0.083122 -0.126637 0.832061 255 174 0 0.500163
-0.089190 -0.123378 0.842520 255 156 0 0.536622
-0.091316 -0.122896 0.846017 255 147 0 0.551012
-0.091701 -0.123201 0.840877 255 162 0 0.526899
-0.093845 -0.122730 0.844368 255 147 0 0.553544
-0.094232 -0.123123 0.839255 255 160 0 0.531204
-0.092137 -0.123848 0.835856 255 158 0 0.534911
-0.096400 -0.122564 0.842702 255 147 0 0.554514
-0.098199 -0.121556 0.855984 255 164 0 0.519659
-0.100809 -0.121372 0.854087 255 160 0 0.527799
-0.098468 -0.121808 0.851019 255 162 0 0.524403
-0.103435 -0.121354 0.852246 255 158 0 0.531495
-0.101076 -0.121737 0.849155 255 162 0 0.523610
-0.103681 -0.121810 0.847365 255 149 0 0.550529
-0.106078 -0.121385 0.850438 255 158 0 0.533250
-0.098710 -0.122103 0.846028 255 137 0 0.573563
-0.101281 -0.122134 0.844242 255 135 0 0.576386
-0.096149 -0.122234 0.847682 255 160 0 0.529167
-0.093609 -0.122418 0.849355 255 145 0 0.555232
-0.095904 -0.121973 0.852697 255 158 0 0.534249
-0.109037 -0.121120 0.848519 255 151 0 0.543285
-0.111984 -0.120813 0.846430 255 147 0 0.554614
-0.109474 -0.121097 0.843528 255 133 0 0.579498
-0.114962 -0.120546 0.844372 255 135 0 0.574518
-0.112403 -0.120804 0.841455 255 129 0 0.589447
-0.115394 -0.120643 0.839398 255 129 0 0.586204
-0.117988 -0.120336 0.842309 255 139 0 0.566757
-0.109891 -0.121120 0.838534 255 122 0 0.598258
-0.112831 -0.120887 0.836477 255 120 0 0.605358
-0.107002 -0.121445 0.840427 255 127 0 0.592801
-0.104139 -0.121763 0.842321 255 129 0 0.588343
-0.106568 -0.121458 0.845433 255 141 0 0.564779
-0.085711 -0.041463 0.947037 255 234 0 0.389375
-0.085907 -0.042606 0.944936 255 168 0 0.512271
-0.085321 -0.039610 0.943619 255 197 0 0.457981
-0.085352 -0.040709 0.941590 255 195 0 0.461462
-0.085868 -0.043684 0.942815 255 193 0 0.465328
-0.084907 -0.037579 0.940343 255 193 0 0.468320
-0.085437 -0.041767 0.939529 255 174 0 0.500187
-0.084968 -0.038666 0.938288 255 222 0 0.412672
-0.085028 -0.039650 0.936194 255 205 0 0.443621
-0.085952 -0.044765 0.940728 255 193 0 0.465881
-0.085585 -0.042820 0.937447 255 153 0 0.541693
-0.086166 -0.045900 0.938749 255 170 0 0.510473
-0.084602 -0.035463 0.937131 255 213 0 0.429515
-0.084689 -0.036363 0.934946 255 213 0 0.429044
-0.084495 -0.033028 0.933966 255 164 0 0.522102
-0.084436 -0.032299 0.936203 255 197 0 0.457189
-0.084601 -0.034620 0.939368 255 180 0 0.490771
-0.084361 -0.031588 0.938539 255 180 0 0.492134
-0.084578 -0.033883 0.941718 255 158 0 0.531515
-0.084918 -0.036824 0.942619 255 201 0 0.451683
-0.084850 -0.036004 0.944908 255 174 0 0.501298
-0.084378 -0.030966 0.940877 255 166 0 0.517816
-0.084556 -0.033073 0.944008 255 156 0 0.536679
-0.085276 -0.038794 0.945955 255 176 0 0.497434
-0.086375 -0.046790 0.936789 255 191 0 0.469264
-0.085764 -0.043577 0.935371 255 209 0 0.435271
-0.086012 -0.044450 0.933383 255 160 0 0.531100
-0.086659 -0.047751 0.934854 255 145 0 0.556645
-0.085511 -0.041135 0.932019 255 174 0 0.501714
-0.086319 -0.045374 0.931477 255 182 0 0.486919
-0.085782 -0.041961 0.930040 255 170 0 0.509521
-0.086090 -0.042767 0.928184 255 160 0 0.528502
-0.086972 -0.048720 0.932939 255 147 0 0.553972
-0.086617 -0.046247 0.929571 255 178 0 0.492287
-0.087284 -0.049710 0.931046 255 164 0 0.522760
-0.085415 -0.038464 0.928716 255 174 0 0.500037
-0.085743 -0.039207 0.926843 255 147 0 0.552211
-0.085624 -0.035734 0.925633 255 164 0 0.523215
-0.085248 -0.035150 0.927642 255 189 0 0.475794
-0.085121 -0.037802 0.930800 255 184 0 0.484227
-0.084949 -0.034469 0.929722 255 182 0 0.487358
-0.084882 -0.037181 0.932939 255 191 0 0.469420
-0.085246 -0.040339 0.934044 255 158 0 0.534453
-0.084741 -0.033824 0.931814 255 184 0 0.483410
-0.090671 -0.021390 0.922367 255 147 0 0.552259
-0.089982 -0.020856 0.924660 255 147 0 0.552223
-0.088629 -0.024145 0.924934 255 191 0 0.471841
-0.087994 -0.023738 0.927173 255 139 0 0.568354
-0.089310 -0.020361 0.926956 255 195 0 0.462940
-0.086842 -0.027229 0.927633 255 160 0 0.528660
-0.087472 -0.023218 0.929501 255 149 0 0.549571
-0.086418 -0.026685 0.929956 255 189 0 0.475575
-0.085976 -0.026166 0.932326 255 172 0 0.506754
-0.088728 -0.019829 0.929271 255 141 0 0.564452
-0.087000 -0.022747 0.931818 255 153 0 0.540134
-0.088179 -0.019319 0.931538 255 166 0 0.519104
-0.085532 -0.030282 0.930675 255 149 0 0.547637
-0.085168 -0.029673 0.933021 255 143 0 0.561225
-0.085797 -0.030758 0.928563 255 164 0 0.521609
-0.086103 -0.031487 0.926444 255 199 0 0.453465
-0.087249 -0.027734 0.925515 255 164 0 0.522776
-0.087692 -0.028353 0.923374 255 189 0 0.474137
-0.086497 -0.032091 0.924367 255 158 0 0.532065
-0.089102 -0.024801 0.922737 255 125 0 0.595971
-0.087855 -0.018779 0.933948 255 166 0 0.518505
-0.086769 -0.021968 0.934182 255 153 0 0.539407
-0.086587 -0.021584 0.936588 255 168 0 0.513221
-0.087566 -0.018345 0.936356 255 116 0 0.612802
-0.085716 -0.024840 0.937008 255 151 0 0.543976
-0.085569 -0.024316 0.939431 255 158 0 0.534986
-0.084918 -0.027515 0.940009 255 203 0 0.446922
-0.084948 -0.028198 0.937634 255 176 0 0.498165
-0.085008 -0.028946 0.935370 255 174 0 0.501614
-0.085807 -0.025435 0.934666 255 207 0 0.441329
-0.095884 -0.052413 0.953003 255 174 0 0.503900
-0.095428 -0.051074 0.955109 255 172 0 0.505561
-0.096532 -0.050239 0.957683 255 172 0 0.504942
-0.099776 -0.051054 0.958556 255 174 0 0.500518
-0.100484 -0.052384 0.956330 255 174 0 0.500398
-0.099411 -0.053305 0.953737 255 174 0 0.500928
-0.102927 -0.054049 0.954601 255 158 0 0.532772
-0.106477 -0.051306 0.959803 255 166 0 0.517729
-0.107440 -0.052581 0.957500 255 168 0 0.514086
-0.106612 -0.053982 0.954944 255 176 0 0.497886
-0.110212 -0.053805 0.955479 255 166 0 0.518652
-0.103886 -0.052715 0.957058 255 135 0 0.577077
-0.103078 -0.051418 0.959262 255 149 0 0.549081
-0.110803 -0.052032 0.957966 255 170 0 0.511431
-0.109774 -0.050730 0.960260 255 172 0 0.505097
-0.112983 -0.049774 0.960607 255 180 0 0.489761
-0.114144 -0.051088 0.958177 255 184 0 0.484262
-0.113661 -0.052855 0.955676 255 184 0 0.482768
-0.117001 -0.051980 0.955853 255 197 0 0.458731
-0.118834 -0.047081 0.960913 255 197 0 0.457626
-0.120197 -0.048489 0.958278 255 193 0 0.465931
-0.120038 -0.050539 0.955762 255 201 0 0.451510
-0.123078 -0.049235 0.955601 255 215 0 0.425102
-0.117201 -0.049911 0.958391 255 191 0 0.468750
-0.115982 -0.048523 0.960877 255 189 0 0.473583
-0.124600 -0.050601 0.952845 255 201 0 0.452520
-0.124467 -0.052564 0.950445 249 244 0 0.369236
-0.125980 -0.053923 0.947719 255 195 0 0.464721
-0.125821 -0.055862 0.945364 255 195 0 0.464666
-0.129203 -0.054723 0.944736 255 187 0 0.480108
-0.122622 -0.055183 0.948337 255 184 0 0.483844
-0.122459 -0.057142 0.945924 255 162 0 0.525050
-0.121234 -0.053850 0.950842 255 207 0 0.440293
-0.119856 -0.052549 0.953341 255 193 0 0.467698
-0.130718 -0.056147 0.941982 255 215 0 0.424836
-0.130432 -0.058103 0.939673 255 209 0 0.433902
-0.131905 -0.059537 0.936771 255 178 0 0.494439
-0.131568 -0.061462 0.934360 255 178 0 0.495417
-0.135166 -0.060560 0.933152 255 182 0 0.484929
-0.128325 -0.060562 0.937862 255 203 0 0.446192
-0.127957 -0.062505 0.935473 255 180 0 0.490063
-0.126931 -0.059171 0.940525 255 195 0 0.462123
-0.125534 -0.057801 0.943147 255 195 0 0.464408
-0.119925 -0.063739 0.937262 255 174 0 0.503893
-0.118634 -0.062469 0.939678 255 176 0 0.496264
-0.119306 -0.060842 0.941782 255 166 0 0.516703
-0.118052 -0.059530 0.944178 255 172 0 0.504620
-0.118686 -0.057879 0.946262 255 180 0 0.490488
-0.114874 -0.058779 0.946584 255 176 0 0.496359
-0.121852 -0.058819 0.943757 255 195 0 0.463945
-0.123223 -0.060074 0.941251 255 172 0 0.506426
-0.124636 -0.061378 0.938658 255 174 0 0.500939
-0.123980 -0.063002 0.936398 255 178 0 0.495753
-0.113674 -0.057466 0.948888 255 178 0 0.495510
-0.114249 -0.055819 0.951132 255 174 0 0.503793
-0.113098 -0.054593 0.953304 255 172 0 0.505865
-0.116512 -0.053701 0.953490 255 182 0 0.485449
-0.117839 -0.054943 0.951039 255 193 0 0.467056
-0.119184 -0.056215 0.948598 255 207 0 0.438040
-0.086520 -0.042034 0.949992 255 166 0 0.518843
-0.088644 -0.045542 0.951750 255 166 0 0.516160
-0.087778 -0.045087 0.948758 255 168 0 0.512313
-0.089931 -0.048496 0.950485 255 203 0 0.445667
-0.093547 -0.048887 0.956588 255 166 0 0.518277
-0.092488 -0.049249 0.953817 255 170 0 0.509004
-0.092878 -0.050557 0.951682 255 168 0 0.511977
-0.109380 -0.055161 0.953176 255 176 0 0.496706
-0.110524 -0.056384 0.950995 255 156 0 0.535657
-0.109695 -0.057755 0.948696 255 176 0 0.498474
-0.110872 -0.058930 0.946619 255 176 0 0.498358
-0.106767 -0.059204 0.946507 255 174 0 0.500489
-0.105690 -0.057965 0.948444 255 172 0 0.506228
-0.106620 -0.056624 0.950678 255 176 0 0.498664
-0.105697 -0.055370 0.952661 255 160 0 0.530837
-0.115240 -0.061283 0.942313 255 176 0 0.497096
-0.114365 -0.062631 0.940186 255 170 0 0.509270
-0.115689 -0.063798 0.937865 255 178 0 0.495351
-0.111348 -0.064022 0.938392 255 172 0 0.504367
-0.110186 -0.062747 0.940607 255 174 0 0.501328
-0.111107 -0.061411 0.942666 255 176 0 0.499144
-0.109932 -0.060242 0.944597 255 162 0 0.524339
-0.102496 -0.062775 0.938049 255 156 0 0.535303
-0.101494 -0.061540 0.939909 255 182 0 0.484623
-0.100435 -0.060330 0.941633 255 170 0 0.508842
-0.104603 -0.061071 0.942172 255 170 0 0.507984
-0.103643 -0.059804 0.944006 255 174 0 0.503673
-0.102703 -0.058542 0.945875 255 174 0 0.501909
-0.099495 -0.059047 0.943474 255 172 0 0.505811
-0.098635 -0.057746 0.945289 255 174 0 0.502892
-0.105795 -0.062239 0.940230 255 172 0 0.507568
-0.107016 -0.063402 0.938289 255 170 0 0.508471
-0.097831 -0.056423 0.947140 255 174 0 0.503098
-0.098946 -0.055536 0.949488 255 174 0 0.502362
-0.100086 -0.054650 0.951768 255 174 0 0.501601
-0.096447 -0.053778 0.951003 255 170 0 0.508029
-0.102759 -0.056338 0.950150 255 156 0 0.536375
-0.101721 -0.057260 0.947838 255 174 0 0.501579
-0.095375 -0.054144 0.948409 255 172 0 0.504742
-0.094293 -0.054498 0.945809 255 197 0 0.459451
-0.094992 -0.055801 0.943954 255 193 0 0.465634
-0.091399 -0.053692 0.942689 255 187 0 0.478909
-0.091031 -0.052388 0.944626 255 170 0 0.511313
-0.092109 -0.052147 0.947168 255 170 0 0.510242
-0.091702 -0.050901 0.949124 255 141 0 0.563266
-0.096266 -0.058258 0.940307 255 170 0 0.508475
-0.097186 -0.059568 0.938517 255 158 0 0.534410
-0.098213 -0.060831 0.936732 255 170 0 0.510645
-0.093840 -0.058565 0.935410 255 168 0 0.511795
-0.093129 -0.057332 0.937201 255 207 0 0.437955
-0.092528 -0.056097 0.939012 255 184 0 0.484221
-0.093763 -0.055979 0.941452 255 166 0 0.517887
-0.089342 -0.051976 0.936909 255 195 0 0.461765
-0.088996 -0.050975 0.938796 255 174 0 0.502981
-0.088726 -0.049962 0.940751 255 182 0 0.484658
-0.089868 -0.053162 0.935050 255 153 0 0.541384
-0.090468 -0.054344 0.933225 255 162 0 0.527295
-0.088076 -0.047401 0.944601 255 209 0 0.434645
-0.087965 -0.046265 0.946677 255 162 0 0.526135
-0.088376 -0.048661 0.942682 255 160 0 0.530963
-0.092801 -0.018815 0.922210 255 191 0 0.472184
-0.091919 -0.018378 0.924569 255 156 0 0.535584
-0.094040 -0.015846 0.924491 255 162 0 0.527144
-0.095006 -0.016338 0.922159 255 153 0 0.541826
-0.093227 -0.015343 0.926897 255 158 0 0.532528
-0.096295 -0.013444 0.924651 255 166 0 0.519317
-0.095385 -0.012870 0.926999 255 164 0 0.521485
-0.097537 -0.010536 0.927123 255 139 0 0.569081
-0.097279 -0.014006 0.922249 255 156 0 0.535515
-0.098534 -0.011198 0.924788 255 168 0 0.514805
-0.099566 -0.011869 0.922424 255 168 0 0.512977
-0.094532 -0.012366 0.929339 255 162 0 0.525985
-0.096664 -0.009949 0.929563 255 168 0 0.514626
-0.095820 -0.009378 0.931950 255 166 0 0.516316
-0.093846 -0.011723 0.931658 255 164 0 0.522527
-0.092556 -0.014786 0.929186 255 139 0 0.566478
-0.091903 -0.014218 0.931472 255 158 0 0.531556
-0.090630 -0.017268 0.929139 255 127 0 0.590918
-0.091220 -0.017837 0.926840 255 131 0 0.585866
-0.090002 -0.016680 0.931401 255 143 0 0.561607
-0.103061 -0.008726 0.925018 255 172 0 0.506442
-0.104183 -0.009517 0.922354 255 172 0 0.506650
-0.101940 -0.007982 0.927533 255 172 0 0.507697
-0.106338 -0.005728 0.927654 255 149 0 0.547046
-0.107485 -0.006501 0.925072 255 160 0 0.530675
-0.108598 -0.007446 0.922296 255 170 0 0.509369
-0.103102 -0.006079 0.930193 255 172 0 0.505040
-0.104248 -0.004188 0.932972 255 147 0 0.551929
-0.100059 -0.006637 0.932421 255 172 0 0.507390
-0.097242 -0.007349 0.934837 255 139 0 0.567437
-0.101405 -0.004630 0.935502 255 172 0 0.505925
-0.090949 -0.013251 0.936390 255 162 0 0.525574
-0.089541 -0.016226 0.933894 255 135 0 0.575544
-0.091376 -0.013710 0.933919 255 158 0 0.532006
-0.093260 -0.011219 0.934114 255 164 0 0.522599
-0.111512 -0.005879 0.924996 255 162 0 0.524954
-0.112803 -0.006823 0.922203 255 176 0 0.497614
-0.110278 -0.005041 0.927778 255 170 0 0.508273
-0.114306 -0.004304 0.927626 255 174 0 0.500594
-0.115545 -0.005204 0.924639 255 176 0 0.496578
-0.116798 -0.006287 0.921796 255 176 0 0.497460
-0.111113 -0.003821 0.930497 255 164 0 0.522640
-0.111893 -0.002570 0.933401 255 168 0 0.515317
-0.108084 -0.003331 0.933243 255 176 0 0.499875
-0.107235 -0.004515 0.930389 255 160 0 0.528388
-0.119173 -0.005881 0.924631 255 174 0 0.503753
-0.120435 -0.006902 0.921489 255 182 0 0.486701
-0.117854 -0.004883 0.927624 255 170 0 0.509223
-0.121397 -0.005322 0.927294 255 178 0 0.492385
-0.122696 -0.006381 0.924239 255 172 0 0.504914
-0.123986 -0.007421 0.921050 255 166 0 0.515896
-0.118313 -0.004192 0.930538 255 176 0 0.496667
-0.118793 -0.003491 0.933570 255 174 0 0.500840
-0.115386 -0.003047 0.933541 255 176 0 0.496669
-0.114856 -0.003673 0.930519 255 170 0 0.508753
-0.112488 -0.001869 0.936703 255 172 0 0.506242
-0.115913 -0.002267 0.936861 255 176 0 0.496265
-0.105235 -0.002936 0.936039 255 162 0 0.524357
-0.109019 -0.002028 0.936368 255 166 0 0.515937
0.049688 0.004503 0.902536 255 176 0 0.499863
0.051966 0.004786 0.900211 255 174 0 0.501921
0.048779 0.005231 0.898571 255 170 0 0.509099
0.054281 0.005002 0.897852 255 184 0 0.483951
0.051079 0.005438 0.896181 255 174 0 0.500648
0.053398 0.005593 0.893792 255 180 0 0.488285
0.056628 0.005177 0.895504 255 174 0 0.501649
0.047926 0.005784 0.894538 255 174 0 0.501437
0.050240 0.005933 0.892136 255 174 0 0.502006
0.047076 0.006192 0.890436 255 174 0 0.500041
0.044982 0.005949 0.892945 255 174 0 0.500481
0.045849 0.005475 0.897008 255 166 0 0.516248
0.042905 0.005635 0.895410 255 174 0 0.500391
0.043813 0.005076 0.899397 255 164 0 0.520870
0.046746 0.004839 0.900982 255 184 0 0.482650
0.044726 0.004362 0.903339 255 176 0 0.496469
0.040864 0.005216 0.897803 255 176 0 0.499535
0.041790 0.004558 0.901753 255 174 0 0.501045
0.038854 0.004705 0.900146 255 176 0 0.498990
0.047660 0.004064 0.904913 255 182 0 0.487043
0.058533 0.005013 0.893124 255 176 0 0.499581
0.060622 0.004695 0.890869 255 176 0 0.496953
0.057149 0.005160 0.888967 255 187 0 0.479763
0.062726 0.004333 0.888623 255 187 0 0.479371
0.059197 0.004805 0.886670 255 187 0 0.479015
0.061235 0.004354 0.884373 255 156 0 0.538756
0.064820 0.003883 0.886380 255 162 0 0.525033
0.055876 0.005175 0.884798 255 182 0 0.487616
0.057899 0.004754 0.882467 255 168 0 0.514127
0.054615 0.005082 0.880583 255 180 0 0.491542
0.052732 0.005395 0.883028 255 170 0 0.508660
0.053992 0.005461 0.887231 255 172 0 0.506000
0.050842 0.005680 0.885492 255 176 0 0.497134
0.052119 0.005716 0.889674 255 170 0 0.511705
0.055268 0.005395 0.891367 255 176 0 0.499734
0.048959 0.005954 0.887963 255 176 0 0.499162
0.041712 0.005728 0.873316 255 180 0 0.491424
0.039972 0.005946 0.875902 255 178 0 0.495848
0.043085 0.005957 0.877641 255 178 0 0.495511
0.041352 0.006171 0.880230 255 189 0 0.472762
0.038246 0.006144 0.878495 255 176 0 0.497416
0.044437 0.006130 0.881944 255 176 0 0.497054
0.039630 0.006381 0.882841 255 176 0 0.497863
0.042710 0.006350 0.884552 255 176 0 0.498055
0.040989 0.006517 0.887133 255 176 0 0.498370
0.036520 0.006343 0.881093 255 176 0 0.497907
0.037905 0.006551 0.885416 255 176 0 0.497839
0.034798 0.006506 0.883664 255 176 0 0.497540
0.045763 0.006221 0.886230 255 182 0 0.485421
0.044043 0.006403 0.888809 255 176 0 0.499194
0.047655 0.005949 0.883734 255 176 0 0.497359
0.049542 0.005657 0.881266 255 178 0 0.494790
0.046325 0.005855 0.879467 255 178 0 0.495039
0.048230 0.005553 0.876983 255 178 0 0.492776
0.051441 0.005356 0.878786 255 164 0 0.522972
0.044986 0.005675 0.875161 255 178 0 0.492998
0.032927 0.006190 0.886259 255 174 0 0.500716
0.035814 0.006276 0.887922 255 176 0 0.497303
0.033969 0.005891 0.890489 255 176 0 0.496540
0.031083 0.005792 0.888834 255 176 0 0.496104
0.036828 0.005924 0.892111 255 176 0 0.497447
0.032142 0.005370 0.892988 255 178 0 0.495806
0.034991 0.005414 0.894599 255 176 0 0.496860
0.033201 0.004771 0.897015 255 178 0 0.495894
0.029271 0.005255 0.891323 255 178 0 0.495204
0.030360 0.004700 0.895404 255 178 0 0.494937
0.027482 0.004555 0.893759 255 178 0 0.494406
0.037830 0.005397 0.896174 255 176 0 0.497824
0.036035 0.004761 0.898582 255 176 0 0.497555
0.039880 0.005820 0.893786 255 176 0 0.498747
0.041954 0.006155 0.891322 255 176 0 0.499248
0.038895 0.006261 0.889646 255 176 0 0.498134
-0.010554 -0.059774 0.938536 255 193 0 0.465496
-0.012434 -0.055860 0.937899 255 184 0 0.483121
-0.012203 -0.063770 0.937622 255 176 0 0.496270
-0.014086 -0.059740 0.936949 255 178 0 0.492787
-0.015738 -0.063745 0.936066 255 174 0 0.501715
-0.016001 -0.055750 0.936294 255 180 0 0.490371
-0.013844 -0.067820 0.936728 255 187 0 0.476595
-0.015475 -0.072031 0.935934 255 180 0 0.488977
-0.011916 -0.071905 0.937243 255 172 0 0.504727
-0.010281 -0.067722 0.938083 255 176 0 0.498647
-0.017646 -0.059782 0.935528 255 174 0 0.503557
-0.019561 -0.055724 0.934830 255 178 0 0.494436
-0.019274 -0.063886 0.934763 255 174 0 0.503754
-0.021172 -0.059821 0.934070 255 174 0 0.500191
-0.022782 -0.063949 0.933312 255 172 0 0.504047
-0.023109 -0.055744 0.933320 255 178 0 0.493908
-0.020892 -0.068102 0.934103 255 160 0 0.528225
-0.022531 -0.072504 0.933513 255 162 0 0.526307
-0.019001 -0.072275 0.934741 255 178 0 0.492646
-0.017356 -0.067917 0.935356 255 149 0 0.548970
-0.019925 -0.089959 0.929810 255 174 0 0.503696
-0.018864 -0.085365 0.931465 255 166 0 0.519425
-0.016340 -0.089462 0.930894 255 164 0 0.520377
-0.017767 -0.080840 0.933000 255 168 0 0.511747
-0.015295 -0.084852 0.932521 255 187 0 0.478024
-0.014204 -0.080321 0.933994 255 166 0 0.519428
-0.012820 -0.088845 0.931891 255 158 0 0.533533
-0.016636 -0.076366 0.934469 255 168 0 0.514674
-0.020145 -0.076659 0.933323 255 170 0 0.509749
-0.021282 -0.081165 0.931848 255 170 0 0.509215
-0.011780 -0.084447 0.933619 255 172 0 0.507654
-0.009254 -0.088497 0.933010 255 166 0 0.518797
-0.010699 -0.080111 0.935248 255 166 0 0.517907
-0.008241 -0.084149 0.934728 255 164 0 0.520638
-0.009597 -0.075903 0.936913 255 170 0 0.510874
-0.013070 -0.076047 0.935641 255 168 0 0.515527
0.016930 0.005645 0.860443 255 176 0 0.498604
0.015507 0.005783 0.863099 255 176 0 0.498592
0.018405 0.005838 0.864535 255 176 0 0.498570
0.016963 0.006006 0.867193 255 176 0 0.498037
0.014068 0.005946 0.865741 255 176 0 0.497907
0.019872 0.006035 0.868672 255 176 0 0.498294
0.015516 0.006182 0.869850 255 176 0 0.497363
0.018424 0.006196 0.871338 255 176 0 0.497605
0.016981 0.006375 0.874004 255 176 0 0.496797
0.012632 0.006126 0.868379 255 176 0 0.497054
0.014082 0.006346 0.872498 255 164 0 0.520331
0.011190 0.006287 0.871011 255 176 0 0.496581
0.021324 0.006212 0.872841 255 176 0 0.497824
0.019883 0.006382 0.875529 255 176 0 0.497044
0.022780 0.006377 0.877074 255 176 0 0.497200
0.024340 0.006221 0.874445 255 176 0 0.497988
0.022891 0.006052 0.870226 255 176 0 0.498490
0.025913 0.006057 0.871818 255 178 0 0.493201
0.024468 0.005907 0.867615 255 172 0 0.505907
0.021439 0.005878 0.866066 255 176 0 0.498636
0.023014 0.005754 0.863451 255 176 0 0.498187
0.027499 0.005901 0.869174 255 176 0 0.498527
0.026053 0.005778 0.864986 255 176 0 0.497957
0.029087 0.005766 0.866523 255 176 0 0.497480
0.019963 0.005714 0.861941 255 176 0 0.498468
0.009658 0.005899 0.873739 255 178 0 0.495793
0.012411 0.005975 0.875143 255 178 0 0.495969
0.010862 0.005474 0.877864 255 178 0 0.495135
0.008092 0.005388 0.876473 255 178 0 0.494897
0.013639 0.005532 0.879277 255 178 0 0.493114
0.009297 0.004832 0.880581 255 178 0 0.494325
0.012093 0.004906 0.882004 255 178 0 0.494554
0.010538 0.004148 0.884704 255 178 0 0.494024
0.006521 0.004751 0.879202 255 178 0 0.494216
0.007735 0.004103 0.883315 255 178 0 0.494066
0.004931 0.004061 0.881950 255 178 0 0.493970
0.014893 0.004961 0.883421 255 178 0 0.494412
0.013346 0.004191 0.886116 255 178 0 0.493965
0.016157 0.004209 0.887540 255 178 0 0.493579
0.017830 0.004988 0.884955 255 178 0 0.494353
0.016570 0.005587 0.880815 255 178 0 0.495411
0.019481 0.005601 0.882363 255 178 0 0.495386
0.018222 0.006042 0.878186 255 168 0 0.513341
0.015319 0.006019 0.876646 255 178 0 0.496021
0.021120 0.006041 0.879736 255 166 0 0.518588
0.026304 0.005273 0.889689 255 178 0 0.495009
0.028111 0.005818 0.887202 255 180 0 0.490369
0.025117 0.005792 0.885537 255 178 0 0.495498
0.029948 0.006227 0.884639 255 176 0 0.496586
0.026941 0.006209 0.882992 255 176 0 0.496407
0.028821 0.006528 0.880393 255 170 0 0.508168
0.031820 0.006544 0.882045 255 187 0 0.477057
0.023933 0.006150 0.881328 255 180 0 0.490911
0.025803 0.006460 0.878724 255 176 0 0.497358
0.022305 0.005712 0.883951 255 178 0 0.495393
0.020676 0.005116 0.886532 255 178 0 0.494400
0.023498 0.005211 0.888107 255 193 0 0.467856
0.021872 0.004451 0.890660 255 178 0 0.493602
0.019032 0.004340 0.889091 255 178 0 0.493539
0.024688 0.004523 0.892220 255 174 0 0.502450
0.033382 0.006393 0.879397 255 176 0 0.498365
0.035120 0.006201 0.876801 255 176 0 0.497895
0.031960 0.006190 0.875088 255 176 0 0.498337
0.036846 0.006015 0.874208 255 170 0 0.510086
0.033693 0.006022 0.872500 255 176 0 0.497559
0.035441 0.005854 0.869906 255 178 0 0.495982
0.038586 0.005818 0.871612 255 174 0 0.503228
0.030530 0.005988 0.870793 255 176 0 0.498138
0.032275 0.005836 0.868221 255 176 0 0.496929
0.028947 0.006138 0.873441 255 176 0 0.498568
0.027362 0.006327 0.876114 255 176 0 0.498150
0.030388 0.006377 0.877758 255 176 0 0.498179
0.025565 0.003144 0.896159 255 178 0 0.492844
0.028213 0.003334 0.897732 255 178 0 0.493750
0.026295 0.001792 0.900103 255 178 0 0.493521
0.023624 0.001605 0.898556 255 168 0 0.512775
0.028923 0.001959 0.901640 255 178 0 0.494533
0.024338 0.000242 0.902530 255 164 0 0.521807
0.026992 0.000384 0.904030 255 176 0 0.497958
0.025008 -0.001145 0.906513 255 168 0 0.514653
0.021635 0.000088 0.901030 255 162 0 0.526029
0.022298 -0.001227 0.905066 255 162 0 0.526252
0.019566 -0.001323 0.903626 255 158 0 0.533038
0.029617 0.000523 0.905529 255 153 0 0.540338
0.027665 -0.001071 0.907973 255 170 0 0.511221
0.030293 -0.001012 0.909455 255 172 0 0.507141
0.032465 0.000559 0.907070 255 176 0 0.497967
0.031776 0.002075 0.903207 255 178 0 0.495689
0.034613 0.002087 0.904761 255 176 0 0.497528
0.033912 0.003503 0.900906 255 168 0 0.512582
0.031071 0.003457 0.899332 255 180 0 0.488566
0.036733 0.003481 0.902467 255 176 0 0.498070
0.017382 -0.003059 0.906383 255 125 0 0.594258
0.019888 -0.003054 0.907762 255 120 0 0.603224
0.017694 -0.004624 0.910536 255 102 0 0.639989
0.015166 -0.004577 0.909194 255 108 0 0.626492
0.020206 -0.004687 0.911892 255 96 0 0.648482
0.015431 -0.006058 0.913408 255 110 0 0.624894
0.017911 -0.006162 0.914783 255 102 0 0.638800
0.015707 -0.007674 0.917601 255 127 0 0.592856
0.012910 -0.005993 0.912068 255 118 0 0.608792
