ply
format ascii 1.0
comment VCGLIB generated
element vertex 983
property float x
property float y
property float z
property uchar red
property uchar green
property uchar blue
property float quality
end_header
0.004487 -0.131449 0.827613 159 255 89 0.173280
0.002516 -0.131709 0.831144 161 255 87 0.179042
0.000560 -0.131949 0.834633 164 255 84 0.186485
0.003837 -0.131368 0.817738 161 255 87 0.177026
0.007171 -0.129692 0.815298 157 255 91 0.168030
0.009013 -0.128456 0.811868 157 255 91 0.168272
0.012332 -0.126720 0.809406 153 255 94 0.161298
0.009372 -0.127657 0.807451 152 255 96 0.156902
0.011973 -0.127519 0.813820 152 255 96 0.159576
0.010147 -0.128752 0.817239 155 255 93 0.167909
0.008319 -0.129960 0.820644 159 255 89 0.173101
-0.007086 -0.134206 0.829918 161 255 87 0.179236
-0.005047 -0.134026 0.826343 168 255 80 0.191902
-0.008183 -0.134875 0.824512 171 255 76 0.199800
-0.010220 -0.135055 0.828085 166 255 82 0.188268
-0.004568 -0.134237 0.821832 166 255 82 0.190229
-0.004089 -0.134429 0.817312 162 255 85 0.179816
-0.001052 -0.133496 0.819232 162 255 85 0.182467
-0.001535 -0.133305 0.823764 162 255 85 0.180964
-0.013374 -0.135931 0.826161 166 255 82 0.188807
-0.011285 -0.135824 0.822515 166 255 82 0.189747
-0.009245 -0.135621 0.818927 170 255 78 0.198149
-0.007197 -0.135395 0.815323 162 255 85 0.182922
-0.001303 -0.131897 0.804882 159 255 89 0.175633
0.000605 -0.130672 0.801413 162 255 85 0.182831
-0.003216 -0.133102 0.808336 166 255 82 0.188960
-0.000262 -0.132069 0.810425 170 255 78 0.196244
0.001647 -0.130852 0.806962 164 255 84 0.184536
0.003548 -0.129615 0.803505 155 255 93 0.167551
-0.003655 -0.133769 0.812830 162 255 85 0.180287
-0.006767 -0.134740 0.810849 164 255 84 0.186777
0.004624 -0.129886 0.808902 157 255 91 0.169392
0.006469 -0.128638 0.805475 155 255 93 0.164884
0.002769 -0.131110 0.812333 161 255 87 0.179687
0.000860 -0.132315 0.815791 161 255 87 0.175927
0.010427 -0.105215 0.775898 130 255 118 0.112754
0.010697 -0.101601 0.774081 141 255 107 0.133662
0.012346 -0.097658 0.773340 128 255 120 0.105975
0.012594 -0.094075 0.771527 130 255 118 0.112318
0.015364 -0.093360 0.773685 143 255 105 0.138467
0.015048 -0.096878 0.775443 135 255 112 0.122630
0.013409 -0.100836 0.776181 134 255 114 0.120158
0.013093 -0.104385 0.777937 139 255 109 0.131940
0.011426 -0.108354 0.778684 139 255 109 0.129602
0.014078 -0.107524 0.780723 139 255 109 0.131713
0.010940 -0.090727 0.769325 150 255 98 0.152987
0.010551 -0.086947 0.768052 155 255 93 0.164917
0.011659 -0.082920 0.767984 152 255 96 0.157863
0.014559 -0.082268 0.770267 152 255 96 0.157409
0.013427 -0.086306 0.770341 150 255 98 0.153490
0.013717 -0.089998 0.771474 146 255 102 0.144578
0.020849 -0.081077 0.775215 150 255 98 0.153355
0.019492 -0.085039 0.775108 146 255 102 0.147805
0.019618 -0.088658 0.776104 137 255 111 0.128136
0.018291 -0.092645 0.775954 141 255 107 0.133356
0.021228 -0.091939 0.778214 141 255 107 0.133480
0.016671 -0.089360 0.773849 137 255 111 0.128739
0.016402 -0.085660 0.772712 139 255 109 0.130019
0.017747 -0.081710 0.772833 150 255 98 0.152730
0.020854 -0.095420 0.779884 134 255 114 0.119822
0.019055 -0.099318 0.780518 137 255 111 0.128330
0.018655 -0.102806 0.782189 132 255 116 0.116654
0.016874 -0.106740 0.782807 141 255 107 0.133017
0.019655 -0.105932 0.784901 134 255 114 0.120303
0.015879 -0.103619 0.780093 132 255 116 0.115907
0.016197 -0.100063 0.778338 128 255 120 0.107271
0.017983 -0.096177 0.777709 139 255 109 0.130261
0.022708 -0.124339 0.820576 150 255 98 0.155434
0.024478 -0.123140 0.817216 157 255 91 0.171660
0.020937 -0.125518 0.823934 159 255 89 0.173480
0.024068 -0.124665 0.825874 153 255 94 0.161008
0.025838 -0.123484 0.822521 150 255 98 0.153385
0.027605 -0.122283 0.819162 146 255 102 0.145002
0.020720 -0.126246 0.828269 150 255 98 0.154489
0.020488 -0.126949 0.832597 155 255 93 0.165481
0.017294 -0.127886 0.830725 152 255 96 0.157411
0.017515 -0.127175 0.826392 157 255 91 0.170094
0.029143 -0.122701 0.824486 146 255 102 0.146767
0.030869 -0.121553 0.821165 144 255 103 0.143910
0.027421 -0.123833 0.827805 152 255 96 0.156833
0.025640 -0.124988 0.831163 152 255 96 0.159393
0.023854 -0.126122 0.834522 155 255 93 0.167402
0.018332 -0.126793 0.844809 150 255 98 0.155807
0.020207 -0.126577 0.841367 155 255 93 0.166636
0.016746 -0.127474 0.839523 155 255 93 0.167524
0.014864 -0.127693 0.842961 155 255 93 0.166637
0.020363 -0.126782 0.836995 157 255 91 0.169659
0.023711 -0.125949 0.838907 152 255 96 0.159425
0.011611 -0.128633 0.841125 159 255 89 0.173819
0.013546 -0.128402 0.837644 155 255 93 0.167700
0.015425 -0.128162 0.834186 152 255 96 0.158701
0.046746 -0.077687 0.792824 162 255 85 0.182562
0.044629 -0.081311 0.792483 161 255 87 0.179462
0.046059 -0.084619 0.794199 164 255 84 0.184862
0.043981 -0.088241 0.793808 150 255 98 0.153360
0.042531 -0.084924 0.792100 164 255 84 0.185893
0.040456 -0.088545 0.791710 150 255 98 0.155894
0.040884 -0.081615 0.790301 155 255 93 0.167436
0.042991 -0.077998 0.790645 164 255 84 0.186178
0.045100 -0.091377 0.796362 152 255 96 0.156829
0.042731 -0.094841 0.796777 148 255 100 0.152295
0.042059 -0.098148 0.798209 148 255 100 0.151521
0.041396 -0.101470 0.799633 148 255 100 0.150556
0.038056 -0.101836 0.797537 143 255 105 0.140490
0.038639 -0.098486 0.796109 143 255 105 0.136919
0.039235 -0.095152 0.794661 148 255 100 0.148638
0.041592 -0.091677 0.794260 153 255 94 0.160772
0.031630 -0.102927 0.793285 137 255 111 0.125921
0.032163 -0.099542 0.791813 135 255 112 0.123627
0.034348 -0.095926 0.791445 148 255 100 0.151178
0.034886 -0.092573 0.789947 144 255 103 0.144470
0.037114 -0.089003 0.789531 144 255 103 0.141463
0.033771 -0.089480 0.787330 150 255 98 0.155023
0.038221 -0.092102 0.792156 144 255 103 0.142125
0.035428 -0.099030 0.793995 143 255 105 0.139966
0.034847 -0.102380 0.795421 139 255 109 0.132244
0.033864 -0.085984 0.786582 152 255 96 0.157502
0.035742 -0.082287 0.786977 161 255 87 0.176311
0.035876 -0.078817 0.786175 161 255 87 0.178342
0.039420 -0.078395 0.788482 168 255 80 0.191633
0.038983 -0.085306 0.789925 153 255 94 0.161203
0.021576 -0.102080 0.784390 141 255 107 0.134728
0.021972 -0.098584 0.782726 141 255 107 0.136425
0.023900 -0.094759 0.782202 137 255 111 0.126190
0.024302 -0.091288 0.780505 141 255 107 0.135845
0.027372 -0.090643 0.782791 139 255 109 0.130194
0.026902 -0.094035 0.784382 135 255 112 0.121349
0.024969 -0.097858 0.784920 143 255 105 0.140295
0.024501 -0.101284 0.786488 137 255 111 0.126901
0.022578 -0.105131 0.787000 141 255 107 0.136698
0.025497 -0.104337 0.789086 137 255 111 0.127490
0.022736 -0.088057 0.778538 143 255 105 0.138459
0.022613 -0.084430 0.777526 141 255 107 0.135582
0.024150 -0.080568 0.777795 148 255 100 0.148614
0.027357 -0.079992 0.780197 152 255 96 0.157348
0.025796 -0.083849 0.779957 153 255 94 0.162615
0.025809 -0.087395 0.780824 148 255 100 0.151528
0.032474 -0.079310 0.783923 161 255 87 0.175782
0.032357 -0.082774 0.784714 153 255 94 0.162053
0.030650 -0.086552 0.784345 153 255 94 0.163758
0.030568 -0.090050 0.785074 146 255 102 0.147564
0.029045 -0.083295 0.782339 150 255 98 0.152461
0.031676 -0.093167 0.787802 139 255 109 0.130905
0.031154 -0.096522 0.789289 135 255 112 0.123350
0.029088 -0.100248 0.789729 137 255 111 0.125615
0.028566 -0.103634 0.791195 137 255 111 0.128802
0.028026 -0.097166 0.787106 132 255 116 0.114554
0.009513 -0.125793 0.803330 155 255 93 0.165405
0.009654 -0.123919 0.799204 150 255 98 0.155932
0.006608 -0.126782 0.801350 155 255 93 0.164154
0.006745 -0.124910 0.797216 150 255 98 0.154420
0.009781 -0.122040 0.795074 148 255 100 0.152076
0.009909 -0.120146 0.790953 148 255 100 0.150956
0.012705 -0.119233 0.792958 144 255 103 0.140815
0.012587 -0.121131 0.797077 141 255 107 0.135724
0.012464 -0.123026 0.801205 148 255 100 0.150877
0.015499 -0.118323 0.794977 144 255 103 0.141643
0.003767 -0.127747 0.799341 157 255 91 0.169580
0.003987 -0.125872 0.795165 162 255 85 0.180039
0.000821 -0.128818 0.797254 157 255 91 0.170532
0.004191 -0.123994 0.791002 148 255 100 0.151438
0.007147 -0.121131 0.788887 152 255 96 0.156517
0.006953 -0.123027 0.793051 146 255 102 0.144615
0.010399 -0.111511 0.781234 135 255 112 0.124677
0.009358 -0.114664 0.783786 150 255 98 0.153532
0.012010 -0.113851 0.785818 139 255 109 0.132073
0.013050 -0.110691 0.783268 139 255 109 0.130281
0.009630 -0.117406 0.787366 146 255 102 0.144571
0.006878 -0.118394 0.785305 144 255 103 0.141447
0.015843 -0.109822 0.785327 126 255 121 0.103544
0.014806 -0.112905 0.787838 144 255 103 0.143713
0.017579 -0.112116 0.789939 139 255 109 0.130011
0.018615 -0.109018 0.787425 134 255 114 0.118750
0.015158 -0.115621 0.791407 139 255 109 0.129502
0.012357 -0.116545 0.789394 144 255 103 0.143279
0.021350 -0.122128 0.811179 148 255 100 0.152047
0.021347 -0.120263 0.807098 148 255 100 0.151532
0.018321 -0.123037 0.809229 148 255 100 0.149741
0.018320 -0.121186 0.805147 150 255 98 0.154362
0.021328 -0.118407 0.803032 135 255 112 0.124656
0.021298 -0.116535 0.798972 143 255 105 0.137602
0.024318 -0.115708 0.800980 144 255 103 0.142629
0.024349 -0.117583 0.805037 144 255 103 0.142794
0.024360 -0.119454 0.809098 137 255 111 0.128838
0.027332 -0.114877 0.802979 137 255 111 0.125578
0.015349 -0.123920 0.807263 143 255 105 0.136775
0.015410 -0.122064 0.803165 150 255 98 0.152404
0.012401 -0.124873 0.805303 152 255 96 0.158618
0.015460 -0.120197 0.799070 141 255 107 0.135651
0.018403 -0.117430 0.796969 144 255 103 0.141293
0.018366 -0.119310 0.801058 146 255 102 0.148103
0.021536 -0.108174 0.789473 137 255 111 0.126322
0.020491 -0.111204 0.791938 135 255 112 0.122744
0.023402 -0.110419 0.794026 139 255 109 0.129549
0.024459 -0.107391 0.791555 139 255 109 0.130275
0.020896 -0.113864 0.795454 141 255 107 0.135726
0.017997 -0.114771 0.793455 137 255 111 0.127392
0.027503 -0.106605 0.793613 132 255 116 0.115718
0.026431 -0.109586 0.796041 135 255 112 0.124749
0.029489 -0.108889 0.798137 141 255 107 0.135422
0.030569 -0.105906 0.795712 139 255 109 0.131307
0.026883 -0.112230 0.799514 143 255 105 0.140089
0.023865 -0.113059 0.797508 137 255 111 0.128477
0.041949 -0.104184 0.803067 146 255 102 0.147897
0.040808 -0.106998 0.805436 144 255 103 0.142576
0.038022 -0.110098 0.806772 139 255 109 0.131331
0.036878 -0.112934 0.809134 146 255 102 0.145294
0.033608 -0.113474 0.807077 148 255 100 0.150671
0.034724 -0.110558 0.804692 143 255 105 0.137987
0.037503 -0.107452 0.803367 135 255 112 0.123212
0.038617 -0.104547 0.800978 144 255 103 0.143364
0.037002 -0.114870 0.813176 150 255 98 0.154897
0.035505 -0.116981 0.816170 144 255 103 0.141667
0.032368 -0.119447 0.818166 146 255 102 0.147159
0.029107 -0.120086 0.816141 137 255 111 0.128787
0.032241 -0.117620 0.814144 139 255 109 0.131768
0.033747 -0.115409 0.811124 134 255 114 0.117647
0.024417 -0.121381 0.813200 144 255 103 0.143922
0.027486 -0.118751 0.811150 144 255 103 0.142251
0.027416 -0.116824 0.807066 148 255 100 0.150110
0.030473 -0.114173 0.805034 139 255 109 0.131748
0.030547 -0.116105 0.809114 143 255 105 0.138619
0.030009 -0.111611 0.801634 141 255 107 0.132923
0.032686 -0.108342 0.800285 141 255 107 0.132981
0.033772 -0.105353 0.797850 139 255 109 0.129656
0.025034 -0.024612 0.791873 177 255 71 0.212832
0.025972 -0.027408 0.790662 186 255 62 0.234227
0.023840 -0.027508 0.788965 186 255 62 0.231998
0.024763 -0.030318 0.787783 188 255 60 0.235777
0.026895 -0.030219 0.789466 191 255 57 0.244371
0.022616 -0.030432 0.786113 191 255 57 0.244019
0.025668 -0.033142 0.786626 188 255 60 0.237157
0.023528 -0.033237 0.784953 193 255 55 0.246666
0.024421 -0.036034 0.783820 191 255 57 0.242436
0.027797 -0.033044 0.788298 191 255 57 0.244698
0.026562 -0.035939 0.785471 195 255 53 0.250627
0.028690 -0.035852 0.787146 182 255 66 0.224666
0.021371 -0.033343 0.783292 198 255 49 0.259897
0.022269 -0.036126 0.782159 200 255 48 0.264238
0.020094 -0.036243 0.780516 200 255 48 0.263243
0.019125 -0.033364 0.781585 198 255 49 0.261544
0.020385 -0.030461 0.784390 193 255 55 0.246284
0.018139 -0.030501 0.782667 193 255 55 0.248536
0.019390 -0.027566 0.785487 180 255 67 0.220385
0.021623 -0.027530 0.787224 180 255 67 0.219409
0.020614 -0.024662 0.788357 179 255 69 0.217500
0.017148 -0.027602 0.783753 189 255 58 0.239661
0.018381 -0.024692 0.786608 180 255 67 0.221342
0.016134 -0.024731 0.784863 175 255 73 0.207492
0.022831 -0.024625 0.790112 184 255 64 0.227828
0.029395 -0.039018 0.786420 197 255 51 0.257318
0.027383 -0.039206 0.784902 195 255 53 0.253326
0.028094 -0.042351 0.784176 188 255 60 0.237048
0.030098 -0.042176 0.785703 198 255 49 0.257968
0.026078 -0.042529 0.782663 200 255 48 0.262149
0.028792 -0.045493 0.783474 193 255 55 0.249903
0.026780 -0.045674 0.781970 209 255 39 0.282621
0.030795 -0.045322 0.784982 191 255 57 0.242968
0.024749 -0.045849 0.780473 216 255 31 0.298525
0.022591 -0.045921 0.778850 224 255 24 0.314545
0.023925 -0.042620 0.781024 207 255 40 0.279658
0.021760 -0.042715 0.779403 207 255 40 0.279544
0.023093 -0.039381 0.781602 198 255 49 0.257920
0.025250 -0.039284 0.783247 213 255 35 0.289534
0.020932 -0.039468 0.779953 215 255 33 0.296245
0.014484 -0.046466 0.772214 211 255 37 0.287784
0.016637 -0.046374 0.774010 215 255 33 0.294255
0.015644 -0.043130 0.774356 209 255 39 0.282723
0.013482 -0.043235 0.772571 215 255 33 0.295284
0.017789 -0.043033 0.776171 218 255 30 0.303422
0.014635 -0.039867 0.774738 200 255 48 0.263249
0.016793 -0.039751 0.776536 198 255 49 0.258561
0.015794 -0.036482 0.776900 202 255 46 0.267732
0.012475 -0.039983 0.772928 206 255 42 0.275093
0.013632 -0.036610 0.775092 182 255 66 0.224296
0.011466 -0.036728 0.773288 177 255 71 0.214141
0.018946 -0.039642 0.778332 215 255 33 0.295080
0.017948 -0.036355 0.778707 198 255 49 0.260732
0.019781 -0.042875 0.777776 216 255 31 0.297754
0.020615 -0.046072 0.777226 220 255 28 0.307732
0.018628 -0.046221 0.775615 206 255 42 0.276938
0.010374 -0.033855 0.774268 179 255 69 0.216934
0.012652 -0.033769 0.776145 195 255 53 0.252321
0.011564 -0.030861 0.777121 180 255 67 0.220096
0.009274 -0.030958 0.775261 180 255 67 0.222598
0.013840 -0.030774 0.778997 189 255 58 0.242154
0.010456 -0.027946 0.778133 175 255 73 0.207960
0.012735 -0.027850 0.780014 189 255 58 0.238582
0.011609 -0.024927 0.781052 180 255 67 0.219469
0.008168 -0.028054 0.776259 173 255 75 0.203204
0.009333 -0.025034 0.779149 177 255 71 0.214762
0.007051 -0.025143 0.777248 166 255 82 0.190898
0.015000 -0.027756 0.781913 182 255 66 0.222977
0.013877 -0.024826 0.782957 180 255 67 0.221947
0.015998 -0.030635 0.780826 191 255 57 0.245667
0.016975 -0.033500 0.779767 197 255 51 0.256229
0.014816 -0.033635 0.777956 193 255 55 0.248640
0.042697 -0.026908 0.802005 173 255 75 0.205718
0.043382 -0.029619 0.800555 173 255 75 0.206822
0.041046 -0.029728 0.799074 170 255 78 0.199077
0.044040 -0.032336 0.799142 168 255 80 0.192145
0.041706 -0.032450 0.797665 170 255 78 0.195836
0.042352 -0.035159 0.796271 159 255 89 0.172057
0.044691 -0.035060 0.797742 161 255 87 0.179569
0.039365 -0.032547 0.796185 175 255 73 0.210910
0.040013 -0.035280 0.794804 166 255 82 0.188054
0.037661 -0.035397 0.793347 164 255 84 0.184676
0.036880 -0.032632 0.794615 171 255 76 0.199769
0.038572 -0.029785 0.797488 171 255 76 0.201607
0.036081 -0.029872 0.795910 173 255 75 0.203804
0.037758 -0.027031 0.798810 182 255 66 0.223847
0.040234 -0.026955 0.800410 171 255 76 0.200382
0.039400 -0.024219 0.801772 166 255 82 0.190751
0.035276 -0.027113 0.797220 186 255 62 0.231460
0.036925 -0.024285 0.800165 170 255 78 0.196871
0.034437 -0.024361 0.798563 175 255 73 0.207803
0.041867 -0.024155 0.803381 177 255 71 0.212377
0.045247 -0.038215 0.796849 161 255 87 0.177249
0.045664 -0.041296 0.795831 168 255 80 0.192365
0.043472 -0.041437 0.794497 180 255 67 0.220017
0.046070 -0.044376 0.794839 162 255 85 0.181725
0.043880 -0.044520 0.793503 159 255 89 0.175087
0.041691 -0.044656 0.792174 177 255 71 0.211179
0.039344 -0.044769 0.790739 173 255 75 0.204744
0.041136 -0.041546 0.793041 180 255 67 0.218932
0.038791 -0.041653 0.791588 184 255 64 0.227248
0.040576 -0.038424 0.793918 171 255 76 0.201605
0.042913 -0.038320 0.795380 166 255 82 0.189571
0.038222 -0.038548 0.792475 177 255 71 0.211281
0.033041 -0.045222 0.786512 193 255 55 0.247213
0.032351 -0.042066 0.787220 191 255 57 0.242930
0.034588 -0.041964 0.788763 200 255 48 0.263695
0.031651 -0.038901 0.787953 193 255 55 0.248089
0.033890 -0.038800 0.789499 195 255 53 0.253181
0.033198 -0.035609 0.790227 168 255 80 0.191532
0.030950 -0.035726 0.788688 179 255 69 0.217508
0.036125 -0.038689 0.791034 189 255 58 0.238439
0.035430 -0.035512 0.791790 162 255 85 0.180902
0.036694 -0.041805 0.790169 189 255 58 0.242110
0.037252 -0.044917 0.789318 177 255 71 0.214252
0.035149 -0.045070 0.787915 186 255 62 0.232897
0.030164 -0.032977 0.789929 195 255 53 0.252801
0.029266 -0.030146 0.791103 188 255 60 0.235507
0.031615 -0.030103 0.792754 182 255 66 0.224511
0.028346 -0.027338 0.792311 179 255 69 0.216857
0.030699 -0.027277 0.793970 184 255 64 0.226849
0.029766 -0.024476 0.795196 177 255 71 0.211020
0.027412 -0.024539 0.793531 175 255 73 0.207870
0.033047 -0.027227 0.795625 175 255 73 0.207045
0.032111 -0.024410 0.796874 180 255 67 0.219257
0.033855 -0.029975 0.794324 184 255 64 0.227900
0.034653 -0.032733 0.793041 173 255 75 0.204449
0.032413 -0.032854 0.791481 179 255 69 0.218401
0.025137 -0.001464 0.833407 191 255 57 0.242434
0.026346 -0.002414 0.831251 202 255 46 0.268522
0.023584 -0.002391 0.829641 211 255 37 0.285860
0.027564 -0.003342 0.829076 213 255 35 0.291296
0.024797 -0.003321 0.827464 215 255 33 0.293248
0.026021 -0.004229 0.825274 213 255 35 0.292185
0.028784 -0.004250 0.826881 198 255 49 0.258892
0.022018 -0.003321 0.825858 225 255 22 0.318297
0.023243 -0.004227 0.823669 215 255 33 0.296049
0.020451 -0.004242 0.822066 238 255 10 0.345794
0.019225 -0.003310 0.824312 255 230 0 0.398431
0.020798 -0.002365 0.828096 222 255 26 0.309098
0.017999 -0.002355 0.826553 234 255 13 0.339829
0.019576 -0.001389 0.830318 207 255 40 0.279876
0.022363 -0.001419 0.831861 195 255 53 0.253324
0.016782 -0.001378 0.828770 216 255 31 0.297019
0.029993 -0.005489 0.824765 218 255 30 0.303082
0.031189 -0.006687 0.822678 207 255 40 0.280403
0.028453 -0.006689 0.821022 204 255 44 0.269576
0.032391 -0.007869 0.820573 189 255 58 0.240204
0.029657 -0.007870 0.818920 211 255 37 0.286624
0.030870 -0.009051 0.816810 191 255 57 0.243806
0.033596 -0.009054 0.818463 197 255 51 0.254307
0.026906 -0.007893 0.817268 220 255 28 0.306127
0.028127 -0.009057 0.815144 191 255 57 0.244940
0.025373 -0.009076 0.813481 193 255 55 0.246921
0.024129 -0.007887 0.815656 209 255 39 0.283765
0.025680 -0.006681 0.819417 229 255 19 0.327022
0.022894 -0.006693 0.817809 243 251 4 0.356896
0.024454 -0.005469 0.821552 229 255 19 0.326753
0.027233 -0.005470 0.823156 213 255 35 0.290721
0.021664 -0.005481 0.819948 245 249 3 0.361565
0.015342 -0.009008 0.806954 200 255 48 0.263633
0.014102 -0.007803 0.809227 236 255 12 0.342222
0.016619 -0.007835 0.810753 215 255 33 0.294851
0.015383 -0.006619 0.813019 236 255 12 0.343360
0.012865 -0.006595 0.811494 252 240 0 0.377884
0.017893 -0.006652 0.814544 233 255 15 0.332057
0.014161 -0.005377 0.815259 255 236 0 0.384249
0.016670 -0.005411 0.816790 249 244 0 0.370248
0.015457 -0.004143 0.819013 247 246 1 0.365535
0.011641 -0.005355 0.813734 255 215 0 0.422698
0.012947 -0.004107 0.817484 255 236 0 0.385189
0.010429 -0.004086 0.815955 255 215 0 0.423364
0.019169 -0.005456 0.818318 254 238 0 0.379406
0.017960 -0.004186 0.820540 247 246 1 0.364192
0.020397 -0.006664 0.816177 229 255 19 0.324224
0.021633 -0.007854 0.814022 211 255 37 0.285179
0.019134 -0.007837 0.812383 213 255 35 0.289669
0.020377 -0.009022 0.810222 195 255 53 0.252166
0.022885 -0.009037 0.811847 198 255 49 0.260263
0.017866 -0.009013 0.808590 211 255 37 0.286837
0.009194 -0.003125 0.818313 255 176 0 0.498595
0.011716 -0.003180 0.819737 255 184 0 0.480936
0.010487 -0.002194 0.822074 255 193 0 0.465886
0.007968 -0.002137 0.820649 255 195 0 0.462407
0.013004 -0.002259 0.823499 254 238 0 0.379700
0.009267 -0.001183 0.824401 247 246 1 0.364588
0.011781 -0.001249 0.825821 227 255 21 0.323133
0.006747 -0.001127 0.822975 255 236 0 0.383000
0.014288 -0.001325 0.827243 225 255 22 0.320219
0.015507 -0.002302 0.825027 255 234 0 0.390372
0.016728 -0.003260 0.822791 255 226 0 0.405243
0.014227 -0.003215 0.821262 255 201 0 0.449879
0.021725 -0.022270 0.791836 179 255 69 0.215291
0.019509 -0.022294 0.790069 179 255 69 0.216362
0.018370 -0.019990 0.791818 179 255 69 0.214860
0.017273 -0.022336 0.788310 180 255 67 0.221645
0.016140 -0.020024 0.790051 177 255 71 0.212164
0.013897 -0.020065 0.788282 179 255 69 0.218470
0.015028 -0.022378 0.786556 177 255 71 0.214180
0.014979 -0.017769 0.791817 175 255 73 0.210464
0.012741 -0.017808 0.790036 180 255 67 0.221946
0.011569 -0.015602 0.791820 179 255 69 0.215442
0.013794 -0.015594 0.793529 177 255 71 0.211286
0.017198 -0.017766 0.793518 182 255 66 0.224516
0.016013 -0.015588 0.795239 177 255 71 0.212757
0.019409 -0.017780 0.795222 175 255 73 0.210127
0.020576 -0.019998 0.793518 182 255 66 0.223533
0.022763 -0.020018 0.795222 186 255 62 0.233320
0.018220 -0.015593 0.796955 186 255 62 0.233261
0.021597 -0.017797 0.796936 186 255 62 0.231651
0.020415 -0.015607 0.798670 189 255 58 0.240793
0.023912 -0.022299 0.793532 179 255 69 0.216622
0.012787 -0.022433 0.784808 177 255 71 0.212471
0.010522 -0.022539 0.782892 175 255 73 0.207300
0.009407 -0.020180 0.784769 175 255 73 0.207144
0.008247 -0.022657 0.780978 173 255 75 0.206234
0.007137 -0.020300 0.782846 170 255 78 0.197899
0.004864 -0.020410 0.780907 173 255 75 0.203331
0.005966 -0.022764 0.779068 166 255 82 0.187991
0.006008 -0.017992 0.784735 171 255 76 0.200017
0.003734 -0.018114 0.782796 175 255 73 0.207508
0.002588 -0.015860 0.784707 170 255 78 0.197046
0.004842 -0.015784 0.786486 170 255 78 0.196126
0.008260 -0.017926 0.786502 179 255 69 0.216629
0.007089 -0.015714 0.788262 171 255 76 0.202170
0.010507 -0.017864 0.788266 177 255 71 0.211709
0.011656 -0.020118 0.786525 175 255 73 0.210432
0.009336 -0.015658 0.790035 179 255 69 0.214954
-0.002175 -0.009018 0.794367 184 255 64 0.229921
0.000023 -0.009002 0.795936 189 255 58 0.241094
0.001257 -0.010637 0.793755 188 255 60 0.234557
0.003458 -0.010609 0.795309 193 255 55 0.246415
0.002216 -0.008986 0.797503 189 255 58 0.241258
0.004701 -0.012250 0.793116 189 255 58 0.240980
0.005652 -0.010596 0.796870 184 255 64 0.230228
0.006896 -0.012235 0.794672 186 255 62 0.231580
0.009089 -0.012211 0.796216 188 255 60 0.235716
0.004411 -0.008967 0.799063 193 255 55 0.248975
0.007842 -0.010574 0.798423 191 255 57 0.242790
0.006598 -0.008956 0.800631 191 255 57 0.243193
0.008137 -0.013907 0.792471 177 255 71 0.211515
0.010331 -0.013883 0.794011 182 255 66 0.225894
0.005903 -0.013956 0.790676 179 255 69 0.215454
0.003658 -0.014022 0.788888 179 255 69 0.215822
0.002460 -0.012312 0.791316 175 255 73 0.209541
0.000219 -0.012370 0.789519 171 255 76 0.202236
0.001409 -0.014091 0.787105 170 255 78 0.195333
-0.000979 -0.010689 0.791946 177 255 71 0.213179
0.008795 -0.008962 0.802210 198 255 49 0.260343
0.010067 -0.010561 0.800147 198 255 49 0.259146
0.012255 -0.010571 0.801729 198 255 49 0.261225
0.010987 -0.008964 0.803783 206 255 42 0.276433
0.013530 -0.012194 0.799656 186 255 62 0.233369
0.014437 -0.010586 0.803311 193 255 55 0.249651
0.015711 -0.012209 0.801238 188 255 60 0.235104
0.017886 -0.012237 0.802815 191 255 57 0.244210
0.013168 -0.008982 0.805369 200 255 48 0.262039
0.016609 -0.010612 0.804891 195 255 53 0.250826
0.016981 -0.013873 0.799169 186 255 62 0.231437
0.019152 -0.013901 0.800741 184 255 64 0.229387
0.014772 -0.013871 0.797445 184 255 64 0.230035
0.012555 -0.013874 0.795725 189 255 58 0.239702
0.011315 -0.012199 0.797933 189 255 58 0.241786
-0.009071 -0.000561 0.813700 220 255 28 0.306208
-0.006779 -0.000630 0.815005 233 255 15 0.333932
-0.005508 -0.001695 0.812546 255 232 0 0.391769
-0.004488 -0.000697 0.816314 236 255 12 0.341791
-0.003218 -0.001761 0.813855 255 220 0 0.416026
-0.000930 -0.001827 0.815156 255 224 0 0.407549
-0.002201 -0.000760 0.817617 236 255 12 0.339980
-0.001942 -0.002804 0.811382 255 207 0 0.439665
0.000347 -0.002868 0.812679 255 211 0 0.430647
0.001633 -0.003875 0.810189 252 240 0 0.377818
-0.000590 -0.003852 0.808773 251 242 0 0.374387
-0.004165 -0.002776 0.809959 255 224 0 0.408288
-0.002813 -0.003828 0.807359 242 253 6 0.351908
-0.006388 -0.002749 0.808537 251 242 0 0.372355
-0.007732 -0.001667 0.811122 254 238 0 0.380121
-0.009958 -0.001635 0.809700 231 255 17 0.329602
-0.005036 -0.003798 0.805938 225 255 22 0.317750
-0.008613 -0.002717 0.807114 231 255 17 0.328147
-0.007263 -0.003767 0.804515 213 255 35 0.292265
-0.011298 -0.000529 0.812272 209 255 39 0.283722
0.000002 -0.000811 0.819070 251 242 0 0.372124
0.002256 -0.000917 0.820374 249 244 0 0.368588
0.003475 -0.001928 0.818051 255 201 0 0.452243
0.004506 -0.001022 0.821677 255 232 0 0.393246
0.005725 -0.002032 0.819352 255 187 0 0.477579
0.006950 -0.003021 0.817018 255 168 0 0.515182
0.008238 -0.004028 0.814519 255 211 0 0.432475
0.004754 -0.002968 0.815572 255 182 0 0.485862
0.006041 -0.003976 0.813073 255 220 0 0.416758
0.002554 -0.002915 0.814131 255 195 0 0.464465
0.001274 -0.001878 0.816608 255 209 0 0.434320
0.003840 -0.003924 0.811633 255 228 0 0.399866
0.011912 -0.007737 0.807794 231 255 17 0.331419
0.009730 -0.007720 0.806204 218 255 30 0.303177
0.008479 -0.006471 0.808615 245 249 3 0.361321
0.007539 -0.007713 0.804628 220 255 28 0.305615
0.006291 -0.006461 0.807033 240 254 8 0.347686
0.004097 -0.006451 0.805439 231 255 17 0.328197
0.005342 -0.007710 0.803043 207 255 40 0.280388
0.005053 -0.005183 0.809418 255 226 0 0.404584
0.002861 -0.005171 0.807821 254 238 0 0.380125
0.007255 -0.005239 0.810853 255 220 0 0.414897
0.009452 -0.005295 0.812296 255 209 0 0.436308
0.010676 -0.006529 0.810057 249 244 0 0.369631
0.003116 -0.007689 0.801639 216 255 31 0.298817
0.000928 -0.007700 0.800068 206 255 42 0.274337
-0.000353 -0.006411 0.802622 233 255 15 0.335557
-0.001262 -0.007712 0.798498 198 255 49 0.259618
-0.002540 -0.006414 0.801044 215 255 33 0.295573
-0.004735 -0.006424 0.799473 207 255 40 0.277581
-0.003460 -0.007724 0.796929 193 255 55 0.246624
-0.003814 -0.005104 0.803584 233 255 15 0.335009
-0.006003 -0.005112 0.802008 225 255 22 0.317885
-0.001589 -0.005135 0.805001 245 249 3 0.360232
0.000638 -0.005152 0.806409 252 240 0 0.377158
0.001876 -0.006421 0.804025 238 255 10 0.345559
0.034794 -0.010660 0.816466 191 255 57 0.245764
0.035893 -0.012241 0.814457 180 255 67 0.221245
0.033269 -0.012264 0.812795 179 255 69 0.217702
0.036982 -0.013853 0.812457 177 255 71 0.211221
0.034364 -0.013869 0.810791 177 255 71 0.211669
0.035462 -0.015507 0.808785 175 255 73 0.209196
0.038075 -0.015499 0.810451 175 255 73 0.209242
0.031740 -0.013892 0.809118 180 255 67 0.219613
0.032840 -0.015534 0.807116 180 255 67 0.220697
0.030201 -0.015571 0.805450 175 255 73 0.209675
0.029002 -0.013895 0.807458 189 255 58 0.240039
0.030536 -0.012258 0.811131 180 255 67 0.222119
0.027789 -0.012262 0.809477 188 255 60 0.236892
0.029332 -0.010647 0.813139 186 255 62 0.230832
0.032070 -0.010647 0.814803 184 255 64 0.227258
0.026580 -0.010661 0.811481 189 255 58 0.239587
0.039134 -0.017653 0.808710 175 255 73 0.207260
0.040054 -0.019794 0.806924 171 255 76 0.201324
0.037582 -0.019855 0.805303 173 255 75 0.206483
0.040963 -0.021960 0.805147 170 255 78 0.198608
0.038495 -0.022022 0.803533 182 255 66 0.225581
0.036019 -0.022087 0.801924 173 255 75 0.205464
0.033397 -0.022111 0.800264 170 255 78 0.198434
0.034970 -0.019869 0.803645 171 255 76 0.200009
0.032344 -0.019897 0.801978 179 255 69 0.216246
0.033908 -0.017689 0.805373 173 255 75 0.204006
0.036528 -0.017666 0.807040 175 255 73 0.207480
0.031277 -0.017720 0.803705 175 255 73 0.207342
0.026366 -0.022278 0.795199 173 255 75 0.205528
0.025224 -0.019996 0.796906 177 255 71 0.212571
0.027664 -0.019991 0.798590 179 255 69 0.217662
0.024058 -0.017774 0.798622 184 255 64 0.228388
0.026505 -0.017764 0.800315 184 255 64 0.229482
0.025333 -0.015569 0.802060 182 255 66 0.223102
0.022882 -0.015575 0.800367 182 255 66 0.223739
0.028938 -0.017767 0.802007 180 255 67 0.219090
0.027772 -0.015564 0.803752 179 255 69 0.218707
0.030006 -0.019940 0.800286 182 255 66 0.224458
0.031069 -0.022153 0.798570 177 255 71 0.212998
0.028725 -0.022212 0.796880 170 255 78 0.198942
0.021665 -0.013917 0.802366 182 255 66 0.226372
0.020399 -0.012251 0.804447 188 255 60 0.237000
0.022905 -0.012272 0.806078 189 255 58 0.238471
0.019124 -0.010627 0.806534 198 255 49 0.258026
0.021643 -0.010636 0.808154 200 255 48 0.262940
0.024141 -0.010664 0.809781 197 255 51 0.255018
0.025356 -0.012259 0.807769 193 255 55 0.249413
0.026569 -0.013893 0.805761 184 255 64 0.227095
0.024118 -0.013900 0.804072 186 255 62 0.232169
0.005915 -0.028253 0.774208 175 255 73 0.209743
0.007026 -0.031147 0.773215 170 255 78 0.195408
0.004768 -0.031338 0.771181 166 255 82 0.190632
0.008127 -0.034027 0.772233 168 255 80 0.193412
0.005869 -0.034218 0.770211 180 255 67 0.219698
0.006968 -0.037081 0.769232 175 255 73 0.209613
0.009216 -0.036911 0.771267 180 255 67 0.220804
0.003602 -0.034409 0.768199 177 255 71 0.212592
0.004704 -0.037261 0.767226 173 255 75 0.204813
0.002431 -0.037443 0.765229 177 255 71 0.212336
0.001107 -0.034664 0.766122 173 255 75 0.203161
0.002272 -0.031605 0.769104 177 255 71 0.212801
-0.000226 -0.031872 0.767024 170 255 78 0.196221
0.000937 -0.028793 0.770009 171 255 76 0.199745
0.003426 -0.028519 0.772106 170 255 78 0.197998
0.002082 -0.025708 0.773027 164 255 84 0.186496
-0.001555 -0.029070 0.767909 166 255 82 0.190444
-0.000406 -0.025988 0.770914 164 255 84 0.187182
-0.002899 -0.026276 0.768814 161 255 87 0.176144
0.004567 -0.025425 0.775139 171 255 76 0.202962
0.010491 -0.040095 0.771153 195 255 53 0.251844
0.011509 -0.043345 0.770787 204 255 44 0.272659
0.009505 -0.043442 0.769060 198 255 49 0.258458
0.012500 -0.046559 0.770462 204 255 44 0.272728
0.010513 -0.046653 0.768709 202 255 46 0.269272
0.008522 -0.046745 0.766950 206 255 42 0.273698
0.006265 -0.046887 0.764949 202 255 46 0.266135
0.007251 -0.043590 0.767053 200 255 48 0.264977
0.004981 -0.043752 0.765069 206 255 42 0.273486
0.005972 -0.040433 0.767149 191 255 57 0.243005
0.008239 -0.040267 0.769148 195 255 53 0.252354
0.003710 -0.040598 0.765145 182 255 66 0.223570
-0.001164 -0.047612 0.757896 188 255 60 0.236151
0.000868 -0.047327 0.759881 188 255 60 0.235943
-0.000667 -0.044365 0.759730 179 255 69 0.216702
-0.002706 -0.044663 0.757754 175 255 73 0.208850
0.001380 -0.044069 0.761683 189 255 58 0.239491
-0.002195 -0.041384 0.759545 171 255 76 0.201781
-0.000147 -0.041076 0.761504 180 255 67 0.219376
-0.001659 -0.038078 0.761289 170 255 78 0.195813
-0.004242 -0.041698 0.757590 166 255 82 0.190381
-0.003713 -0.038402 0.759339 166 255 82 0.189409
-0.005754 -0.038724 0.757364 166 255 82 0.188596
0.001902 -0.040765 0.763459 182 255 66 0.225012
0.000384 -0.037763 0.763262 171 255 76 0.200864
0.003177 -0.043906 0.763377 193 255 55 0.247838
0.004458 -0.047030 0.763277 189 255 58 0.239399
0.002663 -0.047178 0.761576 204 255 44 0.270618
-0.008014 -0.036002 0.757771 155 255 93 0.167239
-0.005030 -0.035655 0.760219 159 255 89 0.173320
-0.007292 -0.032905 0.760614 157 255 91 0.170872
-0.010268 -0.033256 0.758135 157 255 91 0.170592
-0.004313 -0.032550 0.763075 159 255 89 0.175710
-0.009558 -0.030156 0.761003 153 255 94 0.162011
-0.006575 -0.029783 0.763463 157 255 91 0.170534
-0.008848 -0.027028 0.763860 159 255 89 0.172880
-0.012529 -0.030515 0.758499 153 255 94 0.162125
-0.011822 -0.027403 0.761370 152 255 96 0.157958
-0.014791 -0.027763 0.758849 150 255 98 0.154013
-0.003593 -0.029413 0.765918 161 255 87 0.177350
-0.005877 -0.026651 0.766341 161 255 87 0.178704
-0.002269 -0.032208 0.765044 168 255 80 0.192202
-0.000938 -0.034990 0.764150 168 255 80 0.193272
-0.002989 -0.035323 0.762199 164 255 84 0.187215
-0.013293 -0.034361 0.754754 150 255 98 0.153722
-0.011046 -0.037092 0.754414 152 255 96 0.156953
-0.008779 -0.039797 0.754003 155 255 93 0.165274
-0.011798 -0.040866 0.750612 150 255 98 0.152375
-0.014010 -0.039001 0.750436 153 255 94 0.160745
-0.014766 -0.035749 0.752500 153 255 94 0.162548
-0.016222 -0.037124 0.750231 152 255 96 0.158580
-0.016964 -0.033857 0.752273 146 255 102 0.147511
-0.015505 -0.032470 0.754548 148 255 100 0.151020
-0.017709 -0.030566 0.754300 150 255 98 0.152914
-0.018440 -0.035249 0.750016 143 255 105 0.137786
-0.019180 -0.031963 0.752027 148 255 100 0.150001
-0.020643 -0.033356 0.749760 148 255 100 0.149037
-0.016255 -0.029175 0.756591 148 255 100 0.151806
-0.005498 -0.045311 0.754843 168 255 80 0.194174
-0.003950 -0.048253 0.754985 179 255 69 0.218566
-0.006846 -0.049082 0.751838 166 255 82 0.188201
-0.008507 -0.046348 0.751440 152 255 96 0.157296
-0.008654 -0.043088 0.752750 157 255 91 0.170496
-0.011474 -0.051081 0.746606 161 255 87 0.178773
-0.012001 -0.047938 0.747491 153 255 94 0.162717
-0.013750 -0.045491 0.746907 148 255 100 0.148614
-0.014255 -0.042312 0.747732 148 255 100 0.150945
-0.016705 -0.043760 0.744859 143 255 105 0.136926
-0.011301 -0.044058 0.749799 152 255 96 0.158390
-0.009116 -0.049945 0.749316 152 255 96 0.159139
-0.018971 -0.042207 0.744570 143 255 105 0.139081
-0.019968 -0.039617 0.745810 146 255 102 0.144589
-0.022230 -0.038041 0.745461 144 255 103 0.142985
-0.023217 -0.035432 0.746675 146 255 102 0.145786
-0.025772 -0.037503 0.743564 148 255 100 0.150354
-0.016473 -0.040457 0.747559 148 255 100 0.148782
0.003409 -0.022980 0.777233 168 255 80 0.191586
0.000930 -0.023269 0.775100 168 255 80 0.193904
-0.000241 -0.020855 0.777206 171 255 76 0.199487
-0.001552 -0.023560 0.772975 166 255 82 0.189066
-0.002713 -0.021142 0.775055 162 255 85 0.182662
-0.005190 -0.021438 0.772916 162 255 85 0.179887
-0.004031 -0.023847 0.770840 162 255 85 0.183563
-0.003895 -0.018775 0.777180 162 255 85 0.182477
-0.006366 -0.019065 0.775019 164 255 84 0.187121
-0.007558 -0.016716 0.777150 159 255 89 0.175024
-0.005020 -0.016504 0.779037 162 255 85 0.180251
-0.001348 -0.018550 0.779046 166 255 82 0.188262
-0.002481 -0.016286 0.780925 164 255 84 0.183791
0.001197 -0.018327 0.780922 166 255 82 0.188647
0.002316 -0.020625 0.779055 170 255 78 0.197281
0.000057 -0.016069 0.782813 168 255 80 0.193649
-0.006840 -0.024056 0.769296 162 255 85 0.180296
-0.009806 -0.024426 0.766784 155 255 93 0.165726
-0.010788 -0.021855 0.769764 159 255 89 0.172047
-0.012772 -0.024804 0.764279 152 255 96 0.159835
-0.013746 -0.022224 0.767222 155 255 93 0.167424
-0.016708 -0.022587 0.764677 148 255 100 0.148836
-0.015736 -0.025163 0.761740 150 255 98 0.155215
-0.014743 -0.019677 0.770220 157 255 91 0.168166
-0.017697 -0.020034 0.767651 148 255 100 0.151696
-0.018710 -0.017512 0.770664 143 255 105 0.138537
-0.015920 -0.017324 0.772299 152 255 96 0.158114
-0.011950 -0.019475 0.771828 161 255 87 0.178410
-0.013134 -0.017130 0.773926 157 255 91 0.169600
-0.009160 -0.019272 0.773424 159 255 89 0.174897
-0.007989 -0.021645 0.771335 159 255 89 0.174973
-0.010345 -0.016923 0.775534 159 255 89 0.173370
-0.023255 -0.010009 0.782467 150 255 98 0.156202
-0.020516 -0.009869 0.783882 159 255 89 0.173881
-0.019328 -0.011674 0.781151 155 255 93 0.166138
-0.016589 -0.011514 0.782553 162 255 85 0.179907
-0.017782 -0.009713 0.785281 162 255 85 0.181797
-0.015405 -0.013340 0.779829 161 255 87 0.177038
-0.013855 -0.011348 0.783941 168 255 80 0.193083
-0.012664 -0.013159 0.781209 166 255 82 0.191384
-0.009917 -0.012966 0.782575 168 255 80 0.193717
-0.015056 -0.009557 0.786685 164 255 84 0.187074
-0.011120 -0.011171 0.785334 175 255 73 0.207205
-0.012326 -0.009389 0.788086 171 255 76 0.201958
-0.011480 -0.015007 0.778486 164 255 84 0.185566
-0.008732 -0.014818 0.779852 161 255 87 0.179617
-0.014261 -0.015208 0.776858 159 255 89 0.174695
-0.017043 -0.015400 0.775220 155 255 93 0.164494
-0.018180 -0.013519 0.778174 159 255 89 0.172396
-0.020961 -0.013690 0.776512 148 255 100 0.149462
-0.019828 -0.015577 0.773571 150 255 98 0.154264
-0.022107 -0.011841 0.779484 152 255 96 0.159774
-0.009788 -0.009304 0.789660 171 255 76 0.203041
-0.008609 -0.010992 0.787265 175 255 73 0.209343
-0.006064 -0.010893 0.788828 173 255 75 0.206336
-0.007254 -0.009216 0.791229 177 255 71 0.211168
-0.004879 -0.012588 0.786425 170 255 78 0.198629
-0.003522 -0.010793 0.790386 175 255 73 0.210004
-0.002329 -0.012482 0.787971 182 255 66 0.224019
-0.004713 -0.009118 0.792799 179 255 69 0.215596
-0.001144 -0.014204 0.785568 171 255 76 0.202898
-0.003669 -0.014407 0.783660 166 255 82 0.190250
-0.006200 -0.014615 0.781754 164 255 84 0.185116
-0.007399 -0.012785 0.784508 168 255 80 0.193524
-0.024565 -0.008658 0.785161 155 255 93 0.165672
-0.021834 -0.008500 0.786525 161 255 87 0.176056
-0.023149 -0.007155 0.789217 161 255 87 0.177429
-0.025883 -0.007318 0.787853 153 255 94 0.162614
-0.020421 -0.006994 0.790580 166 255 82 0.189383
-0.024463 -0.005818 0.791904 159 255 89 0.174351
-0.021733 -0.005655 0.793271 166 255 82 0.189428
-0.023045 -0.004300 0.795950 168 255 80 0.191814
-0.027198 -0.005968 0.790535 152 255 96 0.159535
-0.025771 -0.004457 0.794584 155 255 93 0.164076
-0.028510 -0.004605 0.793212 150 255 98 0.153506
-0.019011 -0.005487 0.794635 179 255 69 0.216544
-0.020321 -0.004138 0.797320 170 255 78 0.196868
-0.017600 -0.003970 0.798685 180 255 67 0.219784
-0.016292 -0.005346 0.796054 189 255 58 0.241558
-0.017697 -0.006846 0.791993 171 255 76 0.202777
-0.014976 -0.006702 0.793403 191 255 57 0.244799
-0.016376 -0.008203 0.789340 164 255 84 0.183769
-0.019102 -0.008352 0.787937 164 255 84 0.186263
-0.013653 -0.008047 0.790749 179 255 69 0.216627
-0.029899 -0.003555 0.795777 148 255 100 0.149462
-0.027162 -0.003376 0.797195 152 255 96 0.157243
-0.028555 -0.002317 0.799755 148 255 100 0.151009
-0.031292 -0.002492 0.798335 141 255 107 0.134884
-0.025826 -0.002135 0.801169 155 255 93 0.167254
-0.029943 -0.001235 0.802310 144 255 103 0.141932
-0.027214 -0.001055 0.803723 152 255 96 0.157023
-0.032683 -0.001408 0.800885 137 255 111 0.128754
-0.024492 -0.000869 0.805134 166 255 82 0.189113
-0.021772 -0.000711 0.806502 177 255 71 0.212753
-0.023105 -0.001982 0.802537 166 255 82 0.189796
-0.020384 -0.001821 0.803908 173 255 75 0.205947
-0.021714 -0.003070 0.799933 170 255 78 0.197474
-0.024436 -0.003225 0.798566 161 255 87 0.178748
-0.018993 -0.002907 0.801298 189 255 58 0.241499
-0.013879 -0.000582 0.810809 198 255 49 0.258704
-0.012540 -0.001690 0.808240 220 255 28 0.306130
-0.015124 -0.001740 0.806778 206 255 42 0.276426
-0.011197 -0.002772 0.805662 231 255 17 0.331640
-0.013781 -0.002823 0.804198 211 255 37 0.288935
-0.012432 -0.003878 0.801599 198 255 49 0.260437
-0.009846 -0.003823 0.803058 209 255 39 0.283129
-0.016364 -0.002866 0.802734 193 255 55 0.249978
-0.015017 -0.003928 0.800145 198 255 49 0.261064
-0.017755 -0.001783 0.805340 191 255 57 0.246029
-0.019141 -0.000674 0.807941 180 255 67 0.219726
-0.016511 -0.000631 0.809379 191 255 57 0.243243
-0.008529 -0.005187 0.800418 211 255 37 0.287001
-0.007265 -0.006509 0.797894 202 255 46 0.267420
-0.009794 -0.006585 0.796306 195 255 53 0.253861
-0.005993 -0.007812 0.795349 189 255 58 0.241767
-0.008528 -0.007906 0.793778 191 255 57 0.242395
-0.011060 -0.007987 0.792196 182 255 66 0.224401
-0.012387 -0.006652 0.794860 191 255 57 0.245620
-0.013706 -0.005300 0.797508 195 255 53 0.251969
-0.011117 -0.005243 0.798961 202 255 46 0.266777
-0.025118 -0.011867 0.778485 153 255 94 0.160376
-0.023974 -0.013723 0.775522 153 255 94 0.160157
-0.026997 -0.013743 0.774512 152 255 96 0.157209
-0.022843 -0.015613 0.772579 150 255 98 0.154900
-0.025866 -0.015636 0.771581 153 255 94 0.160478
-0.024748 -0.017569 0.768680 146 255 102 0.144968
-0.021728 -0.017548 0.769683 148 255 100 0.152162
-0.028907 -0.015647 0.770550 146 255 102 0.145009
-0.027786 -0.017581 0.767658 146 255 102 0.146227
-0.030840 -0.017585 0.766615 139 255 109 0.129113
-0.031752 -0.015857 0.769457 143 255 105 0.139548
-0.029825 -0.013953 0.773422 144 255 103 0.144498
-0.032671 -0.014157 0.772314 148 255 100 0.149575
-0.030749 -0.012295 0.776317 146 255 102 0.144898
-0.027927 -0.012083 0.777406 152 255 96 0.157127
-0.028859 -0.010451 0.780314 146 255 102 0.147050
-0.033588 -0.012493 0.775209 143 255 105 0.140546
-0.031677 -0.010655 0.779229 146 255 102 0.146322
-0.034513 -0.010850 0.778125 150 255 98 0.153581
-0.026052 -0.010233 0.781396 153 255 94 0.163091
-0.021402 -0.019274 0.767042 146 255 102 0.145574
-0.020407 -0.021818 0.764064 150 255 98 0.154192
-0.024116 -0.021035 0.763425 150 255 98 0.153828
-0.019433 -0.024392 0.761144 152 255 96 0.157387
-0.023131 -0.023601 0.760496 141 255 107 0.134258
-0.022167 -0.026192 0.757602 148 255 100 0.148523
-0.018471 -0.026980 0.758236 152 255 96 0.156388
-0.026851 -0.022801 0.759814 144 255 103 0.141117
-0.025865 -0.025384 0.756925 148 255 100 0.148828
-0.029596 -0.024583 0.756225 144 255 103 0.143352
-0.029895 -0.022806 0.758772 144 255 103 0.142116
-0.027154 -0.021044 0.762403 146 255 102 0.147775
-0.030203 -0.021046 0.761350 146 255 102 0.145861
-0.027468 -0.019301 0.765014 144 255 103 0.141842
-0.024431 -0.019291 0.766038 146 255 102 0.145375
-0.030520 -0.019306 0.763976 143 255 105 0.137937
-0.042236 -0.024031 0.754562 150 255 98 0.155502
-0.042397 -0.022486 0.756895 148 255 100 0.149124
-0.039369 -0.022386 0.757547 148 255 100 0.149214
-0.039533 -0.020859 0.759905 148 255 100 0.151063
-0.042569 -0.020960 0.759248 144 255 103 0.142617
-0.036509 -0.020769 0.760550 146 255 102 0.145399
-0.039701 -0.019356 0.762281 148 255 100 0.150840
-0.036672 -0.019262 0.762936 146 255 102 0.146739
-0.036848 -0.017774 0.765340 146 255 102 0.146819
-0.042733 -0.019456 0.761628 150 255 98 0.156053
-0.039874 -0.017866 0.764683 150 255 98 0.153382
-0.042912 -0.017963 0.764035 152 255 96 0.157771
-0.033664 -0.019172 0.763584 146 255 102 0.144858
-0.033841 -0.017678 0.765978 150 255 98 0.153303
-0.033353 -0.020909 0.760966 143 255 105 0.138259
-0.033034 -0.022666 0.758374 148 255 100 0.151732
-0.036195 -0.022525 0.757969 144 255 103 0.143964
-0.035882 -0.024289 0.755384 144 255 103 0.144498
-0.032730 -0.024435 0.755807 144 255 103 0.142700
-0.039052 -0.024159 0.754981 150 255 98 0.153757
-0.043592 -0.016507 0.766646 153 255 94 0.160645
-0.040794 -0.016138 0.767528 150 255 98 0.154616
-0.041473 -0.014707 0.770160 150 255 98 0.156241
-0.044272 -0.015072 0.769278 152 255 96 0.158904
-0.038688 -0.014346 0.771039 150 255 98 0.154081
-0.042148 -0.013293 0.772811 152 255 96 0.158113
-0.039363 -0.012937 0.773693 148 255 100 0.151088
-0.040042 -0.011547 0.776361 150 255 98 0.152611
-0.044953 -0.013650 0.771922 152 255 96 0.157624
-0.042826 -0.011897 0.775476 150 255 98 0.154767
-0.045626 -0.012240 0.774576 152 255 96 0.159061
-0.036594 -0.012581 0.774572 146 255 102 0.147266
-0.037270 -0.011204 0.777249 150 255 98 0.154226
-0.035671 -0.014253 0.771685 148 255 100 0.150790
-0.034751 -0.015952 0.768814 146 255 102 0.148107
-0.037764 -0.016047 0.768179 148 255 100 0.149699
-0.035338 -0.001712 0.799734 139 255 109 0.129367
-0.033947 -0.002802 0.797183 143 255 105 0.137311
-0.036612 -0.003101 0.796027 143 255 105 0.138114
-0.032554 -0.003870 0.794628 141 255 107 0.136701
-0.035218 -0.004175 0.793476 143 255 105 0.139591
-0.033823 -0.005228 0.790912 146 255 102 0.146525
-0.031164 -0.004922 0.792066 144 255 103 0.142818
-0.037894 -0.004465 0.792310 146 255 102 0.145203
-0.036499 -0.005525 0.789752 146 255 102 0.147198
-0.039195 -0.005819 0.788581 148 255 100 0.151515
-0.040512 -0.004813 0.791052 146 255 102 0.147561
-0.039212 -0.003448 0.794777 143 255 105 0.140450
-0.041823 -0.003790 0.793516 148 255 100 0.149074
-0.040525 -0.002415 0.797238 141 255 107 0.135984
-0.037925 -0.002067 0.798490 143 255 105 0.137303
-0.043137 -0.002756 0.795975 148 255 100 0.150166
-0.029990 -0.006172 0.789462 150 255 98 0.152971
-0.028674 -0.007525 0.786778 152 255 96 0.156816
-0.031477 -0.007724 0.785689 144 255 103 0.143056
-0.027361 -0.008878 0.784090 152 255 96 0.159001
-0.030166 -0.009084 0.783004 146 255 102 0.147719
-0.032983 -0.009282 0.781911 143 255 105 0.140412
-0.035682 -0.009589 0.780738 150 255 98 0.152724
-0.034157 -0.008040 0.784533 144 255 103 0.142154
-0.036853 -0.008334 0.783360 146 255 102 0.146826
-0.035328 -0.006786 0.787150 148 255 100 0.148828
-0.032653 -0.006485 0.788312 148 255 100 0.149279
-0.038023 -0.007078 0.785976 148 255 100 0.149880
-0.046625 -0.011095 0.777054 153 255 94 0.162522
-0.043992 -0.010615 0.778078 153 255 94 0.160599
-0.044985 -0.009480 0.780572 153 255 94 0.162698
-0.047619 -0.009952 0.779537 157 255 91 0.171140
-0.042372 -0.009013 0.781596 150 255 98 0.155639
-0.045985 -0.008346 0.783057 153 255 94 0.163557
-0.043373 -0.007883 0.784081 152 255 96 0.160066
-0.044368 -0.006747 0.786561 153 255 94 0.160890
-0.048605 -0.008812 0.782029 157 255 91 0.168030
-0.046976 -0.007212 0.785544 157 255 91 0.167999
-0.049593 -0.007668 0.784510 157 255 91 0.170592
-0.040775 -0.007414 0.785096 152 255 96 0.158191
-0.041772 -0.006287 0.787579 150 255 98 0.156027
-0.039609 -0.008673 0.782478 150 255 98 0.152604
-0.038442 -0.009939 0.779866 148 255 100 0.150458
-0.041207 -0.010277 0.778978 150 255 98 0.155110
-0.050808 -0.006709 0.786884 159 255 89 0.174437
-0.048288 -0.006189 0.788010 161 255 87 0.176714
-0.049499 -0.005223 0.790381 162 255 85 0.182405
-0.052018 -0.005733 0.789254 161 255 87 0.179355
-0.046991 -0.004706 0.791499 159 255 89 0.173718
-0.050708 -0.004240 0.792744 161 255 87 0.179133
-0.048203 -0.003727 0.793858 162 255 85 0.180901
-0.053224 -0.004752 0.791613 162 255 85 0.183428
-0.045715 -0.003213 0.794968 155 255 93 0.164424
-0.044403 -0.004253 0.792513 153 255 94 0.163444
-0.043091 -0.005274 0.790046 153 255 94 0.161368
-0.045681 -0.005734 0.789034 155 255 93 0.166163
-0.048172 -0.012838 0.773814 153 255 94 0.162867
-0.049077 -0.011773 0.776163 155 255 93 0.165222
-0.051627 -0.012375 0.775405 155 255 93 0.167876
-0.050723 -0.013443 0.773060 155 255 93 0.164313
-0.052530 -0.011304 0.777746 161 255 87 0.176971
-0.054179 -0.012977 0.774636 157 255 91 0.169042
-0.055074 -0.011906 0.776994 159 255 89 0.172393
-0.057631 -0.012509 0.776222 159 255 89 0.172425
-0.053270 -0.014061 0.772310 155 255 93 0.166019
-0.056726 -0.013593 0.773888 159 255 89 0.173427
-0.055826 -0.014678 0.771549 155 255 93 0.167885
-0.055978 -0.010830 0.779331 161 255 87 0.176190
-0.058529 -0.011433 0.778564 155 255 93 0.165823
-0.059430 -0.010347 0.780903 161 255 87 0.178926
-0.056968 -0.009665 0.781797 161 255 87 0.179042
-0.053519 -0.010152 0.780228 161 255 87 0.176960
-0.054508 -0.008994 0.782701 161 255 87 0.178028
-0.051065 -0.009476 0.781122 159 255 89 0.173539
-0.050077 -0.010623 0.778640 152 255 96 0.159891
-0.052048 -0.008331 0.783602 159 255 89 0.174750
-0.058330 -0.015548 0.770963 157 255 91 0.169312
-0.059165 -0.014527 0.773149 153 255 94 0.160925
-0.061666 -0.015399 0.772564 161 255 87 0.178749
-0.060830 -0.016428 0.770385 157 255 91 0.170964
-0.062506 -0.014375 0.774751 159 255 89 0.175669
-0.064168 -0.016283 0.771989 153 255 94 0.160403
-0.065006 -0.015252 0.774168 162 255 85 0.179870
-0.067507 -0.016137 0.773593 155 255 93 0.166622
-0.063330 -0.017318 0.769811 153 255 94 0.161107
-0.066663 -0.017176 0.771419 159 255 89 0.174600
-0.065822 -0.018216 0.769248 159 255 89 0.172416
-0.065846 -0.014221 0.776351 159 255 89 0.173450
-0.068343 -0.015100 0.775766 159 255 89 0.174041
-0.069178 -0.014065 0.777945 155 255 93 0.167145
-0.066746 -0.013121 0.778670 159 255 89 0.172914
-0.063411 -0.013282 0.777080 153 255 94 0.162602
-0.064307 -0.012188 0.779409 164 255 84 0.186314
-0.060972 -0.012351 0.777817 161 255 87 0.179652
-0.060070 -0.013440 0.775487 155 255 93 0.164132
-0.061869 -0.011264 0.780152 157 255 91 0.169189
-0.070019 -0.010374 0.785248 164 255 84 0.185755
-0.067638 -0.009407 0.786090 171 255 76 0.201712
-0.066489 -0.010369 0.783809 166 255 82 0.187868
-0.065251 -0.008455 0.786937 170 255 78 0.198377
-0.064106 -0.009412 0.784657 168 255 80 0.191730
-0.061725 -0.008461 0.785500 157 255 91 0.171809
