ply
format ascii 1.0
comment VCGLIB generated
element vertex 1017
property float x
property float y
property float z
property uchar red
property uchar green
property uchar blue
property float quality
end_header
-0.054006 -0.024649 0.757423 255 46 0 0.744806
-0.051029 -0.020193 0.763506 255 46 0 0.744947
-0.054335 -0.020572 0.763304 255 46 0 0.744999
-0.047724 -0.019739 0.764059 255 46 0 0.744826
-0.044545 -0.019370 0.764672 255 46 0 0.744607
-0.044358 -0.020808 0.762380 255 46 0 0.744532
-0.057077 -0.025489 0.757517 255 48 0 0.739115
-0.060081 -0.025081 0.759292 255 46 0 0.744465
-0.062966 -0.026052 0.759558 255 46 0 0.743944
-0.065865 -0.025727 0.761500 255 46 0 0.742959
-0.065688 -0.028361 0.758229 255 46 0 0.743011
-0.063124 -0.023408 0.762865 255 46 0 0.744022
-0.060295 -0.022394 0.762952 255 46 0 0.744629
-0.057310 -0.021457 0.763070 255 50 0 0.737194
-0.057264 -0.022831 0.761036 255 54 0 0.727780
-0.063432 -0.028783 0.756647 255 46 0 0.743702
-0.060610 -0.027814 0.756372 255 46 0 0.744307
-0.058235 -0.028302 0.754837 255 46 0 0.744545
-0.055259 -0.027478 0.754636 255 46 0 0.744738
-0.056483 -0.030298 0.752065 255 46 0 0.744622
-0.059477 -0.031191 0.752390 255 46 0 0.744371
-0.061797 -0.030695 0.753922 255 46 0 0.744003
-0.064648 -0.031697 0.754324 255 46 0 0.743399
-0.066850 -0.031289 0.755951 255 46 0 0.742600
-0.067969 -0.034135 0.753631 255 46 0 0.742412
-0.048779 -0.026659 0.754664 255 46 0 0.744637
-0.045543 -0.026415 0.755031 255 46 0 0.744497
-0.046917 -0.029208 0.752271 255 46 0 0.744472
-0.050138 -0.029478 0.752074 255 46 0 0.744608
-0.052684 -0.028420 0.753300 255 46 0 0.744721
-0.050718 -0.033436 0.748844 255 46 0 0.744555
-0.053897 -0.033894 0.748945 255 46 0 0.744679
-0.057033 -0.034483 0.749065 255 46 0 0.744645
-0.058894 -0.033502 0.750164 255 46 0 0.744521
-0.061174 -0.036644 0.748284 255 50 0 0.737397
-0.054528 -0.031284 0.750931 255 46 0 0.744668
-0.064034 -0.037584 0.748706 255 46 0 0.743916
-0.066826 -0.038607 0.749196 255 46 0 0.743279
-0.064569 -0.035311 0.750827 255 46 0 0.743623
-0.067318 -0.036382 0.751395 255 54 0 0.728906
-0.070051 -0.037516 0.751999 255 48 0 0.741497
-0.069568 -0.039629 0.749687 255 46 0 0.742376
-0.072239 -0.040752 0.750154 255 48 0 0.741042
-0.061782 -0.034395 0.750480 255 46 0 0.744153
-0.072468 -0.063319 0.731486 255 46 0 0.745266
-0.075808 -0.065832 0.730202 255 46 0 0.745018
-0.072665 -0.066203 0.729817 255 46 0 0.745386
-0.076018 -0.068590 0.728459 255 56 0 0.725221
-0.079140 -0.068366 0.728983 255 46 0 0.744617
-0.082380 -0.070747 0.727459 255 46 0 0.744129
-0.082706 -0.067990 0.729813 255 52 0 0.733146
-0.079457 -0.065501 0.731188 255 52 0 0.731583
-0.076139 -0.062850 0.732346 255 46 0 0.744846
-0.082935 -0.065289 0.732223 255 46 0 0.743708
-0.072094 -0.069127 0.727969 255 46 0 0.745535
-0.074602 -0.071552 0.726324 255 46 0 0.745297
-0.071625 -0.071829 0.726120 255 46 0 0.745683
-0.077924 -0.072453 0.725731 255 46 0 0.744754
-0.081169 -0.073366 0.725125 255 46 0 0.744347
-0.089102 -0.077570 0.723506 255 46 0 0.742936
-0.092008 -0.079020 0.723100 255 46 0 0.742492
-0.086197 -0.076156 0.723997 255 46 0 0.743407
-0.088026 -0.073918 0.726922 255 46 0 0.742364
-0.090770 -0.075508 0.726594 255 56 0 0.724269
-0.093523 -0.077120 0.726264 255 48 0 0.740826
-0.084270 -0.073535 0.725803 255 46 0 0.743744
-0.082985 -0.076048 0.723348 255 56 0 0.725898
-0.094261 -0.076019 0.728201 255 48 0 0.739430
-0.091577 -0.073148 0.729799 255 67 0 0.703771
-0.095019 -0.074952 0.730133 255 50 0 0.737583
-0.088129 -0.071439 0.729529 255 65 0 0.709694
-0.092286 -0.072050 0.731662 255 67 0 0.706660
-0.088976 -0.070219 0.731243 255 48 0 0.740520
-0.089736 -0.069045 0.733049 255 48 0 0.739095
-0.095661 -0.073995 0.732165 255 50 0 0.734658
-0.093019 -0.071000 0.733618 255 50 0 0.735581
-0.096316 -0.073140 0.734362 255 52 0 0.731555
-0.085564 -0.068454 0.730931 255 46 0 0.742671
-0.086430 -0.067155 0.732598 255 48 0 0.741984
-0.085308 -0.071040 0.728474 255 46 0 0.743034
-0.069900 -0.042371 0.747369 255 46 0 0.742996
-0.067172 -0.041331 0.747006 255 46 0 0.743607
-0.064353 -0.040374 0.746658 255 54 0 0.728480
-0.067573 -0.044084 0.744738 255 46 0 0.743968
-0.070308 -0.045149 0.745162 255 46 0 0.743518
-0.073074 -0.046275 0.745554 255 46 0 0.742860
-0.072599 -0.043531 0.747871 255 61 0 0.715381
-0.075284 -0.044737 0.748414 255 48 0 0.740749
-0.075746 -0.047452 0.745994 255 48 0 0.741689
-0.078392 -0.048651 0.746500 255 48 0 0.739973
-0.056768 -0.037215 0.747077 255 54 0 0.729940
-0.058335 -0.038962 0.746191 255 46 0 0.744711
-0.059911 -0.040817 0.745383 255 46 0 0.744683
-0.061531 -0.042706 0.744483 255 46 0 0.744589
-0.064556 -0.043375 0.744596 255 46 0 0.744304
-0.064838 -0.049275 0.740395 255 46 0 0.744793
-0.068012 -0.050075 0.740414 255 46 0 0.744587
-0.064583 -0.046202 0.742367 255 54 0 0.728593
-0.067770 -0.047053 0.742592 255 71 0 0.697688
-0.070843 -0.048004 0.742759 255 46 0 0.743914
-0.071141 -0.050941 0.740529 255 48 0 0.740161
-0.074278 -0.051840 0.740647 255 56 0 0.724071
-0.077007 -0.053019 0.741121 255 50 0 0.734719
-0.079697 -0.054254 0.741617 255 46 0 0.742226
-0.076369 -0.050132 0.743460 255 46 0 0.744852
-0.079021 -0.051427 0.744071 255 48 0 0.741373
-0.081662 -0.052713 0.744674 255 48 0 0.738413
-0.082341 -0.055520 0.742156 255 48 0 0.739943
-0.084956 -0.056776 0.742701 255 71 0 0.697022
-0.073654 -0.049015 0.743087 255 46 0 0.743308
-0.086159 -0.028034 0.771253 255 48 0 0.738704
-0.083188 -0.028187 0.769590 255 50 0 0.735761
-0.081352 -0.025688 0.771156 255 46 0 0.743033
-0.078341 -0.025678 0.769320 255 75 0 0.690347
-0.080207 -0.028204 0.767794 255 52 0 0.734163
-0.077196 -0.028136 0.765977 255 75 0 0.690839
-0.082241 -0.030605 0.766688 255 52 0 0.732720
-0.085233 -0.030519 0.768397 255 50 0 0.736563
-0.088236 -0.030288 0.769933 255 48 0 0.740817
-0.087291 -0.032769 0.767104 255 48 0 0.739690
-0.076253 -0.023284 0.770885 255 48 0 0.739386
-0.073629 -0.021969 0.770928 255 46 0 0.744107
-0.072956 -0.023225 0.768948 255 48 0 0.740539
-0.070866 -0.020641 0.771002 255 46 0 0.742199
-0.070226 -0.021886 0.768983 255 48 0 0.741955
-0.069596 -0.023140 0.766955 255 54 0 0.727577
-0.071873 -0.025623 0.765420 255 48 0 0.740321
-0.075147 -0.025709 0.767446 255 50 0 0.738256
-0.068558 -0.029693 0.758771 255 48 0 0.741532
-0.071415 -0.029781 0.760706 255 48 0 0.739031
-0.074145 -0.031006 0.761236 255 50 0 0.735208
-0.076906 -0.030878 0.763140 255 100 0 0.642364
-0.076737 -0.033541 0.760336 255 73 0 0.694063
-0.074380 -0.028350 0.764048 255 50 0 0.737102
-0.068878 -0.025699 0.763466 255 48 0 0.741747
-0.079356 -0.034825 0.760955 255 56 0 0.722934
-0.081968 -0.034709 0.762660 255 54 0 0.727935
-0.084570 -0.035824 0.763077 255 30 0 0.775489
-0.087162 -0.035567 0.764643 255 48 0 0.741114
-0.087151 -0.038221 0.762119 248 13 0 0.807620
-0.084648 -0.033184 0.765536 255 52 0 0.734002
-0.079630 -0.030752 0.764953 255 54 0 0.730179
-0.085074 -0.038617 0.760717 255 50 0 0.736371
-0.082453 -0.037499 0.760352 255 36 0 0.763055
-0.080411 -0.037746 0.758825 255 58 0 0.721175
-0.077775 -0.036528 0.758271 255 56 0 0.726009
-0.078854 -0.039415 0.756081 255 54 0 0.726724
-0.081458 -0.040618 0.756705 255 56 0 0.724178
-0.083476 -0.040402 0.758218 255 56 0 0.725797
-0.086104 -0.041526 0.758655 255 48 0 0.741753
-0.088186 -0.041144 0.760064 255 44 0 0.747329
-0.089292 -0.044020 0.757893 255 40 0 0.754318
-0.074507 -0.033817 0.758620 255 52 0 0.733926
-0.071836 -0.032518 0.758118 255 48 0 0.738394
-0.069633 -0.032602 0.756440 255 48 0 0.740829
-0.070723 -0.035496 0.754281 255 48 0 0.740513
-0.072895 -0.035388 0.755936 255 50 0 0.737904
-0.075603 -0.036720 0.756594 255 79 0 0.682679
-0.074928 -0.042088 0.750724 255 48 0 0.738835
-0.077603 -0.043419 0.751260 255 50 0 0.735659
-0.075530 -0.040100 0.753106 255 50 0 0.736297
-0.078188 -0.041422 0.753723 255 52 0 0.731857
-0.080813 -0.042648 0.754255 255 54 0 0.728218
-0.080250 -0.044647 0.751859 255 52 0 0.732420
-0.082854 -0.045884 0.752305 255 54 0 0.728716
-0.072786 -0.038817 0.752571 255 48 0 0.739180
-0.085302 -0.047090 0.752829 255 54 0 0.730435
-0.087765 -0.048171 0.753331 255 50 0 0.738180
-0.086005 -0.045088 0.755214 255 50 0 0.737035
-0.088461 -0.046193 0.755635 255 44 0 0.749084
-0.090982 -0.047231 0.756023 255 40 0 0.755979
-0.090227 -0.049294 0.753756 255 40 0 0.754550
-0.092819 -0.050396 0.754146 232 1 0 0.828789
-0.083432 -0.043914 0.754775 255 50 0 0.736286
-0.123665 -0.126165 0.808180 255 46 0 0.745400
-0.120779 -0.126413 0.809877 255 46 0 0.744073
-0.119824 -0.127999 0.806966 255 48 0 0.741062
-0.122694 -0.127489 0.805169 255 46 0 0.742236
-0.116976 -0.128535 0.808638 255 27 0 0.779999
-0.118945 -0.129459 0.804015 255 50 0 0.735610
-0.116128 -0.130207 0.805784 255 50 0 0.738150
-0.115314 -0.131727 0.802953 255 32 0 0.770775
-0.121783 -0.128756 0.802140 255 48 0 0.740111
-0.118079 -0.130774 0.801099 255 50 0 0.737976
-0.120870 -0.129799 0.799148 255 48 0 0.738820
-0.113352 -0.130976 0.807471 255 50 0 0.738026
-0.112598 -0.132703 0.804751 255 44 0 0.749610
-0.109893 -0.133608 0.806447 255 42 0 0.753697
-0.110692 -0.131420 0.809387 255 48 0 0.738308
-0.114230 -0.128804 0.810497 255 48 0 0.739920
-0.111533 -0.129179 0.812339 255 48 0 0.739997
-0.115218 -0.126657 0.813613 255 46 0 0.743542
-0.118023 -0.126545 0.811797 255 46 0 0.743565
-0.112499 -0.126961 0.815381 255 46 0 0.743625
-0.120247 -0.130520 0.795728 255 40 0 0.755155
-0.117414 -0.131865 0.797613 255 50 0 0.736994
-0.116767 -0.132593 0.794295 255 50 0 0.736281
-0.119700 -0.131016 0.792275 255 50 0 0.735625
-0.113964 -0.134141 0.796077 255 50 0 0.737844
-0.116098 -0.133156 0.790921 255 50 0 0.735076
-0.113224 -0.134784 0.792699 255 50 0 0.737279
-0.112459 -0.135360 0.789358 255 40 0 0.756775
-0.119132 -0.131432 0.788817 255 52 0 0.733438
-0.115418 -0.133657 0.787498 255 65 0 0.710257
-0.118594 -0.131849 0.785362 255 58 0 0.722172
-0.110497 -0.136330 0.794349 255 48 0 0.738777
-0.109710 -0.136917 0.790990 255 48 0 0.738576
-0.107060 -0.138335 0.792478 255 48 0 0.739789
-0.107923 -0.137578 0.796058 255 38 0 0.760770
-0.111307 -0.135414 0.797890 255 48 0 0.738805
-0.108702 -0.136595 0.799618 255 40 0 0.754516
-0.111997 -0.134237 0.801392 255 44 0 0.746878
-0.114690 -0.133073 0.799543 255 38 0 0.761710
-0.109363 -0.135297 0.803093 255 48 0 0.739127
-0.098767 -0.140897 0.801809 255 48 0 0.741138
-0.099514 -0.139492 0.805363 255 48 0 0.741069
-0.102590 -0.138802 0.803437 255 44 0 0.747283
-0.100098 -0.137550 0.808693 255 48 0 0.740234
-0.103206 -0.136982 0.806856 255 38 0 0.761291
-0.103720 -0.134754 0.810109 255 48 0 0.739142
-0.100599 -0.135198 0.811868 255 58 0 0.719525
-0.106267 -0.136312 0.804972 255 48 0 0.739782
-0.106821 -0.134207 0.808295 255 48 0 0.738854
-0.105664 -0.137767 0.801533 255 54 0 0.728255
-0.104940 -0.138813 0.797962 255 46 0 0.744560
-0.101879 -0.139922 0.799898 255 56 0 0.724172
-0.101078 -0.140677 0.796298 255 48 0 0.741257
-0.104103 -0.139545 0.794378 255 48 0 0.740860
-0.097927 -0.141688 0.798225 255 48 0 0.741830
-0.101272 -0.132698 0.814601 255 48 0 0.738910
-0.102126 -0.129886 0.817574 255 50 0 0.735765
-0.105159 -0.129812 0.815734 255 48 0 0.740574
-0.103065 -0.127108 0.820566 255 46 0 0.742786
-0.106126 -0.127130 0.818830 255 44 0 0.746608
-0.109210 -0.127132 0.816998 255 46 0 0.742967
-0.108354 -0.129521 0.814034 255 48 0 0.740409
-0.107559 -0.131923 0.811175 255 48 0 0.738484
-0.104452 -0.132409 0.812932 255 48 0 0.739046
-0.090245 -0.051907 0.751453 255 52 0 0.734284
-0.087815 -0.050755 0.751004 255 69 0 0.702444
-0.085349 -0.049608 0.750545 255 54 0 0.727278
-0.087874 -0.053298 0.748618 255 54 0 0.727177
-0.090038 -0.054349 0.749155 255 54 0 0.727664
-0.092283 -0.055388 0.749699 255 52 0 0.732654
-0.092521 -0.052937 0.751969 255 48 0 0.740466
-0.094948 -0.053992 0.752437 255 44 0 0.746604
-0.094698 -0.056478 0.750238 255 50 0 0.737918
-0.097314 -0.057652 0.750748 255 46 0 0.742725
-0.080621 -0.047288 0.749433 255 89 0 0.662925
-0.077970 -0.046045 0.748941 255 50 0 0.738239
-0.080832 -0.049805 0.747075 255 50 0 0.736838
-0.083167 -0.051001 0.747609 255 52 0 0.733569
-0.082989 -0.048480 0.749994 255 52 0 0.733685
-0.085523 -0.052163 0.748140 255 54 0 0.729309
-0.087031 -0.057834 0.743294 255 63 0 0.711926
-0.089046 -0.058887 0.743914 255 54 0 0.727028
-0.086399 -0.055066 0.745647 255 54 0 0.730376
-0.088417 -0.056110 0.746249 255 56 0 0.725885
-0.090539 -0.057181 0.746877 255 56 0 0.725028
-0.091128 -0.059967 0.744513 255 56 0 0.723089
-0.093314 -0.061037 0.745160 255 56 0 0.724041
-0.084022 -0.053888 0.745171 255 50 0 0.734705
-0.096362 -0.061162 0.747334 255 52 0 0.734107
-0.099928 -0.061327 0.749344 255 34 0 0.768681
-0.100096 -0.063965 0.747383 255 52 0 0.733190
-0.092771 -0.058264 0.747433 255 54 0 0.728715
-0.045133 -0.109112 0.698746 255 46 0 0.745400
-0.042252 -0.109721 0.698610 255 46 0 0.743765
-0.040287 -0.111897 0.698509 255 46 0 0.743433
-0.037461 -0.112565 0.698371 255 46 0 0.743077
-0.039161 -0.115545 0.698223 255 46 0 0.743312
-0.041990 -0.114859 0.698304 255 46 0 0.743624
-0.043967 -0.112676 0.698521 255 46 0 0.743952
-0.046862 -0.111945 0.698611 255 48 0 0.739157
-0.049051 -0.109780 0.698892 255 46 0 0.744678
-0.050885 -0.112662 0.698783 255 46 0 0.744958
-0.033062 -0.111865 0.698108 255 46 0 0.742524
-0.029413 -0.112653 0.697608 255 46 0 0.742212
-0.026356 -0.115098 0.696984 255 48 0 0.742048
-0.028100 -0.118088 0.697034 255 46 0 0.742316
-0.031136 -0.115646 0.697695 255 46 0 0.742549
-0.034815 -0.114815 0.698089 255 46 0 0.742791
-0.030563 -0.124274 0.697627 255 46 0 0.742652
-0.033858 -0.121806 0.698042 255 46 0 0.742981
-0.037503 -0.121064 0.698353 255 46 0 0.743312
-0.040345 -0.118715 0.698506 255 50 0 0.737707
-0.041535 -0.121924 0.698650 255 46 0 0.745446
-0.036275 -0.117860 0.698166 255 46 0 0.743085
-0.032649 -0.118664 0.697802 255 52 0 0.732865
-0.029309 -0.121128 0.697399 255 52 0 0.730958
-0.044348 -0.121254 0.698786 255 46 0 0.743928
-0.046626 -0.118905 0.698832 255 46 0 0.744247
-0.049590 -0.118231 0.699071 255 46 0 0.744664
-0.052107 -0.115882 0.699153 255 44 0 0.747696
-0.053369 -0.119124 0.699498 255 46 0 0.743473
-0.048392 -0.114934 0.698735 255 46 0 0.744474
-0.045416 -0.115706 0.698568 255 46 0 0.744071
-0.043178 -0.118012 0.698560 255 42 0 0.750278
-0.091612 -0.141837 0.774993 255 44 0 0.747755
-0.092532 -0.141740 0.777841 255 36 0 0.762265
-0.095716 -0.141018 0.776028 255 46 0 0.745784
-0.093462 -0.141738 0.780813 255 44 0 0.746321
-0.096662 -0.140934 0.778938 255 40 0 0.756181
-0.097598 -0.140903 0.781940 255 46 0 0.743860
-0.094425 -0.141784 0.783859 255 46 0 0.744946
-0.099783 -0.140164 0.777035 255 46 0 0.743475
-0.100691 -0.140056 0.780002 255 61 0 0.717316
-0.103773 -0.139144 0.778015 255 46 0 0.744288
-0.102839 -0.139321 0.774903 255 46 0 0.742195
-0.098794 -0.140249 0.773973 255 46 0 0.744054
-0.101910 -0.139503 0.771879 255 46 0 0.742698
-0.097807 -0.140334 0.771067 255 46 0 0.744311
-0.094710 -0.141058 0.773000 255 81 0 0.676499
-0.093709 -0.141091 0.770082 255 77 0 0.683907
-0.100983 -0.139550 0.768999 255 46 0 0.743135
-0.096830 -0.140372 0.768171 255 48 0 0.741115
-0.100024 -0.139549 0.766130 255 46 0 0.743777
-0.090591 -0.141927 0.771971 255 36 0 0.763651
-0.095398 -0.142026 0.787594 255 46 0 0.743463
-0.096300 -0.142092 0.791104 255 46 0 0.742631
-0.099444 -0.141169 0.789269 255 48 0 0.742073
-0.097136 -0.142018 0.794655 255 48 0 0.741994
-0.100291 -0.141023 0.792757 255 48 0 0.741542
-0.103314 -0.139956 0.790888 255 48 0 0.740941
-0.106276 -0.138618 0.788796 255 42 0 0.751558
-0.102469 -0.140020 0.787197 255 48 0 0.741331
-0.105477 -0.138792 0.785152 255 48 0 0.740297
-0.101604 -0.140007 0.783589 255 48 0 0.741913
-0.098558 -0.140995 0.785602 255 46 0 0.742868
-0.104639 -0.138915 0.781585 255 65 0 0.708142
-0.118213 -0.131896 0.781462 255 54 0 0.729518
-0.114836 -0.134023 0.783776 255 38 0 0.760352
-0.114340 -0.134152 0.779979 255 52 0 0.734047
-0.117919 -0.132032 0.777665 255 52 0 0.731897
-0.111108 -0.136081 0.781977 255 50 0 0.736955
-0.113854 -0.134341 0.776309 255 50 0 0.735625
-0.110490 -0.136168 0.778302 255 54 0 0.730031
-0.109854 -0.136312 0.774731 255 48 0 0.738877
-0.117593 -0.132298 0.774001 255 50 0 0.735919
-0.113407 -0.134553 0.772690 255 50 0 0.738275
-0.117249 -0.132611 0.770489 255 42 0 0.750815
-0.107445 -0.137765 0.780056 255 48 0 0.739623
-0.106666 -0.137839 0.776463 255 77 0 0.685272
-0.108208 -0.137541 0.783654 255 48 0 0.738787
-0.108955 -0.137296 0.787307 255 50 0 0.735305
-0.111766 -0.135746 0.785669 255 46 0 0.744489
-0.116941 -0.132614 0.766578 255 48 0 0.742001
-0.112644 -0.135023 0.769719 255 65 0 0.708546
-0.112101 -0.134862 0.765913 255 48 0 0.741863
-0.116385 -0.132508 0.762833 255 46 0 0.743210
-0.108187 -0.137005 0.768675 255 48 0 0.741550
-0.111308 -0.134571 0.762119 255 46 0 0.742639
-0.107431 -0.136634 0.764932 255 42 0 0.753825
-0.106584 -0.136114 0.761127 255 44 0 0.749983
-0.115678 -0.132269 0.758954 255 46 0 0.743763
-0.110374 -0.134141 0.758238 255 46 0 0.743001
-0.114591 -0.131876 0.755117 255 46 0 0.743828
-0.103998 -0.138505 0.767443 255 46 0 0.742592
-0.103168 -0.137922 0.763756 255 52 0 0.732296
-0.104899 -0.138374 0.770362 255 48 0 0.742040
-0.105781 -0.138127 0.773366 255 48 0 0.741286
-0.109040 -0.136719 0.771643 255 48 0 0.740712
-0.096624 -0.137385 0.742755 255 48 0 0.741549
-0.094653 -0.138766 0.744776 255 46 0 0.742288
-0.094064 -0.139588 0.748583 255 30 0 0.775494
-0.092144 -0.140965 0.750525 255 32 0 0.769704
-0.091637 -0.141752 0.754200 255 46 0 0.744075
-0.088824 -0.143003 0.750617 255 46 0 0.744045
-0.094953 -0.139949 0.754015 255 46 0 0.743595
-0.094453 -0.140729 0.757523 255 46 0 0.744161
-0.096606 -0.139290 0.755404 255 46 0 0.743728
-0.097128 -0.138387 0.751801 255 46 0 0.742688
-0.098810 -0.137835 0.753230 255 46 0 0.742837
-0.099368 -0.136885 0.749510 255 48 0 0.742059
-0.097682 -0.137516 0.748072 255 48 0 0.741791
-0.099945 -0.135968 0.745697 255 48 0 0.741295
-0.101053 -0.136295 0.750864 255 48 0 0.742160
-0.101696 -0.135380 0.747056 255 48 0 0.741484
-0.103442 -0.134880 0.748371 255 48 0 0.741752
-0.098291 -0.136593 0.744251 255 48 0 0.740991
-0.086197 -0.144005 0.752345 255 46 0 0.745529
-0.084771 -0.144349 0.756056 255 46 0 0.744729
-0.082220 -0.145108 0.757652 255 46 0 0.745008
-0.084483 -0.144095 0.761432 255 46 0 0.745276
-0.087337 -0.143206 0.759677 255 63 0 0.713654
-0.090159 -0.142226 0.757846 255 46 0 0.744619
-0.089171 -0.142283 0.769817 255 44 0 0.747508
-0.092316 -0.141474 0.767984 255 44 0 0.746374
-0.090944 -0.141859 0.765893 255 44 0 0.746190
-0.095450 -0.140710 0.766052 255 46 0 0.744894
-0.094078 -0.141038 0.763957 255 46 0 0.745381
-0.097285 -0.140088 0.761877 255 46 0 0.744484
-0.098654 -0.139827 0.763997 255 50 0 0.735103
-0.092682 -0.141425 0.761816 255 40 0 0.756848
-0.095884 -0.140348 0.759741 255 61 0 0.717245
-0.089847 -0.142180 0.763653 255 46 0 0.745749
-0.087014 -0.142954 0.765365 255 46 0 0.746093
-0.088126 -0.142571 0.767597 255 44 0 0.746755
-0.100863 -0.138495 0.761940 255 46 0 0.743767
-0.104115 -0.136708 0.759398 255 46 0 0.742768
-0.101695 -0.137331 0.757588 255 46 0 0.743262
-0.107618 -0.134851 0.756608 255 46 0 0.742579
-0.105043 -0.135546 0.754888 255 46 0 0.742552
-0.108650 -0.133650 0.751927 255 46 0 0.742759
-0.111560 -0.132880 0.753525 255 46 0 0.743112
-0.102546 -0.136112 0.753083 255 46 0 0.742452
-0.105966 -0.134285 0.750168 255 69 0 0.699646
-0.100265 -0.137596 0.755431 255 40 0 0.756458
-0.098021 -0.138956 0.757620 255 46 0 0.743929
-0.099447 -0.138766 0.759795 255 50 0 0.737499
-0.092374 -0.083074 0.719265 255 46 0 0.743650
-0.095895 -0.084220 0.720273 255 46 0 0.742706
-0.098166 -0.086360 0.719725 255 46 0 0.742368
-0.101358 -0.087793 0.720914 255 48 0 0.741205
-0.099289 -0.089320 0.717484 255 46 0 0.742848
-0.100119 -0.084858 0.723154 255 48 0 0.740550
-0.103124 -0.086478 0.724781 255 48 0 0.738665
-0.097725 -0.082518 0.723637 255 48 0 0.741018
-0.095256 -0.080232 0.724169 255 48 0 0.741193
-0.101092 -0.091895 0.717186 255 46 0 0.742562
-0.103898 -0.093870 0.718717 255 54 0 0.730096
-0.105440 -0.096611 0.718745 255 56 0 0.724729
-0.108000 -0.098729 0.720656 255 48 0 0.740029
-0.105722 -0.100067 0.717160 255 48 0 0.741551
-0.107458 -0.095427 0.722554 255 48 0 0.738954
-0.110057 -0.097566 0.724835 255 48 0 0.738294
-0.105824 -0.092625 0.722534 255 48 0 0.739234
-0.104059 -0.089856 0.722607 255 48 0 0.739594
-0.115488 -0.095778 0.734372 255 48 0 0.741936
-0.113658 -0.093115 0.734400 255 48 0 0.740779
-0.112318 -0.093469 0.732069 255 48 0 0.739258
-0.110472 -0.090903 0.732092 255 50 0 0.738054
-0.111801 -0.090501 0.734411 255 50 0 0.736977
-0.109089 -0.091226 0.729511 255 50 0 0.737005
-0.108551 -0.088288 0.732011 255 50 0 0.736707
-0.107178 -0.088580 0.729458 255 50 0 0.735973
-0.105187 -0.085878 0.729275 255 50 0 0.735454
-0.109854 -0.087972 0.734387 255 48 0 0.740031
-0.106402 -0.085672 0.731775 255 71 0 0.698270
-0.107796 -0.085380 0.734218 255 50 0 0.737660
-0.106017 -0.088849 0.726915 255 50 0 0.736777
-0.104126 -0.086135 0.726935 255 50 0 0.737069
-0.109659 -0.094295 0.727125 255 50 0 0.737256
-0.112677 -0.096574 0.729800 255 48 0 0.738324
-0.104833 -0.082512 0.734256 255 52 0 0.733856
-0.103813 -0.083198 0.731588 255 52 0 0.731873
-0.100951 -0.080130 0.731692 255 52 0 0.731524
-0.101829 -0.079478 0.734324 255 54 0 0.730156
-0.100304 -0.080860 0.729234 255 50 0 0.735002
-0.098215 -0.077066 0.731921 255 52 0 0.731790
-0.097561 -0.077907 0.729738 255 50 0 0.735667
-0.098952 -0.076287 0.734289 255 54 0 0.728423
-0.096898 -0.078825 0.727590 255 48 0 0.738528
-0.099361 -0.081232 0.727292 255 48 0 0.742133
-0.101763 -0.083669 0.727073 255 50 0 0.737140
-0.102729 -0.083388 0.729245 255 50 0 0.734593
-0.105369 -0.122973 0.727939 255 50 0 0.737681
-0.107188 -0.119688 0.727770 255 50 0 0.737461
-0.108333 -0.121541 0.730924 255 50 0 0.737713
-0.109133 -0.116332 0.727619 255 56 0 0.724721
-0.110333 -0.118205 0.730801 255 50 0 0.738239
-0.112455 -0.114736 0.730805 255 61 0 0.715268
-0.111685 -0.120145 0.733970 255 50 0 0.735633
-0.111106 -0.112885 0.727543 255 44 0 0.747198
-0.113010 -0.109361 0.727816 255 48 0 0.738952
-0.110241 -0.110869 0.724070 255 48 0 0.738812
-0.108405 -0.114281 0.724051 255 48 0 0.738715
-0.106520 -0.117667 0.724289 255 48 0 0.738660
-0.107602 -0.112280 0.720815 255 42 0 0.750490
-0.113869 -0.119265 0.735492 255 48 0 0.741152
-0.113953 -0.116752 0.734163 255 48 0 0.740904
-0.116377 -0.115714 0.735720 255 46 0 0.742848
-0.116241 -0.118280 0.736987 255 54 0 0.729741
-0.116438 -0.113211 0.734592 255 46 0 0.742451
-0.118500 -0.114854 0.737455 255 46 0 0.744242
-0.118430 -0.112370 0.736352 255 46 0 0.744052
-0.120412 -0.111507 0.738129 255 42 0 0.753327
-0.118480 -0.117331 0.738557 255 46 0 0.744414
-0.120506 -0.113979 0.739152 255 46 0 0.744790
-0.120489 -0.116501 0.740259 255 46 0 0.745013
-0.118360 -0.109854 0.735258 255 46 0 0.743375
-0.120269 -0.109048 0.737066 255 46 0 0.744215
-0.119937 -0.106533 0.736070 255 46 0 0.743795
-0.118214 -0.107119 0.734066 255 46 0 0.742716
-0.116538 -0.110454 0.733243 255 56 0 0.726499
-0.116543 -0.107730 0.732038 255 48 0 0.741181
-0.114594 -0.111249 0.731245 255 48 0 0.740058
-0.114309 -0.114018 0.732700 255 50 0 0.736654
-0.114727 -0.108530 0.729946 255 54 0 0.728272
-0.115308 -0.098927 0.732597 255 48 0 0.739502
-0.114820 -0.102169 0.730796 255 48 0 0.739735
-0.112382 -0.099927 0.727959 255 48 0 0.738535
-0.113299 -0.102755 0.728423 255 48 0 0.739296
-0.111921 -0.103394 0.726030 255 50 0 0.738266
-0.114105 -0.105695 0.729138 255 48 0 0.741702
-0.115778 -0.104928 0.731397 255 48 0 0.740583
-0.117384 -0.104350 0.733477 255 48 0 0.742187
-0.116356 -0.101585 0.732977 255 48 0 0.741608
-0.117925 -0.100946 0.735097 255 46 0 0.742919
-0.119026 -0.103753 0.735544 255 46 0 0.743318
-0.116652 -0.098378 0.734719 255 46 0 0.742871
-0.109850 -0.101103 0.723357 255 58 0 0.720566
-0.109418 -0.104769 0.722114 255 48 0 0.739215
-0.107634 -0.102400 0.719497 255 52 0 0.732577
-0.107031 -0.106139 0.718562 255 48 0 0.740626
-0.108723 -0.108523 0.721216 255 48 0 0.739664
-0.111224 -0.107089 0.724834 255 48 0 0.738708
-0.085392 -0.090211 0.711488 255 46 0 0.745331
-0.087466 -0.091897 0.711101 255 46 0 0.745153
-0.090731 -0.092756 0.711506 255 46 0 0.744907
-0.092775 -0.094543 0.711062 255 46 0 0.744776
-0.095044 -0.092739 0.712699 255 46 0 0.744435
-0.092856 -0.090814 0.713297 255 46 0 0.744565
-0.089670 -0.090024 0.712934 255 56 0 0.724883
-0.087369 -0.088194 0.713503 255 46 0 0.744931
-0.093336 -0.097838 0.710098 255 46 0 0.744717
-0.094842 -0.100188 0.710198 255 46 0 0.744500
-0.097485 -0.101862 0.711089 255 46 0 0.743918
-0.098738 -0.104307 0.711302 255 46 0 0.743646
-0.101215 -0.102908 0.712700 255 46 0 0.743106
-0.099810 -0.100258 0.712535 255 54 0 0.728930
-0.097221 -0.098544 0.711729 255 46 0 0.744024
-0.095640 -0.096047 0.711754 255 46 0 0.744297
-0.103336 -0.098075 0.715810 255 46 0 0.742392
-0.101857 -0.095355 0.715821 255 46 0 0.742866
-0.099109 -0.093567 0.714796 255 46 0 0.743502
-0.097320 -0.090975 0.715041 255 46 0 0.743821
-0.099575 -0.096943 0.713559 255 46 0 0.743601
-0.103652 -0.101436 0.714848 255 46 0 0.742438
-0.096221 -0.088157 0.716817 255 46 0 0.743578
-0.093912 -0.086076 0.717398 255 50 0 0.735493
-0.090578 -0.085145 0.716812 255 46 0 0.744427
-0.091833 -0.087993 0.714969 255 46 0 0.744467
-0.104382 -0.124937 0.729830 255 50 0 0.737521
-0.106074 -0.124174 0.731098 255 50 0 0.737243
-0.105131 -0.126152 0.732996 255 50 0 0.737554
-0.103470 -0.126898 0.731666 255 50 0 0.737479
-0.106884 -0.125446 0.734243 255 50 0 0.737842
-0.104269 -0.128104 0.734803 255 54 0 0.726679
-0.106018 -0.127471 0.736063 255 48 0 0.738362
-0.105150 -0.129473 0.737939 255 48 0 0.738990
-0.102648 -0.128835 0.733460 255 50 0 0.737872
-0.103483 -0.130086 0.736607 255 48 0 0.738676
-0.101856 -0.130839 0.735242 255 48 0 0.738689
-0.107762 -0.126835 0.737408 255 67 0 0.705913
-0.106931 -0.128910 0.739219 255 48 0 0.739856
-0.108805 -0.128319 0.740510 255 48 0 0.740401
-0.110193 -0.124265 0.737176 255 44 0 0.748299
-0.109185 -0.122861 0.734091 255 52 0 0.731998
-0.100478 -0.132356 0.737210 255 48 0 0.738687
-0.102189 -0.131677 0.738570 255 50 0 0.738031
-0.100823 -0.133259 0.740533 255 48 0 0.739249
-0.099142 -0.133974 0.739103 255 48 0 0.739175
-0.102537 -0.132614 0.741884 255 48 0 0.739776
-0.099530 -0.134912 0.742397 255 63 0 0.712915
-0.101205 -0.134231 0.743826 255 48 0 0.740173
-0.097844 -0.135656 0.740988 255 48 0 0.740366
-0.102945 -0.133672 0.745178 255 48 0 0.741052
-0.104697 -0.133176 0.746467 255 56 0 0.725192
-0.104204 -0.132016 0.743262 255 48 0 0.740361
-0.105994 -0.131470 0.744541 255 48 0 0.741144
-0.105510 -0.130440 0.741269 255 48 0 0.740511
-0.103801 -0.131011 0.739935 255 48 0 0.739156
-0.107405 -0.129861 0.742526 255 56 0 0.724415
-0.115762 -0.129979 0.752652 255 46 0 0.744403
-0.113182 -0.131079 0.751598 255 46 0 0.743644
-0.114231 -0.129223 0.749119 255 46 0 0.743752
-0.116747 -0.128159 0.750276 255 46 0 0.744869
-0.111695 -0.130168 0.747965 255 46 0 0.743028
-0.115208 -0.127421 0.746625 255 46 0 0.744199
-0.112654 -0.128335 0.745469 255 46 0 0.743049
-0.113623 -0.126566 0.742961 255 46 0 0.742903
-0.117813 -0.126315 0.747825 255 46 0 0.744977
-0.116338 -0.125590 0.744118 255 46 0 0.743861
-0.118725 -0.124552 0.745451 255 46 0 0.744873
-0.110172 -0.129172 0.744282 255 48 0 0.741929
-0.111065 -0.127502 0.741794 255 48 0 0.741326
-0.108760 -0.130876 0.746247 255 48 0 0.741940
-0.107272 -0.132582 0.748250 255 48 0 0.742080
-0.110136 -0.131899 0.749965 255 52 0 0.731025
-0.117617 -0.121332 0.741255 255 46 0 0.744149
-0.119647 -0.120513 0.742796 255 46 0 0.745101
-0.115301 -0.122309 0.739750 255 46 0 0.743079
-0.112573 -0.123318 0.738497 255 48 0 0.741692
0.017769 -0.144781 0.711141 255 46 0 0.742618
0.020831 -0.144262 0.708639 255 46 0 0.743015
0.015562 -0.144149 0.708524 255 46 0 0.742657
0.018652 -0.143660 0.706044 255 46 0 0.742989
0.013612 -0.143350 0.705977 255 46 0 0.742766
0.017005 -0.142712 0.703665 255 46 0 0.743033
0.011977 -0.142367 0.703511 255 46 0 0.742956
0.015439 -0.141785 0.701171 255 46 0 0.743231
-0.045343 -0.141346 0.713821 255 46 0 0.744116
-0.048890 -0.140013 0.713066 255 48 0 0.739758
-0.043446 -0.140603 0.711782 255 46 0 0.743944
-0.046974 -0.139366 0.710919 255 46 0 0.744298
-0.045080 -0.138571 0.708917 255 46 0 0.744124
-0.050601 -0.137985 0.710238 255 46 0 0.744646
-0.041646 -0.139755 0.709780 255 46 0 0.743823
-0.039792 -0.138818 0.707851 255 46 0 0.743649
-0.038353 -0.140657 0.710459 255 46 0 0.743513
-0.040181 -0.141593 0.712419 255 46 0 0.743673
-0.041996 -0.142444 0.714412 255 48 0 0.742164
-0.036953 -0.142516 0.713056 255 46 0 0.743392
-0.048306 -0.137161 0.708384 255 46 0 0.744443
-0.051791 -0.135360 0.707687 255 46 0 0.744788
-0.046052 -0.136202 0.706622 255 46 0 0.744286
-0.049440 -0.134442 0.705846 255 46 0 0.744667
-0.047154 -0.133419 0.704100 255 46 0 0.744450
-0.052952 -0.132630 0.705160 255 46 0 0.745057
-0.043868 -0.135111 0.704939 255 46 0 0.744020
-0.041628 -0.134006 0.703388 255 46 0 0.743789
-0.040729 -0.136452 0.705601 255 46 0 0.743728
-0.042922 -0.137558 0.707192 255 46 0 0.743931
-0.026770 -0.135362 0.701011 255 46 0 0.742703
-0.030334 -0.136196 0.702823 255 46 0 0.742920
-0.026060 -0.137336 0.702960 255 46 0 0.742793
-0.033711 -0.137091 0.704559 255 46 0 0.743135
-0.029625 -0.138223 0.704711 255 46 0 0.742954
-0.032983 -0.139115 0.706517 255 46 0 0.743142
-0.025280 -0.139341 0.704817 255 46 0 0.742782
-0.036864 -0.137985 0.706216 255 46 0 0.743437
-0.037795 -0.135591 0.704025 255 46 0 0.743476
-0.034667 -0.134659 0.702425 255 50 0 0.734947
-0.028487 -0.140113 0.706908 255 50 0 0.735984
-0.023915 -0.140879 0.707034 255 46 0 0.742838
-0.031563 -0.140922 0.709031 255 46 0 0.743139
-0.027192 -0.141661 0.709194 255 46 0 0.742950
-0.030316 -0.142499 0.711380 255 46 0 0.743036
-0.022507 -0.142416 0.709324 255 46 0 0.742868
-0.034391 -0.141763 0.711066 255 46 0 0.743279
-0.035794 -0.139899 0.708511 255 42 0 0.753368
0.006952 -0.136243 0.694556 255 50 0 0.735393
0.006457 -0.134380 0.693240 255 46 0 0.742379
0.005895 -0.132567 0.691948 255 48 0 0.742187
0.005816 -0.130380 0.691066 255 48 0 0.741984
0.010468 -0.141228 0.701232 255 48 0 0.738939
0.014122 -0.140537 0.699123 255 46 0 0.743290
0.009159 -0.139953 0.699159 255 46 0 0.742883
0.012836 -0.139298 0.697051 255 46 0 0.743165
0.008141 -0.138525 0.697200 255 46 0 0.742853
-0.022656 -0.134605 0.699596 255 46 0 0.742522
-0.027044 -0.133015 0.699753 255 46 0 0.742642
-0.018636 -0.133766 0.698299 255 46 0 0.742421
-0.022961 -0.132289 0.698327 255 46 0 0.742405
-0.018882 -0.131492 0.696939 255 46 0 0.742323
-0.027275 -0.130632 0.698412 255 46 0 0.742527
-0.014699 -0.132870 0.697015 255 46 0 0.742432
-0.010826 -0.131961 0.695657 255 46 0 0.742317
-0.010489 -0.133961 0.696957 255 46 0 0.742434
-0.014353 -0.134925 0.698251 255 46 0 0.742474
-0.018369 -0.135830 0.699596 255 46 0 0.742550
-0.010155 -0.136009 0.698248 255 46 0 0.742513
-0.022948 -0.129847 0.697336 255 46 0 0.742305
-0.026872 -0.127901 0.697710 255 46 0 0.742460
-0.018706 -0.128972 0.696248 255 48 0 0.742160
-0.022573 -0.127124 0.696613 255 48 0 0.742153
-0.014642 -0.129271 0.695529 255 46 0 0.742200
-0.010617 -0.129518 0.694813 255 46 0 0.742188
0.001539 -0.130188 0.692072 255 48 0 0.741894
-0.002643 -0.130013 0.693011 255 48 0 0.742038
-0.002652 -0.132244 0.693931 255 48 0 0.742148
0.001542 -0.132397 0.693011 255 48 0 0.742084
-0.006775 -0.130976 0.694382 255 46 0 0.742227
-0.006603 -0.128592 0.693506 255 48 0 0.742123
0.001988 -0.134304 0.694313 255 56 0 0.726118
-0.002292 -0.134210 0.695263 255 46 0 0.742281
-0.001815 -0.136077 0.696557 255 46 0 0.742362
0.002482 -0.136156 0.695599 255 46 0 0.742383
-0.006222 -0.135071 0.696765 255 48 0 0.739686
-0.006608 -0.133102 0.695488 255 46 0 0.742331
0.007651 -0.142513 0.704533 255 46 0 0.742773
0.004354 -0.143075 0.706715 255 46 0 0.742640
0.009392 -0.143475 0.707006 255 46 0 0.742671
0.006065 -0.144079 0.709212 255 50 0 0.734567
0.001047 -0.143669 0.708859 255 46 0 0.742733
-0.002157 -0.144249 0.710942 255 46 0 0.742773
-0.004134 -0.143128 0.708506 255 46 0 0.742777
-0.000909 -0.142557 0.706431 255 46 0 0.742755
0.002401 -0.141993 0.704300 255 46 0 0.742684
-0.006122 -0.142114 0.706072 255 46 0 0.742755
0.011537 -0.144356 0.709541 255 48 0 0.740551
0.008597 -0.144777 0.711858 255 56 0 0.723845
0.013724 -0.144960 0.712243 255 54 0 0.728795
0.005746 -0.145225 0.714104 255 46 0 0.742616
0.000363 -0.144917 0.713618 255 46 0 0.742745
0.003248 -0.144504 0.711438 255 46 0 0.742711
-0.009933 -0.145645 0.717211 255 48 0 0.740114
-0.015412 -0.145323 0.716699 255 46 0 0.742845
-0.007328 -0.145158 0.715124 255 46 0 0.742810
-0.012762 -0.144921 0.714585 255 46 0 0.742870
-0.010124 -0.144457 0.712510 255 46 0 0.742836
-0.018127 -0.144691 0.714055 255 46 0 0.742815
-0.004765 -0.144700 0.713063 255 46 0 0.742820
-0.002170 -0.145405 0.715727 255 46 0 0.744013
-0.015091 -0.144065 0.712020 255 46 0 0.742871
-0.020331 -0.143542 0.711676 255 46 0 0.742852
-0.012104 -0.143411 0.710076 255 46 0 0.742856
-0.017232 -0.142938 0.709628 255 52 0 0.733362
-0.014246 -0.142323 0.707670 255 48 0 0.742157
-0.009086 -0.142758 0.708072 255 44 0 0.748668
-0.007134 -0.143781 0.710529 255 46 0 0.742862
0.003328 -0.137775 0.697316 255 46 0 0.742521
-0.001060 -0.137778 0.698297 255 46 0 0.742483
-0.000252 -0.139342 0.700066 255 46 0 0.742569
0.004104 -0.139338 0.699132 255 46 0 0.742659
-0.004916 -0.138591 0.700048 255 46 0 0.742562
-0.008669 -0.139396 0.701768 255 46 0 0.742657
-0.009423 -0.137686 0.699975 255 46 0 0.742606
-0.005610 -0.136861 0.698252 255 46 0 0.742456
0.005407 -0.140659 0.701226 255 46 0 0.742750
0.001111 -0.140714 0.702174 255 50 0 0.734420
-0.002504 -0.141422 0.704136 255 46 0 0.742677
-0.007387 -0.140727 0.703914 255 46 0 0.742768
-0.003832 -0.140038 0.702008 255 46 0 0.742633
-0.018902 -0.141729 0.707337 255 46 0 0.742815
-0.015497 -0.140941 0.705487 255 46 0 0.742818
-0.020284 -0.140185 0.705102 255 46 0 0.742762
-0.016806 -0.139460 0.703227 255 46 0 0.742739
-0.012074 -0.140174 0.703632 255 46 0 0.742762
-0.010810 -0.141528 0.705788 255 48 0 0.739331
-0.021375 -0.138562 0.703076 255 44 0 0.748586
-0.017566 -0.137752 0.701456 255 46 0 0.742643
-0.022118 -0.136630 0.701198 255 46 0 0.742586
-0.013817 -0.136870 0.699786 255 46 0 0.742607
-0.013128 -0.138567 0.701610 255 46 0 0.742701
-0.025462 -0.143053 0.711569 255 44 0 0.746266
-0.028289 -0.143734 0.713825 255 46 0 0.742988
-0.023319 -0.144226 0.713896 255 46 0 0.742889
-0.026332 -0.144895 0.716264 255 46 0 0.742927
-0.030914 -0.144371 0.716091 255 46 0 0.743090
-0.033294 -0.144971 0.718272 255 46 0 0.743210
-0.035083 -0.143718 0.715660 255 46 0 0.743355
-0.032822 -0.143131 0.713539 255 46 0 0.743180
-0.020790 -0.145110 0.716366 255 46 0 0.742850
-0.023665 -0.145491 0.718904 255 46 0 0.742865
-0.017919 -0.145787 0.718996 255 46 0 0.742869
-0.026290 -0.145875 0.721345 255 50 0 0.735134
-0.030942 -0.145564 0.721004 255 46 0 0.743045
-0.028771 -0.145261 0.718666 255 46 0 0.742956
-0.038526 -0.145646 0.723441 255 46 0 0.743606
-0.035996 -0.145667 0.722651 255 46 0 0.743416
-0.038289 -0.145020 0.719798 255 46 0 0.743587
-0.040787 -0.145025 0.720585 255 52 0 0.733833
-0.034647 -0.145344 0.720492 255 46 0 0.743290
-0.032370 -0.145933 0.723214 255 46 0 0.743143
-0.042660 -0.143671 0.717930 255 46 0 0.743905
-0.040075 -0.143757 0.717229 255 46 0 0.743652
-0.038508 -0.143177 0.715116 255 46 0 0.743543
-0.036699 -0.144399 0.717717 255 46 0 0.743457
-0.063071 -0.142366 0.723156 255 46 0 0.746073
-0.063220 -0.143531 0.725516 255 46 0 0.746046
-0.060480 -0.145603 0.728721 255 46 0 0.745688
-0.063360 -0.144697 0.727866 255 46 0 0.746013
-0.063493 -0.145883 0.730223 255 46 0 0.745924
-0.066364 -0.143702 0.726875 255 44 0 0.746234
-0.066199 -0.142485 0.724485 255 44 0 0.746271
-0.066097 -0.141385 0.722094 255 44 0 0.746331
-0.069219 -0.141566 0.723430 255 44 0 0.746348
-0.055535 -0.146681 0.731125 255 46 0 0.745062
-0.055335 -0.147346 0.733545 255 46 0 0.744985
-0.058216 -0.147728 0.735101 255 46 0 0.745250
-0.058458 -0.147008 0.732723 255 46 0 0.745356
-0.060242 -0.146401 0.731103 255 46 0 0.745594
-0.063488 -0.148261 0.738389 255 46 0 0.745569
-0.064013 -0.147558 0.735949 255 46 0 0.745736
-0.065818 -0.146932 0.734318 255 46 0 0.745921
-0.066296 -0.146138 0.731894 255 38 0 0.759996
-0.069088 -0.146379 0.733466 255 46 0 0.746030
-0.063069 -0.146676 0.732697 255 46 0 0.745801
-0.061269 -0.147283 0.734306 255 46 0 0.745604
-0.060855 -0.147985 0.736751 255 42 0 0.752841
-0.069105 -0.145143 0.730953 255 44 0 0.746177
-0.072014 -0.144061 0.729953 255 44 0 0.746188
-0.069140 -0.143921 0.728449 255 44 0 0.746241
-0.072108 -0.142886 0.727460 255 46 0 0.743095
-0.072111 -0.141717 0.724921 255 44 0 0.746258
-0.075088 -0.141849 0.726376 255 44 0 0.746117
-0.069221 -0.142722 0.725976 255 44 0 0.746320
-0.066308 -0.144898 0.729379 255 44 0 0.746149
-0.050183 -0.131646 0.703757 255 46 0 0.744791
-0.053503 -0.129349 0.703323 255 46 0 0.745215
-0.047528 -0.130555 0.702436 255 48 0 0.740126
-0.050697 -0.128353 0.701936 255 46 0 0.744841
-0.047954 -0.127217 0.700729 255 46 0 0.744468
-0.053978 -0.126081 0.701517 255 50 0 0.736584
-0.044899 -0.129388 0.701329 255 46 0 0.744185
-0.042302 -0.128227 0.700259 255 46 0 0.743864
-0.042002 -0.131127 0.701828 255 46 0 0.743849
-0.044568 -0.132283 0.702897 255 46 0 0.744103
-0.050724 -0.125126 0.700600 255 52 0 0.732020
-0.053676 -0.122607 0.700501 255 50 0 0.737167
-0.047565 -0.124080 0.699842 255 42 0 0.753707
-0.050382 -0.121618 0.699651 255 46 0 0.744745
-0.044706 -0.124575 0.699609 255 52 0 0.732018
-0.041931 -0.125059 0.699463 255 46 0 0.743796
-0.030993 -0.127176 0.698362 255 46 0 0.742700
-0.034854 -0.126566 0.698832 255 46 0 0.743049
-0.035266 -0.129354 0.699559 255 46 0 0.743158
-0.031401 -0.129936 0.699080 255 46 0 0.742851
-0.038677 -0.127383 0.699574 255 46 0 0.743485
-0.038303 -0.124239 0.698808 255 46 0 0.743397
-0.031084 -0.132571 0.700445 255 46 0 0.742869
-0.034928 -0.132234 0.700989 255 46 0 0.743172
-0.038385 -0.133119 0.702217 255 46 0 0.743506
-0.038707 -0.130216 0.700697 255 46 0 0.745409
-0.081409 -0.109269 0.704851 255 50 0 0.736311
-0.078849 -0.107870 0.704194 255 50 0 0.734846
-0.079106 -0.105207 0.704365 255 44 0 0.746613
-0.076434 -0.103895 0.703712 255 44 0 0.746745
-0.076251 -0.106496 0.703477 255 44 0 0.746814
-0.073667 -0.105170 0.702695 255 46 0 0.742548
-0.075680 -0.108926 0.703251 255 44 0 0.746793
-0.078161 -0.110348 0.704010 255 44 0 0.746748
-0.080690 -0.111766 0.704714 255 44 0 0.746498
-0.077402 -0.112850 0.703837 255 44 0 0.746865
-0.076419 -0.101676 0.704300 255 44 0 0.746734
-0.073160 -0.098483 0.704588 255 44 0 0.746939
-0.069276 -0.100559 0.703021 255 44 0 0.746923
-0.072104 -0.101437 0.703412 255 44 0 0.746927
-0.064979 -0.102599 0.701754 255 44 0 0.746597
-0.067904 -0.103443 0.702110 255 48 0 0.741933
-0.070579 -0.106370 0.701950 255 48 0 0.738660
-0.066084 -0.106152 0.701186 255 48 0 0.739110
-0.068176 -0.109447 0.701416 255 44 0 0.746655
-0.070689 -0.110727 0.702123 255 52 0 0.732041
-0.073306 -0.112007 0.702835 255 44 0 0.746822
-0.070526 -0.114923 0.702324 255 52 0 0.731220
-0.073129 -0.107650 0.702612 255 52 0 0.730901
-0.054500 -0.133844 0.707002 255 46 0 0.745221
-0.056095 -0.134933 0.708852 255 42 0 0.753447
-0.053306 -0.136437 0.709528 255 46 0 0.745054
-0.054836 -0.137489 0.711367 255 46 0 0.745142
-0.057699 -0.135988 0.710694 255 46 0 0.745597
-0.059368 -0.137010 0.712602 255 50 0 0.737231
-0.060569 -0.134299 0.710037 255 46 0 0.746031
-0.058874 -0.133236 0.708124 255 46 0 0.745732
-0.057223 -0.132111 0.706273 255 46 0 0.745716
-0.061746 -0.131568 0.707405 255 44 0 0.746103
-0.051797 -0.138806 0.712283 255 46 0 0.746022
-0.053093 -0.139636 0.714334 255 38 0 0.758434
-0.050110 -0.140892 0.715111 255 50 0 0.737220
-0.057557 -0.139195 0.715480 255 46 0 0.745521
-0.056184 -0.138310 0.713449 255 46 0 0.745350
-0.062870 -0.138947 0.717165 255 46 0 0.746074
-0.062889 -0.136800 0.713681 255 46 0 0.746067
-0.065519 -0.137722 0.716170 255 44 0 0.746215
-0.060217 -0.140186 0.718088 255 46 0 0.745753
-0.067015 -0.135154 0.713363 255 44 0 0.746314
-0.065814 -0.133921 0.711589 255 44 0 0.746301
-0.064656 -0.132641 0.709772 255 44 0 0.746211
-0.068135 -0.132341 0.710766 255 44 0 0.746410
-0.066946 -0.131139 0.708920 255 44 0 0.746434
-0.061729 -0.135532 0.711859 255 46 0 0.745983
-0.096461 -0.135034 0.736738 255 48 0 0.740012
-0.097825 -0.133384 0.734910 255 48 0 0.739366
-0.099215 -0.131859 0.732999 255 48 0 0.739217
-0.096518 -0.133013 0.730671 255 54 0 0.729751
-0.093780 -0.136111 0.734318 255 48 0 0.741707
-0.093843 -0.137219 0.737292 255 48 0 0.741716
-0.093945 -0.138374 0.740270 255 48 0 0.742146
-0.091243 -0.139466 0.737760 255 46 0 0.743107
-0.101044 -0.127894 0.729371 255 48 0 0.738450
-0.101976 -0.125976 0.727497 255 48 0 0.738610
-0.102960 -0.124049 0.725647 255 48 0 0.739060
-0.100472 -0.125203 0.723402 255 48 0 0.740622
-0.099389 -0.127099 0.725304 255 48 0 0.740321
-0.098332 -0.129019 0.727158 255 48 0 0.740347
-0.098740 -0.130397 0.730079 255 50 0 0.737763
-0.095412 -0.127003 0.719714 255 46 0 0.743411
-0.094260 -0.128875 0.721583 255 46 0 0.743223
-0.094620 -0.130340 0.724266 255 56 0 0.722984
-0.093645 -0.132250 0.725976 255 46 0 0.742853
-0.094039 -0.133816 0.728663 255 46 0 0.742743
-0.091425 -0.134604 0.726573 255 46 0 0.743765
-0.096191 -0.131454 0.727982 255 48 0 0.741369
-0.096921 -0.127988 0.723440 255 56 0 0.726198
-0.098017 -0.126086 0.721577 255 48 0 0.742101
-0.091356 -0.135750 0.729403 255 61 0 0.715221
-0.088692 -0.137599 0.730098 255 46 0 0.743676
-0.091278 -0.136955 0.732216 255 46 0 0.743057
-0.088674 -0.138875 0.732896 255 46 0 0.743790
-0.088697 -0.140179 0.735664 255 46 0 0.743779
-0.086118 -0.140808 0.733505 255 46 0 0.744148
-0.091211 -0.138188 0.735016 255 61 0 0.716355
-0.093899 -0.134966 0.731511 255 48 0 0.742011
-0.082712 -0.129534 0.713673 255 46 0 0.743875
-0.083233 -0.127318 0.712393 255 46 0 0.745799
-0.082013 -0.125389 0.710795 255 46 0 0.745930
-0.082550 -0.123138 0.709524 255 46 0 0.746066
-0.081268 -0.121249 0.707858 255 44 0 0.746371
-0.084748 -0.120515 0.708741 255 46 0 0.746012
-0.079064 -0.123850 0.708634 255 44 0 0.746421
-0.077826 -0.121999 0.706906 255 44 0 0.746661
-0.078497 -0.125921 0.709804 255 44 0 0.746340
-0.078051 -0.128006 0.710913 255 44 0 0.746187
-0.079251 -0.129862 0.712598 255 44 0 0.746268
-0.075779 -0.130267 0.711459 255 52 0 0.730729
-0.084596 -0.118055 0.707871 255 54 0 0.728285
-0.082799 -0.116135 0.706703 255 44 0 0.746300
-0.082555 -0.113680 0.705875 255 44 0 0.746290
-0.079408 -0.114740 0.705048 255 44 0 0.746730
-0.079509 -0.117043 0.705832 255 44 0 0.746619
-0.079590 -0.119357 0.706603 255 44 0 0.746592
-0.072484 -0.116682 0.703477 255 54 0 0.729310
-0.070639 -0.119139 0.703727 255 44 0 0.746850
-0.074315 -0.118461 0.704616 255 44 0 0.746861
-0.072441 -0.120915 0.704921 255 44 0 0.746796
-0.074231 -0.122654 0.706098 255 44 0 0.746815
-0.070673 -0.123283 0.705198 255 44 0 0.746782
-0.076111 -0.120228 0.705792 255 44 0 0.746852
-0.075921 -0.115655 0.704217 255 44 0 0.746905
-0.071990 -0.125056 0.706784 255 44 0 0.746730
-0.069660 -0.127156 0.707305 255 44 0 0.746689
-0.073305 -0.126794 0.708343 255 44 0 0.746683
-0.070996 -0.128874 0.708913 255 48 0 0.739452
-0.072228 -0.130598 0.710482 255 44 0 0.746433
-0.074594 -0.128538 0.709898 255 44 0 0.746332
-0.075505 -0.124413 0.707666 255 44 0 0.746675
-0.059981 -0.104515 0.700645 255 44 0 0.746117
-0.057957 -0.107192 0.699975 255 46 0 0.745798
-0.060159 -0.110068 0.699876 255 44 0 0.746820
-0.062338 -0.107392 0.700519 255 44 0 0.746234
-0.052291 -0.107109 0.699429 255 48 0 0.738544
-0.052006 -0.110566 0.699095 255 48 0 0.740553
-0.055330 -0.111407 0.699282 255 50 0 0.736781
-0.056614 -0.109299 0.699621 255 46 0 0.745590
-0.054914 -0.116878 0.699621 255 46 0 0.745352
-0.057930 -0.118046 0.700172 255 46 0 0.745724
-0.056565 -0.114610 0.699732 255 46 0 0.745589
-0.059694 -0.115773 0.700295 255 50 0 0.738202
-0.061517 -0.113464 0.700388 255 50 0 0.735611
-0.062899 -0.116852 0.700918 255 44 0 0.746205
-0.058334 -0.112347 0.699800 255 46 0 0.745861
-0.053657 -0.113639 0.699262 255 42 0 0.751087
-0.065881 -0.114077 0.701344 255 44 0 0.746496
-0.067051 -0.111769 0.701374 255 44 0 0.746531
-0.064369 -0.110584 0.700759 255 44 0 0.746336
-0.055726 -0.120486 0.700373 255 46 0 0.745412
-0.058169 -0.121838 0.701313 255 46 0 0.745773
-0.056047 -0.123949 0.701419 255 42 0 0.750423
-0.058441 -0.125259 0.702452 255 46 0 0.745816
-0.060701 -0.123175 0.702326 255 46 0 0.745990
-0.063238 -0.124495 0.703424 255 44 0 0.746276
-0.063055 -0.120681 0.702139 255 44 0 0.746264
-0.060460 -0.119388 0.701125 255 50 0 0.734598
-0.055891 -0.127507 0.702911 255 46 0 0.745474
-0.057850 -0.128901 0.704384 255 46 0 0.745764
-0.055353 -0.130755 0.704772 255 46 0 0.745386
-0.059788 -0.130264 0.705855 255 46 0 0.745923
-0.062515 -0.128047 0.705407 255 44 0 0.746245
-0.060483 -0.126651 0.703885 255 46 0 0.746035
-0.066053 -0.127781 0.706423 255 44 0 0.746557
-0.068324 -0.125550 0.705839 255 44 0 0.746648
-0.066889 -0.123915 0.704359 255 44 0 0.746543
-0.064689 -0.126151 0.704950 255 50 0 0.737646
-0.063853 -0.129667 0.706911 255 44 0 0.746293
-0.068785 -0.121717 0.704110 255 44 0 0.746708
-0.066779 -0.120105 0.703000 255 44 0 0.746571
-0.068689 -0.117531 0.702688 255 44 0 0.746707
-0.064866 -0.118462 0.701952 255 44 0 0.746488
-0.065009 -0.122322 0.703240 255 44 0 0.746498
-0.080180 -0.131230 0.714590 255 46 0 0.745910
-0.077679 -0.132942 0.715437 255 44 0 0.746151
-0.076770 -0.131570 0.713428 255 44 0 0.746130
-0.074363 -0.133286 0.714230 255 44 0 0.746183
-0.075273 -0.134690 0.716223 255 46 0 0.745986
-0.072959 -0.136469 0.717000 255 50 0 0.738204
-0.076177 -0.136374 0.718355 255 46 0 0.745989
-0.078500 -0.134588 0.717591 255 40 0 0.755445
-0.080993 -0.132864 0.716657 255 46 0 0.745785
-0.079388 -0.136292 0.719668 255 46 0 0.745779
-0.073372 -0.131816 0.712316 255 44 0 0.746378
-0.070997 -0.133383 0.713162 255 44 0 0.746353
-0.068044 -0.136558 0.715265 255 44 0 0.746250
-0.071977 -0.134898 0.715091 255 44 0 0.746238
-0.065351 -0.139981 0.719827 255 44 0 0.746243
-0.067825 -0.138746 0.718949 255 44 0 0.746257
-0.068497 -0.140075 0.721149 255 44 0 0.746319
-0.071007 -0.138860 0.720190 255 44 0 0.746198
-0.070357 -0.137585 0.717998 255 44 0 0.746161
-0.071640 -0.140170 0.722534 255 44 0 0.746130
-0.074170 -0.138845 0.721645 255 46 0 0.746074
-0.074608 -0.140315 0.724025 255 46 0 0.746056
-0.077183 -0.138963 0.723056 255 46 0 0.745866
-0.076766 -0.137551 0.720672 255 46 0 0.745801
-0.073538 -0.137626 0.719306 255 46 0 0.745916
-0.095982 -0.124488 0.718135 255 46 0 0.743314
-0.095238 -0.122490 0.715763 255 46 0 0.743991
-0.095766 -0.119950 0.714290 255 56 0 0.724278
-0.094722 -0.117828 0.712194 255 56 0 0.724387
-0.097752 -0.116872 0.713426 255 46 0 0.742995
-0.092690 -0.120903 0.712968 255 46 0 0.744851
-0.091490 -0.118825 0.710889 255 46 0 0.745140
-0.092232 -0.123332 0.714305 255 46 0 0.744768
-0.091569 -0.125736 0.715785 255 46 0 0.744798
-0.092579 -0.127756 0.718006 255 46 0 0.744455
-0.089424 -0.128512 0.716375 255 46 0 0.745152
-0.097519 -0.114106 0.712419 255 46 0 0.743694
-0.095750 -0.111935 0.710911 255 46 0 0.744257
-0.095322 -0.109125 0.710049 255 52 0 0.731108
-0.092371 -0.110432 0.708925 255 46 0 0.745829
-0.092688 -0.113036 0.709739 255 52 0 0.730812
-0.092981 -0.115672 0.710611 255 46 0 0.744808
-0.085984 -0.112696 0.706815 255 46 0 0.746011
-0.086213 -0.115145 0.707596 255 46 0 0.745856
-0.088146 -0.117159 0.708934 255 46 0 0.745550
-0.088133 -0.119643 0.709837 255 46 0 0.745500
-0.089598 -0.114100 0.708550 255 50 0 0.735913
-0.089156 -0.111502 0.707797 255 46 0 0.745707
-0.086096 -0.122508 0.710519 255 46 0 0.745625
-0.085528 -0.124790 0.711804 255 46 0 0.745686
-0.086658 -0.126795 0.713748 255 54 0 0.728370
-0.086114 -0.129047 0.715038 255 46 0 0.745681
-0.088899 -0.124113 0.713040 255 46 0 0.745304
-0.089376 -0.121681 0.711680 255 52 0 0.731140
-0.074938 -0.142984 0.728983 255 58 0 0.722252
