ply
format ascii 1.0
comment VCGLIB generated
element vertex 1003
property float x
property float y
property float z
property uchar red
property uchar green
property uchar blue
property float quality
end_header
0.014970 -0.038968 0.777378 255 166 0 0.517426
0.012555 -0.039181 0.776020 255 166 0 0.518065
0.020745 -0.042407 0.780064 255 164 0 0.520330
0.019825 -0.038360 0.780064 255 158 0 0.531485
0.021485 -0.046287 0.779949 255 158 0 0.532646
0.022199 -0.049973 0.779948 255 156 0 0.538928
0.019985 -0.050132 0.778795 255 145 0 0.558010
0.011557 -0.035753 0.776558 255 166 0 0.516194
0.014107 -0.035488 0.778036 255 168 0 0.514690
0.013168 -0.031842 0.778528 255 166 0 0.516427
0.010593 -0.032141 0.777148 255 189 0 0.473691
0.015760 -0.031526 0.779984 255 166 0 0.516349
0.012197 -0.028131 0.779153 255 184 0 0.483799
0.014797 -0.027708 0.780628 255 164 0 0.519732
0.013715 -0.023852 0.781422 255 164 0 0.522449
0.009618 -0.028503 0.777719 255 166 0 0.518786
0.011149 -0.024332 0.779861 255 164 0 0.521973
0.008578 -0.024767 0.778308 255 164 0 0.521441
0.017378 -0.027252 0.782165 255 164 0 0.519802
0.016316 -0.023309 0.782991 255 164 0 0.522947
0.018242 -0.031066 0.781404 255 168 0 0.514790
0.019016 -0.034762 0.780731 255 195 0 0.464753
0.016554 -0.035157 0.779395 255 147 0 0.553867
0.047801 -0.021342 0.798941 255 162 0 0.527270
0.048335 -0.025199 0.797553 255 162 0 0.524476
0.045865 -0.025639 0.796205 255 162 0 0.523556
0.048668 -0.029238 0.796326 255 166 0 0.516947
0.046161 -0.029700 0.795004 255 164 0 0.519641
0.046369 -0.033800 0.793901 255 166 0 0.515817
0.048886 -0.033386 0.795216 255 166 0 0.516590
0.043650 -0.030178 0.793716 255 166 0 0.519517
0.043864 -0.034262 0.792647 255 168 0 0.515142
0.041350 -0.034765 0.791458 255 168 0 0.513765
0.040988 -0.030676 0.792411 255 153 0 0.542768
0.043224 -0.026074 0.794793 255 149 0 0.549609
0.040575 -0.026589 0.793450 255 162 0 0.526569
0.042645 -0.022138 0.796033 255 162 0 0.526319
0.045235 -0.021706 0.797478 255 149 0 0.548045
0.044425 -0.017975 0.798882 255 168 0 0.514068
0.040025 -0.022616 0.794644 255 162 0 0.525722
0.041859 -0.018404 0.797427 255 160 0 0.528530
0.039248 -0.018841 0.796001 255 162 0 0.526375
0.046979 -0.017585 0.800376 255 160 0 0.529804
0.048980 -0.037918 0.794671 255 170 0 0.510407
0.048958 -0.042257 0.794005 255 170 0 0.509876
0.046618 -0.042681 0.792821 255 170 0 0.509484
0.048947 -0.046460 0.793456 255 168 0 0.512723
0.046622 -0.046842 0.792274 255 122 0 0.598265
0.044344 -0.047176 0.791120 255 168 0 0.513330
0.041922 -0.047513 0.789917 255 168 0 0.513559
0.044142 -0.043086 0.791593 255 170 0 0.509794
0.041684 -0.043444 0.790378 255 170 0 0.510407
0.043978 -0.038754 0.792099 255 170 0 0.509305
0.046461 -0.038348 0.793358 255 170 0 0.509739
0.041496 -0.039196 0.790925 255 170 0 0.509423
0.035456 -0.048554 0.786564 255 178 0 0.494169
0.035028 -0.044593 0.786931 255 168 0 0.513444
0.037352 -0.044279 0.788171 255 170 0 0.511569
0.034603 -0.040466 0.787347 255 170 0 0.510264
0.036960 -0.040058 0.788549 255 164 0 0.522839
0.036618 -0.035728 0.788968 255 168 0 0.512386
0.034208 -0.036218 0.787781 255 170 0 0.510981
0.039301 -0.039621 0.789741 255 170 0 0.509293
0.038983 -0.035255 0.790198 255 168 0 0.513062
0.039531 -0.043854 0.789245 255 180 0 0.488800
0.039758 -0.047916 0.788781 255 168 0 0.514695
0.037603 -0.048243 0.787650 255 176 0 0.497688
0.033774 -0.032284 0.788659 255 168 0 0.514574
0.033228 -0.028191 0.789515 255 164 0 0.519727
0.035764 -0.027720 0.790844 255 147 0 0.552266
0.032567 -0.024122 0.790540 255 162 0 0.524252
0.035117 -0.023610 0.791892 255 143 0 0.559640
0.034276 -0.019697 0.793089 255 160 0 0.527432
0.031744 -0.020181 0.791700 255 162 0 0.527104
0.037632 -0.023137 0.793278 255 162 0 0.525076
0.036772 -0.019245 0.794523 255 160 0 0.527760
0.038185 -0.027131 0.792113 255 164 0 0.520997
0.038605 -0.031195 0.791113 255 166 0 0.516269
0.036202 -0.031748 0.789866 255 166 0 0.518972
0.026181 -0.001274 0.839340 255 174 0 0.500320
0.027460 -0.002601 0.837081 255 164 0 0.522567
0.024607 -0.002652 0.835470 255 164 0 0.522287
0.028779 -0.003752 0.834709 255 160 0 0.528729
0.025923 -0.003817 0.833110 255 160 0 0.527685
0.027297 -0.004730 0.830622 255 160 0 0.530043
0.030147 -0.004650 0.832211 255 160 0 0.531085
0.023017 -0.003920 0.831517 255 160 0 0.527500
0.024394 -0.004867 0.829037 255 160 0 0.529731
0.021464 -0.005032 0.827438 255 158 0 0.531488
0.020096 -0.004055 0.829976 255 156 0 0.536295
0.021685 -0.002723 0.833943 255 164 0 0.522446
0.018755 -0.002842 0.832420 255 164 0 0.523279
0.020376 -0.001360 0.836287 255 168 0 0.513189
0.023294 -0.001307 0.837800 255 168 0 0.512660
0.017440 -0.001459 0.834754 255 168 0 0.514445
0.031579 -0.005581 0.829640 255 158 0 0.533160
0.033047 -0.006130 0.826965 255 156 0 0.536557
0.030215 -0.006273 0.825340 255 156 0 0.535202
0.034583 -0.006337 0.824141 255 187 0 0.480372
0.031751 -0.006495 0.822503 255 189 0 0.476368
0.033346 -0.006469 0.819548 255 153 0 0.540707
0.036171 -0.006299 0.821193 255 153 0 0.541588
0.028883 -0.006711 0.820872 255 153 0 0.540139
0.030482 -0.006718 0.817924 255 153 0 0.539680
0.027585 -0.006976 0.816305 255 156 0 0.538973
0.025953 -0.006922 0.819288 255 153 0 0.539527
0.027317 -0.006450 0.823765 255 158 0 0.534114
0.024381 -0.006677 0.822169 255 158 0 0.533706
0.025816 -0.005841 0.826479 255 158 0 0.531679
0.028722 -0.005679 0.828063 255 158 0 0.532199
0.022886 -0.006037 0.824882 255 149 0 0.550773
0.016954 -0.007763 0.809907 255 156 0 0.535743
0.015338 -0.007644 0.812907 255 156 0 0.537381
0.018030 -0.007450 0.814389 255 156 0 0.538203
0.016455 -0.007133 0.817304 255 158 0 0.533633
0.013776 -0.007302 0.815781 255 158 0 0.533267
0.019120 -0.006958 0.818832 255 158 0 0.533919
0.014959 -0.006451 0.820098 255 172 0 0.507734
0.017612 -0.006294 0.821665 255 158 0 0.531468
0.016171 -0.005224 0.824335 255 160 0 0.529065
0.012290 -0.006598 0.818538 255 172 0 0.505291
0.013517 -0.005375 0.822761 255 160 0 0.529051
0.010879 -0.005530 0.821179 255 160 0 0.529289
0.020265 -0.006150 0.823209 255 160 0 0.531042
0.018837 -0.005115 0.825882 255 160 0 0.529024
0.021772 -0.006764 0.820488 255 158 0 0.533922
0.023331 -0.007082 0.817658 255 153 0 0.539470
0.020695 -0.007270 0.816008 255 156 0 0.538690
0.022309 -0.007326 0.813093 255 156 0 0.537195
0.024962 -0.007134 0.814688 255 156 0 0.537827
0.019653 -0.007542 0.811484 255 182 0 0.486745
0.009482 -0.004468 0.823847 255 162 0 0.526406
0.012133 -0.004372 0.825319 255 162 0 0.527092
0.010790 -0.003079 0.827872 255 164 0 0.520599
0.008147 -0.003208 0.826406 255 164 0 0.519979
0.013450 -0.002990 0.829321 255 160 0 0.530442
0.009508 -0.001690 0.830332 255 170 0 0.511243
0.012159 -0.001599 0.831768 255 168 0 0.512307
0.006868 -0.001824 0.828883 255 170 0 0.511172
0.014808 -0.001544 0.833212 255 168 0 0.515514
0.016113 -0.002898 0.830876 255 164 0 0.522914
0.017453 -0.004129 0.828440 255 162 0 0.526945
0.014787 -0.004227 0.826882 255 162 0 0.526879
0.025558 -0.017973 0.790657 255 160 0 0.528117
0.023026 -0.018443 0.789179 255 160 0 0.527507
0.021779 -0.015662 0.791112 255 139 0 0.569271
0.020463 -0.018962 0.787704 255 139 0 0.569246
0.019245 -0.016130 0.789616 255 160 0 0.528165
0.016672 -0.016641 0.788114 255 151 0 0.546290
0.017872 -0.019493 0.786238 255 162 0 0.525770
0.017864 -0.013745 0.791709 255 160 0 0.529117
0.015344 -0.014202 0.790161 255 160 0 0.528476
0.013912 -0.012146 0.792404 255 160 0 0.529010
0.016386 -0.011741 0.793914 255 160 0 0.529658
0.020354 -0.013342 0.793183 255 160 0 0.529658
0.018841 -0.011376 0.795441 255 160 0 0.530160
0.022826 -0.012937 0.794659 255 153 0 0.539918
0.024258 -0.015262 0.792549 255 160 0 0.529359
0.026696 -0.014877 0.794006 255 160 0 0.529702
0.021292 -0.011010 0.796956 255 160 0 0.530545
0.025247 -0.012578 0.796165 255 160 0 0.530370
0.023716 -0.010659 0.798478 255 160 0 0.530946
0.028006 -0.017598 0.792075 255 160 0 0.528595
0.015294 -0.020028 0.784785 255 162 0 0.524984
0.012701 -0.020624 0.783167 255 143 0 0.560940
0.011543 -0.017706 0.785148 255 166 0 0.519210
0.010119 -0.021192 0.781563 255 162 0 0.523624
0.008966 -0.018310 0.783503 255 162 0 0.524641
0.006446 -0.018806 0.781812 255 168 0 0.512341
0.007559 -0.021712 0.779978 255 164 0 0.522979
0.007773 -0.015667 0.785567 255 162 0 0.525980
0.005257 -0.016207 0.783860 255 162 0 0.524778
0.003996 -0.013892 0.786040 255 151 0 0.543062
0.006458 -0.013467 0.787629 255 153 0 0.540020
0.010294 -0.015190 0.787113 255 143 0 0.562054
0.008947 -0.013016 0.789230 255 160 0 0.527620
0.012825 -0.014694 0.788638 255 160 0 0.527718
0.014103 -0.017177 0.786629 255 162 0 0.526662
0.011435 -0.012590 0.790814 255 160 0 0.528415
-0.001694 -0.009251 0.797695 255 162 0 0.526765
0.000612 -0.009077 0.799227 255 178 0 0.495333
0.002138 -0.009912 0.796444 255 160 0 0.527861
0.004503 -0.009670 0.797946 255 164 0 0.522800
0.002939 -0.008895 0.800769 255 166 0 0.516431
0.006065 -0.010536 0.795116 255 160 0 0.528760
0.006873 -0.009435 0.799436 255 160 0 0.530120
0.008451 -0.010248 0.796574 255 160 0 0.529660
0.010824 -0.009939 0.798004 255 160 0 0.530378
0.005297 -0.008678 0.802276 255 160 0 0.530692
0.009224 -0.009161 0.800899 255 160 0 0.530807
0.007613 -0.008512 0.803804 255 158 0 0.531501
0.009986 -0.011262 0.793793 255 160 0 0.528991
0.012373 -0.010910 0.795186 255 160 0 0.529589
0.007544 -0.011612 0.792120 255 160 0 0.528105
0.005083 -0.012008 0.790477 255 162 0 0.527188
0.003637 -0.010853 0.793409 255 160 0 0.527572
0.001244 -0.011149 0.791698 255 162 0 0.526542
0.002644 -0.012374 0.788828 255 162 0 0.526145
-0.000228 -0.010148 0.794678 255 162 0 0.526725
0.009948 -0.008293 0.805295 255 158 0 0.532500
0.011593 -0.008914 0.802533 255 158 0 0.531540
0.013964 -0.008667 0.804014 255 158 0 0.532262
0.012288 -0.008097 0.806809 255 158 0 0.533610
0.015641 -0.009335 0.801184 255 158 0 0.531704
0.016331 -0.008435 0.805515 255 158 0 0.533259
0.018036 -0.009036 0.802630 255 158 0 0.532130
0.020415 -0.008743 0.804079 255 158 0 0.532666
0.014627 -0.007934 0.808363 255 158 0 0.534515
0.018686 -0.008198 0.807018 255 180 0 0.488754
0.019697 -0.009883 0.799825 255 158 0 0.531338
0.022081 -0.009562 0.801238 255 158 0 0.531620
0.017259 -0.010218 0.798270 255 160 0 0.530880
0.014820 -0.010554 0.796722 255 160 0 0.530345
0.013226 -0.009627 0.799587 255 162 0 0.525913
-0.009537 -0.002576 0.819430 255 172 0 0.504191
-0.007186 -0.002481 0.820736 255 164 0 0.522914
-0.005850 -0.003795 0.818081 255 168 0 0.513502
-0.004832 -0.002364 0.822056 255 174 0 0.503592
-0.003498 -0.003711 0.819407 255 168 0 0.515163
-0.001114 -0.003619 0.820740 255 166 0 0.517725
-0.002456 -0.002228 0.823388 255 172 0 0.506881
-0.002134 -0.004941 0.816734 255 164 0 0.523401
0.000242 -0.004872 0.818049 255 162 0 0.524335
0.001663 -0.005881 0.815284 255 162 0 0.527097
-0.000660 -0.005972 0.813852 255 162 0 0.526475
-0.004428 -0.005029 0.815289 255 164 0 0.521765
-0.002974 -0.006058 0.812430 255 166 0 0.519089
-0.006697 -0.005117 0.813843 255 164 0 0.521701
-0.008120 -0.003902 0.816641 255 184 0 0.482353
-0.010360 -0.003988 0.815205 255 170 0 0.511427
-0.005253 -0.006117 0.810998 255 162 0 0.524624
-0.008931 -0.005179 0.812405 255 164 0 0.520272
-0.007490 -0.006162 0.809566 255 110 0 0.622806
-0.011778 -0.002698 0.817987 255 174 0 0.501326
-0.000175 -0.002064 0.824873 255 172 0 0.506565
0.002173 -0.001973 0.826222 255 141 0 0.565417
0.003453 -0.003335 0.823733 255 166 0 0.519153
0.004530 -0.001885 0.827562 255 170 0 0.510107
0.005803 -0.003269 0.825073 255 164 0 0.519772
0.007129 -0.004529 0.822528 255 162 0 0.525920
0.008568 -0.005635 0.819694 255 160 0 0.528869
0.004825 -0.004657 0.821026 255 162 0 0.525684
0.006249 -0.005711 0.818213 255 160 0 0.528148
0.002538 -0.004756 0.819542 255 162 0 0.526160
0.001162 -0.003475 0.822234 255 166 0 0.519365
0.003944 -0.005796 0.816769 255 160 0 0.527610
0.013011 -0.007745 0.811513 255 156 0 0.535998
0.010674 -0.007884 0.809930 255 156 0 0.535225
0.009122 -0.007456 0.812922 255 158 0 0.532498
0.008354 -0.008029 0.808371 255 158 0 0.534007
0.006823 -0.007564 0.811316 255 158 0 0.532417
0.004535 -0.007669 0.809714 255 158 0 0.531713
0.006048 -0.008174 0.806821 255 166 0 0.518513
0.005347 -0.006832 0.814186 255 160 0 0.529673
0.003065 -0.006927 0.812544 255 160 0 0.529886
0.007661 -0.006758 0.815628 255 160 0 0.529753
0.009975 -0.006676 0.817081 255 160 0 0.530781
0.011452 -0.007375 0.814357 255 158 0 0.533188
0.003687 -0.008326 0.805480 255 172 0 0.505040
0.001371 -0.008456 0.803934 255 160 0 0.530539
-0.000153 -0.007895 0.806979 255 160 0 0.529067
-0.000924 -0.008595 0.802377 255 160 0 0.529012
-0.002429 -0.007987 0.805415 255 160 0 0.529003
-0.004662 -0.008070 0.803825 255 145 0 0.555240
-0.003196 -0.008713 0.800795 255 151 0 0.544412
-0.003891 -0.007177 0.808345 255 160 0 0.527863
-0.006094 -0.007243 0.806756 255 131 0 0.583316
-0.001593 -0.007125 0.809754 255 160 0 0.528850
0.000741 -0.007025 0.811146 255 160 0 0.528580
0.002192 -0.007785 0.808348 255 160 0 0.530753
0.037822 -0.006569 0.818219 255 156 0 0.537683
0.039358 -0.006854 0.815219 255 158 0 0.535128
0.036648 -0.007046 0.813552 255 158 0 0.531531
0.040871 -0.007301 0.812215 255 158 0 0.534057
0.038159 -0.007551 0.810592 255 158 0 0.533489
0.039613 -0.008434 0.807761 255 158 0 0.532230
0.042333 -0.008171 0.809350 255 158 0 0.532803
0.035439 -0.007848 0.808994 255 164 0 0.522551
0.036893 -0.008764 0.806191 255 158 0 0.531806
0.034136 -0.009157 0.804637 255 158 0 0.531537
0.032569 -0.008208 0.807437 255 153 0 0.540066
0.033795 -0.007343 0.811980 255 158 0 0.534229
0.030926 -0.007637 0.810404 255 158 0 0.533842
0.032132 -0.007052 0.815006 255 153 0 0.540907
0.034975 -0.006808 0.816621 255 156 0 0.536767
0.029256 -0.007279 0.813389 255 156 0 0.535772
0.043735 -0.009932 0.806846 255 156 0 0.538079
0.044928 -0.012083 0.804458 255 158 0 0.531746
0.042367 -0.012463 0.802945 255 160 0 0.531191
0.046006 -0.014673 0.802319 255 137 0 0.571471
0.043456 -0.015046 0.800822 255 170 0 0.509397
0.040874 -0.015451 0.799355 255 160 0 0.529854
0.038134 -0.015851 0.797865 255 160 0 0.529500
0.039643 -0.012789 0.801426 255 160 0 0.529466
0.036900 -0.013206 0.799901 255 160 0 0.530337
0.038310 -0.010586 0.803712 255 158 0 0.531403
0.041031 -0.010236 0.805270 255 151 0 0.545417
0.035557 -0.010986 0.802175 255 160 0 0.531023
0.030674 -0.017165 0.793463 255 160 0 0.528889
0.029369 -0.014441 0.795429 255 156 0 0.538691
0.031977 -0.014035 0.796875 255 137 0 0.570489
0.027916 -0.012151 0.797601 255 160 0 0.530427
0.030528 -0.011757 0.799086 255 160 0 0.530531
0.028986 -0.009838 0.801496 255 160 0 0.531091
0.026369 -0.010228 0.799973 255 160 0 0.531019
0.033099 -0.011382 0.800596 255 160 0 0.530818
0.031581 -0.009474 0.803045 255 158 0 0.531318
0.034447 -0.013602 0.798371 255 160 0 0.530040
0.035679 -0.016267 0.796354 255 137 0 0.572770
0.033197 -0.016695 0.794888 255 160 0 0.528885
0.024788 -0.009178 0.802685 255 158 0 0.531775
0.023115 -0.008398 0.805577 255 158 0 0.532911
0.025775 -0.008118 0.807116 255 172 0 0.506747
0.021376 -0.007907 0.808562 255 158 0 0.534001
0.024048 -0.007671 0.810122 255 158 0 0.534554
0.026690 -0.007447 0.811688 255 158 0 0.535014
0.028381 -0.007833 0.808722 255 178 0 0.496089
0.030009 -0.008487 0.805838 255 153 0 0.539696
0.027401 -0.008830 0.804280 255 153 0 0.539460
0.007100 -0.028916 0.776089 255 166 0 0.519292
0.008082 -0.032495 0.775557 255 166 0 0.516805
0.005565 -0.032830 0.773991 255 166 0 0.517141
0.009049 -0.036034 0.775043 255 166 0 0.516258
0.006538 -0.036323 0.773536 255 166 0 0.516316
0.007522 -0.039679 0.773005 255 166 0 0.519427
0.010040 -0.039482 0.774506 255 166 0 0.519095
0.004028 -0.036579 0.772080 255 149 0 0.548125
0.005014 -0.039884 0.771588 255 166 0 0.518157
0.002499 -0.040059 0.770284 255 164 0 0.522550
0.001315 -0.036886 0.770658 255 168 0 0.515408
0.002837 -0.033202 0.772510 255 166 0 0.517168
0.000145 -0.033571 0.771041 255 168 0 0.515444
0.001640 -0.029836 0.772927 255 166 0 0.517582
0.004353 -0.029401 0.774496 255 166 0 0.518337
0.003067 -0.026009 0.775035 255 164 0 0.519574
-0.001046 -0.030241 0.771461 255 164 0 0.523309
0.000388 -0.026507 0.773451 255 162 0 0.524427
-0.002236 -0.026989 0.771919 255 145 0 0.556320
0.005791 -0.025416 0.776665 255 164 0 0.520395
0.011300 -0.043117 0.774730 255 170 0 0.508579
0.012259 -0.046799 0.774861 255 156 0 0.536362
0.010010 -0.046851 0.773688 255 178 0 0.495741
0.013170 -0.050275 0.775122 255 102 0 0.637288
0.010925 -0.050363 0.773864 255 153 0 0.542393
0.008688 -0.050364 0.772639 255 224 0 0.407544
0.006129 -0.050435 0.771273 255 139 0 0.569003
0.007475 -0.046975 0.772257 255 168 0 0.513352
0.004911 -0.047041 0.771000 255 160 0 0.531140
0.006243 -0.043437 0.771957 255 162 0 0.526545
0.008790 -0.043346 0.773285 255 180 0 0.488736
0.003722 -0.043550 0.770591 255 135 0 0.577719
-0.002193 -0.050820 0.766366 255 166 0 0.517485
0.000066 -0.050627 0.767772 255 162 0 0.526131
-0.001437 -0.047429 0.767410 255 164 0 0.522224
-0.003719 -0.047691 0.766114 255 168 0 0.513534
0.000846 -0.047215 0.768723 255 71 0 0.695642
-0.002908 -0.044227 0.767018 255 170 0 0.510378
-0.000623 -0.043953 0.768257 255 166 0 0.517076
-0.001995 -0.040657 0.767581 255 168 0 0.512622
-0.005133 -0.044517 0.765676 255 176 0 0.497444
-0.004235 -0.040997 0.766317 255 170 0 0.509482
-0.006459 -0.041368 0.765045 255 174 0 0.503115
0.001679 -0.043685 0.769502 255 162 0 0.524205
0.000232 -0.040369 0.768924 255 166 0 0.517240
0.002867 -0.047120 0.769885 255 158 0 0.531862
0.004086 -0.050478 0.770104 255 156 0 0.536384
0.002074 -0.050541 0.768919 255 160 0 0.528227
-0.008412 -0.038277 0.764947 255 209 0 0.435448
-0.005301 -0.037920 0.766606 255 170 0 0.509700
-0.007318 -0.034788 0.766624 255 170 0 0.510651
-0.010344 -0.035156 0.764831 255 172 0 0.507171
-0.004237 -0.034425 0.768312 255 168 0 0.513442
-0.009289 -0.031653 0.766500 255 168 0 0.513112
-0.006258 -0.031200 0.768285 255 147 0 0.553839
-0.008270 -0.028078 0.768288 255 166 0 0.516557
-0.012237 -0.032072 0.764586 255 151 0 0.544349
-0.011215 -0.028564 0.766363 255 166 0 0.516889
-0.014103 -0.029006 0.764332 255 166 0 0.516920
-0.003196 -0.030738 0.769995 255 147 0 0.551508
-0.005304 -0.027570 0.770078 255 166 0 0.517455
-0.002050 -0.034012 0.769634 255 168 0 0.514733
-0.000920 -0.037213 0.769301 255 168 0 0.514453
-0.003138 -0.037547 0.768004 255 168 0 0.512230
-0.013493 -0.036409 0.762343 255 197 0 0.459953
-0.011679 -0.039489 0.762664 255 178 0 0.495126
-0.009733 -0.042498 0.762694 255 125 0 0.596521
-0.012964 -0.043651 0.760190 255 187 0 0.478866
-0.014918 -0.041573 0.759776 255 184 0 0.482456
-0.015159 -0.037926 0.760836 255 153 0 0.540859
-0.016809 -0.039435 0.759235 255 180 0 0.490373
-0.016980 -0.035788 0.760117 255 172 0 0.505658
-0.015398 -0.034273 0.761768 255 170 0 0.509336
-0.017212 -0.032131 0.761063 255 168 0 0.514669
-0.018652 -0.037291 0.758559 255 174 0 0.502021
-0.018818 -0.033635 0.759398 255 187 0 0.477027
-0.020429 -0.035117 0.757754 255 184 0 0.480984
-0.015642 -0.030582 0.762746 255 166 0 0.516150
-0.006733 -0.048359 0.763937 255 180 0 0.488467
-0.005235 -0.051404 0.764189 255 174 0 0.501322
-0.008359 -0.052251 0.761727 255 187 0 0.478258
-0.010000 -0.049419 0.761338 255 199 0 0.456725
-0.009944 -0.046014 0.762157 255 193 0 0.468345
-0.013122 -0.054205 0.757527 255 226 0 0.404264
-0.013600 -0.051046 0.758196 255 222 0 0.411338
-0.015220 -0.048528 0.757519 255 215 0 0.423315
-0.015508 -0.045156 0.757892 255 193 0 0.465918
-0.017985 -0.046685 0.755511 255 195 0 0.464636
-0.012715 -0.047034 0.759861 255 135 0 0.575109
-0.010727 -0.053073 0.759724 255 205 0 0.444303
-0.020013 -0.044878 0.754994 255 193 0 0.467913
-0.020711 -0.042024 0.755649 255 182 0 0.484743
-0.022680 -0.040176 0.754917 255 176 0 0.496857
-0.023204 -0.037250 0.755300 255 170 0 0.510359
-0.025925 -0.039367 0.752614 255 170 0 0.511009
-0.017472 -0.043069 0.757466 255 189 0 0.473565
0.004734 -0.022291 0.778532 255 164 0 0.521838
0.002023 -0.022936 0.776790 255 164 0 0.520883
0.000915 -0.020030 0.778762 255 153 0 0.541383
-0.000625 -0.023529 0.775127 255 153 0 0.540025
-0.001698 -0.020657 0.776981 255 147 0 0.554038
-0.004246 -0.021271 0.775290 255 164 0 0.520146
-0.003199 -0.024066 0.773440 255 166 0 0.519022
-0.002856 -0.017986 0.779082 255 145 0 0.555450
-0.005388 -0.018603 0.777253 255 164 0 0.521116
-0.006565 -0.016081 0.779416 255 164 0 0.521708
-0.003992 -0.015589 0.781064 255 149 0 0.547592
-0.000202 -0.017424 0.780655 255 164 0 0.522820
-0.001400 -0.015055 0.782718 255 139 0 0.566792
0.002512 -0.016833 0.782257 255 162 0 0.523700
0.003656 -0.019397 0.780262 255 156 0 0.537035
0.001257 -0.014481 0.784364 255 162 0 0.524537
-0.006011 -0.024422 0.772418 255 166 0 0.518063
-0.008961 -0.025008 0.770479 255 166 0 0.517290
-0.009773 -0.022030 0.772931 255 166 0 0.518798
-0.011848 -0.025533 0.768476 255 166 0 0.517525
-0.012624 -0.022599 0.770829 255 158 0 0.532687
-0.015423 -0.023054 0.768713 255 166 0 0.519225
-0.014693 -0.025961 0.766401 255 166 0 0.518416
-0.013499 -0.019767 0.773488 255 166 0 0.519463
-0.016280 -0.020261 0.771238 255 164 0 0.520127
-0.017216 -0.017556 0.774000 255 164 0 0.521256
-0.014624 -0.017277 0.775381 255 164 0 0.520864
-0.010855 -0.019417 0.774743 255 164 0 0.519931
-0.011991 -0.016930 0.776741 255 164 0 0.520961
-0.008160 -0.019020 0.775992 255 178 0 0.494312
-0.007043 -0.021672 0.774081 255 166 0 0.519295
-0.009301 -0.016528 0.778073 255 164 0 0.521311
-0.021955 -0.010893 0.786531 255 164 0 0.522841
-0.019445 -0.010766 0.787850 255 164 0 0.522234
-0.018157 -0.012124 0.784746 255 164 0 0.522088
-0.015600 -0.011888 0.786013 255 164 0 0.522070
-0.016910 -0.010571 0.789121 255 156 0 0.536010
-0.014323 -0.013342 0.782957 255 164 0 0.521696
-0.013009 -0.011615 0.787263 255 164 0 0.522436
-0.011706 -0.012991 0.784164 255 164 0 0.522125
-0.009022 -0.012607 0.785332 255 156 0 0.538135
-0.014363 -0.010366 0.790411 255 164 0 0.522231
-0.010394 -0.011292 0.788497 255 170 0 0.508358
-0.011785 -0.010124 0.791697 255 164 0 0.522723
-0.010440 -0.014620 0.781166 255 156 0 0.536204
-0.007750 -0.014193 0.782300 255 164 0 0.522266
-0.013121 -0.014992 0.779745 255 178 0 0.493129
-0.015752 -0.015328 0.778307 255 164 0 0.521341
-0.016936 -0.013624 0.781454 255 164 0 0.521726
-0.019514 -0.013851 0.779941 255 164 0 0.522165
-0.018343 -0.015594 0.776827 255 164 0 0.521733
-0.020724 -0.012320 0.783196 255 170 0 0.511006
-0.009354 -0.009959 0.793161 255 149 0 0.547195
-0.007985 -0.011048 0.790324 255 164 0 0.523419
-0.005451 -0.010773 0.791741 255 160 0 0.527360
-0.006864 -0.009760 0.794635 255 162 0 0.524228
-0.004059 -0.011908 0.788905 255 162 0 0.524267
-0.002852 -0.010474 0.793193 255 162 0 0.525639
-0.001433 -0.011547 0.790289 255 162 0 0.525424
-0.004302 -0.009524 0.796160 255 162 0 0.525485
-0.000071 -0.012834 0.787480 255 160 0 0.529215
-0.002697 -0.013316 0.785743 255 156 0 0.535538
-0.005240 -0.013781 0.784028 255 164 0 0.522976
-0.006575 -0.012282 0.787131 255 164 0 0.523365
-0.023354 -0.009962 0.789581 255 164 0 0.521734
-0.020872 -0.009871 0.790855 255 164 0 0.520735
-0.022283 -0.008944 0.793872 255 166 0 0.517715
-0.024786 -0.009033 0.792607 255 151 0 0.543817
-0.019787 -0.008856 0.795159 255 166 0 0.518502
-0.023701 -0.007977 0.796863 255 170 0 0.509596
-0.021189 -0.007886 0.798163 255 191 0 0.471872
-0.022582 -0.006754 0.801126 255 176 0 0.496271
-0.026201 -0.008021 0.795591 255 149 0 0.548128
-0.025102 -0.006846 0.799811 255 228 0 0.399534
-0.027638 -0.006894 0.798510 255 222 0 0.411924
-0.018668 -0.007752 0.799460 255 170 0 0.510394
-0.020061 -0.006633 0.802426 255 176 0 0.498332
-0.017529 -0.006484 0.803747 255 153 0 0.542803
-0.016134 -0.007625 0.800824 255 176 0 0.499144
-0.017267 -0.008732 0.796477 255 166 0 0.518674
-0.014719 -0.008607 0.797814 255 164 0 0.520500
-0.015818 -0.009593 0.793461 255 147 0 0.551058
-0.018344 -0.009739 0.792159 255 164 0 0.520890
-0.013271 -0.009402 0.794760 255 164 0 0.522016
-0.029124 -0.005964 0.801311 220 255 28 0.306638
-0.026587 -0.005881 0.802677 0 0 128 0.000000
-0.028083 -0.004880 0.805508 255 182 0 0.485698
-0.030636 -0.004968 0.804136 255 180 0 0.490306
-0.025563 -0.004750 0.806870 255 180 0 0.489010
-0.029605 -0.003791 0.808335 255 182 0 0.487103
-0.027056 -0.003655 0.809693 255 182 0 0.487014
-0.032176 -0.003886 0.806965 148 255 100 0.149979
-0.024516 -0.003464 0.811039 255 112 0 0.620459
-0.021942 -0.003280 0.812318 255 176 0 0.498181
-0.023031 -0.004615 0.808178 255 178 0 0.494004
-0.020477 -0.004446 0.809480 255 176 0 0.497738
-0.021546 -0.005676 0.805310 255 139 0 0.570121
-0.024071 -0.005791 0.803989 255 180 0 0.490006
-0.018999 -0.005525 0.806617 255 176 0 0.498705
-0.014324 -0.002881 0.816535 255 176 0 0.498569
-0.012916 -0.004146 0.813753 255 108 0 0.627412
-0.015449 -0.004288 0.812277 255 75 0 0.688652
-0.011496 -0.005308 0.810949 255 166 0 0.518857
-0.014043 -0.005405 0.809479 255 164 0 0.521660
-0.012608 -0.006378 0.806624 255 166 0 0.517488
-0.010056 -0.006278 0.808104 255 164 0 0.520893
-0.016520 -0.005472 0.808019 255 172 0 0.507021
-0.015090 -0.006455 0.805173 255 170 0 0.509031
-0.017990 -0.004379 0.810869 255 174 0 0.502082
-0.019447 -0.003186 0.813707 255 176 0 0.496328
-0.016911 -0.003041 0.815119 255 176 0 0.499949
-0.008618 -0.007372 0.805141 255 162 0 0.525573
-0.007209 -0.008251 0.802240 255 160 0 0.529831
-0.009721 -0.008386 0.800642 255 162 0 0.524218
-0.005783 -0.008934 0.799245 255 162 0 0.525536
-0.008313 -0.009123 0.797687 255 162 0 0.524009
-0.010785 -0.009268 0.796126 255 182 0 0.487861
-0.012242 -0.008515 0.799222 255 164 0 0.521988
-0.013671 -0.007585 0.802240 255 166 0 0.518054
-0.011177 -0.007495 0.803676 255 164 0 0.522721
-0.023535 -0.012385 0.782330 255 164 0 0.523178
-0.022331 -0.013950 0.779081 255 164 0 0.522924
-0.025160 -0.013958 0.778171 255 162 0 0.527245
-0.021159 -0.015687 0.776025 255 164 0 0.522391
-0.023994 -0.015694 0.775110 255 162 0 0.523859
-0.022900 -0.017614 0.772231 255 164 0 0.523220
-0.020051 -0.017623 0.773173 255 164 0 0.522107
-0.026914 -0.015651 0.774084 255 162 0 0.525681
-0.025818 -0.017555 0.771177 255 162 0 0.524936
-0.028855 -0.017443 0.770026 255 178 0 0.494253
-0.029758 -0.015751 0.772896 255 160 0 0.527380
-0.027870 -0.014088 0.777090 255 162 0 0.525959
-0.030709 -0.014174 0.775892 255 160 0 0.527899
-0.028873 -0.012669 0.780226 255 162 0 0.526130
-0.026175 -0.012553 0.781303 255 162 0 0.524450
-0.027190 -0.011265 0.784539 255 170 0 0.508168
-0.031665 -0.012734 0.779040 255 160 0 0.528284
-0.029878 -0.011363 0.783470 255 162 0 0.526057
-0.032655 -0.011417 0.782324 255 160 0 0.528285
-0.024548 -0.011096 0.785552 255 164 0 0.523307
-0.019708 -0.019448 0.770684 255 164 0 0.521435
-0.018865 -0.022172 0.768106 255 164 0 0.520847
-0.022342 -0.021235 0.767405 255 158 0 0.532514
-0.018133 -0.025051 0.765771 255 184 0 0.481030
-0.021556 -0.024037 0.764990 255 164 0 0.521878
-0.020873 -0.026951 0.762786 255 164 0 0.520017
-0.017478 -0.028007 0.763687 255 166 0 0.517875
-0.025067 -0.022991 0.764065 255 170 0 0.508323
-0.024354 -0.025830 0.761823 255 164 0 0.523301
-0.027920 -0.024710 0.760734 255 162 0 0.526192
-0.028091 -0.022803 0.762805 255 189 0 0.473021
-0.025260 -0.021131 0.766258 255 162 0 0.524649
-0.028308 -0.020956 0.765062 255 162 0 0.526938
-0.025533 -0.019298 0.768655 255 162 0 0.525121
-0.022592 -0.019407 0.769709 255 178 0 0.492490
-0.028573 -0.019170 0.767492 255 160 0 0.527353
-0.041375 -0.023198 0.757635 255 158 0 0.532843
-0.041457 -0.021618 0.759748 255 158 0 0.533147
-0.038071 -0.021695 0.760669 255 166 0 0.516740
-0.038181 -0.020183 0.762844 255 158 0 0.531996
-0.041595 -0.020119 0.761924 255 158 0 0.533112
-0.034840 -0.020299 0.763769 255 172 0 0.505119
-0.038284 -0.018720 0.765154 255 158 0 0.531805
-0.034988 -0.018790 0.766023 255 160 0 0.530926
-0.035119 -0.017364 0.768419 255 168 0 0.513717
-0.041721 -0.018685 0.764251 255 158 0 0.534748
-0.038426 -0.017291 0.767559 255 158 0 0.532155
-0.041885 -0.017237 0.766700 255 176 0 0.499961
-0.031784 -0.018881 0.766881 255 160 0 0.528991
-0.031936 -0.017410 0.769243 255 160 0 0.528927
-0.031550 -0.020626 0.764444 255 176 0 0.499322
-0.031290 -0.022431 0.762125 255 160 0 0.528560
-0.034653 -0.022044 0.761425 255 178 0 0.493483
-0.034454 -0.023861 0.759130 255 160 0 0.530647
-0.031120 -0.024265 0.759943 255 176 0 0.497699
-0.037859 -0.023499 0.758391 255 158 0 0.531655
-0.042647 -0.015834 0.769408 255 158 0 0.533569
-0.039424 -0.015617 0.770474 255 158 0 0.532523
-0.040203 -0.014295 0.773274 255 166 0 0.517396
-0.043400 -0.014523 0.772230 255 158 0 0.533723
-0.037104 -0.014094 0.774338 255 172 0 0.505225
-0.040966 -0.013060 0.776165 255 172 0 0.505767
-0.037829 -0.012882 0.777256 255 160 0 0.531237
-0.038532 -0.011745 0.780241 255 158 0 0.531711
-0.044197 -0.013247 0.775088 255 168 0 0.512812
-0.041681 -0.011883 0.779135 255 158 0 0.532845
-0.044938 -0.012032 0.778007 255 158 0 0.533903
-0.034813 -0.012694 0.778308 255 160 0 0.529888
-0.035524 -0.011619 0.781336 255 176 0 0.496257
-0.033826 -0.014141 0.775147 255 160 0 0.529333
-0.032868 -0.015719 0.772108 255 160 0 0.529224
-0.036105 -0.015670 0.771298 255 160 0 0.530802
-0.034675 -0.004077 0.805852 255 174 0 0.503167
-0.033125 -0.005161 0.803010 255 228 0 0.401248
-0.035672 -0.005300 0.801874 255 170 0 0.511009
-0.031606 -0.006157 0.800202 255 176 0 0.497147
-0.034136 -0.006309 0.799084 255 172 0 0.506629
-0.032617 -0.007234 0.796318 255 170 0 0.511534
-0.030108 -0.007087 0.797428 255 172 0 0.505240
-0.036712 -0.006398 0.797948 255 166 0 0.518973
-0.035176 -0.007329 0.795183 254 238 0 0.382326
-0.037846 -0.007392 0.793980 255 162 0 0.527332
-0.039315 -0.006503 0.796662 255 170 0 0.509575
-0.038199 -0.005454 0.800624 255 166 0 0.519479
-0.040783 -0.005560 0.799338 255 162 0 0.527004
-0.039671 -0.004439 0.803353 255 164 0 0.520383
-0.037139 -0.004280 0.804623 255 168 0 0.512810
-0.042281 -0.004555 0.802054 255 160 0 0.527464
-0.028821 -0.008116 0.794594 255 168 0 0.513713
-0.027384 -0.009155 0.791609 255 166 0 0.519184
-0.030010 -0.009250 0.790591 255 164 0 0.521003
-0.025957 -0.010128 0.788591 255 170 0 0.511586
-0.028583 -0.010274 0.787581 255 164 0 0.523113
-0.031265 -0.010329 0.786491 255 174 0 0.500664
-0.033921 -0.010446 0.785259 255 160 0 0.527898
-0.032556 -0.009396 0.789439 255 162 0 0.523939
-0.035209 -0.009470 0.788207 255 160 0 0.527480
-0.033854 -0.008396 0.792332 255 164 0 0.521580
-0.031316 -0.008286 0.793493 255 166 0 0.516588
-0.036509 -0.008466 0.791119 255 162 0 0.526694
-0.046021 -0.011075 0.780756 255 158 0 0.534010
-0.042954 -0.010818 0.782037 255 178 0 0.495301
-0.044041 -0.009896 0.784862 255 168 0 0.513838
-0.047094 -0.010118 0.783560 255 166 0 0.516758
-0.041081 -0.009703 0.786118 255 182 0 0.485121
-0.045156 -0.008947 0.787673 255 172 0 0.504703
-0.042202 -0.008764 0.788927 255 158 0 0.532024
-0.043312 -0.007798 0.791689 255 158 0 0.532411
-0.048170 -0.009152 0.786390 255 158 0 0.533946
-0.046261 -0.007982 0.790477 255 178 0 0.495077
-0.049263 -0.008154 0.789197 255 158 0 0.533916
-0.039370 -0.008567 0.790125 255 160 0 0.529675
-0.040494 -0.007609 0.792892 255 160 0 0.530228
-0.038073 -0.009602 0.787191 255 160 0 0.529702
-0.036802 -0.010617 0.784257 255 160 0 0.529861
-0.039832 -0.010707 0.783149 255 158 0 0.531779
-0.050579 -0.007308 0.791823 255 158 0 0.533947
-0.047707 -0.007067 0.793203 255 158 0 0.533806
-0.049013 -0.006189 0.795798 255 158 0 0.534031
-0.051881 -0.006414 0.794435 255 158 0 0.533999
-0.046238 -0.005947 0.797113 255 158 0 0.533066
-0.050337 -0.005243 0.798376 255 158 0 0.533983
-0.047585 -0.005005 0.799688 255 162 0 0.526512
-0.053161 -0.005478 0.796993 255 158 0 0.534023
-0.044931 -0.004761 0.800963 255 220 0 0.417941
-0.043461 -0.005767 0.798261 255 151 0 0.543144
-0.041983 -0.006712 0.795580 255 160 0 0.530769
-0.044783 -0.006895 0.794417 255 197 0 0.457559
-0.047912 -0.012463 0.777060 255 156 0 0.538526
-0.048936 -0.011557 0.779616 255 158 0 0.534659
-0.051905 -0.012001 0.778734 255 158 0 0.535022
-0.050899 -0.012920 0.776146 255 156 0 0.535186
-0.052927 -0.011064 0.781267 255 158 0 0.534980
-0.054887 -0.012480 0.777766 255 156 0 0.535388
-0.055847 -0.011547 0.780396 255 156 0 0.535289
-0.058789 -0.012046 0.779420 255 156 0 0.535570
-0.053842 -0.013455 0.775284 255 156 0 0.535528
-0.057794 -0.013020 0.776906 255 156 0 0.535411
-0.056799 -0.014004 0.774396 255 156 0 0.535678
-0.056837 -0.010572 0.782942 255 158 0 0.534919
-0.059774 -0.011076 0.782021 255 158 0 0.535069
-0.060763 -0.010081 0.784601 255 158 0 0.534623
-0.057888 -0.009522 0.785714 255 141 0 0.564996
-0.053986 -0.010056 0.784053 255 158 0 0.534673
-0.055025 -0.009026 0.786838 255 178 0 0.493082
-0.051074 -0.009582 0.785201 255 158 0 0.534370
-0.050025 -0.010569 0.782377 255 158 0 0.534611
-0.052107 -0.008572 0.788029 255 158 0 0.534167
-0.059648 -0.014845 0.773719 255 158 0 0.534966
-0.060572 -0.013910 0.776057 255 158 0 0.534884
-0.063406 -0.014783 0.775400 255 158 0 0.533556
-0.062465 -0.015748 0.773090 255 158 0 0.533915
-0.064321 -0.013825 0.777762 255 158 0 0.533904
-0.066206 -0.015710 0.774828 255 158 0 0.531859
-0.067124 -0.014722 0.777133 255 158 0 0.531678
-0.069938 -0.015680 0.776571 255 160 0 0.529314
-0.065243 -0.016696 0.772527 255 158 0 0.531902
-0.068932 -0.016675 0.774312 255 160 0 0.529936
-0.067999 -0.017695 0.772051 255 160 0 0.529424
-0.068100 -0.013745 0.779474 255 162 0 0.526671
-0.070874 -0.014655 0.778885 255 199 0 0.453232
-0.071817 -0.013655 0.781202 255 207 0 0.439752
-0.069114 -0.012684 0.781975 255 205 0 0.441898
-0.065344 -0.012809 0.780254 255 158 0 0.533335
-0.066368 -0.011782 0.782778 255 184 0 0.482018
-0.062586 -0.011922 0.781083 255 158 0 0.534532
-0.061565 -0.012919 0.778554 255 158 0 0.534891
-0.063570 -0.010914 0.783634 255 158 0 0.534420
-0.072693 -0.010091 0.789044 255 160 0 0.529331
-0.069981 -0.009148 0.790036 255 180 0 0.490978
-0.068736 -0.010075 0.787571 255 203 0 0.446152
-0.067215 -0.008276 0.791076 255 178 0 0.494044
-0.065992 -0.009187 0.788629 255 199 0 0.455568
-0.063239 -0.008353 0.789645 255 158 0 0.533786
-0.064409 -0.007451 0.792142 255 158 0 0.533180
-0.064797 -0.010074 0.786069 255 158 0 0.533776
-0.061991 -0.009229 0.787159 255 158 0 0.534152
-0.067557 -0.010925 0.785188 255 158 0 0.532111
-0.070339 -0.011837 0.784352 255 160 0 0.531103
-0.071528 -0.010957 0.786711 255 160 0 0.530401
-0.074225 -0.011892 0.785905 255 160 0 0.528503
-0.073032 -0.012770 0.783564 255 160 0 0.528929
-0.075354 -0.010975 0.788239 255 160 0 0.527389
-0.061547 -0.006922 0.793275 255 158 0 0.533375
-0.058713 -0.006410 0.794496 255 158 0 0.533633
-0.057455 -0.007339 0.791939 255 158 0 0.533860
-0.055934 -0.005918 0.795764 255 158 0 0.533853
-0.054637 -0.006861 0.793196 255 158 0 0.533976
-0.053337 -0.007750 0.790602 255 158 0 0.533952
-0.056225 -0.008193 0.789429 255 149 0 0.550614
-0.059114 -0.008693 0.788280 255 158 0 0.534003
-0.060332 -0.007829 0.790791 255 158 0 0.533734
-0.001785 -0.093266 0.699537 255 162 0 0.525657
0.001539 -0.093544 0.698684 255 162 0 0.525298
0.003674 -0.094999 0.696964 255 153 0 0.541936
0.006977 -0.095401 0.696208 255 162 0 0.523839
0.004649 -0.097748 0.694399 255 162 0 0.524083
0.001222 -0.097266 0.695194 255 162 0 0.524700
-0.000908 -0.095783 0.696863 255 162 0 0.525309
-0.004401 -0.095463 0.697581 255 162 0 0.525587
-0.006619 -0.094183 0.699349 255 162 0 0.525940
-0.009165 -0.096226 0.697630 255 162 0 0.525597
0.011527 -0.094774 0.696156 255 164 0 0.522628
0.014845 -0.095289 0.695147 255 164 0 0.521815
0.012570 -0.097723 0.693330 255 164 0 0.522673
0.009213 -0.097120 0.694297 255 164 0 0.523262
0.010766 -0.105159 0.689134 255 162 0 0.524456
0.008324 -0.103174 0.690714 255 162 0 0.524349
0.004865 -0.102570 0.691705 255 162 0 0.524707
0.002497 -0.100573 0.693253 255 162 0 0.524673
0.000370 -0.103315 0.692080 255 162 0 0.525212
0.007070 -0.099676 0.692901 255 174 0 0.500687
0.010445 -0.100291 0.691855 255 164 0 0.520421
-0.003175 -0.102726 0.693027 255 162 0 0.525579
-0.005527 -0.100909 0.694387 255 162 0 0.525668
-0.009077 -0.100474 0.695159 255 162 0 0.525696
-0.011475 -0.098805 0.696502 255 162 0 0.525546
-0.013795 -0.101343 0.695413 255 162 0 0.525767
-0.006749 -0.097902 0.696199 255 162 0 0.525573
-0.003300 -0.098277 0.695426 255 162 0 0.525477
-0.000945 -0.100066 0.694081 255 162 0 0.525153
0.010492 -0.111336 0.687165 255 162 0 0.525925
0.008987 -0.114146 0.687184 255 162 0 0.526835
0.007478 -0.116899 0.687104 255 178 0 0.494847
0.004356 -0.127917 0.688950 255 182 0 0.487994
0.000245 -0.127598 0.689913 255 160 0 0.530222
-0.003369 -0.125853 0.690585 255 160 0 0.529806
-0.007332 -0.125540 0.691463 255 160 0 0.529803
-0.010889 -0.123744 0.692073 255 160 0 0.529324
-0.011683 -0.126656 0.692554 255 160 0 0.530064
-0.006547 -0.122652 0.690949 255 160 0 0.529306
-0.010102 -0.120847 0.691541 255 160 0 0.528904
-0.002692 -0.123089 0.690021 255 160 0 0.529433
0.001171 -0.123538 0.689098 255 160 0 0.529564
0.004827 -0.125287 0.688426 255 160 0 0.530145
0.005370 -0.122619 0.687758 255 160 0 0.529592
-0.015605 -0.126222 0.693267 255 160 0 0.529541
-0.019005 -0.124217 0.693814 255 164 0 0.521619
-0.022905 -0.123719 0.694551 255 160 0 0.528972
-0.026295 -0.121598 0.695075 255 160 0 0.529162
-0.027472 -0.124669 0.695454 255 160 0 0.529545
-0.021863 -0.120636 0.694143 255 160 0 0.528566
-0.025208 -0.118562 0.694640 255 160 0 0.528450
-0.018075 -0.121208 0.693359 255 160 0 0.528682
-0.014314 -0.121766 0.692601 255 160 0 0.528991
-0.022043 -0.112385 0.694287 255 162 0 0.527239
-0.018417 -0.113005 0.693481 255 162 0 0.527218
-0.015472 -0.115122 0.692817 255 160 0 0.527724
-0.011803 -0.115724 0.691979 255 160 0 0.527776
-0.008758 -0.117811 0.691303 255 160 0 0.528178
-0.007398 -0.114704 0.690984 255 160 0 0.527633
-0.013113 -0.118770 0.692249 255 160 0 0.528396
-0.016911 -0.118190 0.693038 255 160 0 0.528153
-0.020646 -0.117617 0.693827 255 160 0 0.528168
-0.023612 -0.115477 0.694526 255 160 0 0.527963
-0.003678 -0.115264 0.690014 255 156 0 0.537248
-0.000514 -0.117261 0.689239 255 160 0 0.528238
0.003203 -0.117819 0.688272 255 160 0 0.528308
0.006437 -0.119783 0.687449 255 160 0 0.528755
0.002123 -0.120691 0.688633 255 160 0 0.529017
-0.001746 -0.120234 0.689566 255 160 0 0.528866
-0.005610 -0.119786 0.690509 255 160 0 0.528731
-0.017382 -0.100878 0.696044 255 162 0 0.525653
-0.019693 -0.099247 0.697195 255 153 0 0.541015
-0.023418 -0.098895 0.697929 255 162 0 0.525737
-0.025842 -0.097381 0.699337 255 162 0 0.525982
-0.028390 -0.099592 0.698432 255 162 0 0.526411
-0.020800 -0.096510 0.698999 255 162 0 0.525513
-0.023303 -0.095065 0.700461 255 162 0 0.525827
-0.017257 -0.096854 0.698312 255 162 0 0.525462
-0.013750 -0.097153 0.697664 255 162 0 0.525508
-0.031311 -0.099115 0.699023 255 162 0 0.526942
-0.032795 -0.097644 0.700200 255 162 0 0.527327
-0.035626 -0.097329 0.700838 255 160 0 0.528408
-0.032999 -0.095331 0.702239 255 160 0 0.527352
-0.030242 -0.095545 0.701419 255 162 0 0.526692
-0.027463 -0.095913 0.700697 255 162 0 0.526254
-0.026174 -0.092829 0.703854 255 162 0 0.526165
-0.023375 -0.092988 0.702954 255 162 0 0.525885
-0.020536 -0.093184 0.702156 255 162 0 0.525739
-0.030464 -0.093618 0.703962 255 149 0 0.547154
-0.015518 -0.092282 0.702232 255 151 0 0.544076
-0.012157 -0.092589 0.701483 255 162 0 0.525520
-0.009983 -0.093923 0.699963 255 162 0 0.525593
-0.014708 -0.094552 0.699698 255 162 0 0.525390
-0.018275 -0.094297 0.700435 255 162 0 0.525391
-0.025685 -0.111740 0.694945 255 160 0 0.527638
-0.028449 -0.109639 0.695809 255 172 0 0.506433
-0.032147 -0.108883 0.696391 255 160 0 0.527906
-0.034736 -0.106909 0.697003 255 160 0 0.528423
-0.036669 -0.109436 0.696639 255 170 0 0.509781
-0.030178 -0.106253 0.696575 255 160 0 0.527391
-0.032815 -0.104309 0.697212 255 160 0 0.527578
-0.026428 -0.106967 0.695812 255 162 0 0.526830
-0.022776 -0.107592 0.695111 255 162 0 0.526709
-0.020120 -0.109580 0.694416 255 162 0 0.526776
-0.018180 -0.106704 0.694432 255 162 0 0.524344
-0.039529 -0.108742 0.696841 255 168 0 0.514375
-0.041350 -0.106862 0.697350 255 156 0 0.535841
-0.044220 -0.106184 0.697615 255 158 0 0.531793
-0.046157 -0.104291 0.698208 255 153 0 0.540192
-0.048204 -0.106724 0.697643 255 158 0 0.533586
-0.042250 -0.103798 0.698124 255 158 0 0.531654
-0.044184 -0.101958 0.698756 255 158 0 0.531844
-0.039454 -0.104400 0.697825 255 160 0 0.529697
-0.036663 -0.105008 0.697506 255 160 0 0.529073
-0.037951 -0.099338 0.699728 255 160 0 0.529156
-0.035218 -0.099836 0.699209 255 160 0 0.528241
-0.033462 -0.101456 0.698343 255 164 0 0.520114
-0.030596 -0.102006 0.697818 255 162 0 0.526917
-0.037391 -0.102067 0.698417 255 160 0 0.528865
-0.040193 -0.101487 0.698792 255 164 0 0.521061
-0.041897 -0.099885 0.699749 255 176 0 0.499640
-0.025771 -0.101310 0.697259 255 162 0 0.526076
-0.022082 -0.101803 0.696490 255 162 0 0.525927
-0.019573 -0.103586 0.695573 255 162 0 0.525947
-0.016002 -0.104074 0.694955 255 162 0 0.525946
-0.024278 -0.104336 0.696038 255 162 0 0.526293
-0.028046 -0.103761 0.696833 255 162 0 0.526617
-0.011326 -0.103171 0.694456 255 162 0 0.525932
-0.007771 -0.103683 0.693576 255 162 0 0.525990
-0.005272 -0.105599 0.692503 255 162 0 0.526110
-0.001666 -0.106052 0.691646 255 162 0 0.525878
-0.003746 -0.108869 0.691105 255 162 0 0.526540
-0.007418 -0.108369 0.691965 255 162 0 0.526529
-0.009919 -0.106444 0.693052 255 162 0 0.526275
-0.013524 -0.105924 0.693918 255 147 0 0.554505
0.002856 -0.105328 0.690939 255 162 0 0.525427
0.006331 -0.105918 0.689951 255 162 0 0.525140
0.008879 -0.107949 0.688712 255 162 0 0.525226
0.006955 -0.110715 0.688144 255 160 0 0.530370
0.004423 -0.108667 0.689403 255 162 0 0.525937
0.000826 -0.108066 0.690410 255 158 0 0.531591
0.004597 -0.114941 0.688144 255 184 0 0.482536
0.000940 -0.114372 0.689087 255 180 0 0.492043
-0.001902 -0.112402 0.690129 255 162 0 0.527146
-0.005571 -0.111834 0.691061 255 162 0 0.527014
0.002621 -0.111509 0.689154 255 162 0 0.526827
-0.010150 -0.112705 0.691913 255 162 0 0.527267
-0.013864 -0.112172 0.692743 255 162 0 0.527300
-0.016512 -0.110154 0.693585 255 162 0 0.526853
-0.011961 -0.109263 0.692819 255 162 0 0.526707
-0.072172 -0.096122 0.703673 255 153 0 0.542211
-0.075048 -0.096978 0.704045 255 153 0 0.541857
-0.075277 -0.099249 0.703178 255 153 0 0.541948
-0.077928 -0.097819 0.704339 255 153 0 0.541461
-0.078235 -0.100151 0.703511 255 164 0 0.521252
-0.081180 -0.101036 0.703724 255 153 0 0.540737
-0.078486 -0.102478 0.702731 255 153 0 0.540078
-0.080903 -0.098637 0.704519 255 153 0 0.540826
-0.083819 -0.099554 0.704724 255 170 0 0.508493
-0.080286 -0.096117 0.705320 255 153 0 0.540711
-0.077293 -0.095359 0.705161 255 153 0 0.541365
-0.074430 -0.094546 0.704845 255 153 0 0.541794
-0.076649 -0.092970 0.706084 255 168 0 0.515326
-0.081133 -0.103886 0.703432 255 153 0 0.541280
-0.080682 -0.106518 0.703106 255 153 0 0.541287
-0.083750 -0.105331 0.704136 255 153 0 0.540420
-0.083301 -0.107984 0.703847 255 153 0 0.541169
-0.085847 -0.109478 0.704605 255 168 0 0.513214
-0.082783 -0.110656 0.703641 255 170 0 0.511569
-0.086356 -0.106804 0.704837 255 168 0 0.514530
-0.088882 -0.108347 0.705560 255 153 0 0.539920
-0.086509 -0.103866 0.704977 255 176 0 0.499820
-0.083849 -0.102431 0.704385 255 153 0 0.540712
-0.094649 -0.105801 0.707835 255 170 0 0.508741
-0.093364 -0.103374 0.707626 255 172 0 0.504228
-0.090652 -0.101801 0.706892 255 156 0 0.538455
-0.089215 -0.099444 0.706740 255 187 0 0.477869
-0.086344 -0.097976 0.706059 255 153 0 0.539443
-0.088878 -0.096317 0.707298 255 156 0 0.538371
-0.086619 -0.101051 0.705479 255 166 0 0.518110
-0.089179 -0.105467 0.705859 255 153 0 0.539125
-0.091818 -0.107108 0.706725 255 176 0 0.498344
-0.086867 -0.094498 0.707757 255 156 0 0.538522
-0.083849 -0.093647 0.707463 255 156 0 0.538995
-0.081848 -0.091976 0.707922 255 172 0 0.506690
-0.078799 -0.091190 0.707594 255 168 0 0.512859
-0.080911 -0.089378 0.709053 255 172 0 0.505479
-0.079696 -0.093728 0.706426 255 153 0 0.540162
-0.083335 -0.097030 0.705728 255 153 0 0.540088
-0.078722 -0.088163 0.709920 255 170 0 0.509496
-0.075668 -0.087946 0.710000 255 153 0 0.540032
-0.073585 -0.086805 0.710842 255 153 0 0.540344
-0.070560 -0.086545 0.710798 255 153 0 0.540969
-0.072397 -0.084748 0.712471 255 153 0 0.540072
-0.071688 -0.088607 0.709158 255 170 0 0.509901
-0.068719 -0.088321 0.709078 255 164 0 0.523434
-0.072600 -0.090566 0.707567 255 172 0 0.505084
-0.075686 -0.090885 0.707611 255 172 0 0.507419
-0.070234 -0.083941 0.713561 255 151 0 0.546460
-0.067263 -0.084099 0.713756 255 164 0 0.520260
-0.065262 -0.083295 0.714826 255 164 0 0.523197
-0.063645 -0.085095 0.712998 255 162 0 0.525126
-0.064725 -0.086747 0.711111 255 153 0 0.541175
-0.067632 -0.086714 0.711044 255 153 0 0.541389
-0.060008 -0.088379 0.709844 255 153 0 0.540218
-0.060819 -0.089906 0.708106 255 168 0 0.514051
-0.062860 -0.088385 0.709666 255 153 0 0.541202
-0.063728 -0.089966 0.707897 255 168 0 0.514081
-0.066694 -0.089957 0.707677 255 153 0 0.541493
-0.064669 -0.091494 0.706256 255 153 0 0.541442
-0.065789 -0.088369 0.709399 255 153 0 0.541493
-0.061845 -0.086785 0.711395 255 153 0 0.540787
-0.067650 -0.091876 0.706344 255 170 0 0.509091
-0.068355 -0.093725 0.704935 255 153 0 0.541876
-0.070564 -0.092213 0.706267 255 153 0 0.541832
-0.071404 -0.094144 0.704960 255 153 0 0.541988
-0.073654 -0.092580 0.706201 255 153 0 0.541615
-0.069616 -0.090224 0.707632 255 153 0 0.541737
-0.050567 -0.096529 0.702323 255 156 0 0.535398
-0.049967 -0.098546 0.700780 255 166 0 0.519200
-0.052571 -0.098900 0.700581 255 156 0 0.536438
-0.053333 -0.096734 0.702066 255 145 0 0.555814
-0.056221 -0.097014 0.701838 255 156 0 0.538123
-0.045003 -0.098754 0.700548 255 158 0 0.532816
-0.047688 -0.100759 0.699431 255 133 0 0.582017
-0.050934 -0.104298 0.698520 255 158 0 0.535114
-0.053882 -0.101826 0.699525 255 156 0 0.536585
-0.054286 -0.104829 0.698470 255 156 0 0.536417
-0.050549 -0.101328 0.699528 255 158 0 0.535041
-0.057856 -0.103527 0.699124 255 156 0 0.537973
-0.056294 -0.100544 0.700230 255 149 0 0.550638
-0.059279 -0.101082 0.700176 255 156 0 0.538742
-0.062402 -0.101596 0.700107 255 153 0 0.539889
-0.069214 -0.095661 0.703803 255 153 0 0.541992
-0.065453 -0.093333 0.704988 255 153 0 0.541449
-0.061602 -0.093686 0.704438 255 153 0 0.540480
-0.062302 -0.095459 0.703259 255 143 0 0.560627
-0.065122 -0.095917 0.703298 255 156 0 0.536645
-0.065774 -0.097736 0.702231 255 168 0 0.514541
-0.068716 -0.098223 0.702215 255 158 0 0.532631
-0.061799 -0.091448 0.706577 255 168 0 0.515172
-0.058071 -0.089841 0.708316 255 153 0 0.539767
-0.055267 -0.091905 0.706344 255 156 0 0.538628
-0.057964 -0.092040 0.706112 255 156 0 0.538235
-0.058743 -0.093497 0.704610 255 153 0 0.539474
-0.052425 -0.093874 0.704613 255 164 0 0.520638
-0.055072 -0.094011 0.704313 255 156 0 0.538095
-0.058944 -0.097466 0.701842 255 156 0 0.539019
-0.061758 -0.097960 0.701826 255 158 0 0.534967
-0.064923 -0.100280 0.700937 255 168 0 0.515540
-0.067908 -0.072274 0.724270 255 156 0 0.536362
-0.065304 -0.071638 0.725271 255 158 0 0.535073
-0.062659 -0.072163 0.725378 255 158 0 0.531489
-0.060109 -0.071453 0.726280 255 160 0 0.530446
-0.057501 -0.071934 0.726305 255 160 0 0.527479
-0.057609 -0.069266 0.727728 255 160 0 0.528033
-0.059897 -0.073945 0.724696 255 160 0 0.530279
-0.057277 -0.074448 0.724650 255 160 0 0.528420
-0.062177 -0.074707 0.723704 255 158 0 0.532311
-0.064470 -0.075389 0.722625 255 158 0 0.534760
-0.067177 -0.074846 0.722474 255 156 0 0.537143
-0.066327 -0.077266 0.720527 255 145 0 0.555447
-0.054996 -0.068939 0.728787 255 162 0 0.523935
-0.052581 -0.069840 0.729141 255 164 0 0.521518
-0.050018 -0.069538 0.730113 255 164 0 0.519740
-0.050305 -0.072086 0.728834 255 164 0 0.521402
-0.052721 -0.072512 0.727812 255 162 0 0.523638
-0.055027 -0.072866 0.726662 255 162 0 0.524993
-0.052388 -0.076173 0.725488 255 162 0 0.525802
-0.054524 -0.076520 0.724313 255 160 0 0.527430
-0.056642 -0.076759 0.723039 255 191 0 0.469202
-0.050190 -0.074646 0.727341 255 164 0 0.523355
-0.058490 -0.078551 0.721095 255 160 0 0.530958
-0.060526 -0.079350 0.720073 255 156 0 0.535326
-0.063144 -0.078848 0.719862 255 156 0 0.536913
-0.065233 -0.079481 0.718750 255 182 0 0.485029
