ply
format ascii 1.0
comment VCGLIB generated
element vertex 1012
property float x
property float y
property float z
property uchar red
property uchar green
property uchar blue
property float quality
end_header
0.122942 -0.133196 0.855156 255 193 0 0.467345
0.125888 -0.132532 0.855604 255 207 0 0.438617
0.122663 -0.130196 0.851811 255 201 0 0.449295
0.123989 -0.126614 0.848443 255 211 0 0.432250
0.126833 -0.122994 0.845571 255 213 0 0.429271
0.124899 -0.134977 0.859205 255 168 0 0.515316
0.122265 -0.137843 0.862860 255 193 0 0.465415
0.121298 -0.140215 0.866408 255 195 0 0.461307
0.118616 -0.142899 0.870054 255 195 0 0.464593
0.122036 -0.142178 0.869820 255 195 0 0.464556
0.117912 -0.141069 0.866612 255 187 0 0.480091
0.121781 -0.135803 0.859065 255 197 0 0.460176
0.124568 -0.139451 0.866652 255 166 0 0.516522
0.125522 -0.137013 0.863130 255 178 0 0.495864
0.127993 -0.134170 0.859906 255 191 0 0.472162
0.128969 -0.131723 0.856348 255 207 0 0.437624
0.132127 -0.131060 0.857045 255 205 0 0.442044
0.131203 -0.133406 0.860396 255 176 0 0.497967
0.128647 -0.136184 0.863583 255 199 0 0.455587
0.127793 -0.138574 0.866890 255 195 0 0.461937
0.125281 -0.141310 0.870077 255 191 0 0.469155
0.128578 -0.140572 0.870311 255 193 0 0.467169
0.128576 -0.128957 0.853169 255 203 0 0.448564
0.129834 -0.125677 0.850130 255 182 0 0.486417
0.132792 -0.122337 0.847557 255 201 0 0.451117
0.135981 -0.121919 0.848516 255 187 0 0.478302
0.133002 -0.125197 0.851082 255 218 0 0.420146
0.131753 -0.128262 0.853935 255 230 0 0.394970
0.142441 -0.121060 0.850632 255 176 0 0.498254
0.139369 -0.124232 0.852934 255 189 0 0.473675
0.138083 -0.127122 0.855628 255 205 0 0.443757
0.135300 -0.130385 0.857871 255 184 0 0.481988
0.138520 -0.129777 0.858674 255 187 0 0.477468
0.134878 -0.127751 0.854814 255 211 0 0.433491
0.136191 -0.124710 0.852006 255 211 0 0.433080
0.139175 -0.121560 0.849628 255 180 0 0.490071
0.137484 -0.132010 0.861829 255 195 0 0.461924
0.134948 -0.134695 0.864734 255 195 0 0.464509
0.134025 -0.136997 0.867906 255 191 0 0.471102
0.131570 -0.139717 0.870811 255 182 0 0.487408
0.134591 -0.138943 0.871284 255 180 0 0.491471
0.130959 -0.137832 0.867381 255 184 0 0.482152
0.131818 -0.135441 0.864076 255 197 0 0.458804
0.134327 -0.132734 0.861168 255 193 0 0.468333
0.136986 -0.136310 0.868517 255 184 0 0.481426
0.137965 -0.133966 0.865387 255 187 0 0.477735
0.140455 -0.131382 0.862622 255 191 0 0.470645
0.141438 -0.129124 0.859455 255 193 0 0.467113
0.144373 -0.128502 0.860201 255 197 0 0.459948
0.143319 -0.130659 0.863266 255 187 0 0.478860
0.140894 -0.133268 0.866060 255 180 0 0.491536
0.139793 -0.135515 0.869070 255 178 0 0.495382
0.137345 -0.138169 0.871823 255 189 0 0.473831
0.140192 -0.137436 0.872374 255 184 0 0.481665
0.141213 -0.126639 0.856521 255 180 0 0.488516
0.142520 -0.123725 0.853855 255 178 0 0.494741
0.145398 -0.120674 0.851616 255 189 0 0.472723
0.148386 -0.120160 0.852481 255 187 0 0.478679
0.145530 -0.123226 0.854725 255 189 0 0.472891
0.144182 -0.125985 0.857311 255 191 0 0.472088
0.154180 -0.119311 0.854095 255 187 0 0.477380
0.151292 -0.122255 0.856251 255 182 0 0.485143
0.149995 -0.124941 0.858781 255 182 0 0.485399
0.147225 -0.127949 0.860885 255 187 0 0.477501
0.150100 -0.127406 0.861541 255 187 0 0.479018
0.147099 -0.125515 0.858087 255 187 0 0.479372
0.148455 -0.122728 0.855528 255 187 0 0.479831
0.151244 -0.119803 0.853308 255 187 0 0.477651
0.148962 -0.129513 0.864499 255 172 0 0.504191
0.146440 -0.132031 0.867182 255 193 0 0.467345
0.145326 -0.134253 0.870131 255 182 0 0.487789
0.142906 -0.136821 0.872880 255 191 0 0.472211
0.145729 -0.136227 0.873375 255 184 0 0.483407
0.142579 -0.134898 0.869641 255 180 0 0.489612
0.143705 -0.132617 0.866637 255 187 0 0.476581
0.146124 -0.130127 0.863915 255 184 0 0.482452
0.148263 -0.133832 0.870642 255 178 0 0.492641
0.149327 -0.131543 0.867685 255 180 0 0.490613
0.151963 -0.129200 0.865014 255 180 0 0.489510
0.153078 -0.127056 0.862064 255 180 0 0.491464
0.152280 -0.131195 0.868109 255 182 0 0.485331
0.151154 -0.133449 0.870987 255 174 0 0.502083
0.148567 -0.135903 0.873719 255 184 0 0.481490
0.152923 -0.124573 0.859424 255 184 0 0.484011
0.154233 -0.121852 0.856928 255 180 0 0.491104
0.157232 -0.119087 0.854809 255 178 0 0.493371
0.158743 -0.113624 0.850087 255 178 0 0.492569
0.089028 -0.115960 0.823787 255 178 0 0.494515
0.087173 -0.118742 0.827126 255 178 0 0.492684
0.085170 -0.117528 0.826047 255 180 0 0.488618
0.085306 -0.121572 0.830524 255 180 0 0.489885
0.083304 -0.120370 0.829426 255 180 0 0.491495
0.081365 -0.123085 0.832939 255 180 0 0.488628
0.083462 -0.124261 0.834057 255 191 0 0.472450
0.081327 -0.119093 0.828411 255 178 0 0.492796
0.079427 -0.121877 0.831823 255 180 0 0.489524
0.077450 -0.120651 0.830745 255 180 0 0.490673
0.081173 -0.115535 0.824413 255 182 0 0.487915
0.085068 -0.114000 0.822051 255 176 0 0.497067
0.088827 -0.112378 0.819908 255 176 0 0.496365
0.084803 -0.110449 0.818361 255 176 0 0.496788
0.081540 -0.125910 0.837964 255 184 0 0.480861
0.079788 -0.127610 0.842094 255 187 0 0.477521
0.077666 -0.126247 0.840747 255 195 0 0.464542
0.078084 -0.129171 0.846342 255 191 0 0.469021
0.075904 -0.127776 0.845020 255 180 0 0.489194
0.073789 -0.126450 0.843654 255 182 0 0.486424
0.071726 -0.125165 0.842579 255 187 0 0.479532
0.075616 -0.124989 0.839646 255 187 0 0.479806
0.073642 -0.123816 0.838524 255 189 0 0.475479
0.077473 -0.123449 0.835702 255 182 0 0.485397
0.079486 -0.124681 0.836835 255 174 0 0.501620
0.075552 -0.122234 0.834607 255 182 0 0.487414
0.063868 -0.121507 0.838395 255 178 0 0.492565
0.067698 -0.120906 0.835418 255 180 0 0.492185
0.069643 -0.119471 0.831644 255 184 0 0.482845
0.073523 -0.118802 0.828855 255 178 0 0.494851
0.069639 -0.117008 0.827052 255 174 0 0.502784
0.073486 -0.121246 0.833550 255 176 0 0.496400
0.071588 -0.122828 0.837448 255 170 0 0.510822
0.069665 -0.124271 0.841465 255 184 0 0.484144
0.067641 -0.123307 0.840402 255 182 0 0.487260
0.071401 -0.114586 0.824108 255 180 0 0.491471
0.075129 -0.112872 0.821938 255 174 0 0.501404
0.076912 -0.110491 0.819085 255 174 0 0.501637
0.080656 -0.108780 0.817042 255 174 0 0.501274
0.076619 -0.107259 0.815779 255 176 0 0.497874
0.081002 -0.112171 0.820378 255 176 0 0.499019
0.077343 -0.117152 0.826603 255 176 0 0.498873
0.101253 -0.085337 0.812388 255 176 0 0.496844
0.099893 -0.089713 0.812661 255 176 0 0.497476
0.096487 -0.093592 0.812409 255 174 0 0.501337
0.095109 -0.097836 0.812871 255 180 0 0.488692
0.090934 -0.096740 0.811731 255 170 0 0.509366
0.092165 -0.092764 0.811344 255 170 0 0.509453
0.095646 -0.088986 0.811434 255 168 0 0.513706
0.096836 -0.084842 0.811148 255 170 0 0.509653
0.095733 -0.102026 0.814968 255 172 0 0.504025
0.094083 -0.105818 0.816819 255 178 0 0.495907
0.090524 -0.108708 0.817907 255 176 0 0.497049
0.086410 -0.107062 0.816566 255 184 0 0.482714
0.090064 -0.104331 0.815408 255 176 0 0.499105
0.091591 -0.100873 0.813744 255 176 0 0.499492
0.078091 -0.104104 0.814262 255 178 0 0.495425
0.081746 -0.101578 0.813197 255 172 0 0.505343
0.083131 -0.098396 0.811854 255 166 0 0.519288
0.086648 -0.095748 0.810865 255 172 0 0.506473
0.082299 -0.094657 0.810029 255 170 0 0.508027
0.087467 -0.099588 0.812675 255 180 0 0.490811
0.085968 -0.102971 0.814189 255 174 0 0.502177
0.082346 -0.105495 0.815291 255 174 0 0.502575
0.083350 -0.091030 0.809544 255 176 0 0.499363
0.086747 -0.087623 0.809394 255 156 0 0.535875
0.087751 -0.083774 0.808864 255 170 0 0.508968
0.092424 -0.084213 0.809928 255 180 0 0.490978
0.091258 -0.088310 0.810350 255 172 0 0.504371
0.087926 -0.091883 0.810229 255 176 0 0.498870
0.072905 -0.109113 0.817749 255 180 0 0.489583
0.071210 -0.111572 0.820418 255 170 0 0.508670
0.067562 -0.113435 0.822603 255 174 0 0.503148
0.065859 -0.115899 0.825565 255 174 0 0.501338
0.062167 -0.114908 0.824184 255 174 0 0.503723
0.063743 -0.112451 0.821365 255 170 0 0.511306
0.067248 -0.110451 0.819180 255 172 0 0.507050
0.068877 -0.108035 0.816595 255 172 0 0.507661
0.072547 -0.106158 0.814620 255 178 0 0.493654
0.068396 -0.105020 0.813721 255 170 0 0.507864
0.065867 -0.118054 0.829842 255 184 0 0.484320
0.063950 -0.119550 0.833682 255 187 0 0.477692
0.060312 -0.120564 0.836614 255 178 0 0.495104
0.058581 -0.122238 0.840320 255 180 0 0.490946
0.055270 -0.121898 0.838310 255 178 0 0.494453
0.056996 -0.120014 0.834875 255 184 0 0.484062
0.060421 -0.118573 0.832086 255 176 0 0.497606
0.062198 -0.116999 0.828386 255 184 0 0.481514
0.049043 -0.123193 0.834300 255 180 0 0.490505
0.050703 -0.120995 0.831143 255 178 0 0.493522
0.053889 -0.118521 0.828784 255 176 0 0.497797
0.055490 -0.116493 0.825501 255 176 0 0.499969
0.058762 -0.114547 0.822848 255 176 0 0.499948
0.055445 -0.114507 0.821502 255 174 0 0.502238
0.058772 -0.116469 0.826994 255 174 0 0.500998
0.057078 -0.118272 0.830487 255 176 0 0.498262
0.053842 -0.120341 0.833014 255 197 0 0.460169
0.052128 -0.122373 0.836346 255 178 0 0.493548
0.056728 -0.111684 0.818954 255 172 0 0.505679
0.059851 -0.109157 0.817022 255 199 0 0.453441
0.061208 -0.106568 0.814500 255 170 0 0.510787
0.064497 -0.104324 0.812624 255 168 0 0.512335
0.060594 -0.103766 0.811470 255 172 0 0.505431
0.065004 -0.107164 0.815562 255 176 0 0.498996
0.063486 -0.109666 0.818071 255 180 0 0.488455
0.060224 -0.111992 0.820146 255 172 0 0.505676
-0.059194 -0.145884 0.780557 255 178 0 0.496027
-0.060315 -0.145355 0.783801 255 176 0 0.499730
-0.063646 -0.144827 0.782594 255 168 0 0.515241
-0.064779 -0.144576 0.785891 255 164 0 0.521641
-0.061460 -0.144986 0.787085 255 164 0 0.519806
-0.068112 -0.144278 0.784688 255 180 0 0.491138
-0.065881 -0.144457 0.789207 255 166 0 0.515709
-0.069194 -0.144206 0.788017 255 166 0 0.516438
-0.070295 -0.144239 0.791324 255 170 0 0.511347
-0.062575 -0.144767 0.790403 255 170 0 0.508039
-0.066993 -0.144409 0.792520 255 180 0 0.491226
-0.063683 -0.144645 0.793698 255 172 0 0.506188
-0.072507 -0.144087 0.786813 255 162 0 0.526277
-0.073592 -0.144166 0.790139 255 184 0 0.483121
-0.076847 -0.144122 0.788937 255 170 0 0.510458
-0.075933 -0.144137 0.785762 255 166 0 0.519294
-0.071576 -0.144204 0.783645 255 153 0 0.540103
-0.075012 -0.144276 0.782605 255 160 0 0.528867
-0.070644 -0.144439 0.780496 255 156 0 0.536767
-0.067145 -0.144569 0.781550 255 160 0 0.527499
-0.066199 -0.144968 0.778440 255 168 0 0.513966
-0.074076 -0.144401 0.779448 255 158 0 0.534461
-0.069705 -0.144739 0.777387 255 164 0 0.522713
-0.073137 -0.144660 0.776379 255 207 0 0.441029
-0.062695 -0.145340 0.779498 255 174 0 0.501906
-0.065043 -0.144329 0.797330 255 174 0 0.503699
-0.068081 -0.144059 0.795990 255 172 0 0.505651
-0.069419 -0.143818 0.799598 255 174 0 0.502915
-0.066357 -0.144008 0.800921 255 174 0 0.502183
-0.072442 -0.143647 0.798271 255 174 0 0.502956
-0.070698 -0.143394 0.803173 255 174 0 0.500821
-0.073719 -0.143267 0.801870 255 174 0 0.501031
-0.074941 -0.142587 0.805408 255 178 0 0.495694
-0.067641 -0.143503 0.804477 255 174 0 0.502207
-0.071921 -0.142658 0.806694 255 176 0 0.499328
-0.068871 -0.142775 0.808002 255 176 0 0.499106
-0.076736 -0.143195 0.800551 255 174 0 0.500966
-0.077963 -0.142600 0.804096 255 176 0 0.499021
-0.080934 -0.142645 0.802796 255 180 0 0.491054
-0.079970 -0.143308 0.799396 255 176 0 0.499865
-0.075704 -0.143655 0.797124 255 174 0 0.502513
-0.078934 -0.143688 0.795943 255 174 0 0.501929
-0.074661 -0.143928 0.793643 255 187 0 0.479550
-0.071367 -0.143955 0.794816 255 172 0 0.506078
-0.077901 -0.143928 0.792437 255 172 0 0.505425
-0.094103 -0.141353 0.796332 255 176 0 0.496782
-0.093236 -0.141876 0.792877 255 176 0 0.498237
-0.089840 -0.142260 0.794537 255 176 0 0.499368
-0.088951 -0.142547 0.791050 255 174 0 0.501504
-0.092320 -0.142156 0.789408 255 170 0 0.508162
-0.085539 -0.142935 0.792699 255 174 0 0.502348
-0.087994 -0.142652 0.787578 255 180 0 0.490593
-0.084611 -0.143049 0.789205 255 172 0 0.506544
-0.083641 -0.143170 0.785714 255 168 0 0.512602
-0.091369 -0.142276 0.785926 255 172 0 0.504481
-0.087011 -0.142772 0.784088 255 197 0 0.459186
-0.090385 -0.142448 0.782457 255 172 0 0.505989
-0.081211 -0.143513 0.790832 255 172 0 0.506195
-0.080242 -0.143608 0.787323 255 168 0 0.513026
-0.082246 -0.143304 0.794318 255 174 0 0.502814
-0.083264 -0.142909 0.797787 255 174 0 0.500301
-0.086542 -0.142560 0.796171 255 174 0 0.500678
-0.087505 -0.141982 0.799616 255 176 0 0.498628
-0.084225 -0.142310 0.801214 255 170 0 0.510312
-0.090780 -0.141662 0.798014 255 180 0 0.491098
-0.089415 -0.142457 0.779377 255 170 0 0.510892
-0.086093 -0.142761 0.780949 255 166 0 0.518524
-0.085143 -0.142815 0.777864 255 162 0 0.525638
-0.088451 -0.142531 0.776339 255 168 0 0.514973
-0.081808 -0.143195 0.779394 255 158 0 0.534749
-0.084199 -0.142902 0.774827 255 197 0 0.460133
-0.080863 -0.143286 0.776339 255 156 0 0.536635
-0.079910 -0.143478 0.773350 255 178 0 0.495698
-0.087495 -0.142629 0.773360 255 178 0 0.495329
-0.083248 -0.143127 0.771890 255 164 0 0.521948
-0.086537 -0.142781 0.770438 255 168 0 0.514550
-0.077509 -0.143790 0.777879 255 153 0 0.541440
-0.076555 -0.144011 0.774835 255 158 0 0.531837
-0.078417 -0.143652 0.780985 255 187 0 0.478832
-0.079339 -0.143579 0.784145 255 162 0 0.524718
-0.082726 -0.143134 0.782541 255 162 0 0.524200
-0.051834 -0.142118 0.814259 255 176 0 0.497174
-0.053935 -0.140761 0.817893 255 178 0 0.495912
-0.057542 -0.139118 0.820634 255 178 0 0.493808
-0.059513 -0.137199 0.824047 255 180 0 0.488910
-0.063017 -0.135212 0.826721 255 189 0 0.473872
-0.059892 -0.135168 0.828211 255 187 0 0.480186
-0.062672 -0.137320 0.822565 255 180 0 0.490181
-0.066106 -0.135277 0.825214 255 182 0 0.486524
-0.060982 -0.139317 0.819233 255 191 0 0.472516
-0.059261 -0.141034 0.815791 255 178 0 0.493369
-0.055578 -0.142283 0.812906 255 176 0 0.497934
-0.059306 -0.142520 0.811533 255 189 0 0.473165
-0.061710 -0.132629 0.831534 255 191 0 0.470686
-0.064974 -0.130174 0.834100 255 182 0 0.486414
-0.066794 -0.127889 0.837478 255 180 0 0.490626
-0.069672 -0.127924 0.835883 255 180 0 0.491032
-0.067956 -0.130207 0.832542 255 182 0 0.486395
-0.066260 -0.132670 0.829247 255 187 0 0.479677
-0.078769 -0.127825 0.831027 255 178 0 0.493770
-0.075265 -0.130244 0.828772 255 182 0 0.487446
-0.073759 -0.132817 0.825558 255 184 0 0.484325
-0.070178 -0.135262 0.823288 255 182 0 0.487966
-0.074257 -0.135384 0.821451 255 180 0 0.489444
-0.069721 -0.132794 0.827486 255 184 0 0.480904
-0.071381 -0.130254 0.830779 255 182 0 0.486978
-0.073068 -0.127862 0.834057 255 180 0 0.491849
-0.072993 -0.137596 0.818202 255 178 0 0.494163
-0.070651 -0.137506 0.819074 255 178 0 0.493802
-0.069314 -0.139550 0.815819 255 176 0 0.496111
-0.071660 -0.139592 0.814918 255 176 0 0.496811
-0.066972 -0.139477 0.816665 255 178 0 0.496033
-0.067898 -0.141228 0.812411 255 176 0 0.498026
-0.065570 -0.141210 0.813280 255 191 0 0.472622
-0.064080 -0.142555 0.809750 255 176 0 0.498998
-0.070312 -0.141420 0.811568 255 176 0 0.498162
-0.066479 -0.142627 0.808875 255 182 0 0.487944
-0.063199 -0.141179 0.814154 255 176 0 0.498638
-0.061716 -0.142542 0.810649 255 176 0 0.498691
-0.066553 -0.137472 0.820959 255 180 0 0.491955
-0.100787 -0.127599 0.819150 255 160 0 0.527628
-0.097721 -0.127665 0.820654 255 174 0 0.502637
-0.096580 -0.130040 0.817562 255 176 0 0.497065
-0.099664 -0.130002 0.816051 255 176 0 0.497078
-0.093553 -0.130178 0.819072 255 178 0 0.496012
-0.095499 -0.132532 0.814520 255 180 0 0.488696
-0.092453 -0.132716 0.816082 255 180 0 0.488712
-0.091363 -0.135137 0.813058 255 178 0 0.495349
-0.098582 -0.132392 0.812932 255 182 0 0.487424
-0.094447 -0.134967 0.811485 255 199 0 0.456101
-0.097544 -0.134822 0.809859 255 182 0 0.487387
-0.089406 -0.132860 0.817614 255 180 0 0.489370
-0.088268 -0.135224 0.814580 255 176 0 0.496300
-0.085222 -0.135395 0.816103 255 201 0 0.452093
-0.086517 -0.132922 0.819266 255 158 0 0.532068
-0.090639 -0.130172 0.820688 255 178 0 0.493853
-0.087779 -0.130302 0.822348 255 178 0 0.493328
-0.091920 -0.127712 0.823881 255 178 0 0.493273
-0.094797 -0.127731 0.822303 255 174 0 0.500806
-0.089059 -0.127828 0.825500 255 176 0 0.498667
-0.096819 -0.136980 0.806688 255 187 0 0.477581
-0.093554 -0.137161 0.808231 255 178 0 0.492380
-0.092730 -0.139050 0.804959 255 178 0 0.494960
-0.096001 -0.138730 0.803358 255 178 0 0.494589
-0.089465 -0.139329 0.806528 255 178 0 0.495258
-0.091829 -0.140572 0.801540 255 182 0 0.484997
-0.088564 -0.140920 0.803147 255 176 0 0.497106
-0.095128 -0.140257 0.799885 255 178 0 0.492732
-0.085288 -0.141137 0.804704 255 176 0 0.497587
-0.082156 -0.141373 0.806318 255 176 0 0.497681
-0.086355 -0.139496 0.808144 255 178 0 0.495863
-0.083248 -0.139694 0.809734 255 176 0 0.496180
-0.087379 -0.137563 0.811445 255 178 0 0.493776
-0.090455 -0.137339 0.809847 255 184 0 0.482665
-0.084268 -0.137710 0.812997 255 178 0 0.493948
-0.073141 -0.141307 0.810176 255 187 0 0.479661
-0.074497 -0.139571 0.813576 255 176 0 0.496570
-0.077294 -0.139543 0.812210 255 176 0 0.496424
-0.075771 -0.137566 0.816872 255 178 0 0.494600
-0.078548 -0.137574 0.815548 255 178 0 0.494790
-0.079745 -0.135264 0.818723 255 180 0 0.490969
-0.077006 -0.135298 0.820083 255 180 0 0.490329
-0.081338 -0.137614 0.814218 255 178 0 0.494647
-0.082508 -0.135335 0.817418 255 180 0 0.491861
-0.080287 -0.139582 0.810971 255 176 0 0.496539
-0.079188 -0.141325 0.807621 255 176 0 0.498020
-0.076172 -0.141315 0.808895 255 176 0 0.498224
-0.078368 -0.132790 0.823174 255 182 0 0.487288
-0.079826 -0.130145 0.826355 255 180 0 0.490063
-0.082411 -0.130201 0.824960 255 166 0 0.517559
-0.081338 -0.127767 0.829595 255 162 0 0.525162
-0.083885 -0.127728 0.828150 255 178 0 0.495450
-0.086445 -0.127825 0.826800 255 176 0 0.496890
-0.085108 -0.130229 0.823649 255 184 0 0.483721
-0.083811 -0.132862 0.820568 255 180 0 0.490058
-0.081087 -0.132754 0.821836 255 193 0 0.465775
0.031298 -0.113195 0.733437 255 176 0 0.498288
0.031184 -0.116021 0.734499 255 174 0 0.501490
0.031024 -0.118879 0.735579 255 168 0 0.515422
0.030876 -0.121720 0.736652 255 172 0 0.506726
0.018616 -0.097636 0.729368 255 178 0 0.495632
0.019381 -0.100288 0.731392 255 174 0 0.500013
0.021958 -0.100568 0.730291 255 178 0 0.493317
0.022683 -0.103504 0.732291 255 180 0 0.491161
0.020108 -0.103157 0.733422 255 178 0 0.492465
0.025268 -0.103899 0.731139 255 178 0 0.493154
0.023323 -0.106458 0.734188 255 180 0 0.489848
0.025820 -0.106688 0.732992 255 170 0 0.510962
0.026333 -0.109489 0.734843 255 174 0 0.502253
0.020752 -0.106102 0.735335 255 180 0 0.491448
0.023836 -0.109108 0.736029 255 180 0 0.490190
0.021340 -0.108791 0.737220 255 164 0 0.520260
0.028351 -0.106995 0.731748 255 180 0 0.489899
0.028907 -0.109962 0.733541 255 180 0 0.491302
0.028007 -0.104327 0.729933 255 180 0 0.490596
0.027507 -0.101599 0.728135 255 180 0 0.491886
0.024772 -0.101079 0.729204 255 193 0 0.466833
0.024155 -0.098432 0.727362 255 176 0 0.499349
0.026989 -0.098868 0.726184 255 178 0 0.494030
0.021434 -0.098027 0.728360 255 176 0 0.497657
0.021367 -0.111901 0.738486 255 180 0 0.491720
0.023761 -0.112155 0.737245 255 176 0 0.497867
0.023759 -0.115166 0.738402 255 180 0 0.492030
0.021310 -0.115006 0.739696 255 176 0 0.499064
0.026110 -0.115308 0.737198 255 180 0 0.490677
0.023639 -0.118151 0.739575 255 178 0 0.492820
0.026081 -0.118307 0.738243 255 180 0 0.492113
0.025957 -0.121364 0.739352 255 170 0 0.510180
0.021285 -0.117956 0.740817 255 178 0 0.494485
0.023540 -0.121148 0.740645 255 178 0 0.495238
0.021093 -0.121082 0.741929 255 176 0 0.496117
0.028475 -0.118502 0.736946 255 184 0 0.481734
0.028405 -0.121493 0.738032 255 174 0 0.503234
0.028631 -0.115644 0.735882 255 174 0 0.500137
0.028813 -0.112857 0.734698 255 178 0 0.492804
0.026248 -0.112425 0.736004 255 178 0 0.495008
0.021978 -0.145211 0.717542 255 174 0 0.503356
0.019411 -0.145388 0.714787 255 187 0 0.477744
0.017108 -0.145261 0.711997 255 182 0 0.486672
0.013398 -0.145406 0.712993 255 189 0 0.475756
0.010979 -0.145559 0.715320 255 182 0 0.486145
0.015784 -0.145508 0.715817 255 174 0 0.503380
0.013378 -0.145663 0.718193 255 174 0 0.503623
0.008623 -0.145711 0.717639 255 189 0 0.475847
0.006253 -0.145853 0.719955 255 174 0 0.500125
0.003358 -0.145639 0.717042 255 172 0 0.504484
0.005716 -0.145499 0.714767 255 172 0 0.504285
0.008098 -0.145374 0.712501 255 176 0 0.497875
0.000476 -0.145486 0.714142 255 172 0 0.503930
0.018545 -0.145380 0.718633 255 174 0 0.503068
0.016500 -0.145221 0.721039 255 174 0 0.502900
0.021242 -0.144757 0.721372 255 187 0 0.479964
0.019165 -0.144558 0.723804 255 187 0 0.478542
0.014468 -0.145041 0.723401 255 174 0 0.503535
0.012518 -0.144819 0.725771 255 197 0 0.457614
0.009343 -0.145340 0.722847 255 182 0 0.484541
0.011342 -0.145521 0.720521 255 189 0 0.475911
-0.001210 -0.145298 0.729279 255 172 0 0.505260
0.000730 -0.145449 0.726909 255 176 0 0.497315
-0.004811 -0.145609 0.726224 255 172 0 0.504505
0.002601 -0.145601 0.724579 255 172 0 0.505234
-0.002845 -0.145786 0.723862 255 172 0 0.504614
-0.000937 -0.145964 0.721578 255 166 0 0.518174
-0.008305 -0.145982 0.723189 255 174 0 0.500718
0.004444 -0.145717 0.722245 255 172 0 0.505005
0.007514 -0.145211 0.725173 255 172 0 0.504919
0.005755 -0.145081 0.727511 255 172 0 0.505372
-0.006045 -0.145880 0.720871 255 176 0 0.499720
-0.011575 -0.145700 0.720194 255 174 0 0.502770
-0.003871 -0.145753 0.718603 255 172 0 0.503950
-0.009295 -0.145637 0.717907 255 174 0 0.503096
-0.007122 -0.145526 0.715671 255 174 0 0.503165
-0.014711 -0.145546 0.717222 255 174 0 0.502168
-0.001688 -0.145627 0.716356 255 172 0 0.504025
0.001247 -0.145808 0.719289 255 184 0 0.482717
0.024091 -0.143782 0.723925 255 174 0 0.502414
0.022331 -0.143247 0.726257 255 174 0 0.502167
0.025046 -0.141673 0.728595 255 184 0 0.481319
0.020542 -0.142654 0.728587 255 174 0 0.503261
0.018853 -0.142050 0.730861 255 174 0 0.502842
0.015714 -0.143452 0.728306 255 180 0 0.488526
0.017393 -0.144029 0.726077 255 174 0 0.502837
0.027864 -0.139402 0.730433 255 174 0 0.501248
0.026081 -0.138443 0.732632 255 174 0 0.502421
0.024432 -0.137400 0.734738 255 174 0 0.501642
0.021568 -0.139771 0.732857 255 180 0 0.489144
0.023296 -0.140738 0.730708 255 187 0 0.479282
0.012700 -0.138364 0.739460 255 174 0 0.502694
0.014259 -0.139320 0.737300 255 170 0 0.508602
0.009353 -0.140680 0.737276 255 172 0 0.504052
0.015822 -0.140195 0.735111 255 182 0 0.487304
0.010940 -0.141629 0.735150 255 182 0 0.486950
0.012552 -0.142488 0.732969 255 184 0 0.481818
0.006014 -0.142938 0.735011 255 176 0 0.498359
0.017351 -0.141170 0.732990 255 182 0 0.485057
0.020158 -0.138839 0.735006 255 176 0 0.498595
0.018665 -0.137819 0.737160 255 174 0 0.502064
0.007713 -0.143474 0.732691 255 182 0 0.484797
0.002300 -0.144163 0.732164 255 170 0 0.509568
0.009369 -0.143895 0.730339 255 172 0 0.504943
0.004096 -0.144637 0.729839 255 174 0 0.502378
0.010977 -0.144370 0.728031 255 172 0 0.504445
0.014122 -0.142999 0.730667 255 174 0 0.502921
0.030360 -0.132218 0.735191 255 176 0 0.499901
0.028472 -0.130653 0.737127 255 180 0 0.488633
0.026439 -0.134060 0.735974 255 172 0 0.506444
0.028305 -0.135576 0.734099 255 174 0 0.500724
0.029717 -0.126287 0.736962 255 176 0 0.497485
0.022209 -0.126020 0.740827 255 174 0 0.502802
0.019556 -0.126149 0.742150 255 170 0 0.509532
0.024761 -0.125931 0.739590 255 176 0 0.496450
0.023238 -0.130751 0.739708 255 176 0 0.498848
0.020637 -0.130843 0.740936 255 195 0 0.463576
0.017905 -0.130990 0.742228 255 180 0 0.492078
0.026588 -0.128327 0.738372 255 180 0 0.490456
0.018308 -0.134465 0.739674 255 170 0 0.508308
0.015279 -0.134755 0.740911 255 172 0 0.505452
0.021166 -0.134208 0.738503 255 174 0 0.502018
0.022758 -0.135845 0.736673 255 180 0 0.489595
0.024860 -0.132455 0.737819 255 168 0 0.513164
0.022072 -0.095053 0.723282 255 176 0 0.496405
0.024813 -0.095457 0.722340 255 176 0 0.497966
0.022621 -0.092299 0.718103 255 184 0 0.484139
0.020835 -0.093451 0.721155 255 187 0 0.478089
0.019673 -0.091885 0.719024 255 176 0 0.497075
0.017908 -0.093044 0.722058 255 174 0 0.502602
0.019129 -0.094643 0.724246 255 176 0 0.496859
0.016082 -0.094220 0.725095 255 176 0 0.497511
0.016620 -0.091501 0.719828 255 176 0 0.497419
0.014858 -0.092715 0.722950 255 174 0 0.502203
0.013608 -0.091192 0.720764 255 176 0 0.498342
0.017369 -0.095843 0.727226 255 176 0 0.496591
0.022742 -0.091208 0.713279 255 178 0 0.495611
0.020010 -0.089893 0.709319 255 178 0 0.494862
0.016998 -0.089486 0.710110 255 178 0 0.495689
0.015390 -0.089776 0.712976 255 176 0 0.496797
0.012240 -0.089466 0.713776 255 176 0 0.497596
0.010547 -0.089842 0.716683 255 176 0 0.498328
0.007484 -0.088746 0.712530 255 176 0 0.498280
0.019906 -0.090831 0.714127 255 176 0 0.496327
0.009293 -0.088993 0.710061 255 176 0 0.497530
0.012416 -0.089239 0.709256 255 176 0 0.496556
0.014082 -0.089672 0.706761 255 178 0 0.495555
0.017174 -0.090017 0.705964 255 178 0 0.494724
0.014350 -0.090348 0.702629 255 178 0 0.494437
0.011145 -0.089960 0.703444 255 178 0 0.495184
0.009448 -0.089515 0.705895 255 176 0 0.496156
0.006165 -0.089275 0.706644 255 176 0 0.497189
0.004342 -0.089029 0.709126 255 176 0 0.498034
0.001308 -0.089321 0.705786 255 176 0 0.497387
0.017579 -0.090781 0.701609 255 178 0 0.493714
0.013594 -0.092927 0.697703 255 178 0 0.493863
0.011640 -0.091740 0.700011 255 178 0 0.494563
0.008920 -0.093218 0.697389 255 187 0 0.479872
0.005612 -0.092805 0.698160 255 178 0 0.495407
0.003714 -0.091809 0.700207 255 178 0 0.496066
0.000341 -0.091551 0.700988 255 176 0 0.496338
-0.001672 -0.090736 0.703099 255 176 0 0.496906
-0.004452 -0.091988 0.700595 255 172 0 0.505363
0.003296 -0.090174 0.703658 255 168 0 0.514155
0.006555 -0.090392 0.702882 255 176 0 0.496144
0.008465 -0.091358 0.700776 255 178 0 0.495217
0.092478 -0.012610 0.822156 255 170 0 0.508320
0.092024 -0.009725 0.824380 255 170 0 0.511012
0.088950 -0.010066 0.823109 255 170 0 0.507832
0.089386 -0.012924 0.820854 255 164 0 0.522694
0.088349 -0.007588 0.825707 255 170 0 0.507950
0.085839 -0.010444 0.821839 255 164 0 0.520947
0.085260 -0.008024 0.824435 255 172 0 0.506890
0.082115 -0.008388 0.823158 255 172 0 0.506007
0.086271 -0.013177 0.819575 255 160 0 0.527677
0.082705 -0.010771 0.820553 255 172 0 0.505784
0.083138 -0.013558 0.818274 255 160 0 0.528898
0.084578 -0.006011 0.827214 255 172 0 0.506533
0.081459 -0.006430 0.825905 255 172 0 0.505954
0.080684 -0.004905 0.828899 255 172 0 0.506838
0.083972 -0.004544 0.830408 255 172 0 0.506306
0.087848 -0.005607 0.828671 255 172 0 0.507467
0.087215 -0.004143 0.831893 255 172 0 0.507548
0.091093 -0.005198 0.830134 255 166 0 0.519335
0.091616 -0.007202 0.827149 255 170 0 0.508905
0.090453 -0.003682 0.833376 255 170 0 0.508291
0.080156 -0.013875 0.816943 255 168 0 0.515171
0.079548 -0.011096 0.819060 255 172 0 0.505042
0.076550 -0.011433 0.817726 255 172 0 0.504504
0.077171 -0.014211 0.815569 255 174 0 0.503816
0.075803 -0.009053 0.820147 255 174 0 0.500032
0.073530 -0.011807 0.816388 255 172 0 0.504405
0.072779 -0.009410 0.818821 255 172 0 0.504281
0.069725 -0.009792 0.817501 255 172 0 0.504414
0.074156 -0.014595 0.814219 255 174 0 0.503558
0.070491 -0.012197 0.815066 255 160 0 0.527751
0.071112 -0.014984 0.812876 255 174 0 0.502995
0.071945 -0.007384 0.821430 255 172 0 0.504380
0.068903 -0.007756 0.820090 255 172 0 0.504483
0.067950 -0.006170 0.822908 255 172 0 0.504364
0.071193 -0.005850 0.824412 255 178 0 0.494730
0.075159 -0.007047 0.822912 255 182 0 0.486438
0.074394 -0.005518 0.825907 255 172 0 0.504520
0.078326 -0.006738 0.824405 255 172 0 0.505165
0.078984 -0.008723 0.821650 255 172 0 0.505205
0.077549 -0.005202 0.827409 255 182 0 0.484603
0.063132 -0.004614 0.835311 255 170 0 0.511713
0.066544 -0.004367 0.836951 255 170 0 0.510375
0.067604 -0.004455 0.833701 255 172 0 0.507518
0.070969 -0.004185 0.835337 255 187 0 0.476812
0.069911 -0.004147 0.838586 255 170 0 0.510555
0.072024 -0.004403 0.832100 255 184 0 0.482371
0.074299 -0.003908 0.836935 255 178 0 0.493481
0.075354 -0.004118 0.833693 255 172 0 0.505933
0.078636 -0.003819 0.835285 255 178 0 0.492669
0.073237 -0.003895 0.840192 255 176 0 0.496920
0.077557 -0.003696 0.838579 255 176 0 0.497933
0.076495 -0.003729 0.841842 255 170 0 0.511119
0.076399 -0.004477 0.830433 255 174 0 0.501193
0.079710 -0.004182 0.831980 255 174 0 0.503682
0.073224 -0.004830 0.828968 255 172 0 0.504335
0.070005 -0.005141 0.827493 255 172 0 0.503941
0.068823 -0.004701 0.830584 255 172 0 0.505679
0.065571 -0.005033 0.829095 255 164 0 0.519955
0.066760 -0.005476 0.826018 255 172 0 0.505022
0.064347 -0.004787 0.832223 255 170 0 0.508680
0.079911 -0.003488 0.843480 255 168 0 0.512128
0.080837 -0.003346 0.840112 255 170 0 0.508266
0.084194 -0.002979 0.841779 255 170 0 0.509136
0.083280 -0.003130 0.845147 255 168 0 0.512758
0.085129 -0.003055 0.838355 255 170 0 0.508969
0.087594 -0.002571 0.843505 255 158 0 0.531916
0.088494 -0.002638 0.840048 255 166 0 0.518627
0.086756 -0.002640 0.846912 255 168 0 0.513211
0.089431 -0.002945 0.836576 255 174 0 0.501807
0.086195 -0.003450 0.835076 255 170 0 0.508196
0.082958 -0.003822 0.833555 255 178 0 0.494398
0.081907 -0.003415 0.836812 255 172 0 0.507506
0.057554 -0.106285 0.813213 255 191 0 0.471613
0.056334 -0.108981 0.815734 255 170 0 0.508389
0.053487 -0.111962 0.817475 255 172 0 0.503962
0.052335 -0.114938 0.820028 255 174 0 0.500538
0.049099 -0.115457 0.818316 255 178 0 0.494945
0.050140 -0.112163 0.815971 255 176 0 0.499552
0.052885 -0.108971 0.814392 255 178 0 0.495500
0.053993 -0.106077 0.811916 255 180 0 0.488380
0.056924 -0.103427 0.810199 255 170 0 0.509988
0.053266 -0.103208 0.808811 255 172 0 0.507377
0.052383 -0.116990 0.823906 255 176 0 0.498195
0.050793 -0.119262 0.827027 255 178 0 0.494657
0.047676 -0.122134 0.829246 255 180 0 0.489308
0.046104 -0.124548 0.832341 255 182 0 0.486915
0.043052 -0.125893 0.830240 255 184 0 0.483769
0.044616 -0.123304 0.827277 255 197 0 0.458465
0.047741 -0.120215 0.825247 255 180 0 0.491063
0.049265 -0.117674 0.822237 255 184 0 0.481952
0.036974 -0.128385 0.826106 255 172 0 0.504388
0.038477 -0.125578 0.823189 255 184 0 0.480992
0.041507 -0.122330 0.821354 255 184 0 0.481857
0.042994 -0.119424 0.818484 255 193 0 0.465801
0.045917 -0.116106 0.816534 255 180 0 0.490316
0.042779 -0.116922 0.814646 255 182 0 0.485064
0.046110 -0.118594 0.820407 255 193 0 0.467552
0.044649 -0.121298 0.823337 255 182 0 0.486195
0.041598 -0.124605 0.825293 255 201 0 0.451485
0.040083 -0.127284 0.828224 255 184 0 0.482767
0.043718 -0.113254 0.812485 255 195 0 0.462299
0.046280 -0.109638 0.811140 255 176 0 0.499546
0.047189 -0.106366 0.808905 255 189 0 0.473446
0.049809 -0.103185 0.807387 255 172 0 0.505318
0.046381 -0.103259 0.805810 255 168 0 0.512177
0.050556 -0.106181 0.810446 255 174 0 0.503393
0.049523 -0.109221 0.812837 255 176 0 0.499985
0.046962 -0.112752 0.814240 255 178 0 0.494732
0.038552 -0.006024 0.822138 255 166 0 0.515783
0.041537 -0.005778 0.823774 255 180 0 0.491522
0.042890 -0.006181 0.820875 255 170 0 0.510051
0.045857 -0.005965 0.822499 255 170 0 0.509590
0.044488 -0.005602 0.825438 255 170 0 0.509171
0.047207 -0.006359 0.819531 255 172 0 0.506095
0.048810 -0.005774 0.824118 255 180 0 0.490367
0.050161 -0.006171 0.821157 255 172 0 0.504344
0.053137 -0.005992 0.822756 255 182 0 0.487801
0.047432 -0.005459 0.827084 255 166 0 0.516099
0.051763 -0.005662 0.825771 255 170 0 0.510134
0.050391 -0.005338 0.828753 255 166 0 0.516444
0.051528 -0.006681 0.818164 255 176 0 0.498948
0.054494 -0.006494 0.819793 255 166 0 0.517444
0.055827 -0.007277 0.816831 255 172 0 0.504021
0.052996 -0.007491 0.815245 255 174 0 0.503617
0.048710 -0.006869 0.816566 255 172 0 0.504264
0.050168 -0.007729 0.813670 255 174 0 0.503178
0.045900 -0.007088 0.814964 255 172 0 0.504111
0.044396 -0.006554 0.817948 255 172 0 0.505799
0.041564 -0.006819 0.816349 255 172 0 0.505659
0.047352 -0.007951 0.812077 255 174 0 0.502835
0.043066 -0.007368 0.813391 255 174 0 0.503858
0.044526 -0.008237 0.810515 255 174 0 0.502549
0.040061 -0.006401 0.819274 255 170 0 0.508811
0.053566 -0.005153 0.830417 255 166 0 0.515706
0.054791 -0.005434 0.827327 255 170 0 0.509836
0.057983 -0.005198 0.828969 255 170 0 0.509467
0.056750 -0.004986 0.832069 255 174 0 0.500256
0.059223 -0.005465 0.825838 255 172 0 0.506286
0.061168 -0.004986 0.830596 255 170 0 0.508939
0.062403 -0.005237 0.827460 255 176 0 0.499392
0.059937 -0.004794 0.833694 255 168 0 0.512886
0.063592 -0.005680 0.824377 255 178 0 0.495371
0.064923 -0.006424 0.821394 255 172 0 0.504340
0.060565 -0.005929 0.822847 255 172 0 0.504879
0.061905 -0.006689 0.819875 255 162 0 0.523545
0.057545 -0.006202 0.821314 255 172 0 0.504990
0.056194 -0.005707 0.824292 255 172 0 0.506404
0.058873 -0.006962 0.818352 255 168 0 0.513804
0.068283 -0.015273 0.811452 255 176 0 0.496965
0.067476 -0.012488 0.813522 255 172 0 0.504010
0.064618 -0.012781 0.812109 255 174 0 0.503552
0.065450 -0.015572 0.810024 255 174 0 0.500817
0.063688 -0.010372 0.814450 255 174 0 0.503869
0.061775 -0.013089 0.810693 255 174 0 0.503116
0.060828 -0.010673 0.813040 255 174 0 0.503683
0.057958 -0.010988 0.811633 255 174 0 0.503277
0.062611 -0.015886 0.808598 255 174 0 0.501884
0.058919 -0.013415 0.809289 255 174 0 0.502672
0.059757 -0.016198 0.807170 255 166 0 0.516252
0.059804 -0.008614 0.815555 255 174 0 0.503855
0.056938 -0.008939 0.814157 255 174 0 0.503605
0.062842 -0.008318 0.817069 255 172 0 0.504022
0.065866 -0.008028 0.818585 255 172 0 0.504226
0.066705 -0.010078 0.815975 255 178 0 0.493544
0.057094 -0.016480 0.805659 255 164 0 0.521385
0.056083 -0.013680 0.807723 255 174 0 0.502037
0.053427 -0.013967 0.806221 255 174 0 0.501665
0.054424 -0.016768 0.804182 255 174 0 0.500555
0.052316 -0.011502 0.808484 255 174 0 0.502532
0.050763 -0.014250 0.804748 255 166 0 0.516037
0.049664 -0.011756 0.806994 255 174 0 0.502172
0.046991 -0.012051 0.805520 255 174 0 0.501745
0.051769 -0.017080 0.802711 255 174 0 0.500390
0.048094 -0.014538 0.803292 255 174 0 0.500975
0.049107 -0.017388 0.801251 255 156 0 0.535942
0.048453 -0.009689 0.809435 255 174 0 0.502357
0.045782 -0.009958 0.807962 255 174 0 0.501967
0.051273 -0.009415 0.811000 255 174 0 0.502776
0.054098 -0.009172 0.812584 255 174 0 0.503244
0.055130 -0.011242 0.810059 255 174 0 0.502754
0.074245 -0.018203 0.812376 255 178 0 0.493525
0.077244 -0.017834 0.813766 255 166 0 0.518017
0.077236 -0.021726 0.812141 255 174 0 0.503736
0.080237 -0.017464 0.815147 255 166 0 0.517459
0.080203 -0.021406 0.813584 255 176 0 0.498876
0.083151 -0.021046 0.815016 255 158 0 0.533253
0.083197 -0.017153 0.816538 255 164 0 0.522208
0.080096 -0.025525 0.812163 255 162 0 0.525113
0.082997 -0.025281 0.813699 255 158 0 0.532268
0.082894 -0.029384 0.812308 255 184 0 0.483763
0.080191 -0.029540 0.810872 255 158 0 0.533734
0.077342 -0.025733 0.810809 255 180 0 0.491612
0.077481 -0.029713 0.809445 255 172 0 0.504742
0.074598 -0.025962 0.809460 255 162 0 0.525938
0.074438 -0.022062 0.810877 255 176 0 0.498641
0.071623 -0.022354 0.809629 255 176 0 0.498414
0.074745 -0.029966 0.808046 255 164 0 0.520281
0.071823 -0.026235 0.808148 255 182 0 0.488239
0.071987 -0.030217 0.806654 255 184 0 0.483430
0.071406 -0.018541 0.811166 255 174 0 0.501767
0.086124 -0.016985 0.817689 255 170 0 0.510233
0.089232 -0.016642 0.819027 255 162 0 0.523934
0.088934 -0.020663 0.817487 255 172 0 0.504071
0.092325 -0.016349 0.820331 255 174 0 0.501533
0.092043 -0.020366 0.818836 255 172 0 0.505618
0.091607 -0.024752 0.817611 255 168 0 0.515072
0.091363 -0.029041 0.816551 255 170 0 0.510069
0.088744 -0.024879 0.816309 255 164 0 0.523201
0.088525 -0.029183 0.815200 255 172 0 0.505027
0.085878 -0.025090 0.815019 255 164 0 0.521762
0.086050 -0.020889 0.816259 255 174 0 0.501860
0.085710 -0.029293 0.813784 255 174 0 0.502869
0.089863 -0.046455 0.811231 255 178 0 0.495223
0.090017 -0.042555 0.812642 255 220 0 0.417900
0.087437 -0.042502 0.811244 255 215 0 0.424100
0.087266 -0.046388 0.809868 255 218 0 0.419761
0.087617 -0.038296 0.812595 255 211 0 0.432576
0.084806 -0.042437 0.809883 255 158 0 0.533774
0.085026 -0.038253 0.811214 255 203 0 0.445782
0.082407 -0.038237 0.809859 255 199 0 0.453547
0.084611 -0.046352 0.808507 255 189 0 0.473879
0.082171 -0.042389 0.808515 255 197 0 0.457123
0.081895 -0.046366 0.807249 255 187 0 0.477223
0.085222 -0.033945 0.812492 255 197 0 0.460927
0.082633 -0.033923 0.811151 255 182 0 0.485883
0.088008 -0.033870 0.814018 255 166 0 0.516679
0.090781 -0.033808 0.815527 255 189 0 0.474293
0.090361 -0.038312 0.814210 233 255 15 0.333833
0.079227 -0.046491 0.805994 255 187 0 0.479028
0.079407 -0.042569 0.807020 255 222 0 0.411046
0.076775 -0.042702 0.805766 255 189 0 0.474310
0.076541 -0.046598 0.804782 255 184 0 0.480502
0.076958 -0.038536 0.806837 255 193 0 0.466110
0.074106 -0.042855 0.804581 255 197 0 0.457151
0.074344 -0.038708 0.805572 255 189 0 0.474010
0.071703 -0.038862 0.804382 255 158 0 0.531711
0.073780 -0.046808 0.803680 255 187 0 0.479201
0.071385 -0.043076 0.803465 255 187 0 0.478003
0.071000 -0.047097 0.802633 255 187 0 0.479418
0.074499 -0.034430 0.806709 255 189 0 0.473265
0.071891 -0.034609 0.805474 255 189 0 0.476043
0.077241 -0.034183 0.808151 255 191 0 0.471742
0.079942 -0.033986 0.809627 255 191 0 0.469083
0.079702 -0.038360 0.808326 255 197 0 0.458995
0.085586 -0.003139 0.850002 255 166 0 0.518667
0.082061 -0.003553 0.848183 255 164 0 0.520446
0.080863 -0.003911 0.851126 255 170 0 0.508214
0.078674 -0.003876 0.846544 255 162 0 0.524834
0.077468 -0.004135 0.849467 255 170 0 0.511409
0.074053 -0.004341 0.847867 255 164 0 0.519697
0.075262 -0.004132 0.844915 255 172 0 0.505721
0.076259 -0.004323 0.852372 255 166 0 0.516935
0.072847 -0.004442 0.850746 255 168 0 0.514561
0.071683 -0.004301 0.853519 255 170 0 0.510914
0.075150 -0.004359 0.855244 255 162 0 0.526177
0.079735 -0.004238 0.854146 255 164 0 0.520311
0.078655 -0.004388 0.857058 255 176 0 0.499269
0.083454 -0.003993 0.856115 255 162 0 0.526355
0.084508 -0.003615 0.853107 255 158 0 0.532810
0.082463 -0.004259 0.859078 255 172 0 0.505537
0.071894 -0.004305 0.843259 255 166 0 0.517021
0.068572 -0.004448 0.841637 255 166 0 0.515884
0.067267 -0.004619 0.844573 255 168 0 0.515047
0.065194 -0.004640 0.840019 255 174 0 0.500444
0.063885 -0.004730 0.842960 255 168 0 0.513902
0.060474 -0.004834 0.841301 255 168 0 0.512851
0.061776 -0.004825 0.838373 255 166 0 0.517240
0.062629 -0.004554 0.845737 255 170 0 0.509387
0.059245 -0.004594 0.844071 255 170 0 0.508499
0.058077 -0.004046 0.846675 255 162 0 0.524493
0.061517 -0.004105 0.848434 255 172 0 0.506460
0.066077 -0.004551 0.847454 255 170 0 0.510177
0.064934 -0.004176 0.850176 255 172 0 0.507660
0.069487 -0.004514 0.849122 255 168 0 0.511763
0.070682 -0.004514 0.846231 255 168 0 0.514887
0.068340 -0.004230 0.851850 255 170 0 0.508859
0.057847 -0.002079 0.855652 255 180 0 0.491155
0.061230 -0.002390 0.857486 255 176 0 0.498654
0.062405 -0.003220 0.855119 255 174 0 0.502427
0.064545 -0.002746 0.859290 255 174 0 0.502302
0.065751 -0.003494 0.856900 255 193 0 0.468110
0.069079 -0.003814 0.858665 255 172 0 0.506502
0.067852 -0.003134 0.861082 255 172 0 0.504352
0.067026 -0.004016 0.854413 255 172 0 0.506348
0.070358 -0.004237 0.856153 255 170 0 0.508349
0.063645 -0.003834 0.852707 255 172 0 0.505052
0.060243 -0.003676 0.850953 255 174 0 0.503516
0.059022 -0.002981 0.853357 255 174 0 0.501121
0.055615 -0.002803 0.851564 255 176 0 0.499724
0.056824 -0.003547 0.849172 255 174 0 0.502566
0.054449 -0.001834 0.853847 255 178 0 0.495028
0.071313 -0.003511 0.862882 255 174 0 0.502778
0.074843 -0.003886 0.864797 255 187 0 0.478238
0.076069 -0.004337 0.862280 255 170 0 0.510028
0.078753 -0.004105 0.866935 255 180 0 0.488754
0.079939 -0.004451 0.864398 255 170 0 0.509631
0.081210 -0.004510 0.861777 255 172 0 0.507275
0.077347 -0.004530 0.859730 255 176 0 0.498047
0.073828 -0.004406 0.857907 255 176 0 0.496416
0.072545 -0.004107 0.860440 255 170 0 0.508322
0.034049 -0.125753 0.861323 255 176 0 0.498820
0.035944 -0.126547 0.857944 255 180 0 0.490376
0.039529 -0.126375 0.855624 255 191 0 0.471306
0.041464 -0.126704 0.852206 255 180 0 0.488860
0.045046 -0.126286 0.849884 255 180 0 0.490401
0.041751 -0.127556 0.847686 255 178 0 0.494311
0.044850 -0.125524 0.854434 255 178 0 0.492708
0.048408 -0.125325 0.852115 255 178 0 0.494256
0.043051 -0.125206 0.857813 255 178 0 0.493398
0.041273 -0.124810 0.861142 255 178 0 0.494392
0.037696 -0.124637 0.863401 255 178 0 0.494190
0.041368 -0.123867 0.865562 255 178 0 0.495430
0.043588 -0.126725 0.844357 255 182 0 0.486360
0.046971 -0.125128 0.842077 255 170 0 0.509130
0.048778 -0.123992 0.838696 255 180 0 0.490723
0.051899 -0.123221 0.840786 255 178 0 0.493099
0.050138 -0.124193 0.844183 255 201 0 0.450745
0.048421 -0.125026 0.847577 255 180 0 0.491728
0.055154 -0.123871 0.847538 255 182 0 0.486368
0.053568 -0.124544 0.851087 255 178 0 0.493370
0.051996 -0.125163 0.854598 255 178 0 0.493880
0.055156 -0.122861 0.842886 255 178 0 0.493533
0.052138 -0.125026 0.859281 255 178 0 0.494057
0.050548 -0.124764 0.862711 255 178 0 0.494927
0.048594 -0.124640 0.861426 255 178 0 0.495052
0.048951 -0.124419 0.866096 255 182 0 0.487316
0.046967 -0.124299 0.864802 255 178 0 0.494474
0.045354 -0.123877 0.868134 255 178 0 0.495335
0.047314 -0.124105 0.869430 255 197 0 0.458817
0.044988 -0.124268 0.863520 255 178 0 0.495169
0.043372 -0.123825 0.866861 255 178 0 0.495483
0.048475 -0.124953 0.856782 255 182 0 0.487643
0.021685 -0.115708 0.883108 255 180 0 0.491878
0.025373 -0.116403 0.881009 255 180 0 0.492105
0.027099 -0.117649 0.877927 255 178 0 0.492316
0.030714 -0.119046 0.875946 255 178 0 0.492686
0.026887 -0.119688 0.873921 255 178 0 0.493043
0.030911 -0.117445 0.880051 255 178 0 0.492221
0.034541 -0.118960 0.878088 255 178 0 0.492476
0.029222 -0.116385 0.883160 255 180 0 0.492100
0.027443 -0.115634 0.886345 255 180 0 0.491708
0.028663 -0.121191 0.870845 255 178 0 0.493700
0.032272 -0.122165 0.868749 255 178 0 0.494086
0.034067 -0.123746 0.865560 255 178 0 0.494460
0.037744 -0.122846 0.867659 255 164 0 0.520554
0.036043 -0.121493 0.870793 255 178 0 0.494173
0.034336 -0.120117 0.873895 255 178 0 0.494104
0.045640 -0.123132 0.872578 255 178 0 0.494463
0.043992 -0.122163 0.875669 255 178 0 0.493400
0.041950 -0.121867 0.874419 255 178 0 0.493753
0.042318 -0.121281 0.878774 255 178 0 0.492231
0.040287 -0.120803 0.877496 255 162 0 0.524570
0.038603 -0.119901 0.880638 255 180 0 0.491914
0.040611 -0.120487 0.881898 255 187 0 0.480253
0.038230 -0.120358 0.876240 255 178 0 0.493140
0.036567 -0.119354 0.879346 255 178 0 0.492260
0.039959 -0.121492 0.873110 255 170 0 0.509902
0.041631 -0.122558 0.869965 255 164 0 0.519744
0.043650 -0.122868 0.871284 255 162 0 0.525433
0.038855 -0.119502 0.885011 255 180 0 0.490495
0.037088 -0.118691 0.888136 255 180 0 0.488988
0.035118 -0.117831 0.886866 255 178 0 0.495084
0.035230 -0.118177 0.891363 255 180 0 0.489337
0.033304 -0.117172 0.890041 255 178 0 0.495909
0.031334 -0.116413 0.888747 255 180 0 0.491836
0.033144 -0.117068 0.885530 255 180 0 0.491784
0.034878 -0.118085 0.882419 255 164 0 0.519950
0.036865 -0.118699 0.883706 255 180 0 0.491291
0.073014 -0.051190 0.803277 255 187 0 0.479556
0.075796 -0.050968 0.804336 255 182 0 0.486320
0.075082 -0.055167 0.803878 255 180 0 0.491804
0.078567 -0.050760 0.805449 255 182 0 0.486322
0.077855 -0.055006 0.804950 255 178 0 0.493810
0.080677 -0.054798 0.806016 255 153 0 0.539673
0.081304 -0.050661 0.806630 255 180 0 0.491651
0.077260 -0.059103 0.804389 255 174 0 0.500279
0.080048 -0.058940 0.805401 255 176 0 0.499995
0.079508 -0.062963 0.804831 255 160 0 0.529881
0.076906 -0.063058 0.803969 255 147 0 0.553300
0.074667 -0.059210 0.803499 255 174 0 0.500349
0.074320 -0.063149 0.803160 255 172 0 0.505995
0.072153 -0.059297 0.802600 255 174 0 0.501848
0.072544 -0.055320 0.802955 255 131 0 0.583805
0.070059 -0.055388 0.801976 255 149 0 0.548231
0.071780 -0.063213 0.802320 255 137 0 0.570496
0.069629 -0.059406 0.801714 255 174 0 0.502705
0.069283 -0.063276 0.801498 255 137 0 0.573974
0.070523 -0.051251 0.802273 255 182 0 0.487135
0.083830 -0.050727 0.807749 255 143 0 0.561510
0.086553 -0.050715 0.809006 255 187 0 0.477757
0.085794 -0.054914 0.808163 255 180 0 0.491858
0.089263 -0.050695 0.810200 255 184 0 0.483515
0.088561 -0.054876 0.809363 255 178 0 0.492773
0.087824 -0.058992 0.808448 255 149 0 0.547777
0.087325 -0.062911 0.807619 255 180 0 0.489990
0.085262 -0.058906 0.807400 255 145 0 0.556568
0.084775 -0.062859 0.806599 255 172 0 0.505541
0.082686 -0.058900 0.806368 255 158 0 0.532616
0.083315 -0.054814 0.807011 255 176 0 0.496208
0.082103 -0.062900 0.805742 255 160 0 0.529650
0.084659 -0.075530 0.807203 255 135 0 0.575809
0.081586 -0.079311 0.806570 255 160 0 0.529744
0.082874 -0.071442 0.806604 255 168 0 0.512768
0.079770 -0.075349 0.806024 255 166 0 0.517196
0.078026 -0.071257 0.805211 255 143 0 0.562305
0.076731 -0.078986 0.805546 255 164 0 0.519646
0.081116 -0.067246 0.805835 255 166 0 0.516687
0.083750 -0.067199 0.806646 255 170 0 0.508364
0.086413 -0.067162 0.807419 255 172 0 0.507205
0.085527 -0.071369 0.807300 255 172 0 0.507014
0.074812 -0.075217 0.804822 255 143 0 0.558617
0.071978 -0.078655 0.804463 255 168 0 0.513474
0.072861 -0.071305 0.803918 255 164 0 0.522545
0.070102 -0.074952 0.803548 255 141 0 0.563878
0.068224 -0.071137 0.802457 255 145 0 0.558159
0.067299 -0.078274 0.803167 255 143 0 0.559096
0.071035 -0.067337 0.802767 255 166 0 0.516439
0.073559 -0.067291 0.803541 255 168 0 0.515080
0.076151 -0.067256 0.804226 255 162 0 0.526993
0.075431 -0.071295 0.804548 255 147 0 0.551642
0.068812 -0.081961 0.804820 255 151 0 0.546116
0.070287 -0.085579 0.806293 255 149 0 0.547152
0.073517 -0.082376 0.805965 255 174 0 0.502847
0.075022 -0.086042 0.807322 255 156 0 0.538957
0.071746 -0.089167 0.807567 255 170 0 0.511603
0.073225 -0.092812 0.808585 255 168 0 0.515522
0.068817 -0.092214 0.807351 255 166 0 0.517299
0.067319 -0.088618 0.806268 255 164 0 0.521870
0.065826 -0.085068 0.804965 255 184 0 0.482657
0.064483 -0.091641 0.805936 255 166 0 0.518656
0.078164 -0.082901 0.806969 255 166 0 0.516557
0.079588 -0.086774 0.808263 255 166 0 0.516159
0.082967 -0.083338 0.807887 255 156 0 0.538077
0.078739 -0.090277 0.808851 255 168 0 0.514177
0.077795 -0.093726 0.809345 255 168 0 0.511722
0.073863 -0.103050 0.813244 255 170 0 0.508602
0.075164 -0.099943 0.811975 255 176 0 0.496661
0.070901 -0.098845 0.811081 255 168 0 0.514646
0.069692 -0.101976 0.812295 255 174 0 0.502157
0.074267 -0.096349 0.810292 255 168 0 0.514282
0.078751 -0.097349 0.811051 255 176 0 0.496731
0.065595 -0.101251 0.811294 255 168 0 0.514960
0.066601 -0.098116 0.810086 255 164 0 0.521008
0.062530 -0.097532 0.808678 255 166 0 0.519155
0.061548 -0.100642 0.810065 255 197 0 0.460676
0.065565 -0.094857 0.808033 255 166 0 0.517636
0.069905 -0.095469 0.809297 255 166 0 0.516102
0.091496 -0.139414 0.926182 255 203 0 0.446041
0.093706 -0.138340 0.927855 255 197 0 0.460613
0.092826 -0.140466 0.923767 255 199 0 0.456561
0.095005 -0.139385 0.925442 255 193 0 0.465613
0.096321 -0.140415 0.923034 255 203 0 0.447093
0.094135 -0.141488 0.921342 255 205 0 0.442380
0.097264 -0.138487 0.927192 255 201 0 0.452329
0.098559 -0.139507 0.924788 255 195 0 0.461661
0.100929 -0.138771 0.926634 255 197 0 0.460501
0.098884 -0.137277 0.930143 255 197 0 0.458359
0.095223 -0.136968 0.930700 255 191 0 0.471112
0.096947 -0.143531 0.916871 255 197 0 0.460348
0.098749 -0.141937 0.920100 255 205 0 0.442245
0.098604 -0.144804 0.913888 255 189 0 0.474711
0.100351 -0.143218 0.917121 255 193 0 0.468106
0.101995 -0.144470 0.914131 255 203 0 0.448641
0.100206 -0.146043 0.910881 255 209 0 0.435210
0.102272 -0.141821 0.920423 255 201 0 0.452504
0.103893 -0.143069 0.917442 255 195 0 0.461833
0.105882 -0.141870 0.920800 255 193 0 0.466946
0.103416 -0.140333 0.923737 255 207 0 0.441003
0.115608 -0.134212 0.930309 255 143 0 0.561671
0.111650 -0.135270 0.929255 255 139 0 0.566873
0.113574 -0.133202 0.932030 255 153 0 0.540142
0.107911 -0.136323 0.928284 255 166 0 0.516693
0.109641 -0.134248 0.930961 255 160 0 0.527681
0.105913 -0.135324 0.929985 255 178 0 0.492263
0.111549 -0.132179 0.933719 255 147 0 0.551693
0.104335 -0.137490 0.927412 255 187 0 0.480310
0.106882 -0.139042 0.924528 255 189 0 0.473324
