ply
format ascii 1.0
comment VCGLIB generated
element vertex 995
property float x
property float y
property float z
property uchar red
property uchar green
property uchar blue
property float quality
end_header
-0.170376 -0.091971 0.852494 255 205 0 0.443897
-0.168181 -0.093327 0.856256 255 143 0 0.560549
-0.170038 -0.090963 0.855030 255 205 0 0.443127
-0.169748 -0.089850 0.857558 255 205 0 0.442719
-0.167952 -0.092210 0.858686 255 205 0 0.443028
-0.171961 -0.088642 0.853774 255 205 0 0.441750
-0.171653 -0.087550 0.856365 255 207 0 0.440851
-0.172358 -0.089096 0.851649 255 205 0 0.443423
-0.172785 -0.089451 0.849530 255 203 0 0.445342
-0.170692 -0.092357 0.850389 255 203 0 0.445883
-0.171070 -0.092608 0.848403 255 203 0 0.447812
-0.173218 -0.089680 0.847342 255 203 0 0.447250
-0.168971 -0.095441 0.849261 255 203 0 0.448089
-0.167845 -0.090691 0.862327 255 205 0 0.443516
-0.169705 -0.088398 0.861285 255 207 0 0.438362
-0.169708 -0.086924 0.865062 255 205 0 0.443977
-0.167955 -0.089191 0.866167 255 205 0 0.444795
-0.171504 -0.085445 0.862034 255 222 0 0.412047
-0.125218 -0.033897 0.975377 255 222 0 0.412728
-0.127440 -0.035980 0.970994 255 211 0 0.429982
-0.128703 -0.039018 0.966803 255 213 0 0.429642
-0.130412 -0.037041 0.966559 255 211 0 0.429696
-0.125967 -0.038267 0.970733 255 213 0 0.429642
-0.127125 -0.041168 0.966879 255 207 0 0.440052
-0.123791 -0.036191 0.974971 255 236 0 0.384198
-0.122152 -0.042582 0.970229 255 213 0 0.429352
-0.120308 -0.040893 0.973667 255 211 0 0.430278
-0.122189 -0.038616 0.974216 255 211 0 0.430485
-0.124211 -0.040409 0.970402 255 197 0 0.459428
-0.125045 -0.043193 0.966702 255 213 0 0.429098
-0.153331 -0.061850 0.918260 255 207 0 0.440869
-0.153470 -0.059507 0.920195 255 207 0 0.440239
-0.152673 -0.058514 0.922403 255 207 0 0.439961
-0.152696 -0.056273 0.924131 255 207 0 0.439491
-0.150817 -0.058816 0.924971 255 207 0 0.438723
-0.154655 -0.056009 0.921568 255 207 0 0.440046
-0.154763 -0.053775 0.923256 255 193 0 0.465791
-0.155648 -0.056964 0.919270 255 199 0 0.455326
-0.156676 -0.057898 0.916735 255 207 0 0.441275
-0.156530 -0.060260 0.914741 255 205 0 0.442759
-0.159065 -0.057578 0.913542 255 201 0 0.452651
-0.149749 -0.057781 0.927482 255 207 0 0.438316
-0.149463 -0.055548 0.929425 255 207 0 0.438183
-0.148141 -0.054231 0.931974 255 209 0 0.437290
-0.147341 -0.051318 0.934668 255 209 0 0.434777
-0.145820 -0.053560 0.935617 255 209 0 0.434846
-0.149734 -0.051911 0.931127 255 209 0 0.436713
-0.148901 -0.049090 0.933692 255 184 0 0.481427
-0.151165 -0.053108 0.928628 255 207 0 0.437550
-0.152483 -0.054079 0.926191 255 207 0 0.438773
-0.150639 -0.044223 0.932143 255 211 0 0.433405
-0.152613 -0.045547 0.929034 255 174 0 0.501870
-0.153749 -0.047851 0.926947 255 209 0 0.436663
-0.155366 -0.048655 0.924504 255 207 0 0.438585
-0.156183 -0.050881 0.922450 255 207 0 0.439725
-0.157616 -0.047969 0.921506 255 207 0 0.439928
-0.153998 -0.051519 0.925440 255 158 0 0.533574
-0.152589 -0.050517 0.927795 255 207 0 0.437717
-0.151090 -0.049440 0.930277 255 209 0 0.436923
-0.149773 -0.046644 0.932912 255 209 0 0.434628
-0.159025 -0.048699 0.919218 255 207 0 0.441260
-0.159419 -0.051117 0.917289 255 191 0 0.470611
-0.160752 -0.051923 0.914564 255 205 0 0.441602
-0.161054 -0.054415 0.912330 255 184 0 0.481898
-0.163109 -0.051182 0.911082 255 205 0 0.442249
-0.158810 -0.055132 0.915687 255 205 0 0.441634
-0.157628 -0.054167 0.918342 255 205 0 0.441421
-0.156578 -0.053211 0.920694 255 207 0 0.440499
-0.133930 -0.028664 0.965702 255 211 0 0.431013
-0.131571 -0.026365 0.970702 255 178 0 0.493948
-0.131694 -0.023334 0.970290 255 209 0 0.434198
-0.134058 -0.026552 0.965405 255 211 0 0.431024
-0.134192 -0.024611 0.964982 255 209 0 0.436534
-0.130865 -0.018611 0.970570 255 211 0 0.430803
-0.133644 -0.022302 0.964969 255 211 0 0.430945
-0.131475 -0.021019 0.970369 255 211 0 0.430544
-0.130969 -0.028565 0.970842 255 193 0 0.467624
-0.133278 -0.030725 0.965963 255 211 0 0.430506
-0.132703 -0.032918 0.966078 255 213 0 0.429325
-0.130366 -0.030714 0.970983 255 211 0 0.430250
-0.127861 -0.028277 0.976120 255 211 0 0.431082
-0.128780 -0.033911 0.971013 255 228 0 0.402189
-0.126451 -0.031623 0.975733 255 213 0 0.426543
-0.131523 -0.034944 0.966324 255 211 0 0.430217
-0.148396 -0.042074 0.936570 255 211 0 0.430671
-0.146337 -0.038614 0.940974 255 211 0 0.429928
-0.144340 -0.036637 0.945169 255 211 0 0.430341
-0.142460 -0.033909 0.948492 255 211 0 0.430572
-0.142348 -0.036006 0.949116 255 211 0 0.430614
-0.144513 -0.034581 0.944440 255 211 0 0.430534
-0.142655 -0.031790 0.947954 255 174 0 0.500108
-0.146468 -0.036376 0.940312 255 213 0 0.429170
-0.148579 -0.038491 0.935615 255 201 0 0.452619
-0.150807 -0.041690 0.931457 255 211 0 0.431958
-0.151043 -0.039263 0.930640 255 211 0 0.430776
-0.140367 -0.034297 0.952863 255 211 0 0.431087
-0.138396 -0.031492 0.956635 255 174 0 0.500538
-0.136271 -0.029668 0.960837 255 211 0 0.431441
-0.136447 -0.027701 0.960370 255 211 0 0.431314
-0.138554 -0.029411 0.956202 255 207 0 0.440380
-0.140589 -0.031109 0.952158 255 211 0 0.431386
-0.135801 -0.023269 0.959875 255 176 0 0.499983
-0.138212 -0.026247 0.955526 255 211 0 0.431354
-0.139967 -0.026814 0.951198 255 180 0 0.490710
-0.142140 -0.029568 0.947447 255 211 0 0.430429
-0.140478 -0.029069 0.951599 255 211 0 0.431236
-0.136251 -0.025499 0.960080 255 211 0 0.431570
-0.143916 -0.030101 0.943204 255 213 0 0.429337
-0.146121 -0.032938 0.939433 255 213 0 0.429118
-0.147828 -0.033578 0.934679 255 213 0 0.427081
-0.150407 -0.036682 0.930111 255 213 0 0.429499
-0.148422 -0.036137 0.935015 255 213 0 0.428120
-0.144344 -0.032333 0.943781 255 213 0 0.429572
-0.132487 -0.038930 0.962544 255 211 0 0.429717
-0.133554 -0.041586 0.959207 255 213 0 0.429565
-0.135561 -0.043374 0.955590 255 213 0 0.429597
-0.136574 -0.046002 0.952568 255 213 0 0.429263
-0.138489 -0.044213 0.951696 255 211 0 0.429709
-0.133720 -0.045255 0.956325 255 213 0 0.429186
-0.134760 -0.047967 0.953280 255 213 0 0.428935
-0.131815 -0.043604 0.959633 255 213 0 0.429334
-0.129908 -0.041922 0.963048 255 220 0 0.417156
-0.140400 -0.045975 0.948380 255 195 0 0.463236
-0.141235 -0.048732 0.945440 255 172 0 0.507508
-0.142905 -0.051495 0.941027 255 211 0 0.431579
-0.143642 -0.055230 0.936979 255 209 0 0.434631
-0.140913 -0.052941 0.942604 255 168 0 0.512805
-0.141533 -0.056995 0.938303 255 209 0 0.434267
-0.139282 -0.050549 0.946541 247 246 1 0.365946
-0.137515 -0.048742 0.949758 255 211 0 0.429866
-0.136081 -0.055769 0.945112 255 211 0 0.431479
-0.134429 -0.053876 0.948408 255 222 0 0.410174
-0.133987 -0.051252 0.951112 255 222 0 0.413605
-0.132245 -0.049543 0.954073 255 213 0 0.429104
-0.137019 -0.052270 0.947505 255 211 0 0.430453
-0.138701 -0.054339 0.943911 255 224 0 0.409812
-0.138875 -0.057923 0.940047 255 174 0 0.503361
-0.129259 -0.048882 0.957415 255 213 0 0.428952
-0.127507 -0.047352 0.960357 255 222 0 0.413354
-0.126864 -0.044832 0.963363 255 213 0 0.428740
-0.129749 -0.045450 0.960159 255 213 0 0.429164
-0.131611 -0.047072 0.956889 255 213 0 0.429035
-0.135875 -0.031782 0.961245 255 211 0 0.431023
-0.137993 -0.033619 0.957046 255 211 0 0.431260
-0.139695 -0.036392 0.953383 255 211 0 0.432957
-0.141652 -0.038068 0.949692 255 211 0 0.431139
-0.141015 -0.040147 0.950319 255 211 0 0.430680
-0.139022 -0.038444 0.953910 251 242 0 0.374350
-0.137290 -0.035699 0.957528 249 244 0 0.370007
-0.135199 -0.033824 0.961568 255 211 0 0.431213
-0.143933 -0.038790 0.945788 255 211 0 0.430645
-0.145852 -0.040746 0.941867 255 211 0 0.430216
-0.147578 -0.044364 0.937437 255 211 0 0.431092
-0.146762 -0.046663 0.938242 255 211 0 0.432079
-0.145160 -0.042887 0.942605 255 195 0 0.463707
-0.143267 -0.040851 0.946430 255 211 0 0.430506
-0.144613 -0.049736 0.939880 255 211 0 0.432205
-0.142849 -0.046901 0.944458 255 178 0 0.493034
-0.141668 -0.043914 0.947619 255 189 0 0.474911
-0.139741 -0.042161 0.950985 255 211 0 0.430175
-0.144144 -0.044907 0.943526 255 211 0 0.431292
-0.137118 -0.041475 0.954936 255 211 0 0.430051
-0.135088 -0.039688 0.958574 255 215 0 0.424935
-0.133642 -0.036863 0.962199 255 211 0 0.430113
-0.136320 -0.037711 0.958038 255 211 0 0.430565
-0.146272 -0.056392 0.932965 255 209 0 0.436812
-0.147533 -0.057687 0.930347 255 209 0 0.437201
-0.147538 -0.059814 0.928438 255 170 0 0.509600
-0.148565 -0.060901 0.925896 255 207 0 0.439038
-0.146353 -0.063047 0.926818 255 207 0 0.439551
-0.145350 -0.061943 0.929314 255 207 0 0.438500
-0.145325 -0.059715 0.931396 255 209 0 0.437256
-0.144048 -0.058218 0.934171 255 209 0 0.436648
-0.150459 -0.060866 0.923288 255 207 0 0.439123
-0.151249 -0.061852 0.921078 255 207 0 0.440053
-0.150786 -0.064009 0.919228 255 205 0 0.441634
-0.148356 -0.066208 0.920170 255 222 0 0.413676
-0.148862 -0.064025 0.922036 255 207 0 0.439996
-0.148167 -0.062965 0.924232 255 207 0 0.440093
-0.143914 -0.068759 0.921428 255 205 0 0.442415
-0.144776 -0.066795 0.923367 255 207 0 0.441406
-0.144177 -0.065705 0.925604 255 207 0 0.440388
-0.143585 -0.064632 0.927801 255 207 0 0.439906
-0.141196 -0.064341 0.930913 255 207 0 0.438634
-0.140080 -0.063009 0.933650 255 207 0 0.437644
-0.140184 -0.060522 0.936127 255 172 0 0.505870
-0.142846 -0.061469 0.932414 255 207 0 0.437901
-0.159383 -0.073538 0.901853 255 201 0 0.452372
-0.162023 -0.073341 0.899467 255 201 0 0.452394
-0.158025 -0.076018 0.901402 255 201 0 0.452586
-0.160618 -0.075750 0.899072 255 199 0 0.453300
-0.159240 -0.078152 0.898714 255 199 0 0.453269
-0.163318 -0.075440 0.896628 255 137 0 0.573729
-0.156644 -0.078500 0.900996 255 168 0 0.513996
-0.155246 -0.080965 0.900613 255 201 0 0.450623
-0.154286 -0.078661 0.903133 255 201 0 0.450592
-0.161714 -0.077897 0.896381 255 199 0 0.453846
-0.164257 -0.077449 0.893946 255 201 0 0.452970
-0.160060 -0.080334 0.896222 255 201 0 0.452996
-0.162563 -0.079862 0.893784 255 201 0 0.452891
-0.160857 -0.082250 0.893659 255 201 0 0.452173
-0.165116 -0.079307 0.891293 255 201 0 0.452467
-0.158413 -0.082727 0.895992 255 201 0 0.451343
-0.156701 -0.085121 0.895759 255 201 0 0.449961
-0.156008 -0.083091 0.898199 255 201 0 0.450536
-0.157680 -0.080659 0.898418 255 201 0 0.452096
-0.149250 -0.086560 0.899977 255 203 0 0.448419
-0.151283 -0.084762 0.900219 255 218 0 0.418815
-0.148728 -0.084471 0.902175 255 203 0 0.448199
-0.150703 -0.082551 0.902466 255 201 0 0.449536
-0.153261 -0.082835 0.900472 255 201 0 0.449486
-0.153987 -0.084927 0.898058 255 215 0 0.425664
-0.151956 -0.086780 0.897883 255 201 0 0.449495
-0.147730 -0.081041 0.905645 255 207 0 0.440479
-0.149494 -0.079112 0.906080 255 201 0 0.449328
-0.152063 -0.079426 0.904022 255 201 0 0.450371
-0.162193 -0.048750 0.913431 255 207 0 0.441213
-0.160809 -0.047892 0.916209 255 205 0 0.441803
-0.159802 -0.045592 0.918217 255 189 0 0.476119
-0.158310 -0.044938 0.920523 255 207 0 0.438860
-0.158957 -0.041916 0.919511 255 207 0 0.437847
-0.160543 -0.042323 0.917057 255 197 0 0.460413
-0.161709 -0.044599 0.915041 255 207 0 0.441243
-0.163249 -0.045209 0.912180 255 207 0 0.441082
-0.164265 -0.047686 0.909755 255 180 0 0.490417
-0.165391 -0.044162 0.908427 255 178 0 0.492206
-0.156261 -0.045896 0.923668 255 207 0 0.438908
-0.154544 -0.045184 0.926053 255 209 0 0.436840
-0.152859 -0.042983 0.928259 255 209 0 0.434551
-0.153174 -0.040324 0.927346 255 211 0 0.432793
-0.154963 -0.042428 0.925150 255 182 0 0.487767
-0.156820 -0.042967 0.922608 255 174 0 0.502737
-0.152403 -0.036489 0.926235 255 211 0 0.429774
-0.154772 -0.038342 0.923878 255 211 0 0.433383
-0.156550 -0.037130 0.920728 255 178 0 0.494288
-0.158668 -0.038876 0.918571 255 209 0 0.436748
-0.156927 -0.040092 0.921729 255 203 0 0.446215
-0.160232 -0.037664 0.915674 255 209 0 0.436901
-0.162022 -0.039631 0.913520 255 207 0 0.438751
-0.163626 -0.038273 0.909977 255 207 0 0.439503
-0.165367 -0.040561 0.907322 255 207 0 0.440259
-0.163736 -0.041805 0.911112 255 178 0 0.494148
-0.177087 -0.040424 0.876147 255 205 0 0.442387
-0.177640 -0.042166 0.878048 255 213 0 0.428498
-0.176100 -0.039821 0.879557 255 172 0 0.505492
-0.174583 -0.037483 0.881056 255 215 0 0.424448
-0.176623 -0.041592 0.881421 255 205 0 0.443657
-0.173947 -0.035754 0.879144 255 205 0 0.442118
-0.172294 -0.033450 0.880717 255 205 0 0.441740
-0.175065 -0.039398 0.882928 255 205 0 0.443158
-0.175219 -0.040990 0.884952 255 205 0 0.442684
-0.173410 -0.037197 0.884525 255 205 0 0.442469
-0.173638 -0.038777 0.886543 255 189 0 0.475743
-0.172027 -0.036525 0.888189 255 191 0 0.469621
-0.173756 -0.040342 0.888546 255 205 0 0.442248
-0.171778 -0.034994 0.886092 255 213 0 0.428528
-0.170134 -0.032737 0.887730 255 207 0 0.440986
-0.171236 -0.033134 0.884185 255 205 0 0.441759
-0.172895 -0.035340 0.882605 255 205 0 0.442055
-0.166118 -0.028141 0.886867 255 178 0 0.492233
-0.168178 -0.029911 0.884809 255 207 0 0.440273
-0.167263 -0.028386 0.881918 255 207 0 0.440870
-0.171240 -0.032091 0.877952 255 207 0 0.441123
-0.169262 -0.030234 0.879877 255 207 0 0.441023
-0.162998 -0.053670 0.909669 255 176 0 0.496233
-0.165059 -0.052707 0.906912 255 205 0 0.441637
-0.162959 -0.056083 0.908266 255 205 0 0.442253
-0.165012 -0.055191 0.905404 255 220 0 0.417869
-0.165071 -0.057640 0.904018 255 205 0 0.442435
-0.167265 -0.054392 0.902440 255 207 0 0.440445
-0.162880 -0.058555 0.906860 255 205 0 0.443156
-0.162939 -0.061000 0.905555 255 205 0 0.444682
-0.160884 -0.059237 0.909558 255 224 0 0.407375
-0.160939 -0.056788 0.910953 255 201 0 0.450138
-0.167004 -0.056795 0.901545 255 205 0 0.442406
-0.168968 -0.055875 0.899100 255 114 0 0.615959
-0.166805 -0.059266 0.900671 255 205 0 0.444240
-0.168819 -0.058344 0.898235 255 205 0 0.442627
-0.168706 -0.060808 0.897397 255 203 0 0.445477
-0.170885 -0.057382 0.895757 255 205 0 0.441905
-0.166725 -0.061804 0.899857 255 203 0 0.447227
-0.166635 -0.064453 0.899049 255 203 0 0.447803
-0.164669 -0.062638 0.902329 255 203 0 0.445550
-0.164822 -0.060082 0.903169 255 205 0 0.444658
-0.161253 -0.068347 0.903078 255 195 0 0.462859
-0.161748 -0.065720 0.903931 255 203 0 0.448435
-0.160177 -0.063845 0.907018 249 244 0 0.368296
-0.162287 -0.063284 0.904718 255 203 0 0.446273
-0.164129 -0.065055 0.901511 255 203 0 0.448972
-0.163617 -0.067597 0.900742 255 201 0 0.450842
-0.156957 -0.063438 0.911470 255 205 0 0.443993
-0.158646 -0.059773 0.912169 255 205 0 0.443003
-0.160500 -0.061499 0.908274 255 205 0 0.445097
-0.168163 -0.087758 0.869264 255 228 0 0.401277
-0.166480 -0.089904 0.870512 255 203 0 0.447643
-0.169877 -0.085544 0.868139 255 203 0 0.445976
-0.170109 -0.084156 0.871256 255 203 0 0.448426
-0.168384 -0.086290 0.872579 255 168 0 0.512526
-0.166736 -0.088459 0.873820 255 201 0 0.449662
-0.171704 -0.082763 0.868464 255 203 0 0.445587
-0.173588 -0.079999 0.868727 225 255 22 0.319066
-0.173428 -0.081246 0.865706 255 207 0 0.440336
-0.171579 -0.084004 0.865385 255 205 0 0.443020
-0.168378 -0.084944 0.875440 255 201 0 0.450432
-0.166759 -0.087043 0.876735 255 228 0 0.399658
-0.170135 -0.082800 0.874154 225 255 22 0.316809
-0.170127 -0.081531 0.877048 255 201 0 0.451524
-0.168413 -0.083571 0.878405 233 255 15 0.335195
-0.166704 -0.085674 0.879780 255 201 0 0.449586
-0.171908 -0.080128 0.874249 255 203 0 0.448414
-0.173746 -0.077538 0.874369 255 203 0 0.448589
-0.173700 -0.078696 0.871485 255 205 0 0.444938
-0.171857 -0.081378 0.871383 255 203 0 0.446696
-0.179322 -0.068216 0.869575 255 209 0 0.436678
-0.177877 -0.071049 0.869316 255 205 0 0.442518
-0.179237 -0.069150 0.866714 255 207 0 0.437919
-0.176401 -0.073950 0.869119 255 205 0 0.442635
-0.177692 -0.072077 0.866578 255 211 0 0.430804
-0.176206 -0.075023 0.866476 255 207 0 0.439431
-0.179030 -0.070117 0.864172 254 238 0 0.380445
-0.174949 -0.076922 0.868967 255 205 0 0.441776
-0.175027 -0.075728 0.871722 255 205 0 0.445290
-0.176467 -0.072784 0.871957 255 203 0 0.446159
-0.177542 -0.073045 0.863874 255 209 0 0.435890
-0.178636 -0.071095 0.861345 255 211 0 0.432828
-0.176022 -0.076160 0.863561 255 209 0 0.436799
-0.177200 -0.074174 0.861053 255 209 0 0.434643
-0.174680 -0.079270 0.863184 255 207 0 0.438292
-0.174701 -0.078100 0.866121 255 207 0 0.439108
-0.177058 -0.063155 0.882548 255 203 0 0.448699
-0.177198 -0.060200 0.883145 255 203 0 0.448676
-0.175809 -0.061788 0.885889 255 201 0 0.449469
-0.177340 -0.057183 0.883713 255 207 0 0.440940
-0.175820 -0.058812 0.886526 255 89 0 0.663968
-0.175814 -0.055788 0.887143 255 203 0 0.445557
-0.174397 -0.060370 0.889257 255 203 0 0.448704
-0.177284 -0.054182 0.884325 255 222 0 0.412047
-0.177190 -0.051158 0.884900 255 218 0 0.421546
-0.178651 -0.052176 0.881358 255 205 0 0.444737
-0.178688 -0.055178 0.880834 255 203 0 0.447499
-0.178586 -0.058198 0.880324 255 203 0 0.446766
-0.179912 -0.053177 0.877983 255 203 0 0.445360
-0.174261 -0.057576 0.889851 255 205 0 0.443757
-0.172621 -0.058862 0.892500 255 205 0 0.443325
-0.174072 -0.054741 0.890480 255 205 0 0.443039
-0.172401 -0.056076 0.893155 255 205 0 0.442263
-0.172291 -0.053286 0.893840 255 207 0 0.440723
-0.173850 -0.051894 0.891181 255 205 0 0.441884
-0.173699 -0.049024 0.891882 255 205 0 0.441507
-0.175417 -0.050116 0.888417 255 205 0 0.442587
-0.175618 -0.052982 0.887766 255 205 0 0.443775
-0.174715 -0.043012 0.887579 255 205 0 0.442607
-0.175600 -0.045720 0.886671 255 205 0 0.442797
-0.176171 -0.043656 0.884042 255 218 0 0.419187
-0.177075 -0.046363 0.883174 255 205 0 0.443546
-0.176429 -0.048438 0.885739 255 205 0 0.444046
-0.174673 -0.047399 0.889321 255 205 0 0.442350
-0.173835 -0.044653 0.890304 255 205 0 0.441990
-0.177555 -0.044482 0.880512 255 205 0 0.443337
-0.178474 -0.047396 0.879561 255 205 0 0.443837
-0.178650 -0.045089 0.877073 255 205 0 0.443068
-0.179580 -0.047973 0.876196 255 205 0 0.442904
-0.179303 -0.050281 0.878711 255 205 0 0.444686
-0.177921 -0.049271 0.882218 255 205 0 0.444398
-0.166382 -0.029307 0.890291 255 220 0 0.415595
-0.168540 -0.032315 0.891715 255 207 0 0.440200
-0.166361 -0.030471 0.893931 255 207 0 0.438622
-0.164436 -0.028832 0.895855 255 201 0 0.451378
-0.164307 -0.027613 0.892402 255 174 0 0.502034
-0.170201 -0.035778 0.892198 255 213 0 0.427614
-0.171964 -0.038072 0.890366 255 205 0 0.442104
-0.171854 -0.039618 0.892522 255 205 0 0.441895
-0.170163 -0.037325 0.894364 255 207 0 0.440980
-0.170077 -0.038848 0.896510 255 207 0 0.441224
-0.167856 -0.033541 0.895839 255 207 0 0.440001
-0.165631 -0.035676 0.903768 255 207 0 0.438234
-0.166096 -0.034332 0.901135 255 207 0 0.438564
-0.164277 -0.032397 0.903244 255 189 0 0.472967
-0.164650 -0.031079 0.900637 255 207 0 0.437663
-0.168081 -0.036578 0.898852 255 207 0 0.439424
-0.167499 -0.037841 0.901615 255 207 0 0.439563
-0.162342 -0.029411 0.902910 255 209 0 0.436868
-0.162193 -0.028253 0.900659 255 209 0 0.436165
-0.160116 -0.026811 0.902683 255 207 0 0.439497
-0.162025 -0.027134 0.898382 255 197 0 0.459726
-0.164554 -0.029987 0.898255 255 207 0 0.437867
-0.166429 -0.039374 0.904630 255 207 0 0.439929
-0.167627 -0.041798 0.902877 255 207 0 0.440824
-0.168812 -0.040334 0.899768 255 207 0 0.440439
-0.170098 -0.042788 0.897890 255 207 0 0.440570
-0.168811 -0.044240 0.901092 255 153 0 0.541223
-0.170023 -0.046704 0.899222 255 207 0 0.441147
-0.167615 -0.045411 0.903918 255 207 0 0.441179
-0.166510 -0.042970 0.905683 255 207 0 0.440832
-0.171031 -0.041367 0.895320 255 207 0 0.440567
-0.171943 -0.043895 0.894158 255 205 0 0.441663
-0.172876 -0.042124 0.891395 255 205 0 0.441557
-0.172814 -0.046472 0.893013 255 205 0 0.441620
-0.171748 -0.047884 0.895613 255 207 0 0.440642
-0.170942 -0.045303 0.896712 255 207 0 0.441115
-0.170645 -0.054772 0.896506 255 199 0 0.455960
-0.170439 -0.052121 0.897375 255 207 0 0.441054
-0.168799 -0.053262 0.899943 255 207 0 0.440646
-0.168679 -0.050632 0.900841 255 218 0 0.418078
-0.170220 -0.049435 0.898317 255 207 0 0.440652
-0.172036 -0.050603 0.894676 255 162 0 0.523924
-0.166764 -0.051793 0.904013 255 205 0 0.441727
-0.166364 -0.049265 0.905484 255 207 0 0.441356
-0.164630 -0.050197 0.908342 255 205 0 0.441680
-0.165900 -0.046730 0.906940 255 207 0 0.441089
-0.168164 -0.048026 0.902402 255 207 0 0.441248
-0.175774 -0.065197 0.883596 255 201 0 0.450402
-0.173933 -0.066543 0.886235 255 201 0 0.450258
-0.172645 -0.068706 0.887295 255 201 0 0.452472
-0.170920 -0.070069 0.889843 255 201 0 0.452849
-0.171941 -0.071747 0.886886 255 201 0 0.452605
-0.171561 -0.066985 0.890313 255 201 0 0.452129
-0.169773 -0.068251 0.892903 255 201 0 0.451725
-0.172045 -0.064197 0.891041 255 201 0 0.449294
-0.173885 -0.062989 0.888488 255 203 0 0.448625
-0.169733 -0.072700 0.889311 255 199 0 0.453901
-0.168459 -0.075417 0.889108 255 199 0 0.454504
-0.167535 -0.073640 0.891842 255 199 0 0.455429
-0.166318 -0.076465 0.891547 255 199 0 0.454057
-0.165369 -0.074592 0.894251 255 189 0 0.473587
-0.166455 -0.071787 0.894798 255 199 0 0.453685
-0.168671 -0.070938 0.892272 255 201 0 0.452988
-0.162866 -0.070492 0.900019 255 201 0 0.452474
-0.165076 -0.069670 0.897716 255 201 0 0.452743
-0.165852 -0.066984 0.898377 255 201 0 0.449781
-0.168213 -0.066333 0.895960 255 201 0 0.449479
-0.167413 -0.068977 0.895308 255 201 0 0.452016
-0.164200 -0.072668 0.897118 255 201 0 0.453093
-0.168499 -0.063409 0.896578 255 203 0 0.448775
-0.170394 -0.062367 0.894168 255 203 0 0.448472
-0.170620 -0.059847 0.894944 255 205 0 0.444489
-0.172320 -0.061368 0.891735 255 203 0 0.447724
-0.170101 -0.065274 0.893538 255 201 0 0.450617
-0.180160 -0.064910 0.869827 255 207 0 0.440790
-0.179132 -0.067041 0.872613 255 205 0 0.444180
-0.180809 -0.061640 0.870173 255 207 0 0.440653
-0.179811 -0.063809 0.872966 255 205 0 0.443550
-0.180314 -0.060492 0.873417 255 205 0 0.443143
-0.178729 -0.065863 0.875871 255 222 0 0.413960
-0.181311 -0.058348 0.870539 255 207 0 0.440538
-0.181629 -0.055074 0.871034 255 207 0 0.440986
-0.182095 -0.055933 0.867819 255 207 0 0.438298
-0.181682 -0.059220 0.867447 255 211 0 0.431403
-0.181017 -0.062528 0.867120 255 209 0 0.437056
-0.182374 -0.056829 0.864747 255 209 0 0.435975
-0.179198 -0.062701 0.876282 255 203 0 0.446238
-0.177952 -0.064594 0.879119 255 203 0 0.448195
-0.179547 -0.059560 0.876805 255 203 0 0.446139
-0.178338 -0.061403 0.879676 255 203 0 0.448103
-0.179787 -0.056358 0.877372 255 203 0 0.445592
-0.180785 -0.054190 0.874473 255 205 0 0.443874
-0.180587 -0.057303 0.873877 255 205 0 0.443348
-0.179673 -0.045870 0.873585 255 205 0 0.442183
-0.180484 -0.048984 0.872641 255 205 0 0.441967
-0.180373 -0.046486 0.870248 255 195 0 0.463195
-0.181153 -0.049525 0.869443 255 207 0 0.440892
-0.181161 -0.052047 0.871817 255 211 0 0.433222
-0.180248 -0.051107 0.875270 255 205 0 0.443510
-0.180935 -0.047229 0.867023 255 207 0 0.439513
-0.181610 -0.050409 0.866186 255 218 0 0.420641
-0.181190 -0.047827 0.863879 255 209 0 0.437397
-0.181833 -0.050929 0.863057 255 209 0 0.435862
-0.182120 -0.053593 0.865376 255 209 0 0.436650
-0.181725 -0.052746 0.868579 255 207 0 0.439969
-0.163282 -0.081671 0.891192 255 201 0 0.452756
-0.165698 -0.080993 0.888568 255 199 0 0.453681
-0.161421 -0.084091 0.891050 255 201 0 0.451733
-0.163796 -0.083425 0.888438 255 201 0 0.452312
-0.161862 -0.085843 0.888352 255 201 0 0.451234
-0.166199 -0.082684 0.885720 255 201 0 0.452767
-0.159577 -0.086489 0.890874 255 201 0 0.450942
-0.157737 -0.088815 0.890584 255 201 0 0.449353
-0.157256 -0.087020 0.893174 255 201 0 0.450254
-0.159044 -0.084650 0.893462 255 201 0 0.451265
-0.164159 -0.085048 0.885707 255 201 0 0.452128
-0.166486 -0.084173 0.882783 255 201 0 0.452314
-0.162098 -0.087425 0.885628 255 201 0 0.451679
-0.164419 -0.086568 0.882695 255 201 0 0.452370
-0.162359 -0.088969 0.882661 255 201 0 0.451452
-0.160127 -0.089774 0.885440 255 201 0 0.450509
-0.158189 -0.092059 0.885206 255 201 0 0.449620
-0.157953 -0.090472 0.887922 255 201 0 0.449330
-0.159941 -0.088162 0.888134 255 197 0 0.458433
-0.150817 -0.093621 0.890662 255 203 0 0.448562
-0.153043 -0.092079 0.890683 255 203 0 0.449076
-0.150692 -0.091982 0.893038 255 203 0 0.448616
-0.152938 -0.090418 0.893035 255 201 0 0.449323
-0.155357 -0.090478 0.890631 255 203 0 0.449005
-0.155585 -0.092114 0.887949 255 180 0 0.490888
-0.153260 -0.093700 0.888020 255 203 0 0.448666
-0.150325 -0.090307 0.895444 255 203 0 0.448474
-0.152430 -0.088652 0.895545 255 203 0 0.448848
-0.149856 -0.088514 0.897695 255 203 0 0.448104
-0.154574 -0.086903 0.895670 255 201 0 0.449605
-0.155053 -0.088771 0.893130 255 201 0 0.449549
-0.176614 -0.066709 0.880287 255 201 0 0.450555
-0.175234 -0.068946 0.881525 255 213 0 0.426518
-0.175999 -0.070275 0.878166 255 201 0 0.451431
-0.177384 -0.068030 0.876998 255 228 0 0.401227
-0.174321 -0.071915 0.881029 243 251 4 0.357456
-0.173298 -0.074910 0.880617 255 201 0 0.452752
-0.172701 -0.073357 0.883725 255 199 0 0.453688
-0.173599 -0.070342 0.884176 255 201 0 0.451842
-0.177708 -0.069306 0.873796 255 218 0 0.418937
-0.176364 -0.071605 0.874993 255 203 0 0.448911
-0.175040 -0.074575 0.874641 255 203 0 0.448740
-0.173602 -0.076279 0.877369 255 201 0 0.451376
-0.174791 -0.073285 0.877738 243 251 4 0.358124
-0.168203 -0.082127 0.881454 255 199 0 0.453549
-0.169952 -0.080200 0.880201 255 201 0 0.452958
-0.169638 -0.078687 0.883210 220 255 28 0.308223
-0.167913 -0.080646 0.884469 255 199 0 0.454412
-0.171612 -0.077510 0.880367 255 201 0 0.452768
-0.171840 -0.078863 0.877201 255 201 0 0.451080
-0.169076 -0.077131 0.886264 255 199 0 0.455071
-0.167069 -0.078182 0.888831 255 199 0 0.455292
-0.170507 -0.074462 0.886525 255 199 0 0.454204
-0.171149 -0.076002 0.883438 255 199 0 0.453725
-0.164477 -0.088088 0.879906 255 201 0 0.451605
-0.162220 -0.090510 0.879948 255 201 0 0.451480
-0.164537 -0.089490 0.876765 255 201 0 0.452090
-0.162273 -0.091925 0.876778 255 201 0 0.450495
-0.160026 -0.092846 0.879879 255 201 0 0.450253
-0.157820 -0.095147 0.879798 255 203 0 0.449003
-0.158021 -0.093595 0.882526 255 201 0 0.449269
-0.160185 -0.091331 0.882634 255 201 0 0.450566
-0.164201 -0.091041 0.873756 249 244 0 0.370449
-0.161650 -0.093605 0.873653 255 201 0 0.451055
-0.164000 -0.092478 0.870416 255 203 0 0.449155
-0.159155 -0.096084 0.873571 255 201 0 0.450052
-0.157290 -0.096777 0.876550 255 201 0 0.449350
-0.159733 -0.094393 0.876696 207 255 40 0.280772
-0.149191 -0.099155 0.882161 255 201 0 0.449810
-0.151698 -0.098477 0.880488 255 201 0 0.449949
-0.152692 -0.096689 0.883182 255 201 0 0.449347
-0.150142 -0.097399 0.884797 255 203 0 0.448823
-0.154713 -0.096850 0.880199 255 201 0 0.449429
-0.154205 -0.098462 0.876960 255 201 0 0.450911
-0.150410 -0.095887 0.887268 255 203 0 0.448881
-0.155475 -0.093680 0.885513 255 201 0 0.449645
-0.155338 -0.095178 0.882859 255 201 0 0.449359
-0.179548 -0.068022 0.860017 255 211 0 0.431122
-0.180374 -0.064961 0.858782 255 213 0 0.429035
-0.180717 -0.064123 0.861661 255 211 0 0.431364
-0.179891 -0.067109 0.862901 255 222 0 0.410663
-0.181335 -0.061518 0.858906 255 213 0 0.429166
-0.182140 -0.058158 0.859160 255 211 0 0.430621
-0.181629 -0.058952 0.856260 255 220 0 0.414949
-0.180809 -0.062326 0.856150 255 213 0 0.427534
-0.180106 -0.066290 0.865521 255 209 0 0.435497
-0.180999 -0.063385 0.864312 255 209 0 0.434223
-0.181769 -0.060100 0.864453 255 209 0 0.434586
-0.182268 -0.057530 0.861871 255 193 0 0.467763
-0.181571 -0.060784 0.861710 255 211 0 0.431340
-0.181290 -0.048456 0.860707 255 209 0 0.434781
-0.181887 -0.051694 0.859986 255 211 0 0.433289
-0.181088 -0.048978 0.857773 255 211 0 0.433264
-0.181618 -0.052169 0.857243 255 211 0 0.431254
-0.182127 -0.054919 0.859515 255 211 0 0.431588
-0.182212 -0.054247 0.862313 255 199 0 0.455972
-0.180717 -0.049613 0.854801 255 211 0 0.430879
-0.181077 -0.052918 0.854210 255 213 0 0.429547
-0.179942 -0.050309 0.851804 255 211 0 0.430071
-0.181486 -0.055881 0.855176 255 213 0 0.428813
-0.156011 -0.044363 0.824565 255 220 0 0.415835
-0.157680 -0.046528 0.824534 255 187 0 0.478201
-0.159407 -0.047586 0.825839 255 218 0 0.420386
-0.161168 -0.049593 0.825774 255 215 0 0.422868
-0.162943 -0.050561 0.827100 255 215 0 0.425200
-0.162891 -0.052601 0.824286 255 215 0 0.425272
-0.161174 -0.047574 0.828471 255 215 0 0.423149
-0.162873 -0.048546 0.829754 255 213 0 0.426546
-0.159053 -0.045351 0.828522 255 215 0 0.422081
-0.157066 -0.043009 0.828538 255 218 0 0.419109
-0.155441 -0.041877 0.827245 255 220 0 0.416138
-0.154626 -0.039321 0.829894 255 218 0 0.418017
-0.164655 -0.054809 0.824187 255 213 0 0.426389
-0.166715 -0.056180 0.825528 255 213 0 0.427421
-0.168603 -0.058337 0.825389 255 213 0 0.428554
-0.170671 -0.059656 0.826823 255 211 0 0.430291
-0.170237 -0.061364 0.823733 255 211 0 0.430891
-0.168998 -0.056711 0.828415 255 213 0 0.428300
-0.171054 -0.057968 0.829798 255 213 0 0.429613
-0.166915 -0.054396 0.828372 255 213 0 0.427351
-0.164901 -0.051987 0.828385 255 213 0 0.427390
-0.170359 -0.052850 0.834247 255 199 0 0.454376
-0.167920 -0.051530 0.832677 255 213 0 0.428037
-0.166103 -0.047832 0.833999 255 213 0 0.426824
-0.163646 -0.046299 0.832506 255 215 0 0.425194
-0.165385 -0.050077 0.831189 255 213 0 0.427549
-0.169395 -0.054746 0.831249 255 213 0 0.428547
-0.171883 -0.056046 0.832838 255 213 0 0.428889
-0.161679 -0.042912 0.834100 255 215 0 0.424115
-0.158671 -0.039854 0.834359 255 215 0 0.422017
-0.159254 -0.041816 0.832681 255 215 0 0.422317
-0.155745 -0.036755 0.834544 255 215 0 0.422076
-0.156265 -0.038593 0.833007 202 255 46 0.267019
-0.153411 -0.035452 0.833167 255 218 0 0.421348
-0.152819 -0.033569 0.834727 255 215 0 0.423821
-0.156836 -0.040612 0.831347 255 218 0 0.420670
-0.153972 -0.037349 0.831573 255 218 0 0.418636
-0.161115 -0.045257 0.831135 255 215 0 0.423191
-0.171683 -0.063556 0.823726 255 211 0 0.431540
-0.173346 -0.065255 0.825630 255 211 0 0.433198
-0.174565 -0.067595 0.825800 255 209 0 0.435141
-0.175989 -0.069407 0.827920 255 209 0 0.436859
-0.175387 -0.070619 0.824326 255 209 0 0.436567
-0.175148 -0.066344 0.829294 255 209 0 0.434551
-0.176410 -0.068243 0.831433 255 209 0 0.436133
-0.173844 -0.063676 0.828849 255 211 0 0.432282
-0.172399 -0.061227 0.828565 255 211 0 0.430883
-0.176189 -0.072581 0.826809 255 207 0 0.438608
-0.176221 -0.075367 0.825323 255 207 0 0.439587
-0.176700 -0.074591 0.829419 255 207 0 0.439951
-0.176614 -0.077435 0.828042 255 195 0 0.462455
-0.176809 -0.079631 0.830656 255 205 0 0.442195
-0.176396 -0.080284 0.826660 255 207 0 0.441260
-0.176940 -0.076728 0.831959 255 207 0 0.441351
-0.177054 -0.078922 0.834509 255 205 0 0.443210
-0.176980 -0.073516 0.832899 255 207 0 0.439471
-0.176641 -0.071398 0.830416 255 207 0 0.438073
-0.177952 -0.074479 0.839638 255 207 0 0.440026
-0.177953 -0.071533 0.838593 255 207 0 0.438358
-0.177516 -0.069435 0.835881 255 209 0 0.437007
-0.177211 -0.066593 0.834927 255 209 0 0.435011
-0.177423 -0.075607 0.835645 255 207 0 0.440980
-0.177712 -0.077776 0.838450 255 205 0 0.443431
-0.176580 -0.063018 0.836075 255 211 0 0.432861
-0.175301 -0.060216 0.835403 255 211 0 0.431193
-0.173477 -0.058611 0.833342 255 211 0 0.430502
-0.174480 -0.062053 0.832075 255 211 0 0.431904
-0.175727 -0.064685 0.832596 255 209 0 0.433997
-0.177516 -0.079563 0.841161 255 205 0 0.444119
-0.176796 -0.082464 0.840023 255 197 0 0.460005
-0.176991 -0.080669 0.837266 255 205 0 0.444203
-0.176124 -0.083584 0.836150 255 203 0 0.445801
-0.175903 -0.085409 0.838953 255 203 0 0.446798
-0.174942 -0.088258 0.837766 255 203 0 0.447877
-0.175366 -0.087514 0.842065 255 203 0 0.447746
-0.176143 -0.084578 0.843175 255 203 0 0.446233
-0.176576 -0.081465 0.833223 255 205 0 0.444044
-0.175927 -0.084039 0.831865 255 205 0 0.444861
-0.176189 -0.082161 0.829255 255 205 0 0.443047
-0.175481 -0.084663 0.827860 255 205 0 0.443793
-0.175251 -0.086563 0.830435 255 209 0 0.436498
-0.174315 -0.089145 0.829125 255 203 0 0.445803
-0.174816 -0.088691 0.833478 255 226 0 0.405135
-0.175509 -0.086123 0.834819 255 203 0 0.446523
-0.169545 -0.097360 0.830134 255 226 0 0.404700
-0.171156 -0.095080 0.832068 245 249 3 0.361956
-0.169627 -0.097204 0.834636 255 201 0 0.450187
-0.172645 -0.092787 0.833944 255 203 0 0.448941
-0.171103 -0.094917 0.836521 255 201 0 0.449787
-0.172452 -0.092652 0.838320 255 201 0 0.449280
-0.169516 -0.097096 0.839000 251 242 0 0.372970
-0.173904 -0.090515 0.835859 255 203 0 0.448183
-0.173509 -0.090970 0.831571 255 203 0 0.447375
-0.171948 -0.093335 0.829652 255 203 0 0.447967
-0.169212 -0.097208 0.841916 255 201 0 0.450081
-0.171371 -0.094545 0.840849 255 201 0 0.449886
-0.170867 -0.094717 0.843735 255 201 0 0.449425
-0.168721 -0.097410 0.844720 255 199 0 0.455310
-0.172923 -0.092010 0.842699 255 203 0 0.448656
-0.170077 -0.094992 0.846548 255 203 0 0.449216
-0.172165 -0.092196 0.845525 255 203 0 0.448224
-0.168032 -0.097764 0.847530 255 203 0 0.448494
-0.174182 -0.089448 0.844482 255 203 0 0.447762
-0.174003 -0.090090 0.840223 255 203 0 0.449055
-0.167020 -0.099667 0.831762 255 228 0 0.402028
-0.165463 -0.101627 0.829164 255 201 0 0.450595
-0.164543 -0.101932 0.833193 255 226 0 0.405225
-0.162955 -0.103836 0.830616 255 201 0 0.451767
-0.160498 -0.105988 0.831944 255 201 0 0.452613
-0.161293 -0.105743 0.827942 255 207 0 0.440860
-0.162025 -0.104192 0.834594 255 201 0 0.452709
-0.159540 -0.106409 0.835932 255 201 0 0.452423
-0.164756 -0.101803 0.837603 255 201 0 0.451966
-0.167284 -0.099448 0.836122 255 201 0 0.451437
-0.158979 -0.107595 0.826661 255 201 0 0.450777
-0.155545 -0.109760 0.826844 255 201 0 0.451237
-0.153403 -0.111470 0.825327 255 201 0 0.451281
-0.150156 -0.113419 0.825276 255 201 0 0.451459
-0.152521 -0.112842 0.822163 255 201 0 0.449789
-0.151029 -0.112162 0.828475 255 199 0 0.453318
-0.147818 -0.114038 0.828404 255 199 0 0.453178
-0.153973 -0.110216 0.830468 255 199 0 0.454677
-0.156970 -0.108214 0.832276 255 199 0 0.453489
-0.145772 -0.113694 0.835749 255 197 0 0.459592
-0.149209 -0.111963 0.838141 255 197 0 0.458150
-0.150278 -0.111405 0.836129 255 201 0 0.449447
-0.152662 -0.110131 0.840339 255 199 0 0.456006
-0.153729 -0.109507 0.838311 255 199 0 0.456513
-0.157186 -0.107485 0.840274 255 199 0 0.454127
-0.156018 -0.108126 0.842341 255 199 0 0.454401
-0.154935 -0.108976 0.836179 255 199 0 0.455717
-0.158438 -0.106893 0.838118 255 199 0 0.453522
-0.151887 -0.110898 0.834319 255 197 0 0.457042
-0.148969 -0.112699 0.832323 255 197 0 0.457483
-0.147324 -0.113167 0.834083 255 197 0 0.459328
-0.144563 -0.114862 0.831950 255 197 0 0.457928
-0.146203 -0.114441 0.830248 255 199 0 0.456559
-0.143009 -0.115300 0.833592 255 197 0 0.458861
-0.158360 -0.105957 0.843332 255 199 0 0.454892
-0.161848 -0.103270 0.844834 255 201 0 0.453103
-0.162111 -0.102997 0.842055 255 141 0 0.565084
-0.165062 -0.100549 0.846231 255 201 0 0.450920
-0.165556 -0.100231 0.843438 255 201 0 0.451287
-0.165918 -0.100016 0.840562 255 201 0 0.452237
-0.163511 -0.102365 0.839809 255 209 0 0.434911
-0.160990 -0.104683 0.839019 255 201 0 0.453061
-0.159640 -0.105295 0.841226 255 199 0 0.453615
-0.140574 -0.116356 0.831304 255 195 0 0.461326
-0.142166 -0.116018 0.829705 255 197 0 0.459622
-0.139820 -0.117262 0.827331 255 195 0 0.461686
-0.143789 -0.115735 0.827977 255 199 0 0.455236
-0.141504 -0.116966 0.825661 255 199 0 0.456921
-0.143153 -0.116647 0.823874 255 199 0 0.455091
-0.145427 -0.115340 0.826181 255 199 0 0.454454
-0.139282 -0.118267 0.823227 255 197 0 0.457908
-0.140992 -0.118038 0.821467 255 199 0 0.455426
-0.138983 -0.119471 0.818872 255 199 0 0.455310
-0.136921 -0.119792 0.820312 255 197 0 0.457476
-0.137223 -0.118549 0.824609 255 197 0 0.459860
-0.134827 -0.120029 0.821761 255 197 0 0.459095
-0.135193 -0.118763 0.825890 255 193 0 0.465052
-0.137835 -0.117511 0.828664 255 195 0 0.464526
-0.132782 -0.120139 0.823146 255 193 0 0.465191
-0.148257 -0.114618 0.823365 255 102 0 0.639066
-0.146430 -0.115879 0.821347 255 201 0 0.451474
-0.148846 -0.115455 0.818250 255 201 0 0.450452
-0.150617 -0.114168 0.820274 255 203 0 0.448918
-0.145901 -0.116995 0.817669 255 201 0 0.450457
-0.145498 -0.118128 0.813817 255 201 0 0.449852
-0.142215 -0.118761 0.816374 255 201 0 0.452501
-0.140384 -0.121883 0.803231 255 201 0 0.450571
-0.139866 -0.121472 0.807140 255 201 0 0.451125
-0.136583 -0.122918 0.805277 255 201 0 0.449440
-0.139419 -0.120914 0.811140 255 201 0 0.450606
-0.136086 -0.122402 0.809239 255 205 0 0.444452
-0.135763 -0.121807 0.813179 255 201 0 0.452471
-0.132806 -0.123975 0.807373 255 203 0 0.448512
-0.139198 -0.120247 0.815038 255 199 0 0.453222
-0.142440 -0.119506 0.812530 255 201 0 0.450829
-0.142809 -0.120230 0.808537 255 201 0 0.451170
-0.130428 -0.124460 0.808632 255 203 0 0.449142
-0.132140 -0.123272 0.811839 255 201 0 0.451762
-0.129851 -0.123619 0.813093 255 209 0 0.433608
-0.128147 -0.124872 0.809902 255 201 0 0.450807
-0.131596 -0.122366 0.816226 255 199 0 0.456293
-0.127650 -0.123859 0.814355 234 255 13 0.339716
-0.129378 -0.122567 0.817524 255 197 0 0.457201
-0.125993 -0.125219 0.811275 255 176 0 0.498526
-0.131155 -0.121203 0.820616 255 197 0 0.459114
-0.133187 -0.121210 0.819079 255 197 0 0.457717
-0.135269 -0.120953 0.817544 255 199 0 0.456211
-0.133682 -0.122129 0.814717 255 199 0 0.454058
-0.098801 -0.021523 0.788665 255 211 0 0.430831
-0.099632 -0.023117 0.786723 255 211 0 0.433094
-0.101430 -0.022152 0.789662 255 125 0 0.594458
-0.102395 -0.023787 0.787671 255 209 0 0.435085
-0.105162 -0.024437 0.788622 255 209 0 0.436390
-0.103356 -0.025435 0.785642 255 209 0 0.437274
-0.104157 -0.022835 0.790667 255 211 0 0.433143
-0.106922 -0.023534 0.791770 255 209 0 0.435218
-0.103411 -0.020926 0.793426 255 213 0 0.427068
-0.100803 -0.020254 0.792337 255 213 0 0.426972
-0.105843 -0.026133 0.786412 255 207 0 0.437561
-0.108293 -0.026788 0.787213 255 209 0 0.436454
-0.111474 -0.029010 0.786429 255 209 0 0.435038
-0.108351 -0.028635 0.784343 255 209 0 0.436436
-0.113027 -0.028296 0.788986 255 209 0 0.434220
-0.110084 -0.025903 0.790321 255 209 0 0.435914
-0.107650 -0.025160 0.789463 255 209 0 0.436439
-0.116876 -0.027818 0.793996 255 135 0 0.576260
-0.114447 -0.026692 0.793318 255 209 0 0.435330
-0.114066 -0.025220 0.795783 255 209 0 0.435595
-0.111992 -0.025645 0.792707 255 209 0 0.435493
-0.111513 -0.024108 0.795243 255 209 0 0.434839
-0.109013 -0.023011 0.794756 255 201 0 0.450897
-0.111099 -0.022529 0.797807 255 211 0 0.431147
-0.109408 -0.021084 0.799011 255 218 0 0.420457
-0.106666 -0.019965 0.798240 255 218 0 0.418150
-0.105079 -0.018478 0.799347 255 220 0 0.414447
-0.102809 -0.019318 0.795746 255 218 0 0.420878
-0.106191 -0.021972 0.794047 255 211 0 0.431753
-0.121990 -0.039992 0.781089 255 213 0 0.427360
-0.121827 -0.037718 0.783718 255 211 0 0.430305
-0.121664 -0.035611 0.786332 255 211 0 0.432429
-0.124570 -0.038327 0.785527 255 211 0 0.431383
-0.118724 -0.033210 0.787163 255 195 0 0.464330
-0.118833 -0.035031 0.784491 255 211 0 0.430268
-0.118927 -0.037160 0.781770 255 211 0 0.429831
-0.116572 -0.034224 0.783722 255 211 0 0.430021
-0.124886 -0.036671 0.788207 255 209 0 0.434244
-0.125198 -0.035319 0.790813 255 209 0 0.435000
-0.127949 -0.037792 0.789951 255 209 0 0.436756
-0.122372 -0.032914 0.791822 255 162 0 0.527262
-0.122001 -0.034195 0.789033 255 189 0 0.474173
-0.116379 -0.029109 0.790957 255 211 0 0.433332
-0.115865 -0.030586 0.787968 255 209 0 0.433667
-0.119173 -0.031636 0.789937 255 211 0 0.431532
-0.119637 -0.030202 0.792770 255 156 0 0.535282
-0.114495 -0.031212 0.785743 255 211 0 0.432958
-0.112951 -0.032035 0.783188 255 209 0 0.433807
-0.138158 -0.035153 0.809316 255 218 0 0.418533
-0.140385 -0.036101 0.811677 255 81 0 0.678478
-0.142569 -0.036952 0.814016 255 234 0 0.389878
-0.142563 -0.038485 0.810967 255 230 0 0.397767
-0.140257 -0.034533 0.814767 255 230 0 0.397549
-0.137486 -0.031779 0.815449 255 226 0 0.405410
-0.137943 -0.033479 0.812409 255 220 0 0.414813
-0.135184 -0.030778 0.813042 255 215 0 0.422276
-0.145373 -0.040736 0.811879 255 234 0 0.387114
-0.145459 -0.039389 0.814880 255 236 0 0.385189
-0.147456 -0.041789 0.813898 254 238 0 0.382226
-0.149418 -0.044179 0.812839 255 236 0 0.385717
-0.147538 -0.040408 0.816827 255 236 0 0.384865
-0.145468 -0.038039 0.817781 255 234 0 0.389770
-0.142466 -0.035547 0.816927 255 232 0 0.391656
-0.142252 -0.033786 0.820173 255 232 0 0.391761
-0.138891 -0.030603 0.821108 255 234 0 0.388313
-0.139799 -0.032593 0.817934 255 230 0 0.396507
-0.145471 -0.036280 0.820897 255 232 0 0.392397
-0.134734 -0.028478 0.818184 255 234 0 0.388973
-0.130953 -0.026022 0.817011 255 232 0 0.393956
-0.126391 -0.029283 0.803145 255 209 0 0.436393
-0.128021 -0.028943 0.806149 255 209 0 0.434722
-0.129524 -0.028592 0.809064 255 215 0 0.425258
-0.130694 -0.031036 0.805796 255 211 0 0.433472
-0.126837 -0.026691 0.809515 255 218 0 0.420135
-0.123998 -0.024652 0.809916 255 215 0 0.423377
-0.125175 -0.026963 0.806507 255 211 0 0.433208
-0.122316 -0.024964 0.806900 255 209 0 0.433843
-0.133658 -0.032528 0.807317 255 224 0 0.406330
-0.133149 -0.030512 0.810496 236 255 12 0.341836
-0.135740 -0.032827 0.809941 255 215 0 0.422673
-0.132044 -0.028368 0.813615 255 222 0 0.411125
-0.128623 -0.026600 0.812335 255 222 0 0.413976
-0.126285 -0.022760 0.817137 255 224 0 0.408006
-0.127644 -0.024363 0.815775 255 226 0 0.402608
-0.124202 -0.022634 0.814468 255 222 0 0.413410
-0.122865 -0.021037 0.815872 255 224 0 0.408670
-0.125565 -0.024154 0.813075 255 220 0 0.416661
-0.119795 -0.019909 0.814227 255 234 0 0.388731
-0.121221 -0.021508 0.812823 255 228 0 0.400919
-0.118037 -0.020324 0.811118 255 232 0 0.392792
-0.116642 -0.018678 0.812503 255 236 0 0.384949
-0.121113 -0.022520 0.810527 255 220 0 0.414467
-0.116662 -0.026435 0.796310 255 209 0 0.434513
-0.119020 -0.027906 0.796414 255 209 0 0.433918
-0.116418 -0.025180 0.798680 255 209 0 0.435500
-0.118824 -0.026574 0.798765 255 209 0 0.435072
-0.118544 -0.025269 0.801146 255 172 0 0.506142
-0.121302 -0.028054 0.798872 255 209 0 0.436171
-0.116085 -0.023856 0.801130 255 211 0 0.432326
-0.115743 -0.022477 0.803503 255 211 0 0.430126
-0.113465 -0.022473 0.800638 255 211 0 0.430379
-0.113747 -0.023856 0.798225 255 211 0 0.432400
-0.121277 -0.026982 0.801246 255 209 0 0.435977
-0.123787 -0.028653 0.801021 255 209 0 0.436386
-0.121211 -0.025843 0.803546 255 209 0 0.433826
-0.123797 -0.027503 0.803311 255 209 0 0.436289
-0.119687 -0.023257 0.807040 255 218 0 0.418748
-0.118469 -0.024201 0.803550 255 211 0 0.433239
-0.113981 -0.018207 0.810024 255 234 0 0.388031
-0.115463 -0.019825 0.808800 255 232 0 0.393749
-0.112644 -0.019343 0.806147 255 228 0 0.399203
-0.111145 -0.017720 0.807434 240 254 8 0.350259
-0.115610 -0.021235 0.806190 255 226 0 0.405513
-0.118206 -0.021666 0.808539 255 224 0 0.407003
-0.108706 -0.017831 0.804431 255 228 0 0.399966
-0.110327 -0.019379 0.803396 198 255 49 0.258497
-0.111881 -0.020946 0.802024 255 222 0 0.413089
-0.128556 -0.036707 0.792453 255 207 0 0.439050
-0.129193 -0.035795 0.795026 255 207 0 0.440076
-0.130740 -0.038134 0.793002 255 191 0 0.470802
-0.127002 -0.034474 0.794599 255 207 0 0.438199
-0.124497 -0.033166 0.793997 255 162 0 0.525396
-0.132698 -0.038543 0.794876 255 205 0 0.443786
-0.131494 -0.036395 0.796959 255 205 0 0.442921
-0.133534 -0.037012 0.798629 255 205 0 0.444093
-0.134718 -0.039089 0.796559 245 249 3 0.361516
-0.131187 -0.034754 0.799931 255 207 0 0.440859
-0.128935 -0.034065 0.798142 255 207 0 0.439148
-0.126589 -0.031300 0.799677 255 209 0 0.437195
-0.124016 -0.030591 0.797506 255 209 0 0.435630
-0.128900 -0.031984 0.801558 255 207 0 0.437619
-0.121893 -0.030298 0.795245 255 209 0 0.434130
-0.136173 -0.034679 0.807005 255 209 0 0.434507
-0.134228 -0.034247 0.804715 255 207 0 0.439661
-0.136683 -0.036437 0.804436 255 184 0 0.482434
-0.138807 -0.038374 0.804048 255 205 0 0.441683
-0.138516 -0.036728 0.806633 255 209 0 0.436373
-0.140659 -0.038712 0.806224 255 209 0 0.436840
-0.131723 -0.033186 0.803252 255 207 0 0.439059
-0.133685 -0.035787 0.801430 255 207 0 0.441050
-0.136816 -0.039870 0.798016 255 135 0 0.574448
-0.135960 -0.038048 0.800095 255 205 0 0.445189
-0.138125 -0.039014 0.801321 255 205 0 0.444350
-0.138939 -0.040801 0.799251 255 203 0 0.447391
-0.141143 -0.041931 0.800314 255 203 0 0.447112
-0.140742 -0.040546 0.802499 255 203 0 0.445595
-0.143082 -0.041881 0.803485 255 205 0 0.443889
-0.143506 -0.043285 0.801264 211 255 37 0.286961
-0.145979 -0.044928 0.802223 255 205 0 0.442659
-0.147871 -0.045870 0.803909 255 207 0 0.439106
-0.149938 -0.047812 0.803383 255 205 0 0.442797
-0.146353 -0.043995 0.805849 198 255 49 0.258573
-0.144134 -0.041932 0.806253 255 209 0 0.433763
-0.151748 -0.048971 0.804948 255 211 0 0.433492
-0.153557 -0.050132 0.806439 255 213 0 0.425945
-0.154938 -0.052018 0.804390 255 209 0 0.434293
-0.152118 -0.048406 0.808363 255 224 0 0.409678
-0.150262 -0.047165 0.806884 206 255 42 0.274260
-0.148184 -0.045137 0.807491 255 199 0 0.456703
-0.147456 -0.042987 0.811144 255 234 0 0.387317
-0.145474 -0.041744 0.809336 255 228 0 0.399209
-0.150120 -0.046244 0.809251 255 226 0 0.403075
-0.142750 -0.039739 0.808331 255 222 0 0.412333
-0.140485 -0.037472 0.808825 255 222 0 0.411583
-0.159115 -0.053201 0.813483 255 218 0 0.420406
-0.161646 -0.055536 0.814641 255 213 0 0.426460
-0.164222 -0.057747 0.815750 255 213 0 0.428219
-0.163363 -0.057872 0.813055 255 213 0 0.428900
-0.162406 -0.055497 0.817299 255 215 0 0.425180
-0.160457 -0.052706 0.818744 180 255 67 0.222452
-0.159723 -0.052931 0.816211 225 255 22 0.317192
-0.157806 -0.050049 0.817670 255 224 0 0.409945
-0.166390 -0.061200 0.812478 242 253 6 0.355362
-0.167494 -0.061806 0.815076 255 211 0 0.431551
-0.169305 -0.064114 0.813321 255 211 0 0.433249
-0.171038 -0.066391 0.811496 255 209 0 0.434191
-0.170469 -0.064651 0.816033 255 211 0 0.433299
-0.168507 -0.062119 0.817750 254 238 0 0.381406
-0.165178 -0.058190 0.818296 255 213 0 0.428389
-0.168554 -0.060134 0.822391 255 213 0 0.429679
-0.166682 -0.057922 0.822599 255 213 0 0.427707
-0.164988 -0.056601 0.821308 255 213 0 0.426493
-0.163263 -0.054356 0.821487 255 215 0 0.423852
-0.166804 -0.059459 0.819556 255 213 0 0.428813
-0.170262 -0.062709 0.820685 255 222 0 0.410685
-0.159823 -0.049780 0.823052 255 218 0 0.419564
-0.156757 -0.046662 0.821808 255 220 0 0.414152
-0.158778 -0.049990 0.820377 117 255 130 0.101056
-0.163417 -0.060045 0.804030 255 209 0 0.434009
-0.164977 -0.061313 0.805709 255 211 0 0.432949
-0.167369 -0.063103 0.806222 255 211 0 0.433487
-0.163782 -0.059670 0.808199 255 211 0 0.431183
-0.162180 -0.058409 0.806418 255 211 0 0.432128
-0.160965 -0.056851 0.808651 255 213 0 0.429159
-0.168354 -0.063691 0.810825 255 209 0 0.433692
-0.166353 -0.061604 0.808828 255 211 0 0.433032
-0.169283 -0.065143 0.808050 255 209 0 0.434561
-0.172122 -0.067436 0.808587 255 209 0 0.434808
-0.160947 -0.055708 0.812180 255 213 0 0.426532
-0.173502 -0.069646 0.812380 255 209 0 0.435371
-0.175778 -0.072909 0.813807 255 209 0 0.436062
-0.175002 -0.071771 0.810486 255 209 0 0.435093
-0.174291 -0.070747 0.815543 255 209 0 0.435634
-0.172876 -0.068138 0.817205 255 209 0 0.434664
-0.172054 -0.067188 0.814287 255 209 0 0.433845
-0.176564 -0.075278 0.812292 255 209 0 0.435666
-0.177623 -0.079143 0.812491 255 209 0 0.436637
-0.176884 -0.078952 0.816325 255 199 0 0.454640
-0.176360 -0.076453 0.817698 255 209 0 0.437094
-0.176464 -0.078102 0.824237 255 203 0 0.447483
-0.176263 -0.076068 0.821765 255 207 0 0.438638
-0.175942 -0.073305 0.822982 255 205 0 0.444125
-0.175455 -0.071397 0.820790 255 209 0 0.436537
-0.175884 -0.074179 0.819502 255 209 0 0.434878
-0.176629 -0.078489 0.820070 255 207 0 0.438953
-0.176728 -0.080617 0.822603 255 207 0 0.440460
-0.174358 -0.068869 0.822503 255 209 0 0.435558
-0.172885 -0.066585 0.822373 255 211 0 0.433387
-0.171665 -0.064908 0.820668 255 211 0 0.433016
-0.174253 -0.069734 0.818968 255 209 0 0.435785
-0.170210 -0.099258 0.816164 252 240 0 0.375296
-0.168178 -0.101169 0.817651 255 205 0 0.441785
-0.167437 -0.102641 0.816115 255 207 0 0.440249
-0.165664 -0.104375 0.817351 255 205 0 0.441687
-0.167274 -0.103796 0.814119 255 207 0 0.438910
-0.166049 -0.103106 0.819261 255 205 0 0.443479
-0.163955 -0.104940 0.820546 255 203 0 0.445710
-0.167059 -0.101359 0.821310 243 251 4 0.358049
-0.169355 -0.099309 0.819627 255 205 0 0.442940
-0.171622 -0.097301 0.817875 255 207 0 0.441244
-0.170446 -0.097570 0.821650 255 205 0 0.444248
-0.164498 -0.105956 0.815160 255 205 0 0.441630
-0.164171 -0.106935 0.813213 255 207 0 0.440566
-0.162043 -0.107801 0.815803 255 205 0 0.443120
