ply
format ascii 1.0
comment VCGLIB generated
element vertex 1023
property float x
property float y
property float z
property uchar red
property uchar green
property uchar blue
property float quality
end_header
-0.121135 -0.032943 0.787922 255 94 0 0.655088
-0.120918 -0.034204 0.785297 255 92 0 0.656408
-0.115143 -0.028905 0.787374 255 87 0 0.664578
-0.114687 -0.030431 0.784511 255 89 0 0.663994
-0.118024 -0.031605 0.786309 255 92 0 0.659570
-0.118398 -0.030124 0.789032 255 79 0 0.681388
-0.113309 -0.031021 0.782357 255 77 0 0.687467
-0.111725 -0.031764 0.779911 255 85 0 0.668426
-0.135827 -0.034454 0.804636 255 108 0 0.625461
-0.137915 -0.035152 0.806959 255 65 0 0.710412
-0.140016 -0.035792 0.809228 255 129 0 0.587805
-0.140127 -0.037546 0.806264 255 127 0 0.590501
-0.137732 -0.033425 0.809930 255 135 0 0.575199
-0.135169 -0.030797 0.810561 255 137 0 0.571402
-0.135539 -0.032617 0.807605 255 135 0 0.577061
-0.133000 -0.029997 0.808184 255 118 0 0.608093
-0.142934 -0.039607 0.807178 255 118 0 0.608778
-0.142938 -0.038084 0.810144 255 141 0 0.564256
-0.145013 -0.040405 0.809201 255 38 0 0.758348
-0.147093 -0.042706 0.808254 255 104 0 0.634786
-0.145044 -0.038869 0.812104 255 110 0 0.624861
-0.142855 -0.036518 0.812997 255 116 0 0.612885
-0.139860 -0.034220 0.812118 255 122 0 0.598285
-0.139754 -0.032391 0.815307 255 131 0 0.584176
-0.136822 -0.029430 0.816194 255 133 0 0.578818
-0.137361 -0.031411 0.813018 255 137 0 0.573293
-0.142834 -0.034682 0.816123 255 116 0 0.612086
-0.132905 -0.027548 0.813258 255 122 0 0.600538
-0.129348 -0.025183 0.812065 255 102 0 0.638734
-0.124695 -0.029002 0.798707 255 79 0 0.679943
-0.126270 -0.028535 0.801585 255 85 0 0.670301
-0.127804 -0.028045 0.804402 255 96 0 0.648973
-0.128772 -0.030708 0.801215 255 98 0 0.648423
-0.125259 -0.026025 0.804839 255 104 0 0.635653
-0.122480 -0.023887 0.805223 255 100 0 0.644314
-0.123585 -0.026402 0.801987 255 94 0 0.654141
-0.120817 -0.024261 0.802376 255 149 0 0.549899
-0.131552 -0.032049 0.802659 255 106 0 0.629872
-0.131068 -0.029898 0.805722 255 58 0 0.718778
-0.133480 -0.032173 0.805186 0 0 128 0.000000
-0.130261 -0.027617 0.808755 255 112 0 0.617209
-0.127020 -0.025884 0.807507 255 106 0 0.631621
-0.124797 -0.021895 0.812205 128 0 0 1.000000
-0.126156 -0.023554 0.810853 255 98 0 0.647292
-0.122721 -0.021748 0.809621 255 94 0 0.653790
-0.121381 -0.020118 0.811011 255 94 0 0.655085
-0.124081 -0.023366 0.808243 255 98 0 0.648125
-0.118298 -0.018984 0.809431 255 96 0 0.649809
-0.119774 -0.020641 0.808047 255 94 0 0.652675
-0.116572 -0.019430 0.806436 255 98 0 0.644824
-0.115126 -0.017762 0.807816 243 9 0 0.814959
-0.119647 -0.021690 0.805834 255 96 0 0.649759
-0.115313 -0.025996 0.792485 255 87 0 0.664240
-0.117715 -0.027664 0.792546 255 89 0 0.662447
-0.115002 -0.024564 0.794743 255 94 0 0.653927
-0.117430 -0.026149 0.794753 255 63 0 0.714383
-0.117109 -0.024708 0.796985 255 87 0 0.664536
-0.119874 -0.027825 0.794779 255 89 0 0.661050
-0.114653 -0.023136 0.797001 255 89 0 0.662756
-0.114308 -0.021688 0.799218 255 42 0 0.751287
-0.112032 -0.021680 0.796559 255 92 0 0.659152
-0.112341 -0.023128 0.794323 255 87 0 0.665156
-0.119801 -0.026551 0.797024 255 83 0 0.674710
-0.122269 -0.028414 0.796755 255 98 0 0.645366
-0.119725 -0.025273 0.799217 255 69 0 0.701192
-0.122215 -0.027083 0.798938 255 92 0 0.659863
-0.118232 -0.022477 0.802516 255 48 0 0.740431
-0.117010 -0.023481 0.799243 255 89 0 0.661640
-0.112451 -0.017272 0.805506 255 102 0 0.638332
-0.113992 -0.018928 0.804269 255 98 0 0.645099
-0.111169 -0.018450 0.801771 255 48 0 0.739179
-0.109641 -0.016827 0.803037 255 104 0 0.635770
-0.114136 -0.020349 0.801789 255 96 0 0.649420
-0.116741 -0.020835 0.803952 255 96 0 0.648578
-0.107218 -0.016920 0.800189 255 100 0 0.643019
-0.108861 -0.018477 0.799184 255 32 0 0.773412
-0.110435 -0.020081 0.797879 255 94 0 0.654502
-0.127232 -0.036686 0.788281 255 94 0 0.652497
-0.127695 -0.035782 0.790778 255 96 0 0.649390
-0.129372 -0.038055 0.788709 255 104 0 0.635067
-0.125535 -0.034469 0.790414 255 96 0 0.650824
-0.123118 -0.033177 0.789943 255 79 0 0.681495
-0.131191 -0.038446 0.790508 255 96 0 0.649811
-0.129841 -0.036356 0.792592 255 94 0 0.653275
-0.131740 -0.036879 0.794214 255 98 0 0.646499
-0.133095 -0.038968 0.792140 255 98 0 0.647234
-0.129374 -0.034616 0.795536 255 98 0 0.646209
-0.127246 -0.034025 0.793797 255 98 0 0.645732
-0.124944 -0.031193 0.795351 255 96 0 0.649973
-0.122522 -0.030554 0.793350 255 75 0 0.691012
-0.127097 -0.031793 0.797133 255 98 0 0.646323
-0.120556 -0.030292 0.791284 255 77 0 0.683601
-0.133982 -0.034145 0.802401 255 106 0 0.629105
-0.132147 -0.033847 0.800179 255 100 0 0.643970
-0.134570 -0.035998 0.799942 255 100 0 0.643496
-0.136698 -0.037934 0.799581 255 102 0 0.640607
-0.136280 -0.036173 0.802094 255 108 0 0.625324
-0.138424 -0.038093 0.801716 255 116 0 0.610307
-0.129781 -0.032908 0.798760 255 98 0 0.645742
-0.131748 -0.035561 0.796980 255 100 0 0.643766
-0.135078 -0.039674 0.793589 255 98 0 0.645035
-0.134105 -0.037849 0.795668 255 98 0 0.645034
-0.136192 -0.038695 0.796890 255 100 0 0.644016
-0.137158 -0.040507 0.794819 255 98 0 0.645200
-0.139337 -0.041525 0.795911 255 100 0 0.643115
-0.138739 -0.040112 0.798061 255 122 0 0.601232
-0.141034 -0.041294 0.799066 255 100 0 0.642556
-0.141638 -0.042719 0.796885 255 98 0 0.644709
-0.144078 -0.044149 0.797846 255 100 0 0.643364
-0.145890 -0.044867 0.799577 255 98 0 0.646298
-0.148014 -0.046582 0.799111 255 112 0 0.618253
-0.144227 -0.043085 0.801390 255 137 0 0.573797
-0.141949 -0.041197 0.801759 186 255 62 0.233243
-0.149780 -0.047512 0.800686 255 114 0 0.614830
-0.151606 -0.048407 0.802208 255 96 0 0.651132
-0.153147 -0.050062 0.800338 255 96 0 0.651839
-0.150039 -0.046797 0.804043 255 98 0 0.645103
-0.148177 -0.045828 0.802520 255 100 0 0.644222
-0.146021 -0.043989 0.803057 255 102 0 0.638223
-0.145107 -0.041756 0.806531 255 112 0 0.619918
-0.143160 -0.040749 0.804762 255 120 0 0.603883
-0.147939 -0.044848 0.804809 255 127 0 0.591523
-0.140411 -0.038920 0.803778 255 112 0 0.618142
-0.138134 -0.036711 0.804213 255 110 0 0.622124
-0.157283 -0.050787 0.809396 255 42 0 0.750014
-0.159957 -0.052989 0.810704 255 81 0 0.678543
-0.162669 -0.055183 0.812007 255 81 0 0.677897
-0.161797 -0.055242 0.809328 255 83 0 0.675697
-0.160751 -0.052988 0.813380 255 79 0 0.683011
-0.158668 -0.050235 0.814700 255 77 0 0.686478
-0.157917 -0.050519 0.812095 255 79 0 0.682485
-0.155837 -0.047728 0.813420 255 79 0 0.682104
-0.164934 -0.058500 0.809127 255 83 0 0.675136
-0.166049 -0.059279 0.811781 255 81 0 0.676440
-0.167900 -0.061513 0.810274 255 83 0 0.675147
-0.169667 -0.063782 0.808773 255 83 0 0.674834
-0.169024 -0.062357 0.813010 255 98 0 0.646281
-0.167051 -0.059778 0.814439 255 81 0 0.678255
-0.163641 -0.055707 0.814606 255 79 0 0.680643
-0.167052 -0.057970 0.818968 255 79 0 0.681654
-0.165149 -0.055621 0.818972 255 77 0 0.684007
-0.163441 -0.054205 0.817543 255 77 0 0.684761
-0.161617 -0.051906 0.817576 255 106 0 0.631595
-0.165338 -0.057123 0.815998 255 79 0 0.680417
-0.168768 -0.060628 0.817449 255 81 0 0.679511
-0.157928 -0.047312 0.818965 255 73 0 0.693740
-0.154666 -0.044379 0.817522 255 81 0 0.676457
-0.156842 -0.047597 0.816163 255 75 0 0.688878
-0.161918 -0.056813 0.800857 255 87 0 0.667336
-0.163556 -0.058120 0.802706 255 85 0 0.669851
-0.165986 -0.059882 0.803488 255 98 0 0.646714
-0.162287 -0.056739 0.804810 255 108 0 0.626310
-0.160627 -0.055453 0.802935 255 85 0 0.668267
-0.159342 -0.054150 0.804935 255 147 0 0.554444
-0.166966 -0.060926 0.807836 255 83 0 0.673781
-0.164934 -0.058666 0.805707 255 83 0 0.671901
-0.167925 -0.062043 0.805443 255 83 0 0.672790
-0.170797 -0.064692 0.806293 255 83 0 0.674075
-0.159259 -0.053134 0.808286 255 83 0 0.674781
-0.172096 -0.067456 0.810045 255 81 0 0.676579
-0.174302 -0.071373 0.811579 255 71 0 0.696766
-0.173660 -0.069750 0.808440 255 81 0 0.677656
-0.172819 -0.069030 0.813052 255 81 0 0.678266
-0.171374 -0.066285 0.814410 255 81 0 0.678385
-0.170627 -0.064997 0.811562 255 81 0 0.676734
-0.175117 -0.073865 0.810256 255 81 0 0.678127
-0.176150 -0.078128 0.810462 255 87 0 0.664315
-0.175295 -0.078060 0.813838 255 79 0 0.680362
-0.174697 -0.075543 0.815123 255 87 0 0.667839
-0.174574 -0.077614 0.821182 255 83 0 0.672098
-0.174445 -0.075343 0.818962 255 81 0 0.679207
-0.174123 -0.072480 0.820187 255 79 0 0.682314
-0.173732 -0.070272 0.818089 255 73 0 0.695092
-0.174168 -0.073120 0.816805 255 79 0 0.680652
-0.174867 -0.077799 0.817311 255 81 0 0.679468
-0.174893 -0.080141 0.819556 255 79 0 0.682748
-0.172655 -0.067574 0.819606 255 69 0 0.699770
-0.171328 -0.064977 0.819324 255 79 0 0.679991
-0.170153 -0.063076 0.817581 255 81 0 0.679388
-0.172645 -0.068242 0.816213 255 81 0 0.679496
-0.170159 -0.097902 0.811221 255 83 0 0.675380
-0.168158 -0.099861 0.812452 255 81 0 0.677385
-0.167785 -0.101093 0.810557 255 89 0 0.663212
-0.166008 -0.102902 0.811612 255 83 0 0.674999
-0.167755 -0.102135 0.808434 255 83 0 0.674026
-0.166141 -0.101776 0.813663 255 83 0 0.675764
-0.164096 -0.103682 0.814803 255 83 0 0.675763
-0.166828 -0.100257 0.815980 255 81 0 0.676696
-0.168977 -0.098233 0.814695 255 81 0 0.677061
-0.171093 -0.096217 0.813360 255 92 0 0.659366
-0.169733 -0.096635 0.816961 255 81 0 0.678373
-0.165087 -0.104179 0.809132 255 83 0 0.674860
-0.164992 -0.104924 0.806909 255 83 0 0.675221
-0.162719 -0.106013 0.809574 255 81 0 0.676218
-0.162487 -0.106898 0.807383 255 81 0 0.676971
-0.160199 -0.108696 0.807717 255 81 0 0.678699
-0.162395 -0.107711 0.805135 255 81 0 0.677608
-0.157908 -0.109713 0.810300 255 81 0 0.679518
-0.160943 -0.106701 0.812664 255 73 0 0.695278
-0.163344 -0.104895 0.812234 255 81 0 0.675955
-0.155953 -0.109732 0.815891 255 87 0 0.666580
-0.157890 -0.108052 0.817407 255 81 0 0.677884
-0.160559 -0.106077 0.817075 255 73 0 0.694220
-0.162609 -0.104331 0.818484 255 94 0 0.655624
-0.158274 -0.108731 0.812958 255 81 0 0.678216
-0.155622 -0.110697 0.813206 255 79 0 0.679877
-0.163286 -0.102908 0.820923 255 81 0 0.678132
-0.165464 -0.100852 0.819659 255 81 0 0.678449
-0.166977 -0.098871 0.822476 255 79 0 0.679926
-0.169137 -0.096753 0.821134 255 96 0 0.650056
-0.167613 -0.098765 0.818327 255 81 0 0.678352
-0.164801 -0.102258 0.817207 255 92 0 0.658982
-0.174428 -0.082179 0.821761 255 81 0 0.678308
-0.174284 -0.084411 0.820122 255 79 0 0.682836
-0.174819 -0.082282 0.817885 255 79 0 0.682448
-0.174530 -0.084574 0.816283 255 85 0 0.670869
-0.173956 -0.086634 0.818502 255 75 0 0.687599
-0.173576 -0.088883 0.816903 255 79 0 0.680445
-0.173138 -0.088907 0.821101 255 79 0 0.682248
-0.173457 -0.086673 0.822705 255 100 0 0.642449
-0.175475 -0.082268 0.814118 255 79 0 0.680599
-0.175620 -0.084327 0.812586 255 77 0 0.685535
-0.174700 -0.088616 0.813262 255 81 0 0.679382
-0.174653 -0.086602 0.814773 255 79 0 0.680490
-0.172655 -0.094157 0.811602 255 81 0 0.676590
-0.173144 -0.092291 0.813268 255 87 0 0.667188
-0.171487 -0.094446 0.815139 255 81 0 0.678343
-0.171720 -0.092805 0.816945 255 89 0 0.660290
-0.170602 -0.094719 0.819017 255 89 0 0.663397
-0.171399 -0.092731 0.821076 255 85 0 0.671697
-0.169802 -0.094903 0.823236 255 79 0 0.681046
-0.172045 -0.090802 0.823149 255 81 0 0.676518
-0.172477 -0.090844 0.819033 255 79 0 0.681204
-0.152554 -0.112999 0.809877 255 77 0 0.686053
-0.155221 -0.111381 0.810102 255 79 0 0.682349
-0.154849 -0.112078 0.806993 255 77 0 0.685706
-0.152204 -0.113671 0.806692 255 46 0 0.745248
-0.151970 -0.114316 0.803456 255 71 0 0.695623
-0.149254 -0.115382 0.805791 255 58 0 0.721941
-0.149481 -0.114715 0.809045 255 81 0 0.677083
-0.157646 -0.110367 0.807583 255 75 0 0.689253
-0.157321 -0.111050 0.804907 255 63 0 0.713391
-0.159866 -0.109383 0.805044 255 79 0 0.680886
-0.159455 -0.110112 0.802375 255 77 0 0.683772
-0.157090 -0.111693 0.802094 255 77 0 0.687261
-0.156858 -0.112295 0.799267 255 73 0 0.692012
-0.154473 -0.113350 0.801411 255 52 0 0.731506
-0.154576 -0.112756 0.804208 255 75 0 0.689821
-0.152538 -0.115222 0.791215 255 67 0 0.703765
-0.152280 -0.115170 0.794398 255 65 0 0.708316
-0.149887 -0.116349 0.793006 255 67 0 0.703313
-0.152094 -0.115026 0.797454 255 67 0 0.706857
-0.149629 -0.116260 0.796102 255 69 0 0.701626
-0.149434 -0.116063 0.799158 255 69 0 0.702544
-0.147094 -0.117436 0.794746 255 65 0 0.707566
-0.152023 -0.114731 0.800508 255 69 0 0.699814
-0.154462 -0.113690 0.798426 255 71 0 0.696888
-0.154513 -0.113955 0.795358 255 67 0 0.704132
-0.146833 -0.117408 0.798192 255 67 0 0.703494
-0.144052 -0.118700 0.796668 255 69 0 0.702085
-0.146655 -0.117137 0.801494 255 46 0 0.744822
-0.143819 -0.118566 0.800044 255 69 0 0.700572
-0.146539 -0.116777 0.804815 255 71 0 0.695666
-0.149332 -0.115765 0.802503 255 44 0 0.747930
-0.154773 -0.114149 0.792491 255 69 0 0.702125
-0.156932 -0.112671 0.796523 255 73 0 0.693670
-0.159376 -0.110754 0.799841 255 77 0 0.687116
-0.134245 -0.046163 0.773766 255 89 0 0.662176
-0.133599 -0.044864 0.776033 255 89 0 0.661610
-0.133043 -0.043580 0.778355 255 89 0 0.660801
-0.136074 -0.045143 0.777101 255 85 0 0.669380
-0.130024 -0.042045 0.779634 255 92 0 0.659346
-0.130474 -0.043425 0.777246 255 92 0 0.660107
-0.131047 -0.044723 0.774857 255 77 0 0.684633
-0.127798 -0.043263 0.775984 255 89 0 0.660486
-0.135830 -0.044192 0.779520 255 96 0 0.649602
-0.135597 -0.043299 0.781916 255 92 0 0.659166
-0.138474 -0.044816 0.780547 255 92 0 0.660056
-0.132681 -0.041731 0.783350 255 92 0 0.658097
-0.132885 -0.042683 0.780861 255 92 0 0.659338
-0.126802 -0.038844 0.783284 255 92 0 0.656871
-0.126850 -0.040054 0.780754 255 92 0 0.659018
-0.129876 -0.040855 0.782096 255 71 0 0.696069
-0.129765 -0.039693 0.784553 255 92 0 0.656948
-0.124090 -0.039632 0.779350 255 92 0 0.658919
-0.124537 -0.041280 0.776877 255 89 0 0.660830
-0.127343 -0.041669 0.778332 255 83 0 0.673773
-0.139888 -0.045812 0.777526 255 89 0 0.662348
-0.142275 -0.046208 0.778433 255 89 0 0.662152
-0.137861 -0.046525 0.774325 255 89 0 0.663139
-0.144192 -0.046257 0.787004 255 94 0 0.655728
-0.143468 -0.045432 0.789687 255 94 0 0.653681
-0.146655 -0.047219 0.788619 255 87 0 0.666525
-0.142747 -0.044618 0.792335 255 96 0 0.650412
-0.139975 -0.043609 0.790718 255 96 0 0.649447
-0.148228 -0.047740 0.790783 255 106 0 0.631717
-0.151177 -0.049260 0.790806 255 92 0 0.656562
-0.146986 -0.046878 0.792809 255 96 0 0.651549
-0.142774 -0.043984 0.794836 255 98 0 0.646744
-0.140486 -0.042752 0.793887 255 98 0 0.646402
-0.145842 -0.045809 0.794880 255 96 0 0.649212
-0.137617 -0.041632 0.792146 255 96 0 0.649032
-0.138449 -0.044286 0.782998 255 92 0 0.658715
-0.138471 -0.043723 0.785485 255 92 0 0.657118
-0.141159 -0.045278 0.783983 255 92 0 0.657763
-0.135738 -0.042180 0.786939 255 94 0 0.654473
-0.135662 -0.042709 0.784452 255 92 0 0.657080
-0.140898 -0.044483 0.787798 255 94 0 0.654935
-0.134909 -0.040691 0.789935 255 96 0 0.651191
-0.133028 -0.040144 0.788288 255 94 0 0.653799
-0.132848 -0.040927 0.785804 255 94 0 0.655601
-0.145126 -0.046684 0.783958 255 83 0 0.675410
-0.141082 -0.045514 0.781561 255 92 0 0.659879
-0.144223 -0.046560 0.780876 255 89 0 0.661080
-0.151343 -0.049415 0.793130 255 94 0 0.653849
-0.153535 -0.050710 0.793785 255 94 0 0.654912
-0.151595 -0.049531 0.795573 255 94 0 0.653688
-0.149165 -0.048114 0.794844 255 96 0 0.650465
-0.156250 -0.052538 0.795320 255 92 0 0.656820
-0.152340 -0.049808 0.797955 255 96 0 0.649994
-0.149810 -0.048034 0.797351 255 116 0 0.612128
-0.154782 -0.051397 0.798408 255 94 0 0.654968
-0.149582 -0.048437 0.788756 255 102 0 0.638987
-0.148235 -0.047852 0.786460 255 96 0 0.652226
-0.073533 -0.120696 0.873057 255 83 0 0.672997
-0.075381 -0.119538 0.876754 255 83 0 0.672065
-0.071638 -0.121558 0.869198 255 83 0 0.674936
-0.074137 -0.121821 0.867977 255 83 0 0.674936
-0.076026 -0.120901 0.871805 255 83 0 0.673182
-0.077872 -0.119746 0.875511 255 83 0 0.672341
-0.070975 -0.122395 0.864661 255 81 0 0.677053
-0.070298 -0.123016 0.860085 255 79 0 0.680395
-0.067846 -0.122844 0.861395 255 79 0 0.679891
-0.068531 -0.122216 0.865993 255 81 0 0.677009
-0.078636 -0.120986 0.870228 255 83 0 0.673936
-0.080556 -0.119926 0.873904 255 83 0 0.672715
-0.076684 -0.121894 0.866452 255 83 0 0.675412
-0.076057 -0.122558 0.861779 255 81 0 0.679682
-0.072836 -0.123099 0.858596 255 79 0 0.680896
-0.073496 -0.122485 0.863281 255 81 0 0.678897
-0.067965 -0.124728 0.846095 255 83 0 0.672661
-0.064776 -0.126107 0.843068 255 85 0 0.671081
-0.068725 -0.123805 0.850684 255 83 0 0.674241
-0.065461 -0.124661 0.847533 255 83 0 0.672365
-0.066227 -0.123738 0.852129 255 83 0 0.673807
-0.062257 -0.126066 0.844497 255 85 0 0.670847
-0.069483 -0.123215 0.855360 255 81 0 0.677486
-0.072033 -0.123323 0.853886 255 83 0 0.672005
-0.062980 -0.124523 0.848859 255 83 0 0.672327
-0.059836 -0.125961 0.845842 255 85 0 0.670449
-0.063767 -0.123593 0.853414 255 83 0 0.673754
-0.060563 -0.124416 0.850224 255 85 0 0.671849
-0.065802 -0.123115 0.857402 255 81 0 0.676768
-0.079709 -0.030122 0.895110 255 85 0 0.670513
-0.080606 -0.027379 0.892449 255 87 0 0.667051
-0.080649 -0.024448 0.890255 255 83 0 0.672169
-0.078395 -0.026768 0.893471 255 85 0 0.669375
-0.077567 -0.029613 0.896087 255 106 0 0.632401
-0.080577 -0.021314 0.888174 255 94 0 0.653877
-0.080440 -0.017879 0.886186 255 87 0 0.665384
-0.075620 -0.026230 0.895129 255 85 0 0.670198
-0.076473 -0.020337 0.890131 255 87 0 0.666093
-0.078178 -0.017414 0.887190 255 83 0 0.672063
-0.078031 -0.023835 0.891460 255 89 0 0.663960
-0.079585 -0.009542 0.879722 255 94 0 0.655811
-0.078938 -0.012210 0.882133 255 94 0 0.653067
-0.081772 -0.012900 0.881325 255 92 0 0.660025
-0.082452 -0.010154 0.879115 255 89 0 0.660653
-0.079693 -0.015141 0.884135 255 92 0 0.658183
-0.077451 -0.014605 0.885078 255 102 0 0.640191
-0.084806 -0.010637 0.878821 255 85 0 0.671566
-0.085165 -0.013669 0.880703 255 98 0 0.646415
-0.083138 -0.016005 0.883144 255 85 0 0.671860
-0.081945 -0.073577 0.913713 255 81 0 0.676314
-0.080963 -0.068869 0.913438 255 83 0 0.674217
-0.084104 -0.078459 0.913055 255 92 0 0.657162
-0.086054 -0.083062 0.912131 255 92 0 0.656877
-0.083323 -0.069051 0.912708 255 81 0 0.676551
-0.086754 -0.078369 0.912093 255 83 0 0.674388
-0.084289 -0.073831 0.912885 255 83 0 0.675157
-0.091320 -0.095105 0.904735 255 85 0 0.668608
-0.091719 -0.098808 0.902518 255 85 0 0.669456
-0.089079 -0.091179 0.907599 255 87 0 0.666820
-0.087808 -0.094713 0.906057 255 87 0 0.667407
-0.088197 -0.098447 0.903712 255 85 0 0.668395
-0.088509 -0.087324 0.909601 255 89 0 0.663862
-0.085910 -0.098188 0.904793 255 85 0 0.668464
-0.085471 -0.090714 0.909151 255 87 0 0.666904
-0.084629 -0.094333 0.907679 255 85 0 0.669629
-0.085813 -0.086952 0.910789 255 94 0 0.652836
-0.083861 -0.101033 0.901943 255 85 0 0.668215
-0.084081 -0.104064 0.897950 255 87 0 0.667966
-0.086130 -0.101207 0.900830 255 85 0 0.668186
-0.086358 -0.104256 0.896906 255 94 0 0.652772
-0.084294 -0.107215 0.894073 255 94 0 0.652345
-0.084527 -0.110395 0.890211 255 85 0 0.669394
-0.082070 -0.110283 0.891415 255 85 0 0.668931
-0.081867 -0.107098 0.895358 255 85 0 0.668132
-0.088624 -0.101501 0.899272 255 87 0 0.667664
-0.089111 -0.104603 0.894882 255 89 0 0.662799
-0.088201 -0.107535 0.891455 255 85 0 0.669228
-0.087314 -0.110752 0.888287 255 85 0 0.669944
-0.082215 -0.117777 0.877461 255 83 0 0.671907
-0.083896 -0.115483 0.881087 255 85 0 0.671012
-0.081207 -0.115356 0.882759 255 87 0 0.666456
-0.079526 -0.117636 0.879102 255 83 0 0.673919
-0.084213 -0.112948 0.885609 255 96 0 0.651260
-0.087014 -0.113319 0.883732 255 85 0 0.670360
-0.077026 -0.117535 0.880326 255 79 0 0.681409
-0.078710 -0.115204 0.883895 255 85 0 0.670111
-0.079167 -0.112772 0.888278 255 85 0 0.669447
-0.081628 -0.112865 0.887068 255 85 0 0.669467
-0.075384 -0.058068 0.911853 255 79 0 0.680339
-0.075121 -0.053293 0.909739 255 83 0 0.675083
-0.074610 -0.048436 0.907866 255 85 0 0.669469
-0.074379 -0.043763 0.906097 255 81 0 0.679250
-0.073499 -0.057456 0.912516 255 83 0 0.674458
-0.072725 -0.047921 0.908742 255 83 0 0.672463
-0.073251 -0.052724 0.910464 255 87 0 0.665420
-0.075195 -0.032544 0.899440 255 85 0 0.669061
-0.075189 -0.036033 0.901377 255 87 0 0.666386
-0.074391 -0.039688 0.903879 255 87 0 0.666745
-0.077389 -0.032972 0.898150 255 87 0 0.664773
-0.077119 -0.036442 0.900422 255 89 0 0.662439
-0.102120 0.000332 0.862497 255 83 0 0.672912
-0.104140 0.000776 0.860355 255 83 0 0.673118
-0.100168 -0.000009 0.864644 255 83 0 0.672943
-0.103538 -0.000808 0.864989 255 83 0 0.672811
-0.105477 -0.000496 0.862860 255 77 0 0.685102
-0.107505 -0.000109 0.860681 255 83 0 0.673104
-0.101562 -0.001294 0.867059 255 83 0 0.672508
-0.099633 -0.001847 0.869057 255 83 0 0.674907
-0.098371 -0.000811 0.866724 255 83 0 0.672626
-0.096683 -0.001507 0.868781 255 83 0 0.672503
-0.108079 -0.001212 0.863263 255 83 0 0.672728
-0.110209 -0.000947 0.861192 255 83 0 0.672937
-0.106025 -0.001341 0.865272 255 83 0 0.675539
-0.104056 -0.001803 0.867368 255 77 0 0.684546
-0.102140 -0.002255 0.869409 255 83 0 0.672438
-0.097061 -0.007534 0.874834 255 83 0 0.672922
-0.098586 -0.005930 0.872976 255 75 0 0.690687
-0.099082 -0.003879 0.871045 255 83 0 0.675352
-0.093384 -0.007013 0.874488 255 83 0 0.672969
-0.093448 -0.005206 0.872521 255 89 0 0.661123
-0.090935 -0.006733 0.874415 255 83 0 0.672690
-0.093560 -0.003235 0.870597 255 83 0 0.672796
-0.096511 -0.003477 0.870809 255 83 0 0.675512
-0.116866 -0.003924 0.844472 255 85 0 0.670071
-0.120788 -0.006462 0.842772 255 85 0 0.669623
-0.116492 -0.003442 0.846930 255 85 0 0.670336
-0.120401 -0.006039 0.845163 255 85 0 0.668913
-0.120036 -0.005608 0.847602 255 106 0 0.630940
-0.124382 -0.008447 0.843529 255 85 0 0.671091
-0.116165 -0.002983 0.849396 255 85 0 0.670911
-0.115793 -0.002698 0.851840 255 85 0 0.670889
-0.112435 -0.001054 0.851347 255 79 0 0.682004
-0.112765 -0.001454 0.848885 255 85 0 0.671513
-0.123583 -0.007610 0.845965 255 85 0 0.670351
-0.127374 -0.009926 0.844769 255 79 0 0.682171
-0.122793 -0.006771 0.848457 255 85 0 0.670100
-0.126540 -0.009106 0.847237 255 85 0 0.671442
-0.122071 -0.005956 0.850999 255 85 0 0.670349
-0.118599 -0.003844 0.852684 255 85 0 0.671360
-0.119312 -0.004696 0.850155 255 79 0 0.680505
-0.112260 -0.001540 0.858994 255 83 0 0.672597
-0.114344 -0.002121 0.856738 255 79 0 0.683271
-0.111673 -0.001274 0.856268 255 83 0 0.672503
-0.109582 -0.000663 0.858495 255 83 0 0.672669
-0.115075 -0.002341 0.854317 255 83 0 0.672084
-0.117817 -0.003665 0.855132 255 85 0 0.671065
-0.106185 0.000604 0.858106 255 75 0 0.690777
-0.108244 0.000273 0.855792 255 83 0 0.672709
-0.110368 -0.000329 0.853577 255 67 0 0.703321
-0.134367 -0.019685 0.830932 255 65 0 0.707126
-0.136107 -0.021707 0.829495 255 83 0 0.674518
-0.132612 -0.017640 0.832405 255 81 0 0.677597
-0.136804 -0.020293 0.833176 255 98 0 0.647648
-0.138227 -0.023011 0.829874 255 83 0 0.672403
-0.140364 -0.024280 0.830256 255 106 0 0.629229
-0.135012 -0.018315 0.834681 255 104 0 0.634417
-0.133203 -0.016327 0.836241 255 81 0 0.676910
-0.130881 -0.015831 0.833944 255 52 0 0.730480
-0.129127 -0.014029 0.835440 255 81 0 0.676159
-0.142818 -0.025770 0.830882 255 65 0 0.709559
-0.140412 -0.022954 0.832383 255 83 0 0.673395
-0.142834 -0.024477 0.833057 255 83 0 0.673932
-0.145302 -0.027257 0.831490 255 81 0 0.675838
-0.140414 -0.021716 0.834573 255 83 0 0.674656
-0.145314 -0.025953 0.833644 255 83 0 0.674127
-0.142820 -0.023256 0.835208 255 83 0 0.674360
-0.147827 -0.028671 0.832118 255 83 0 0.675353
-0.140347 -0.020505 0.836825 255 83 0 0.674817
-0.136703 -0.017831 0.837695 255 102 0 0.640365
-0.129601 -0.011854 0.842883 255 83 0 0.673927
-0.131827 -0.013786 0.841017 255 83 0 0.675104
-0.128784 -0.012479 0.839783 255 100 0 0.642025
-0.126574 -0.010502 0.841619 255 83 0 0.673171
-0.132525 -0.015035 0.838623 255 83 0 0.675353
-0.135967 -0.016654 0.840043 255 85 0 0.669522
-0.122773 -0.008241 0.840883 255 85 0 0.668260
-0.124821 -0.009961 0.839046 255 85 0 0.671790
-0.124999 -0.010788 0.836839 255 83 0 0.672695
-0.128965 -0.013225 0.837614 255 83 0 0.675014
-0.142666 -0.032877 0.819136 255 112 0 0.619198
-0.142818 -0.031184 0.822005 255 96 0 0.650658
-0.145186 -0.033844 0.820931 255 102 0 0.638673
-0.147463 -0.036434 0.819833 255 89 0 0.660250
-0.145345 -0.032107 0.823784 255 87 0 0.664642
-0.142663 -0.029399 0.824801 255 87 0 0.664824
-0.138779 -0.026787 0.824132 255 96 0 0.651585
-0.150302 -0.038087 0.821459 255 63 0 0.712292
-0.149234 -0.035442 0.824210 255 73 0 0.692608
-0.147482 -0.030391 0.828878 255 83 0 0.672595
-0.144959 -0.028875 0.828336 255 85 0 0.670099
-0.142490 -0.027364 0.827749 255 96 0 0.650586
-0.148001 -0.032143 0.827200 255 83 0 0.673922
-0.138653 -0.024852 0.827051 255 87 0 0.666541
-0.136508 -0.023555 0.826678 255 127 0 0.592265
-0.149035 -0.043427 0.810024 255 125 0 0.593986
-0.150973 -0.044073 0.811736 255 89 0 0.661155
-0.150828 -0.045508 0.808915 255 92 0 0.657652
-0.149150 -0.042015 0.812834 255 94 0 0.652948
-0.147046 -0.039706 0.813879 255 102 0 0.639395
-0.147108 -0.041220 0.811075 255 102 0 0.637765
-0.153374 -0.047536 0.809197 255 85 0 0.670385
-0.153727 -0.046608 0.811939 255 83 0 0.675674
-0.155438 -0.048695 0.810724 255 149 0 0.548374
-0.154012 -0.045486 0.814611 255 79 0 0.679996
-0.151171 -0.042990 0.814441 255 87 0 0.667816
-0.151239 -0.040614 0.818696 255 108 0 0.627293
-0.148708 -0.039091 0.817050 255 96 0 0.651813
-0.145139 -0.035600 0.818009 255 106 0 0.632469
-0.145131 -0.037335 0.815028 255 120 0 0.602083
-0.155583 -0.051693 0.801786 255 112 0 0.621045
-0.154201 -0.050180 0.803702 255 87 0 0.664454
-0.158530 -0.054164 0.800876 255 89 0 0.664041
-0.156953 -0.052190 0.804895 255 85 0 0.669110
-0.155274 -0.049573 0.808218 255 151 0 0.546795
-0.151060 -0.046643 0.806592 255 67 0 0.705275
-0.152830 -0.048424 0.805705 255 89 0 0.663124
-0.160087 -0.055372 0.798873 255 89 0 0.663261
-0.156878 -0.052987 0.798724 255 92 0 0.659544
0.125209 -0.003181 0.886726 255 85 0 0.668904
0.119637 -0.002572 0.886412 255 69 0 0.701446
0.126455 -0.002947 0.884069 255 85 0 0.670577
0.120886 -0.002330 0.883807 255 75 0 0.690414
0.122090 -0.002122 0.881121 255 75 0 0.688996
0.118317 -0.002462 0.888818 255 75 0 0.689152
0.133679 -0.004912 0.874707 255 75 0 0.688408
0.128763 -0.003545 0.875008 255 79 0 0.681117
0.127898 -0.003278 0.878072 255 77 0 0.686770
0.123794 -0.002532 0.875312 255 77 0 0.685596
0.129443 -0.003839 0.871698 255 83 0 0.674638
0.124530 -0.002810 0.872238 255 85 0 0.668108
0.125408 -0.003139 0.869119 255 81 0 0.678632
0.127060 -0.002975 0.880903 255 77 0 0.686143
0.122916 -0.002264 0.878252 255 75 0 0.688991
0.088303 -0.003430 0.871928 255 73 0 0.693253
0.092666 -0.003100 0.874334 255 73 0 0.693625
0.093853 -0.003225 0.871805 255 71 0 0.698120
0.096832 -0.002830 0.876621 255 69 0 0.702984
0.098128 -0.002833 0.874107 255 65 0 0.710926
0.102360 -0.002458 0.876428 255 58 0 0.719811
0.101018 -0.002538 0.878904 255 63 0 0.713469
0.099455 -0.002690 0.871589 255 61 0 0.717649
0.103700 -0.002211 0.873850 255 69 0 0.700455
0.105025 -0.001876 0.871181 255 69 0 0.702613
0.100796 -0.002308 0.868978 255 75 0 0.689839
0.095188 -0.003057 0.869304 255 77 0 0.686502
0.096466 -0.002694 0.866666 255 69 0 0.702276
0.090739 -0.003518 0.866881 255 71 0 0.696992
0.089538 -0.003603 0.869470 255 73 0 0.692098
0.084648 -0.004077 0.866815 255 77 0 0.684289
0.092074 -0.003192 0.864278 255 65 0 0.707720
0.085824 -0.004018 0.864186 255 83 0 0.675612
0.086984 -0.003704 0.861428 255 71 0 0.697765
0.083463 -0.003843 0.869332 255 77 0 0.686621
0.105203 -0.002387 0.881218 255 61 0 0.717210
0.109425 -0.002383 0.883626 255 65 0 0.709328
0.110777 -0.002307 0.881145 255 77 0 0.687447
0.113842 -0.002392 0.886158 255 71 0 0.698506
0.115156 -0.002329 0.883702 255 71 0 0.696680
0.116373 -0.002136 0.881091 255 71 0 0.698604
0.117645 -0.001976 0.878466 255 69 0 0.700573
0.112078 -0.002065 0.878587 255 71 0 0.698897
0.113451 -0.001824 0.875990 255 79 0 0.683014
0.107865 -0.002111 0.876204 255 79 0 0.680531
0.106550 -0.002350 0.878770 255 71 0 0.695723
0.109164 -0.001805 0.873523 255 79 0 0.681211
0.121225 -0.002816 0.866505 255 77 0 0.684068
0.120263 -0.002459 0.869557 255 77 0 0.686143
0.116187 -0.002275 0.867089 255 73 0 0.691622
0.116961 -0.002467 0.863959 255 83 0 0.673624
0.115115 -0.002041 0.870022 255 83 0 0.674560
0.111960 -0.002046 0.864705 255 75 0 0.689461
0.111068 -0.001906 0.867712 255 81 0 0.678300
0.106976 -0.001845 0.865463 255 73 0 0.693692
0.113055 -0.002266 0.861587 255 73 0 0.692413
0.107986 -0.001831 0.862342 255 73 0 0.693657
0.108941 -0.002043 0.859346 255 73 0 0.693017
0.110111 -0.001758 0.870599 255 73 0 0.694787
0.105955 -0.001840 0.868342 255 71 0 0.698099
0.114263 -0.001836 0.873002 255 83 0 0.674721
0.118512 -0.002072 0.875522 255 75 0 0.690521
0.119368 -0.002219 0.872611 255 79 0 0.681529
0.104800 -0.002008 0.857141 255 77 0 0.685868
0.103742 -0.001927 0.860110 255 81 0 0.678819
0.099480 -0.002059 0.857874 255 79 0 0.683414
0.100552 -0.001943 0.854894 255 73 0 0.691595
0.098366 -0.002318 0.860833 255 77 0 0.686623
0.094874 -0.002442 0.855418 255 73 0 0.695075
0.093948 -0.002715 0.858468 255 71 0 0.698747
0.088698 -0.003222 0.855427 255 65 0 0.710293
0.095746 -0.002141 0.852257 255 75 0 0.690029
0.089614 -0.002679 0.852185 255 69 0 0.702122
0.090558 -0.002257 0.848994 255 77 0 0.686243
0.092976 -0.002999 0.861388 255 63 0 0.711459
0.087804 -0.003550 0.858464 255 67 0 0.705341
0.097407 -0.002504 0.863776 255 65 0 0.708893
0.101734 -0.002147 0.866064 255 69 0 0.699831
0.102710 -0.002026 0.863116 255 71 0 0.698328
0.095944 -0.002119 0.848443 255 81 0 0.676747
0.101117 -0.002223 0.851523 255 75 0 0.690635
0.101551 -0.002625 0.847979 255 81 0 0.677013
0.105415 -0.002487 0.853893 255 73 0 0.692515
0.106001 -0.003006 0.850480 255 73 0 0.691820
0.110128 -0.003376 0.852823 255 73 0 0.693060
0.109498 -0.002654 0.856158 255 73 0 0.694956
0.106565 -0.003750 0.847043 255 73 0 0.691601
0.110774 -0.004194 0.849490 255 81 0 0.675957
0.111324 -0.005109 0.846107 255 73 0 0.692177
0.107173 -0.004720 0.843681 255 75 0 0.691038
0.102053 -0.003220 0.844380 255 71 0 0.697445
0.102555 -0.004035 0.840683 255 75 0 0.687642
0.096942 -0.002697 0.840958 255 77 0 0.684972
0.096433 -0.002299 0.844717 255 79 0 0.682988
0.091931 -0.002436 0.841937 255 83 0 0.672453
0.097563 -0.003369 0.837277 255 77 0 0.684078
0.092751 -0.002808 0.838384 255 79 0 0.683510
0.093566 -0.003487 0.834985 255 71 0 0.696374
0.091202 -0.002254 0.845446 255 81 0 0.679567
0.113409 -0.002833 0.858277 255 83 0 0.673918
0.117500 -0.003225 0.860644 255 73 0 0.691649
0.117917 -0.003880 0.857247 255 75 0 0.690155
0.121485 -0.003398 0.863075 255 79 0 0.682174
0.121979 -0.004232 0.859723 255 75 0 0.690565
0.125923 -0.004600 0.862150 255 79 0 0.681043
0.125640 -0.003804 0.865682 255 75 0 0.688638
0.122280 -0.005062 0.856172 255 77 0 0.685549
0.126366 -0.005595 0.858661 255 77 0 0.683674
0.126561 -0.006579 0.855222 255 85 0 0.671393
0.122820 -0.006236 0.852866 255 75 0 0.691260
0.118435 -0.004783 0.853979 255 73 0 0.692274
0.118976 -0.005871 0.850543 255 73 0 0.692103
0.114614 -0.004471 0.851666 255 73 0 0.692751
0.114048 -0.003648 0.855093 255 73 0 0.692940
0.115129 -0.005532 0.848301 255 75 0 0.688973
0.125528 -0.014216 0.841367 255 75 0 0.690710
0.121958 -0.013947 0.839366 255 73 0 0.693339
0.122103 -0.011572 0.842407 255 73 0 0.693119
0.118555 -0.011283 0.840338 255 73 0 0.693402
0.118406 -0.013640 0.837332 255 73 0 0.694149
0.118670 -0.009206 0.843635 255 73 0 0.693215
0.114976 -0.010951 0.838296 255 73 0 0.693560
0.115080 -0.008867 0.841481 255 73 0 0.693217
0.111417 -0.008507 0.839435 255 73 0 0.692810
0.114860 -0.013408 0.835305 255 73 0 0.694200
0.111381 -0.010660 0.836156 255 73 0 0.692970
0.111158 -0.013072 0.832959 255 73 0 0.692828
0.115091 -0.007102 0.844823 255 73 0 0.693038
0.111377 -0.006709 0.842667 255 77 0 0.687228
0.118850 -0.007477 0.847005 255 73 0 0.692109
0.122623 -0.007867 0.849252 255 73 0 0.692030
0.122391 -0.009611 0.845858 255 73 0 0.692821
0.126142 -0.010044 0.848025 255 79 0 0.682166
0.126434 -0.008250 0.851659 255 75 0 0.691367
0.125873 -0.011970 0.844699 255 81 0 0.679397
0.106601 -0.012484 0.829484 255 71 0 0.697898
0.106783 -0.009990 0.832831 255 71 0 0.697326
0.102244 -0.009313 0.829377 255 79 0 0.680668
0.102324 -0.012144 0.826596 255 77 0 0.685118
0.102092 -0.006971 0.832653 255 63 0 0.712872
0.098463 -0.009297 0.827262 255 77 0 0.683858
0.098110 -0.006806 0.830207 255 77 0 0.683808
0.094686 -0.007099 0.828590 255 81 0 0.676169
0.098701 -0.012254 0.824737 255 73 0 0.693414
0.095129 -0.009608 0.825760 255 69 0 0.702566
0.095389 -0.012482 0.823345 255 79 0 0.682942
0.097699 -0.004809 0.833467 255 81 0 0.677668
0.094165 -0.005063 0.831645 255 79 0 0.682919
0.102260 -0.005272 0.836578 255 77 0 0.686704
0.107173 -0.006192 0.840181 255 75 0 0.690832
0.107115 -0.007957 0.836566 255 69 0 0.702696
0.129445 -0.004436 0.868049 255 89 0 0.661156
0.133621 -0.005419 0.870989 255 77 0 0.685559
0.133401 -0.005979 0.866857 255 75 0 0.689336
0.137618 -0.007200 0.869953 255 75 0 0.689604
0.137478 -0.007866 0.866017 255 75 0 0.690340
0.141513 -0.009981 0.865013 255 94 0 0.654460
0.137565 -0.008888 0.862257 255 81 0 0.678002
0.133582 -0.006911 0.863389 255 75 0 0.689715
0.133824 -0.007939 0.859757 255 75 0 0.690171
0.129948 -0.006203 0.860941 255 75 0 0.689920
0.129673 -0.005279 0.864509 255 75 0 0.689384
0.130194 -0.007222 0.857439 255 83 0 0.674013
0.147616 -0.019041 0.853665 255 67 0 0.703958
0.145459 -0.016382 0.856018 255 73 0 0.692340
0.144559 -0.018224 0.851927 255 69 0 0.700842
0.142348 -0.015446 0.854197 255 73 0 0.692644
0.143062 -0.013681 0.858194 255 73 0 0.692246
0.140107 -0.012882 0.856468 255 81 0 0.679222
0.141413 -0.017280 0.850096 255 73 0 0.692540
0.139178 -0.014512 0.852333 255 73 0 0.691532
0.138380 -0.016454 0.848421 255 75 0 0.691288
0.140833 -0.011351 0.860644 255 75 0 0.691193
0.135183 -0.015884 0.846640 255 81 0 0.679111
0.135652 -0.013823 0.850114 255 73 0 0.692094
0.132397 -0.013273 0.848235 255 73 0 0.691665
0.131979 -0.015383 0.844931 255 73 0 0.693950
0.132702 -0.011151 0.851752 255 75 0 0.691329
0.129125 -0.012625 0.846470 255 73 0 0.692189
0.129495 -0.010609 0.849944 255 73 0 0.691833
0.128724 -0.014711 0.843119 255 79 0 0.683214
0.129575 -0.008657 0.853392 255 75 0 0.690691
0.133342 -0.009454 0.855724 255 75 0 0.690789
0.136974 -0.010322 0.857906 255 77 0 0.684944
0.136407 -0.012035 0.854080 255 73 0 0.692294
0.083484 -0.144870 0.897717 255 73 0 0.693129
0.082031 -0.143918 0.900810 255 106 0 0.632515
0.080183 -0.142895 0.899299 255 102 0 0.640622
0.078730 -0.141957 0.902380 255 92 0 0.657105
0.080554 -0.142997 0.903865 255 108 0 0.626980
0.076824 -0.140936 0.900850 255 92 0 0.656252
0.077252 -0.141005 0.905413 255 129 0 0.586485
0.075379 -0.139979 0.903904 255 110 0 0.624449
0.073915 -0.139004 0.906918 255 100 0 0.640694
0.079054 -0.142053 0.906880 255 77 0 0.687000
0.075771 -0.140045 0.908426 255 100 0 0.641125
0.077556 -0.141122 0.909894 255 75 0 0.688746
0.073388 -0.138974 0.902315 255 122 0 0.597959
0.071958 -0.137999 0.905364 255 129 0 0.587907
0.069866 -0.137024 0.903742 255 110 0 0.621949
0.071317 -0.137832 0.900608 255 131 0 0.584978
0.074877 -0.139791 0.899204 255 122 0 0.600269
0.072783 -0.138620 0.897471 255 122 0 0.600845
0.076378 -0.140590 0.896063 255 116 0 0.610458
0.078331 -0.141737 0.897720 255 112 0 0.617542
0.079869 -0.142561 0.894582 255 50 0 0.734963
0.074264 -0.139370 0.894314 255 100 0 0.641467
0.077906 -0.141369 0.892912 255 106 0 0.629753
0.075776 -0.140109 0.891164 255 81 0 0.676973
0.081734 -0.143728 0.896180 255 69 0 0.699228
0.076013 -0.139957 0.912646 255 129 0 0.589782
0.074196 -0.138986 0.911316 255 100 0 0.644298
0.072679 -0.137817 0.914094 255 137 0 0.573646
0.074518 -0.138813 0.915436 255 87 0 0.667966
0.070793 -0.136848 0.912738 255 108 0 0.627774
0.071184 -0.136640 0.916914 255 100 0 0.643412
0.069287 -0.135649 0.915570 255 129 0 0.588261
0.073008 -0.137658 0.918248 255 129 0 0.586607
0.067322 -0.134712 0.914154 255 118 0 0.606029
0.065252 -0.133704 0.912537 255 122 0 0.600360
0.068875 -0.135826 0.911210 255 106 0 0.632114
0.066806 -0.134827 0.909565 255 122 0 0.601314
0.070427 -0.136931 0.908278 255 122 0 0.598565
0.072356 -0.137936 0.909823 255 106 0 0.631847
0.068336 -0.135931 0.906632 255 114 0 0.614106
0.055859 -0.129845 0.905823 255 79 0 0.681094
0.058309 -0.131112 0.907769 255 73 0 0.691880
0.059924 -0.131999 0.904615 255 75 0 0.688374
0.057505 -0.130638 0.902659 255 75 0 0.690303
0.062287 -0.133068 0.906435 255 96 0 0.651318
0.061541 -0.132871 0.901499 255 83 0 0.675028
0.063905 -0.134016 0.903356 255 69 0 0.700825
0.065491 -0.134951 0.900278 255 98 0 0.646209
0.059121 -0.131427 0.899532 255 83 0 0.673540
0.063126 -0.133739 0.898415 255 75 0 0.689162
0.060723 -0.132239 0.896456 255 85 0 0.670311
0.066148 -0.135047 0.905108 255 110 0 0.624766
0.067745 -0.136054 0.902072 255 102 0 0.640324
0.064628 -0.133976 0.908053 255 110 0 0.622629
0.063082 -0.132852 0.911029 255 110 0 0.623216
0.060747 -0.132013 0.909431 255 69 0 0.701547
0.062214 -0.132674 0.893213 255 83 0 0.674718
0.064549 -0.134401 0.895251 255 83 0 0.674791
0.066043 -0.134889 0.892021 255 75 0 0.690926
0.063690 -0.133161 0.889990 255 89 0 0.662640
0.068360 -0.136374 0.893980 255 79 0 0.682225
0.067518 -0.135400 0.888787 255 102 0 0.638198
0.069867 -0.136909 0.890752 255 100 0 0.641531
0.071397 -0.137446 0.887514 255 73 0 0.692710
0.065159 -0.133671 0.886777 255 77 0 0.687174
0.069008 -0.135956 0.885542 255 110 0 0.622658
0.066620 -0.134197 0.883540 255 104 0 0.633397
0.072094 -0.138269 0.892626 255 102 0 0.639451
0.073657 -0.138807 0.889384 255 46 0 0.744500
0.070630 -0.137549 0.895760 255 116 0 0.611982
0.069184 -0.136823 0.898915 255 73 0 0.692094
0.066926 -0.135676 0.897122 255 85 0 0.670724
0.062756 -0.132374 0.885036 255 94 0 0.653996
0.061296 -0.131835 0.888236 255 89 0 0.661131
0.058972 -0.130432 0.886501 255 96 0 0.649584
0.059823 -0.131433 0.891465 255 79 0 0.680780
0.057499 -0.130018 0.889697 255 89 0 0.661912
0.055993 -0.129584 0.892912 255 89 0 0.662065
0.058316 -0.131055 0.894697 255 89 0 0.661949
0.055220 -0.128413 0.887906 255 106 0 0.629729
0.053703 -0.128051 0.891121 255 92 0 0.659006
0.051412 -0.126485 0.889337 255 92 0 0.659761
0.053080 -0.126758 0.886126 255 89 0 0.663205
0.056817 -0.128824 0.884724 255 92 0 0.659635
0.054678 -0.127217 0.882963 255 92 0 0.659850
0.058375 -0.129352 0.881571 255 102 0 0.636933
0.060541 -0.130884 0.883303 255 89 0 0.660508
0.062102 -0.131382 0.880113 255 98 0 0.645360
0.056223 -0.127748 0.879820 255 89 0 0.664025
0.059927 -0.129809 0.878394 255 100 0 0.641842
0.057775 -0.128243 0.876662 255 100 0 0.642392
0.064322 -0.132833 0.881818 255 100 0 0.643939
0.056636 -0.130374 0.897855 255 77 0 0.687272
0.055007 -0.129620 0.900975 255 81 0 0.676039
0.052567 -0.128314 0.899248 255 83 0 0.672792
0.053337 -0.128930 0.904133 255 79 0 0.681108
0.050863 -0.127660 0.902417 255 81 0 0.677103
0.048429 -0.126359 0.900721 255 85 0 0.671031
0.046085 -0.124776 0.898892 255 89 0 0.663060
0.050231 -0.126912 0.897476 255 106 0 0.628923
0.047907 -0.125303 0.895650 255 89 0 0.660992
0.051995 -0.127379 0.894263 255 73 0 0.691500
0.054306 -0.128882 0.896047 255 92 0 0.657675
0.049683 -0.125774 0.892438 255 96 0 0.650773
0.037227 -0.119299 0.892573 255 87 0 0.667458
0.039303 -0.120791 0.894167 255 89 0 0.662899
0.041189 -0.121248 0.890912 255 81 0 0.676030
0.039083 -0.119804 0.889324 255 71 0 0.696742
0.043331 -0.122672 0.892507 255 92 0 0.660060
0.043034 -0.121950 0.887754 255 83 0 0.673233
0.045180 -0.123264 0.889316 255 89 0 0.663265
0.047012 -0.123913 0.886194 255 87 0 0.664828
0.040914 -0.120481 0.886179 255 89 0 0.662755
0.044833 -0.122618 0.884632 255 87 0 0.667057
0.042660 -0.121357 0.883097 255 85 0 0.668710
0.047399 -0.124562 0.890903 255 92 0 0.658812
0.049203 -0.125233 0.887757 255 98 0 0.646553
0.045599 -0.124064 0.894083 255 96 0 0.651317
0.043758 -0.123662 0.897333 255 92 0 0.658481
0.041509 -0.122244 0.895733 255 92 0 0.657623
0.044392 -0.121905 0.879963 255 85 0 0.670218
0.046489 -0.123084 0.881497 255 48 0 0.742056
0.048183 -0.123698 0.878379 255 87 0 0.666321
0.046060 -0.122652 0.876846 255 69 0 0.700323
0.050295 -0.124829 0.879906 255 85 0 0.668523
0.049836 -0.124461 0.875278 255 85 0 0.670852
0.051957 -0.125415 0.876784 255 85 0 0.670201
0.053565 -0.126175 0.873668 255 85 0 0.670091
0.047732 -0.123515 0.873748 255 85 0 0.671472
0.051457 -0.125221 0.872142 255 89 0 0.661031
0.049344 -0.124412 0.870619 255 87 0 0.667163
0.054042 -0.126615 0.878313 255 94 0 0.656056
0.055656 -0.127275 0.875175 255 85 0 0.671853
0.052488 -0.126010 0.881423 255 87 0 0.667179
0.050871 -0.125579 0.884573 255 89 0 0.661326
0.048678 -0.124335 0.883031 255 87 0 0.666444
0.095779 -0.143175 0.865404 255 92 0 0.659283
0.094281 -0.143718 0.869851 255 81 0 0.676614
0.092223 -0.142671 0.868084 255 94 0 0.653212
0.090790 -0.143177 0.872527 255 96 0 0.649243
0.092768 -0.144283 0.874170 255 92 0 0.656565
0.088727 -0.142100 0.870769 255 85 0 0.668568
0.089282 -0.143754 0.876868 255 89 0 0.663098
0.087294 -0.142591 0.875217 255 92 0 0.660060
0.085842 -0.143236 0.879536 255 96 0 0.651571
0.091186 -0.144919 0.878422 255 81 0 0.679099
0.087774 -0.144444 0.881103 255 102 0 0.639165
0.089613 -0.145625 0.882607 255 100 0 0.643940
0.085182 -0.141424 0.873485 255 63 0 0.712646
0.083779 -0.142006 0.877912 255 83 0 0.672531
0.081562 -0.140709 0.876240 255 77 0 0.685622
0.082987 -0.140267 0.872012 255 98 0 0.647254
0.086604 -0.141067 0.869256 255 96 0 0.650717
0.084368 -0.139897 0.867664 255 83 0 0.673381
0.088009 -0.140715 0.864893 255 96 0 0.651999
0.090187 -0.141770 0.866521 255 85 0 0.668768
0.091616 -0.141332 0.862184 255 71 0 0.696628
0.085739 -0.139382 0.863256 255 94 0 0.655307
0.089360 -0.140140 0.860500 255 92 0 0.659058
0.087088 -0.138660 0.858832 255 83 0 0.672870
0.093779 -0.142293 0.863836 255 85 0 0.670434
0.088056 -0.145321 0.886385 255 94 0 0.654831
0.086215 -0.144164 0.884737 255 83 0 0.672911
0.084742 -0.143972 0.888569 255 94 0 0.655826
0.086538 -0.145111 0.890154 255 102 0 0.637486
0.082817 -0.142774 0.886934 255 129 0 0.589248
0.083234 -0.143824 0.892376 255 106 0 0.631506
0.081356 -0.142653 0.890758 255 79 0 0.681276
0.085022 -0.144966 0.893946 255 100 0 0.644259
0.079329 -0.141400 0.889073 255 87 0 0.666446
0.077247 -0.140100 0.887507 255 98 0 0.645788
0.080834 -0.141499 0.885417 255 58 0 0.722054
0.078706 -0.140168 0.883818 255 118 0 0.608250
0.082327 -0.141687 0.881690 255 89 0 0.661167
0.084338 -0.142949 0.883231 255 85 0 0.669983
0.080156 -0.140379 0.880066 255 73 0 0.693518
0.068085 -0.134091 0.879954 255 141 0 0.566046
0.070371 -0.135912 0.881842 255 110 0 0.621464
0.071816 -0.135905 0.878183 255 116 0 0.612131
0.069545 -0.134051 0.876324 255 120 0 0.603263
0.074123 -0.137480 0.880056 255 75 0 0.689759
0.073288 -0.135913 0.874468 255 77 0 0.686971
0.075603 -0.137634 0.876317 255 71 0 0.695645
0.077065 -0.137886 0.872523 255 87 0 0.667673
0.071041 -0.134037 0.872629 255 48 0 0.741728
0.074773 -0.136031 0.870673 255 89 0 0.662164
0.072535 -0.134078 0.868844 255 114 0 0.614710
0.077898 -0.139065 0.878190 255 79 0 0.681571
0.079362 -0.139385 0.874398 255 110 0 0.624999
0.076491 -0.138873 0.881977 255 65 0 0.709920
0.075100 -0.138793 0.885725 255 46 0 0.744775
0.072749 -0.137432 0.883808 255 89 0 0.660256
0.074031 -0.133487 0.864763 255 87 0 0.667158
0.076177 -0.135230 0.866366 255 89 0 0.663520
0.077715 -0.134678 0.862184 255 94 0 0.653539
0.075548 -0.132894 0.860580 255 94 0 0.653268
0.079847 -0.136402 0.863831 255 83 0 0.675110
0.079200 -0.134094 0.857964 255 98 0 0.646943
0.081320 -0.135894 0.859625 255 81 0 0.676054
0.082797 -0.135314 0.855380 255 96 0 0.649234
0.077054 -0.132413 0.856304 255 102 0 0.640153
0.080719 -0.133563 0.853708 255 94 0 0.654916
0.078560 -0.131859 0.852024 255 85 0 0.669186
0.083485 -0.137626 0.861307 255 106 0 0.631065
0.084934 -0.137068 0.857075 255 73 0 0.693811
0.082108 -0.138343 0.865746 255 87 0 0.666686
0.080757 -0.138900 0.870108 255 102 0 0.639769
0.078466 -0.137167 0.868220 255 98 0 0.648104
0.074767 -0.130939 0.854805 255 75 0 0.689493
0.073261 -0.131434 0.859062 255 104 0 0.634639
0.070975 -0.130037 0.857526 255 98 0 0.646561
0.071771 -0.132071 0.863226 255 108 0 0.628160
0.069490 -0.130595 0.861688 255 116 0 0.611622
0.068044 -0.131246 0.865739 255 98 0 0.645044
0.070289 -0.132739 0.867287 255 77 0 0.686899
0.067222 -0.129225 0.860115 255 96 0 0.649867
0.065784 -0.129861 0.864146 255 83 0 0.672489
0.063587 -0.128537 0.862533 255 89 0 0.662426
0.065108 -0.127941 0.858700 255 92 0 0.659861
0.068788 -0.128669 0.856170 255 94 0 0.653775
0.066643 -0.127408 0.854758 255 75 0 0.690298
0.070413 -0.128242 0.852107 255 75 0 0.688550
0.072586 -0.129594 0.853446 255 89 0 0.662055
0.074202 -0.129192 0.849315 255 94 0 0.653642
0.068248 -0.126932 0.850744 255 89 0 0.660739
0.072059 -0.127871 0.847949 255 94 0 0.655716
0.069914 -0.126482 0.846644 255 89 0 0.661345
0.076367 -0.130504 0.850662 255 87 0 0.665245
0.068723 -0.132620 0.871014 255 102 0 0.639246
0.067247 -0.132634 0.874663 255 106 0 0.630078
0.064981 -0.131181 0.873013 255 96 0 0.650303
0.065772 -0.132718 0.878264 255 118 0 0.607965
0.063548 -0.131282 0.876592 255 129 0 0.589258
0.061342 -0.129754 0.874891 255 106 0 0.631292
0.059282 -0.128282 0.873259 255 98 0 0.645305
0.062848 -0.129786 0.871410 255 94 0 0.655875
0.060745 -0.128307 0.869775 255 87 0 0.664244
0.064319 -0.129802 0.867818 255 92 0 0.657878
0.066500 -0.131214 0.869424 255 98 0 0.647270
0.062176 -0.128404 0.866210 255 96 0 0.649929
0.050914 -0.124673 0.867270 255 83 0 0.672077
0.052924 -0.125514 0.868757 255 85 0 0.670402
0.054497 -0.125736 0.865343 255 85 0 0.671169
0.052523 -0.124996 0.863897 255 87 0 0.667028
0.056465 -0.126568 0.866798 255 85 0 0.669595
0.056038 -0.125960 0.861883 255 85 0 0.670236
0.057983 -0.126742 0.863308 255 85 0 0.669016
0.059499 -0.126914 0.859742 255 85 0 0.668490
0.054070 -0.125263 0.860440 255 85 0 0.670208
0.057534 -0.126160 0.858344 255 85 0 0.670239
0.055612 -0.125493 0.856950 255 98 0 0.646863
0.060005 -0.127578 0.864744 255 92 0 0.657344
0.061515 -0.127708 0.861142 255 87 0 0.667310
0.058599 -0.127458 0.868299 255 94 0 0.654811
0.057150 -0.127312 0.871772 255 87 0 0.667757
0.055034 -0.126368 0.870272 255 85 0 0.670016
0.057153 -0.124961 0.853370 255 83 0 0.674375
0.058971 -0.125587 0.854628 255 92 0 0.659278
0.060542 -0.125005 0.850915 255 85 0 0.670359
0.058705 -0.124271 0.849696 255 85 0 0.670575
0.062417 -0.125765 0.852126 255 92 0 0.658351
0.062165 -0.124370 0.847145 255 89 0 0.661734
0.064063 -0.125185 0.848286 255 87 0 0.666888
0.065844 -0.124742 0.844355 255 87 0 0.667135
0.060341 -0.123610 0.845979 255 85 0 0.670597
0.063890 -0.123855 0.843274 255 77 0 0.685383
0.062023 -0.122993 0.842154 255 85 0 0.669748
0.066072 -0.126035 0.849451 255 75 0 0.688380
0.067846 -0.125588 0.845491 255 87 0 0.664473
0.064498 -0.126534 0.853433 255 83 0 0.673638
0.062975 -0.127114 0.857337 255 94 0 0.655940
0.060928 -0.126311 0.855985 255 87 0 0.667968
0.098252 -0.016222 0.822670 255 77 0 0.683703
0.101718 -0.016055 0.824195 255 73 0 0.693429
0.101036 -0.020213 0.822399 255 63 0 0.713122
0.105714 -0.016046 0.826496 255 77 0 0.685534
0.104813 -0.020032 0.824172 255 77 0 0.686680
0.109258 -0.020130 0.826942 255 77 0 0.685855
0.110390 -0.016528 0.829869 255 67 0 0.703660
0.103818 -0.024357 0.822508 255 63 0 0.711076
0.108010 -0.024192 0.824593 255 75 0 0.690012
0.106721 -0.028530 0.822892 255 67 0 0.703931
0.103138 -0.028741 0.821499 255 65 0 0.708417
0.100570 -0.024467 0.821232 255 79 0 0.681791
0.099992 -0.028966 0.820296 255 69 0 0.700147
0.097513 -0.024603 0.820123 255 73 0 0.693461
0.097936 -0.020380 0.821256 255 79 0 0.682290
0.094961 -0.020463 0.820107 255 79 0 0.681771
0.096999 -0.029076 0.819106 255 83 0 0.674324
0.094565 -0.024658 0.818877 255 75 0 0.688454
0.094081 -0.029051 0.817708 255 73 0 0.694463
0.095252 -0.016308 0.821547 255 79 0 0.682780
0.113989 -0.016831 0.832114 255 73 0 0.695148
0.117603 -0.016969 0.834304 255 71 0 0.695620
0.116607 -0.020550 0.831435 255 65 0 0.709902
0.121140 -0.017151 0.836303 255 73 0 0.694908
