ply
format ascii 1.0
comment VCGLIB generated
element vertex 981
property float x
property float y
property float z
property uchar red
property uchar green
property uchar blue
property float quality
end_header
-0.042011 -0.121246 0.877706 224 255 24 0.315668
-0.038562 -0.122205 0.874808 218 255 30 0.301898
-0.041849 -0.122446 0.873186 233 255 15 0.332428
-0.038738 -0.121075 0.879384 220 255 28 0.307128
-0.040493 -0.119916 0.883028 222 255 26 0.309040
-0.042285 -0.118879 0.886740 224 255 24 0.314171
-0.045755 -0.117664 0.889557 222 255 26 0.312023
-0.039885 -0.123081 0.869354 213 255 35 0.291221
-0.036344 -0.123810 0.866446 215 255 33 0.294311
-0.034420 -0.124911 0.862771 211 255 37 0.288999
-0.030904 -0.126197 0.860048 213 255 35 0.292250
-0.034112 -0.126504 0.858372 206 255 42 0.275081
-0.031223 -0.124695 0.864479 213 255 35 0.290332
-0.033109 -0.123622 0.868109 213 255 35 0.290801
-0.035003 -0.122751 0.871822 209 255 39 0.284839
-0.037714 -0.125154 0.861090 213 255 35 0.291273
-0.039632 -0.124029 0.864753 213 255 35 0.292763
-0.043266 -0.123298 0.867654 225 255 22 0.320028
-0.045222 -0.122622 0.871464 216 255 31 0.298889
-0.048587 -0.122798 0.869720 218 255 30 0.303754
-0.046617 -0.123495 0.865899 215 255 33 0.296559
-0.042983 -0.124220 0.863010 215 255 33 0.294319
-0.041033 -0.125349 0.859299 216 255 31 0.298607
-0.037426 -0.126657 0.856581 207 255 40 0.279950
-0.040757 -0.126930 0.854828 209 255 39 0.282291
-0.045406 -0.121503 0.876085 222 255 26 0.311658
-0.047205 -0.120339 0.879736 220 255 28 0.308411
-0.050753 -0.119283 0.882549 222 255 26 0.308801
-0.052574 -0.118068 0.886204 222 255 26 0.308699
-0.056030 -0.118260 0.884489 222 255 26 0.309348
-0.054159 -0.119544 0.880848 220 255 28 0.306265
-0.050620 -0.120573 0.878037 222 255 26 0.309406
-0.048767 -0.121713 0.874347 225 255 22 0.318934
-0.062599 -0.118674 0.881282 222 255 26 0.311777
-0.060701 -0.119919 0.877611 224 255 24 0.313258
-0.057201 -0.120956 0.874749 224 255 24 0.313200
-0.055300 -0.122044 0.870993 234 255 13 0.336252
-0.051802 -0.122977 0.868060 220 255 28 0.307435
-0.055021 -0.123169 0.866398 224 255 24 0.313443
-0.052097 -0.121851 0.872683 222 255 26 0.310076
-0.053942 -0.120798 0.876392 227 255 21 0.322048
-0.057451 -0.119779 0.879278 222 255 26 0.311568
-0.059317 -0.118473 0.882890 213 255 35 0.289744
-0.053047 -0.123868 0.862559 220 255 28 0.306582
-0.049473 -0.124630 0.859628 218 255 30 0.302251
-0.047503 -0.125729 0.855893 216 255 31 0.297094
-0.043955 -0.127113 0.853126 211 255 37 0.286158
-0.047158 -0.127322 0.851411 211 255 37 0.288553
-0.044317 -0.125584 0.857620 215 255 33 0.294257
-0.046262 -0.124441 0.861307 216 255 31 0.298040
-0.049843 -0.123689 0.864262 218 255 30 0.302718
-0.050530 -0.125947 0.854321 216 255 31 0.299502
-0.052481 -0.124799 0.858040 220 255 28 0.305812
-0.055876 -0.123986 0.861113 224 255 24 0.312629
-0.057848 -0.123257 0.864919 225 255 22 0.318501
-0.060673 -0.123408 0.863445 224 255 24 0.313066
-0.058680 -0.124110 0.859603 227 255 21 0.321958
-0.055295 -0.124957 0.856566 222 255 26 0.309711
-0.053326 -0.126082 0.852803 218 255 30 0.303084
-0.049961 -0.127448 0.849890 215 255 33 0.293120
-0.052770 -0.127626 0.848385 213 255 35 0.292589
-0.058339 -0.122212 0.869479 222 255 26 0.310099
-0.060232 -0.121097 0.873219 225 255 22 0.316511
-0.063539 -0.120044 0.876235 227 255 21 0.323306
-0.065423 -0.118781 0.879859 229 255 19 0.324489
-0.068261 -0.118878 0.878443 224 255 24 0.314464
-0.066365 -0.120171 0.874780 225 255 22 0.317309
-0.063062 -0.121201 0.871783 231 255 17 0.328717
-0.061166 -0.122270 0.867972 227 255 21 0.320953
-0.073384 -0.119049 0.875838 225 255 22 0.317331
-0.071515 -0.120334 0.872158 229 255 19 0.326452
-0.068334 -0.121487 0.869089 227 255 21 0.323362
-0.066429 -0.122482 0.865262 231 255 17 0.329698
-0.063247 -0.123521 0.862113 231 255 17 0.329785
-0.065828 -0.123629 0.860771 233 255 15 0.335618
-0.063868 -0.122410 0.866621 229 255 19 0.324862
-0.065766 -0.121335 0.870403 227 255 21 0.321330
-0.068943 -0.120280 0.873506 225 255 22 0.318788
-0.070819 -0.118950 0.877134 224 255 24 0.315411
-0.063821 -0.124322 0.856904 233 255 15 0.332522
-0.060555 -0.125198 0.853774 225 255 22 0.317081
-0.058557 -0.126306 0.849980 222 255 26 0.309029
-0.055325 -0.127775 0.846999 215 255 33 0.294953
-0.057870 -0.127881 0.845605 211 255 37 0.287538
-0.056022 -0.126241 0.851389 224 255 24 0.312601
-0.057986 -0.125075 0.855131 224 255 24 0.313623
-0.061263 -0.124208 0.858267 229 255 19 0.324398
-0.120442 -0.098976 0.890902 225 255 22 0.319912
-0.117981 -0.097969 0.892927 227 255 21 0.321685
-0.115713 -0.100544 0.890613 225 255 22 0.317583
-0.118190 -0.101517 0.888539 225 255 22 0.316779
-0.114378 -0.098308 0.893869 225 255 22 0.316492
-0.110801 -0.098726 0.894899 224 255 24 0.314139
-0.112996 -0.096068 0.896578 224 255 24 0.315541
-0.116581 -0.095645 0.895561 227 255 21 0.323160
-0.116687 -0.103153 0.886952 227 255 21 0.321074
-0.115099 -0.104631 0.885217 227 255 21 0.321573
-0.112706 -0.103800 0.887453 227 255 21 0.321716
-0.113506 -0.106135 0.883484 227 255 21 0.323042
-0.111101 -0.105260 0.885706 233 255 15 0.333835
-0.109507 -0.106736 0.883955 225 255 22 0.318888
-0.111913 -0.107616 0.881722 240 254 8 0.351301
-0.108758 -0.104467 0.887964 224 255 24 0.315450
-0.107144 -0.105960 0.886221 224 255 24 0.315351
-0.104783 -0.105179 0.888478 224 255 24 0.313771
-0.106303 -0.103591 0.890153 218 255 30 0.301356
-0.110253 -0.102832 0.889577 224 255 24 0.315421
-0.107812 -0.101970 0.891777 224 255 24 0.313722
-0.111744 -0.101249 0.891190 225 255 22 0.317446
-0.114217 -0.102175 0.889050 225 255 22 0.317989
-0.109313 -0.100329 0.893357 224 255 24 0.313997
-0.095908 -0.098661 0.898643 220 255 28 0.308225
-0.097514 -0.096909 0.899719 220 255 28 0.308219
-0.099624 -0.098656 0.897669 220 255 28 0.305528
-0.101216 -0.096855 0.898656 222 255 26 0.310236
-0.099125 -0.095048 0.900649 222 255 26 0.308682
-0.103349 -0.098682 0.896705 218 255 30 0.303862
-0.102843 -0.095064 0.899617 222 255 26 0.309643
-0.104953 -0.096868 0.897647 224 255 24 0.313268
-0.106553 -0.095024 0.898561 216 255 31 0.297797
-0.100701 -0.093227 0.901552 222 255 26 0.310799
-0.104413 -0.093180 0.900412 224 255 24 0.312527
-0.102275 -0.091370 0.902366 220 255 28 0.306778
-0.107086 -0.098642 0.895764 224 255 24 0.312833
-0.108673 -0.096860 0.896694 231 255 17 0.330749
-0.105583 -0.100318 0.894251 222 255 26 0.312032
-0.104070 -0.101944 0.892638 222 255 26 0.311271
-0.101854 -0.100286 0.895118 222 255 26 0.309739
-0.100343 -0.101891 0.893470 220 255 28 0.308240
-0.102560 -0.103524 0.890970 216 255 31 0.298668
-0.098126 -0.100285 0.896055 220 255 28 0.307580
-0.106500 -0.090565 0.901636 224 255 24 0.314974
-0.104259 -0.088866 0.903210 225 255 22 0.316787
-0.108733 -0.092273 0.900088 224 255 24 0.313903
-0.110853 -0.094180 0.898307 224 255 24 0.313453
-0.064044 -0.027397 0.902370 234 255 13 0.338425
-0.062155 -0.024144 0.900811 255 207 0 0.439968
-0.060588 -0.027062 0.904205 255 230 0 0.395886
-0.060233 -0.020840 0.899233 197 255 51 0.254062
-0.058675 -0.023764 0.902659 197 255 51 0.256954
-0.056728 -0.020445 0.901037 204 255 44 0.273008
-0.057101 -0.026788 0.905946 202 255 46 0.266548
-0.058275 -0.017513 0.897561 202 255 46 0.269447
-0.056282 -0.014175 0.895826 209 255 39 0.283940
-0.060167 -0.014249 0.893873 204 255 44 0.271405
-0.062135 -0.017601 0.895537 202 255 46 0.268615
-0.064104 -0.020864 0.897237 171 255 76 0.202467
-0.064049 -0.014401 0.891853 188 255 60 0.235896
-0.054855 -0.023713 0.904548 218 255 30 0.304168
-0.053376 -0.026607 0.907720 207 255 40 0.278173
-0.052575 -0.020597 0.903093 218 255 30 0.303953
-0.051092 -0.023539 0.906254 209 255 39 0.283703
-0.048804 -0.020464 0.904710 216 255 31 0.300445
-0.049629 -0.026550 0.909315 211 255 37 0.286207
-0.050229 -0.017531 0.901442 213 255 35 0.290537
-0.047903 -0.014425 0.899730 206 255 42 0.276818
-0.052084 -0.014230 0.897854 209 255 39 0.284582
-0.054441 -0.017329 0.899529 209 255 39 0.283133
-0.045309 -0.004744 0.887745 220 255 28 0.305048
-0.047716 -0.004531 0.886744 216 255 31 0.297890
-0.048094 -0.007044 0.889920 204 255 44 0.272773
-0.050462 -0.006821 0.888876 215 255 33 0.294881
-0.050129 -0.004308 0.885732 216 255 31 0.299717
-0.050836 -0.009389 0.892014 220 255 28 0.305324
-0.052841 -0.006660 0.887773 213 255 35 0.292692
-0.053193 -0.009207 0.890880 213 255 35 0.290964
-0.055568 -0.009058 0.889741 211 255 37 0.285446
-0.052515 -0.004155 0.884685 215 255 33 0.296596
-0.055225 -0.006523 0.886696 218 255 30 0.301586
-0.054905 -0.004026 0.883609 215 255 33 0.293015
-0.053566 -0.011755 0.893964 211 255 37 0.287924
-0.055921 -0.011612 0.892799 218 255 30 0.303703
-0.049368 -0.011853 0.895915 215 255 33 0.296617
-0.046620 -0.009495 0.893864 211 255 37 0.288663
-0.057120 -0.003949 0.882663 207 255 40 0.279351
-0.059432 -0.006500 0.884831 207 255 40 0.279599
-0.059348 -0.003877 0.881699 211 255 37 0.287614
-0.059511 -0.009156 0.887920 200 255 48 0.262905
-0.061610 -0.006554 0.883726 204 255 44 0.271390
-0.061696 -0.009168 0.886830 202 255 46 0.267487
-0.063900 -0.009129 0.885757 198 255 49 0.261363
-0.061544 -0.003896 0.880704 209 255 39 0.284340
-0.063843 -0.006493 0.882772 207 255 40 0.278747
-0.063772 -0.003893 0.879758 209 255 39 0.281839
-0.061776 -0.011802 0.889909 200 255 48 0.261883
-0.063966 -0.011777 0.888798 200 255 48 0.264601
-0.075140 -0.028726 0.896197 216 255 31 0.298396
-0.074142 -0.025493 0.894256 218 255 30 0.302351
-0.072651 -0.028448 0.897550 218 255 30 0.303143
-0.073094 -0.022135 0.892423 231 255 17 0.329941
-0.071643 -0.025054 0.895708 215 255 33 0.293032
-0.070523 -0.021648 0.893770 227 255 21 0.320781
-0.070180 -0.028098 0.898972 213 255 35 0.291159
-0.071925 -0.018731 0.890434 255 228 0 0.400908
-0.070729 -0.015165 0.888509 159 255 89 0.174038
-0.073568 -0.015607 0.887277 175 255 73 0.208488
-0.074759 -0.019063 0.889215 218 255 30 0.301222
-0.075851 -0.022462 0.891053 218 255 30 0.301619
-0.076431 -0.015984 0.886117 216 255 31 0.300045
-0.068742 -0.024772 0.897260 213 255 35 0.290606
-0.067142 -0.027739 0.900705 231 255 17 0.329784
-0.067237 -0.021365 0.895525 213 255 35 0.291146
-0.065633 -0.024332 0.898982 252 240 0 0.377029
-0.065645 -0.017937 0.893674 171 255 76 0.200138
-0.067382 -0.014796 0.890182 182 255 66 0.224861
-0.068979 -0.018242 0.891992 161 255 87 0.176575
-0.067389 -0.006855 0.881366 200 255 48 0.263747
-0.067513 -0.004143 0.878484 207 255 40 0.279930
-0.067262 -0.009568 0.884208 186 255 62 0.233948
-0.071008 -0.009812 0.882868 191 255 57 0.245771
-0.071123 -0.007100 0.880064 200 255 48 0.265251
-0.071277 -0.004296 0.877347 204 255 44 0.272544
-0.069010 -0.012374 0.886409 184 255 64 0.228042
-0.074178 -0.007520 0.879112 200 255 48 0.262026
-0.074536 -0.004659 0.876597 209 255 39 0.282820
-0.073866 -0.010276 0.881715 189 255 58 0.239329
-0.077089 -0.010714 0.880815 195 255 53 0.251749
-0.077443 -0.007873 0.878366 211 255 37 0.285345
-0.077777 -0.005028 0.875881 209 255 39 0.283817
-0.075148 -0.013198 0.883857 184 255 64 0.228731
-0.072293 -0.012711 0.885064 193 255 55 0.248436
-0.089437 -0.025107 0.887817 220 255 28 0.307724
-0.087239 -0.027819 0.890349 225 255 22 0.318085
-0.085941 -0.030926 0.893059 224 255 24 0.314273
-0.089622 -0.021954 0.885390 216 255 31 0.299161
-0.089638 -0.018546 0.883100 222 255 26 0.311260
-0.092751 -0.019294 0.883175 218 255 30 0.304674
-0.084450 -0.027223 0.890590 220 255 28 0.307093
-0.083340 -0.030215 0.893282 213 255 35 0.292653
-0.085474 -0.024307 0.888054 215 255 33 0.294392
-0.085444 -0.021050 0.885717 222 255 26 0.310620
-0.085321 -0.017517 0.883511 222 255 26 0.310111
-0.089168 -0.006800 0.874464 211 255 37 0.285331
-0.089295 -0.010009 0.876531 231 255 17 0.328314
-0.091671 -0.007178 0.874376 213 255 35 0.292235
-0.089443 -0.013022 0.878676 224 255 24 0.314455
-0.091786 -0.010394 0.876435 213 255 35 0.291618
-0.091935 -0.013379 0.878532 218 255 30 0.301604
-0.094161 -0.007526 0.874358 222 255 26 0.311118
-0.089565 -0.015878 0.880849 224 255 24 0.313344
-0.086309 -0.015049 0.881122 216 255 31 0.297968
-0.095213 -0.011060 0.876554 227 255 21 0.323536
-0.097505 -0.008198 0.874592 224 255 24 0.312825
-0.074459 -0.096286 0.907012 220 255 28 0.304841
-0.074732 -0.092204 0.908826 216 255 31 0.300283
-0.076064 -0.088268 0.910121 218 255 30 0.302064
-0.076263 -0.084057 0.911637 215 255 33 0.296102
-0.077392 -0.079977 0.912554 222 255 26 0.310170
-0.075252 -0.079541 0.913338 220 255 28 0.307087
-0.078436 -0.084428 0.910826 216 255 31 0.300380
-0.079589 -0.080410 0.911747 225 255 22 0.319249
-0.078505 -0.088596 0.909203 215 255 33 0.293505
-0.078452 -0.092714 0.907327 215 255 33 0.293894
-0.077055 -0.096589 0.905913 218 255 30 0.301888
-0.079696 -0.096882 0.904811 213 255 35 0.290529
-0.074885 -0.074899 0.913340 220 255 28 0.305499
-0.075376 -0.070369 0.912882 233 255 15 0.333973
-0.074924 -0.065576 0.912479 215 255 33 0.294429
-0.075258 -0.061057 0.911753 218 255 30 0.303972
-0.077581 -0.066304 0.911616 222 255 26 0.308902
-0.078347 -0.071047 0.911884 222 255 26 0.310769
-0.077946 -0.075551 0.912324 213 255 35 0.290670
-0.079375 -0.062348 0.910472 216 255 31 0.300200
-0.080423 -0.067129 0.910753 220 255 28 0.304875
-0.080571 -0.071636 0.911176 218 255 30 0.303804
-0.081501 -0.076342 0.911037 216 255 31 0.297307
-0.082282 -0.080955 0.910713 222 255 26 0.310363
-0.083614 -0.085322 0.908665 220 255 28 0.308378
-0.082731 -0.089252 0.907336 218 255 30 0.303853
-0.082958 -0.093275 0.905369 216 255 31 0.298990
-0.081980 -0.097147 0.903810 218 255 30 0.301720
-0.084268 -0.097399 0.902786 218 255 30 0.302918
-0.080687 -0.093007 0.906424 216 255 31 0.298366
-0.080655 -0.084812 0.909906 213 255 35 0.289516
-0.074649 -0.099744 0.903438 224 255 24 0.314847
-0.074845 -0.103154 0.899857 216 255 31 0.300471
-0.077306 -0.099998 0.902381 218 255 30 0.301839
-0.077510 -0.103360 0.898799 218 255 30 0.301150
-0.075047 -0.106525 0.896277 218 255 30 0.301374
-0.075225 -0.109842 0.892681 220 255 28 0.305275
-0.072410 -0.109691 0.893939 218 255 30 0.303814
-0.072232 -0.106326 0.897521 216 255 31 0.300548
-0.072074 -0.102949 0.901158 216 255 31 0.299804
-0.069597 -0.109535 0.895226 218 255 30 0.302760
-0.079835 -0.100229 0.901208 218 255 30 0.301218
-0.079969 -0.103527 0.897556 216 255 31 0.300479
-0.082127 -0.100473 0.900239 220 255 28 0.308180
-0.082246 -0.103721 0.896574 218 255 30 0.302279
-0.080086 -0.106783 0.893922 222 255 26 0.312301
-0.080195 -0.110022 0.890272 220 255 28 0.305314
-0.077723 -0.109952 0.891488 220 255 28 0.305455
-0.077626 -0.106678 0.895157 225 255 22 0.318431
-0.073814 -0.116912 0.879963 224 255 24 0.313830
-0.074273 -0.114682 0.884148 222 255 26 0.311875
-0.071259 -0.116841 0.881290 225 255 22 0.319673
-0.071740 -0.114666 0.885534 222 255 26 0.308768
-0.074743 -0.112316 0.888385 220 255 28 0.306542
-0.077238 -0.112413 0.887213 220 255 28 0.306946
-0.076782 -0.114805 0.883006 222 255 26 0.310503
-0.068563 -0.116771 0.882579 218 255 30 0.303599
-0.068883 -0.114473 0.886740 222 255 26 0.309108
-0.065736 -0.116660 0.884014 222 255 26 0.309179
-0.066074 -0.114404 0.888221 220 255 28 0.306220
-0.069241 -0.112124 0.890980 218 255 30 0.304240
-0.072060 -0.112227 0.889704 220 255 28 0.305975
-0.085542 -0.117724 0.873735 227 255 21 0.321670
-0.089039 -0.116094 0.875749 227 255 21 0.320745
-0.090764 -0.113856 0.879254 216 255 31 0.298455
-0.094250 -0.112045 0.881235 222 255 26 0.309186
-0.090749 -0.111083 0.884306 222 255 26 0.311038
-0.094315 -0.114877 0.876257 227 255 21 0.321979
-0.097834 -0.113111 0.878249 227 255 21 0.320435
-0.092398 -0.116779 0.873166 229 255 19 0.324432
-0.090456 -0.118572 0.870063 229 255 19 0.326671
-0.092029 -0.107890 0.887838 213 255 35 0.290502
-0.094210 -0.109567 0.885346 222 255 26 0.311729
-0.095514 -0.106436 0.888900 220 255 28 0.307150
-0.093322 -0.104817 0.891482 213 255 35 0.292097
-0.097712 -0.108078 0.886375 222 255 26 0.311401
-0.096813 -0.103343 0.892491 216 255 31 0.298534
-0.099020 -0.104979 0.889956 222 255 26 0.309022
-0.094626 -0.101732 0.895096 229 255 19 0.325056
-0.101245 -0.106627 0.887449 220 255 28 0.307440
-0.101282 -0.109094 0.883330 236 255 12 0.340668
-0.097753 -0.110590 0.882302 222 255 26 0.309318
-0.110191 -0.109645 0.879206 224 255 24 0.314490
-0.108268 -0.111289 0.876973 231 255 17 0.328403
-0.106042 -0.110758 0.878863 227 255 21 0.323232
-0.106355 -0.112939 0.874764 231 255 17 0.329522
-0.104142 -0.112420 0.876638 229 255 19 0.324285
-0.102230 -0.114047 0.874414 229 255 19 0.327012
-0.104437 -0.114578 0.872564 231 255 17 0.330127
-0.101927 -0.111916 0.878528 234 255 13 0.336324
-0.100024 -0.113547 0.876308 229 255 19 0.324352
-0.103650 -0.109908 0.881069 225 255 22 0.318213
-0.105387 -0.107903 0.883634 225 255 22 0.317790
-0.107770 -0.108738 0.881401 227 255 21 0.321577
-0.102520 -0.116590 0.869515 231 255 17 0.331684
-0.100397 -0.118081 0.866843 240 254 8 0.351305
-0.098371 -0.117936 0.868301 231 255 17 0.331353
-0.098239 -0.119458 0.864132 234 255 13 0.336353
-0.096230 -0.119300 0.865588 233 255 15 0.333613
-0.094223 -0.119206 0.867066 231 255 17 0.330779
-0.096161 -0.117412 0.870172 231 255 17 0.329637
-0.098106 -0.115521 0.873254 229 255 19 0.327206
-0.100307 -0.116024 0.871366 231 255 17 0.330394
-0.060475 -0.094740 0.912059 216 255 31 0.297947
-0.061061 -0.098499 0.908681 220 255 28 0.308171
-0.064109 -0.095153 0.910762 216 255 31 0.298750
-0.061648 -0.102138 0.905268 216 255 31 0.299290
-0.064709 -0.098822 0.907392 215 255 33 0.294267
-0.065307 -0.102434 0.903940 216 255 31 0.297080
-0.067745 -0.095548 0.909490 224 255 24 0.313782
-0.062217 -0.105697 0.901756 218 255 30 0.301713
-0.062770 -0.109102 0.898194 218 255 30 0.301283
-0.059161 -0.108865 0.899791 213 255 35 0.290264
-0.058605 -0.105419 0.903319 216 255 31 0.296975
-0.058041 -0.101805 0.906822 216 255 31 0.300405
-0.055534 -0.108635 0.901326 218 255 30 0.304140
-0.068217 -0.099157 0.905983 216 255 31 0.298634
-0.071099 -0.095914 0.908271 209 255 39 0.284997
-0.068682 -0.102702 0.902438 216 255 31 0.298448
-0.071602 -0.099464 0.904731 216 255 31 0.300036
-0.069141 -0.106160 0.898826 216 255 31 0.300252
-0.066175 -0.109321 0.896700 218 255 30 0.301322
-0.065746 -0.105927 0.900324 216 255 31 0.298626
-0.062596 -0.116511 0.885427 229 255 19 0.325085
-0.062630 -0.114193 0.889631 218 255 30 0.304370
-0.059340 -0.116347 0.887098 220 255 28 0.306546
-0.059384 -0.114040 0.891338 225 255 22 0.319161
-0.062680 -0.111712 0.893862 216 255 31 0.299184
-0.066107 -0.111923 0.892430 218 255 30 0.303064
-0.055878 -0.116157 0.888659 220 255 28 0.305592
-0.055734 -0.113822 0.892846 218 255 30 0.302511
-0.052430 -0.115950 0.890402 220 255 28 0.305239
-0.052307 -0.113641 0.894641 218 255 30 0.302859
-0.055625 -0.111325 0.897076 218 255 30 0.301531
-0.059257 -0.111539 0.895533 216 255 31 0.300475
-0.065384 -0.031203 0.903661 215 255 33 0.295939
-0.066693 -0.035018 0.904968 225 255 22 0.318603
-0.068423 -0.031491 0.901996 216 255 31 0.299476
-0.069708 -0.035177 0.903414 222 255 26 0.308929
-0.067997 -0.038817 0.906359 218 255 30 0.303412
-0.069308 -0.042662 0.907805 218 255 30 0.303428
-0.066484 -0.042320 0.909165 220 255 28 0.306543
-0.065156 -0.038442 0.907771 222 255 26 0.312249
-0.063801 -0.034585 0.906407 213 255 35 0.292487
-0.063626 -0.041980 0.910498 218 255 30 0.300931
-0.071101 -0.031828 0.900530 218 255 30 0.302978
-0.071993 -0.035558 0.902157 218 255 30 0.303380
-0.073558 -0.032071 0.899160 216 255 31 0.299398
-0.074318 -0.035740 0.900756 209 255 39 0.283244
-0.072830 -0.039354 0.903788 213 255 35 0.290378
-0.073582 -0.043252 0.905534 218 255 30 0.303715
-0.071523 -0.042979 0.906688 215 255 33 0.293616
-0.070628 -0.039036 0.905013 224 255 24 0.313213
-0.072532 -0.060369 0.912665 222 255 26 0.310967
-0.072437 -0.056036 0.911035 216 255 31 0.298751
-0.071291 -0.051501 0.909860 218 255 30 0.303002
-0.070101 -0.055588 0.911906 220 255 28 0.307457
-0.068946 -0.051021 0.910745 220 255 28 0.308278
-0.070160 -0.059911 0.913470 227 255 21 0.320563
-0.070237 -0.047052 0.908768 216 255 31 0.299735
-0.072383 -0.047336 0.907698 216 255 31 0.297624
-0.073374 -0.051789 0.908852 224 255 24 0.312912
-0.067529 -0.059482 0.914408 216 255 31 0.299793
-0.067515 -0.055218 0.912935 224 255 24 0.314888
-0.066154 -0.050738 0.912026 218 255 30 0.302857
-0.064648 -0.054728 0.913995 224 255 24 0.314104
-0.063326 -0.050235 0.913156 224 255 24 0.314810
-0.064668 -0.059009 0.915434 216 255 31 0.298412
-0.064867 -0.046306 0.911216 229 255 19 0.324317
-0.067670 -0.046643 0.909891 220 255 28 0.307574
-0.091023 -0.039032 0.898432 222 255 26 0.311835
-0.090817 -0.042691 0.900790 233 255 15 0.333168
-0.089402 -0.046598 0.903106 211 255 37 0.287209
-0.088699 -0.042684 0.900566 234 255 13 0.336542
-0.091456 -0.035477 0.895949 225 255 22 0.318567
-0.089569 -0.054688 0.906148 222 255 26 0.311199
-0.089945 -0.058468 0.907468 234 255 13 0.338189
-0.090432 -0.062187 0.908619 234 255 13 0.338710
-0.088672 -0.050689 0.904642 229 255 19 0.327161
-0.085214 -0.063457 0.909115 225 255 22 0.318315
-0.084873 -0.059192 0.907749 225 255 22 0.316970
-0.085451 -0.055004 0.906247 222 255 26 0.310313
-0.085367 -0.050692 0.904648 207 255 40 0.281001
-0.086252 -0.046512 0.903031 213 255 35 0.290316
-0.087537 -0.058956 0.907611 213 255 35 0.290910
-0.087941 -0.062976 0.908860 225 255 22 0.319323
-0.085406 -0.042340 0.900442 231 255 17 0.329378
-0.087154 -0.038633 0.898000 215 255 33 0.294093
-0.088270 -0.035100 0.895563 225 255 22 0.320119
-0.083011 -0.054411 0.906300 216 255 31 0.297393
-0.082482 -0.058763 0.908057 216 255 31 0.297304
-0.082864 -0.063231 0.909579 224 255 24 0.316243
-0.082190 -0.049873 0.904683 202 255 46 0.268078
-0.081485 -0.045442 0.903126 215 255 33 0.293209
-0.083846 -0.046147 0.903015 220 255 28 0.304863
-0.080294 -0.058197 0.908446 220 255 28 0.305197
-0.080040 -0.053647 0.906701 218 255 30 0.301326
-0.079282 -0.048968 0.905103 216 255 31 0.297211
-0.078702 -0.044376 0.903537 213 255 35 0.289335
-0.081541 -0.033291 0.895802 218 255 30 0.304672
-0.081422 -0.037051 0.898194 218 255 30 0.302582
-0.084035 -0.034029 0.895521 225 255 22 0.318130
-0.081383 -0.041121 0.900626 215 255 33 0.293595
-0.079329 -0.040373 0.900957 218 255 30 0.301174
-0.084669 -0.037981 0.897868 213 255 35 0.291299
-0.087617 -0.067471 0.909093 224 255 24 0.313542
-0.090083 -0.071360 0.908843 236 255 12 0.340422
-0.090369 -0.066904 0.908756 218 255 30 0.304159
-0.092515 -0.075158 0.908415 225 255 22 0.316546
-0.094925 -0.078821 0.907856 220 255 28 0.305409
-0.092859 -0.080125 0.907820 218 255 30 0.303998
-0.090552 -0.076457 0.908424 227 255 21 0.320539
-0.088158 -0.072638 0.908862 225 255 22 0.319237
-0.090780 -0.081381 0.907745 224 255 24 0.315158
-0.093483 -0.069346 0.908746 233 255 15 0.335573
-0.096604 -0.077179 0.908027 225 255 22 0.317100
-0.102501 -0.085789 0.904548 222 255 26 0.309732
-0.100634 -0.082669 0.905844 220 255 28 0.307144
-0.098781 -0.085172 0.905060 224 255 24 0.314858
-0.100562 -0.088260 0.903665 218 255 30 0.304551
-0.097763 -0.080773 0.906848 227 255 21 0.322412
-0.097884 -0.090793 0.902850 222 255 26 0.309989
-0.096604 -0.086478 0.904990 224 255 24 0.313779
-0.096349 -0.092669 0.902060 220 255 28 0.307462
-0.095076 -0.088348 0.904264 216 255 31 0.300390
-0.093523 -0.090198 0.903392 220 255 28 0.307127
-0.094753 -0.094467 0.901093 218 255 30 0.303788
-0.093705 -0.083971 0.906351 218 255 30 0.303466
-0.092217 -0.085852 0.905637 225 255 22 0.319854
-0.095841 -0.082673 0.906428 225 255 22 0.319270
-0.072685 -0.065055 0.913178 222 255 26 0.311653
-0.073070 -0.069828 0.913568 224 255 24 0.313013
-0.071984 -0.074311 0.914251 218 255 30 0.301441
-0.072307 -0.079015 0.914294 213 255 35 0.290371
-0.069383 -0.078483 0.915187 215 255 33 0.296833
-0.069298 -0.073826 0.915054 215 255 33 0.293634
-0.070383 -0.069331 0.914375 216 255 31 0.299981
-0.070278 -0.064606 0.913972 213 255 35 0.291456
-0.073500 -0.083574 0.912629 216 255 31 0.299687
-0.073296 -0.087846 0.911137 222 255 26 0.309207
-0.071381 -0.091761 0.910067 216 255 31 0.297139
-0.068230 -0.091350 0.911165 216 255 31 0.297253
-0.070148 -0.087343 0.912224 215 255 33 0.295479
-0.070537 -0.083088 0.913586 229 255 19 0.324225
-0.061155 -0.090466 0.913615 215 255 33 0.296458
-0.063464 -0.086351 0.914494 224 255 24 0.314411
-0.064007 -0.082020 0.915677 213 255 35 0.291781
-0.066138 -0.077923 0.916207 224 255 24 0.315336
-0.062846 -0.077371 0.917162 213 255 35 0.290542
-0.067298 -0.082528 0.914658 216 255 31 0.299816
-0.066896 -0.086852 0.913356 220 255 28 0.306926
-0.064611 -0.090885 0.912424 215 255 33 0.296853
-0.062911 -0.072746 0.916934 242 253 6 0.353877
-0.064465 -0.068291 0.916171 240 254 8 0.349716
-0.064530 -0.063643 0.915802 227 255 21 0.320927
-0.067418 -0.064092 0.914822 222 255 26 0.310770
-0.067534 -0.068838 0.915237 233 255 15 0.335168
-0.066040 -0.073247 0.916013 231 255 17 0.330728
0.003581 0.002701 0.883111 227 255 21 0.320528
0.006169 0.002719 0.884352 227 255 21 0.320837
0.004544 0.001498 0.887179 227 255 21 0.323864
0.001948 0.001521 0.885949 224 255 24 0.314330
0.007155 0.001483 0.888408 234 255 13 0.337805
0.002914 0.000361 0.890042 240 254 8 0.348850
0.005515 0.000288 0.891272 231 255 17 0.330991
0.003856 -0.000809 0.894160 234 255 13 0.336983
0.000317 0.000427 0.888816 224 255 24 0.313220
0.001267 -0.000705 0.892942 233 255 15 0.332864
-0.001327 -0.000613 0.891719 231 255 17 0.328714
0.008120 0.000212 0.892474 238 255 10 0.344879
0.006450 -0.000918 0.895368 247 246 1 0.366377
0.009047 -0.001050 0.896573 238 255 10 0.346652
0.010894 0.000072 0.893794 247 246 1 0.364638
0.009932 0.001402 0.889756 229 255 19 0.324793
0.012699 0.001309 0.891106 234 255 13 0.337891
0.011710 0.002658 0.887086 227 255 21 0.320932
0.008938 0.002689 0.885715 229 255 19 0.325951
0.014486 0.002622 0.888467 227 255 21 0.320709
-0.002991 -0.002164 0.894572 231 255 17 0.331672
-0.000607 -0.002181 0.895731 234 255 13 0.336861
-0.002304 -0.003748 0.898610 247 246 1 0.367049
-0.004683 -0.003684 0.897449 233 255 15 0.332423
0.000107 -0.003786 0.899731 243 251 4 0.357968
-0.003987 -0.005208 0.901453 224 255 24 0.315973
-0.001600 -0.005302 0.902567 238 255 10 0.345393
-0.003289 -0.006747 0.905380 227 255 21 0.324172
-0.006366 -0.005175 0.900311 229 255 19 0.324945
-0.005654 -0.006706 0.904232 233 255 15 0.333740
-0.008019 -0.006652 0.903091 225 255 22 0.319699
0.000798 -0.005391 0.903695 242 253 6 0.352567
-0.000919 -0.006855 0.906531 216 255 31 0.299341
0.001467 -0.006978 0.907657 242 253 6 0.353986
0.003361 -0.005587 0.904900 247 246 1 0.365437
0.002684 -0.003936 0.900947 234 255 13 0.337648
0.005259 -0.004108 0.902140 251 242 0 0.371317
0.004578 -0.002432 0.898154 242 253 6 0.351732
0.001985 -0.002299 0.896944 249 244 0 0.368826
0.007168 -0.002594 0.899341 236 255 12 0.342412
0.010630 -0.005754 0.908611 255 226 0 0.405585
0.012744 -0.004280 0.905922 255 189 0 0.475126
0.010106 -0.004152 0.904646 255 220 0 0.417542
0.014888 -0.002801 0.903188 255 230 0 0.394754
0.012251 -0.002695 0.901891 245 249 3 0.360339
0.014339 -0.001100 0.899207 243 251 4 0.357040
0.016986 -0.001132 0.900516 243 251 4 0.359060
0.009596 -0.002594 0.900596 249 244 0 0.370975
0.011700 -0.001074 0.897888 251 242 0 0.374329
0.007704 -0.004144 0.903376 255 236 0 0.383625
0.005795 -0.005637 0.906139 255 226 0 0.402875
0.008220 -0.005698 0.907378 255 232 0 0.391252
0.006297 -0.007163 0.910148 249 244 0 0.369929
0.003891 -0.007045 0.908892 245 249 3 0.362046
0.008708 -0.007261 0.911375 254 238 0 0.382460
0.018809 0.000145 0.897848 222 255 26 0.310934
0.020802 0.001499 0.895340 229 255 19 0.324696
0.017984 0.001480 0.893860 227 255 21 0.324062
0.022734 0.002847 0.892894 227 255 21 0.321334
0.019943 0.002821 0.891386 227 255 21 0.320942
0.017131 0.002755 0.889875 227 255 21 0.320912
0.015341 0.001391 0.892484 243 251 4 0.356143
0.013539 0.000110 0.895150 234 255 13 0.336044
0.016186 0.000131 0.896499 233 255 15 0.335469
0.027067 0.000170 0.839805 236 255 12 0.341035
0.025877 0.001009 0.842099 227 255 21 0.321707
0.028983 0.001069 0.843685 225 255 22 0.317414
0.027779 0.001909 0.845979 224 255 24 0.313664
0.024666 0.001854 0.844390 225 255 22 0.316789
0.030870 0.001912 0.847574 222 255 26 0.309288
0.026544 0.002745 0.848290 224 255 24 0.315287
0.029635 0.002752 0.849875 224 255 24 0.312754
0.028380 0.003585 0.852202 233 255 15 0.333662
0.023427 0.002688 0.846706 224 255 24 0.313986
0.025292 0.003569 0.850623 225 255 22 0.317186
0.022171 0.003505 0.849039 225 255 22 0.318355
0.032704 0.002713 0.851463 222 255 26 0.312360
0.031459 0.003563 0.853792 227 255 21 0.321571
0.034517 0.003495 0.855394 222 255 26 0.310542
0.035764 0.002653 0.853137 220 255 28 0.307173
0.033939 0.001876 0.849226 218 255 30 0.302987
0.036990 0.001813 0.850899 211 255 37 0.285320
0.035153 0.001065 0.846994 220 255 28 0.304787
0.032083 0.001082 0.845341 224 255 24 0.312753
0.033281 0.000281 0.843107 234 255 13 0.336302
0.038202 0.000992 0.848670 215 255 33 0.293736
0.036360 0.000271 0.844761 236 255 12 0.341145
0.039413 0.000222 0.846428 227 255 21 0.320509
0.030188 0.000252 0.841450 233 255 15 0.334498
0.020858 0.003974 0.851535 222 255 26 0.310564
0.023905 0.004042 0.853027 225 255 22 0.318478
0.022589 0.004514 0.855528 227 255 21 0.320344
0.019551 0.004440 0.854033 227 255 21 0.321103
0.025613 0.004542 0.857024 222 255 26 0.311337
0.021280 0.004982 0.858022 227 255 21 0.321204
0.024298 0.005018 0.859535 229 255 19 0.326509
0.018254 0.004910 0.856528 227 255 21 0.322365
0.027313 0.005028 0.861059 225 255 22 0.319842
0.030377 0.005001 0.862676 225 255 22 0.318692
0.028695 0.004545 0.858627 225 255 22 0.317995
0.031761 0.004509 0.860238 224 255 24 0.316162
0.030082 0.004059 0.856200 224 255 24 0.315463
0.027001 0.004067 0.854606 225 255 22 0.317636
0.033147 0.004010 0.857805 224 255 24 0.312745
0.039779 0.004977 0.867691 224 255 24 0.313772
0.041263 0.004430 0.865318 222 255 26 0.308952
0.038038 0.004513 0.863554 222 255 26 0.312322
0.042740 0.003872 0.862957 218 255 30 0.304525
0.039521 0.003971 0.861200 224 255 24 0.313741
0.041004 0.003422 0.858869 220 255 28 0.305302
0.044212 0.003303 0.860639 216 255 31 0.299296
0.036278 0.004014 0.859448 222 255 26 0.310430
0.037763 0.003483 0.857124 224 255 24 0.315509
0.034907 0.004535 0.861888 224 255 24 0.314491
0.033530 0.005038 0.864330 225 255 22 0.317407
0.036659 0.005034 0.866016 224 255 24 0.315458
0.045436 0.002414 0.858379 209 255 39 0.284903
0.046690 0.001548 0.856193 215 255 33 0.294481
0.043455 0.001690 0.854385 209 255 39 0.284810
0.047938 0.000717 0.854000 206 255 42 0.276415
0.044707 0.000862 0.852202 209 255 39 0.281614
0.045954 0.000105 0.850009 227 255 21 0.323044
0.049193 -0.000028 0.851795 224 255 24 0.313646
0.041443 0.000956 0.850410 204 255 44 0.269998
0.042691 0.000188 0.848211 222 255 26 0.308851
0.040227 0.001781 0.852631 213 255 35 0.289867
0.039002 0.002631 0.854867 215 255 33 0.293921
0.042236 0.002552 0.856619 215 255 33 0.293938
-0.008105 -0.123497 0.871721 225 255 22 0.317664
-0.009855 -0.122217 0.875005 225 255 22 0.319634
-0.013329 -0.121473 0.877673 224 255 24 0.314390
-0.015124 -0.120727 0.881178 224 255 24 0.315429
-0.018625 -0.120339 0.884023 231 255 17 0.330911
-0.015218 -0.119843 0.885488 227 255 21 0.320671
-0.018543 -0.121228 0.879728 227 255 21 0.321952
-0.022043 -0.120817 0.882536 224 255 24 0.315498
-0.016717 -0.121966 0.876093 220 255 28 0.307932
-0.014912 -0.123021 0.872610 231 255 17 0.331589
-0.011446 -0.124107 0.870075 225 255 22 0.317672
-0.014809 -0.124598 0.868388 225 255 22 0.319926
-0.016916 -0.118815 0.888988 225 255 22 0.318974
-0.020359 -0.118068 0.891931 227 255 21 0.323991
-0.022095 -0.116939 0.895507 224 255 24 0.315635
-0.025544 -0.115909 0.898397 224 255 24 0.314793
-0.022122 -0.115361 0.899689 224 255 24 0.315727
-0.025510 -0.117363 0.894161 224 255 24 0.314890
-0.028957 -0.116295 0.897007 231 255 17 0.331641
-0.023769 -0.118514 0.890513 229 255 19 0.327970
-0.022035 -0.119552 0.886893 224 255 24 0.315940
-0.032269 -0.118095 0.891378 224 255 24 0.313116
-0.030499 -0.119229 0.887663 224 255 24 0.313360
-0.027091 -0.120088 0.884711 224 255 24 0.314396
-0.025377 -0.121175 0.881043 231 255 17 0.328376
-0.027143 -0.118906 0.889098 231 255 17 0.328653
-0.028889 -0.117757 0.892721 220 255 28 0.306071
-0.032330 -0.116666 0.895661 231 255 17 0.328715
-0.025228 -0.121963 0.876638 222 255 26 0.309742
-0.023368 -0.122795 0.872957 238 255 10 0.345230
-0.019894 -0.123612 0.870198 227 255 21 0.322250
-0.018087 -0.125020 0.866738 220 255 28 0.306099
-0.020063 -0.122373 0.874519 225 255 22 0.316848
-0.021886 -0.121635 0.878132 227 255 21 0.324042
0.016821 -0.116248 0.887270 234 255 13 0.336927
0.013209 -0.115907 0.889672 227 255 21 0.323638
0.013293 -0.115243 0.893935 227 255 21 0.321877
0.009669 -0.115030 0.896493 229 255 19 0.327612
0.009578 -0.115700 0.892176 227 255 21 0.323361
0.005971 -0.115510 0.894755 234 255 13 0.339612
0.009517 -0.116438 0.887823 236 255 12 0.342529
0.013116 -0.116780 0.885407 225 255 22 0.317533
0.016721 -0.117285 0.883112 224 255 24 0.316260
0.012988 -0.118047 0.881338 222 255 26 0.310255
0.009726 -0.113965 0.900815 231 255 17 0.331759
0.006180 -0.113118 0.903383 231 255 17 0.331717
0.004454 -0.112023 0.906786 234 255 13 0.336911
0.002721 -0.110751 0.910150 236 255 12 0.340814
-0.000917 -0.111195 0.908537 240 254 8 0.348734
0.000809 -0.112463 0.905121 233 255 15 0.333777
0.002535 -0.113591 0.901662 231 255 17 0.328942
0.006082 -0.114386 0.899076 238 255 10 0.346490
-0.008053 -0.112530 0.905556 222 255 26 0.311819
-0.006348 -0.113794 0.902084 227 255 21 0.322624
-0.002832 -0.114614 0.899397 231 255 17 0.330833
-0.001105 -0.115668 0.895871 231 255 17 0.329499
0.002405 -0.116255 0.893187 229 255 19 0.324622
-0.001199 -0.116986 0.891609 227 255 21 0.321636
0.002464 -0.114912 0.897441 233 255 15 0.334339
-0.002767 -0.113134 0.903671 238 255 10 0.344621
-0.004449 -0.111854 0.907056 233 255 15 0.335513
0.000561 -0.117503 0.888104 233 255 15 0.333071
0.004139 -0.117716 0.885487 225 255 22 0.318500
0.005889 -0.118519 0.882164 227 255 21 0.321102
0.009430 -0.119025 0.879760 231 255 17 0.330757
0.005831 -0.120004 0.878154 227 255 21 0.323396
0.009465 -0.117573 0.883757 233 255 15 0.334505
0.005974 -0.116310 0.890466 227 255 21 0.323001
0.002310 -0.119423 0.880625 231 255 17 0.328673
0.000560 -0.118571 0.883929 224 255 24 0.315423
-0.002978 -0.118352 0.886606 227 255 21 0.321112
-0.004730 -0.117772 0.890087 225 255 22 0.317362
-0.008299 -0.118503 0.888507 224 255 24 0.315726
-0.006527 -0.119106 0.884976 220 255 28 0.307887
-0.002980 -0.119394 0.882350 225 255 22 0.316733
-0.001206 -0.120298 0.879010 227 255 21 0.322772
0.002333 -0.121020 0.876597 222 255 26 0.311376
-0.001216 -0.121884 0.874955 227 255 21 0.320725
-0.004652 -0.116416 0.894376 229 255 19 0.327613
-0.006380 -0.115341 0.897862 229 255 19 0.327335
-0.009872 -0.114608 0.900636 233 255 15 0.333707
-0.011599 -0.113395 0.904165 233 255 15 0.333800
-0.015168 -0.114072 0.902620 229 255 19 0.326257
-0.013434 -0.115363 0.899056 225 255 22 0.317602
-0.009927 -0.116059 0.896282 225 255 22 0.318644
-0.008211 -0.117196 0.892805 225 255 22 0.318214
-0.018638 -0.116355 0.896960 238 255 10 0.345321
-0.016893 -0.117481 0.893357 227 255 21 0.323238
-0.013449 -0.118168 0.890533 234 255 13 0.338091
-0.011749 -0.119233 0.887029 222 255 26 0.311160
-0.013426 -0.116813 0.894809 222 255 26 0.311270
-0.018639 -0.114742 0.901157 231 255 17 0.331915
-0.011700 -0.120095 0.882732 231 255 17 0.330303
-0.009906 -0.120881 0.879232 224 255 24 0.312975
-0.006415 -0.121517 0.876665 231 255 17 0.329751
-0.004654 -0.122725 0.873358 227 255 21 0.323738
-0.006461 -0.120163 0.880798 222 255 26 0.310391
-0.007870 -0.110176 0.909555 236 255 12 0.340185
-0.007662 -0.107607 0.913439 238 255 10 0.347422
-0.004286 -0.109482 0.911004 234 255 13 0.338381
-0.004097 -0.106885 0.914820 242 253 6 0.351807
-0.007440 -0.104817 0.917129 243 251 4 0.357733
-0.007225 -0.101861 0.920708 252 240 0 0.378663
-0.010750 -0.102504 0.919451 240 254 8 0.350969
-0.011013 -0.105425 0.915758 242 253 6 0.352638
-0.011262 -0.108178 0.912013 234 255 13 0.336611
-0.014397 -0.103075 0.918017 234 255 13 0.339436
-0.000711 -0.108951 0.912472 234 255 13 0.336033
-0.000511 -0.106518 0.916238 242 253 6 0.352330
0.002904 -0.108522 0.914045 234 255 13 0.338878
-0.000298 -0.103898 0.919865 229 255 19 0.325101
-0.003633 -0.101461 0.922065 242 253 6 0.351787
-0.003865 -0.104253 0.918500 240 254 8 0.348784
-0.007380 -0.091435 0.928617 236 255 12 0.341667
-0.006203 -0.094904 0.926495 238 255 10 0.346230
-0.009746 -0.095128 0.925194 242 253 6 0.352438
-0.010950 -0.091664 0.927318 236 255 12 0.340593
-0.006749 -0.098417 0.923648 247 246 1 0.364925
-0.003150 -0.098045 0.924966 240 254 8 0.348399
-0.014519 -0.092181 0.926117 234 255 13 0.339601
-0.013332 -0.095785 0.923971 236 255 12 0.341696
-0.016918 -0.096198 0.922663 234 255 13 0.338108
-0.018128 -0.092612 0.924803 236 255 12 0.342649
-0.013884 -0.099491 0.921083 238 255 10 0.346492
-0.010269 -0.098872 0.922397 234 255 13 0.337963
-0.047127 -0.023643 0.907927 215 255 33 0.293359
-0.045818 -0.026592 0.910910 224 255 24 0.312888
-0.044602 -0.020758 0.906395 216 255 31 0.298941
-0.043277 -0.023695 0.909417 216 255 31 0.297946
-0.040715 -0.020823 0.907805 218 255 30 0.303909
-0.041972 -0.026706 0.912331 209 255 39 0.284745
-0.042003 -0.017840 0.904752 215 255 33 0.296257
-0.039392 -0.014948 0.902982 225 255 22 0.319192
-0.043658 -0.014619 0.901463 222 255 26 0.310536
-0.046241 -0.017540 0.903143 216 255 31 0.299361
-0.039240 -0.023906 0.910895 225 255 22 0.317741
-0.038080 -0.026833 0.913795 220 255 28 0.306531
-0.036505 -0.021133 0.909322 220 255 28 0.306461
-0.035369 -0.024043 0.912267 220 255 28 0.304968
-0.032633 -0.021226 0.910651 220 255 28 0.307223
-0.034203 -0.026986 0.915155 220 255 28 0.306000
-0.033753 -0.018274 0.907688 218 255 30 0.304424
-0.030992 -0.015373 0.906067 222 255 26 0.311710
-0.035174 -0.015162 0.904548 227 255 21 0.320751
-0.037952 -0.018007 0.906203 211 255 37 0.286510
-0.026628 -0.005933 0.895072 225 255 22 0.318558
-0.028959 -0.005799 0.894225 220 255 28 0.306889
-0.029932 -0.008182 0.897150 224 255 24 0.315791
-0.032220 -0.008026 0.896271 224 255 24 0.314085
-0.031259 -0.005648 0.893331 224 255 24 0.315215
-0.033133 -0.010441 0.899129 224 255 24 0.312810
-0.034505 -0.007885 0.895366 224 255 24 0.313134
-0.035420 -0.010302 0.898231 222 255 26 0.312114
-0.037683 -0.010112 0.897333 222 255 26 0.310316
-0.033591 -0.005552 0.892423 224 255 24 0.313868
-0.036812 -0.007763 0.894446 222 255 26 0.311000
-0.035893 -0.005436 0.891459 222 255 26 0.312435
-0.036279 -0.012699 0.901069 218 255 30 0.304346
-0.038560 -0.012530 0.900178 222 255 26 0.309460
-0.032066 -0.012878 0.902631 229 255 19 0.324600
-0.028912 -0.010548 0.900708 211 255 37 0.288858
-0.038257 -0.005248 0.890584 222 255 26 0.311528
-0.041297 -0.007448 0.892732 218 255 30 0.301038
-0.040596 -0.005046 0.889655 222 255 26 0.308607
-0.041961 -0.009893 0.895753 220 255 28 0.307382
-0.043636 -0.007249 0.891795 220 255 28 0.305420
-0.044303 -0.009678 0.894840 218 255 30 0.303352
-0.042971 -0.004887 0.888726 218 255 30 0.301110
-0.044938 -0.012147 0.897803 206 255 42 0.275257
-0.009631 -0.008612 0.905794 233 255 15 0.332901
-0.007435 -0.008631 0.906892 225 255 22 0.317684
-0.009047 -0.010631 0.909592 233 255 15 0.332666
-0.011240 -0.010631 0.908469 234 255 13 0.336961
-0.006868 -0.010614 0.910705 231 255 17 0.331690
-0.010644 -0.012704 0.912243 231 255 17 0.330534
-0.008485 -0.012690 0.913363 225 255 22 0.320174
-0.010017 -0.014875 0.915907 222 255 26 0.308714
-0.012810 -0.012773 0.911129 231 255 17 0.330580
-0.012152 -0.014962 0.914787 224 255 24 0.316184
-0.014300 -0.015038 0.913640 233 255 15 0.333810
-0.006296 -0.012682 0.914469 229 255 19 0.326037
-0.007849 -0.014868 0.917039 238 255 10 0.346105
-0.005692 -0.014851 0.918164 234 255 13 0.336008
-0.003936 -0.012791 0.915607 229 255 19 0.327927
-0.004509 -0.010683 0.911834 229 255 19 0.327476
-0.002143 -0.010813 0.912965 238 255 10 0.344952
-0.002708 -0.008779 0.909184 238 255 10 0.345503
-0.005072 -0.008676 0.908031 216 255 31 0.299093
-0.000337 -0.008882 0.910319 247 246 1 0.367185
-0.015494 -0.017954 0.915765 227 255 21 0.320450
-0.014638 -0.020814 0.918870 225 255 22 0.318313
-0.015673 -0.023826 0.920791 224 255 24 0.312994
-0.014712 -0.026742 0.923748 222 255 26 0.309855
-0.018644 -0.026891 0.921584 220 255 28 0.307787
-0.011721 -0.023692 0.922966 227 255 21 0.323751
-0.010788 -0.026605 0.925920 224 255 24 0.313095
-0.009627 -0.023631 0.924130 225 255 22 0.319481
-0.010539 -0.020668 0.921130 218 255 30 0.304196
-0.008424 -0.020634 0.922279 224 255 24 0.313993
-0.009251 -0.017713 0.919157 231 255 17 0.329030
-0.011391 -0.017771 0.918010 229 255 19 0.326618
-0.007110 -0.017688 0.920298 233 255 15 0.332222
-0.003737 -0.023573 0.927831 229 255 19 0.326018
-0.002355 -0.020565 0.926029 224 255 24 0.315154
-0.004450 -0.020613 0.924751 231 255 17 0.331085
-0.000812 -0.017693 0.924036 227 255 21 0.323578
-0.002960 -0.017687 0.922791 227 255 21 0.320596
-0.001328 -0.014916 0.920652 236 255 12 0.340539
0.000874 -0.015004 0.921845 236 255 12 0.343745
-0.003505 -0.014886 0.919412 234 255 13 0.337342
-0.006880 -0.026540 0.928373 215 255 33 0.293712
0.002676 -0.013033 0.919235 224 255 24 0.312718
0.004672 -0.011122 0.916642 206 255 42 0.276696
0.002270 -0.010975 0.915426 225 255 22 0.319342
0.006684 -0.009210 0.914005 252 240 0 0.376609
0.004288 -0.009073 0.912776 249 244 0 0.369818
0.001882 -0.008965 0.911548 238 255 10 0.346993
0.000062 -0.010853 0.914218 240 254 8 0.350095
-0.001737 -0.012815 0.916842 238 255 10 0.344937
0.000470 -0.012912 0.918064 234 255 13 0.338834
-0.019718 -0.023970 0.918685 222 255 26 0.309671
-0.018674 -0.021007 0.916720 224 255 24 0.313313
-0.019676 -0.018108 0.913693 224 255 24 0.315507
-0.018531 -0.015190 0.911611 229 255 19 0.326768
-0.022700 -0.015341 0.909582 222 255 26 0.311089
-0.023680 -0.018307 0.911738 222 255 26 0.312453
-0.022706 -0.021145 0.914784 222 255 26 0.310397
-0.023605 -0.024111 0.916879 202 255 46 0.266733
-0.022547 -0.027018 0.919819 222 255 26 0.308620
-0.026449 -0.027072 0.918094 209 255 39 0.282496
-0.015110 -0.012733 0.910048 218 255 30 0.304248
-0.013546 -0.010586 0.907413 229 255 19 0.327858
-0.015885 -0.010516 0.906351 225 255 22 0.316999
-0.011960 -0.008551 0.904754 224 255 24 0.312563
-0.014295 -0.008454 0.903702 229 255 19 0.326357
-0.012714 -0.006476 0.901007 225 255 22 0.318886
-0.010384 -0.006538 0.902065 229 255 19 0.324687
-0.016634 -0.008405 0.902646 229 255 19 0.324304
-0.015053 -0.006389 0.899942 216 255 31 0.300778
-0.017373 -0.006356 0.898902 227 255 21 0.322670
-0.020151 -0.010625 0.904417 231 255 17 0.331867
-0.019376 -0.012869 0.908062 211 255 37 0.286132
-0.025694 -0.008180 0.898819 225 255 22 0.318161
-0.024725 -0.010508 0.902489 216 255 31 0.298247
-0.027911 -0.012944 0.904303 224 255 24 0.314720
-0.026839 -0.015378 0.907805 224 255 24 0.313255
-0.023726 -0.012906 0.906060 216 255 31 0.297756
-0.022447 -0.010560 0.903465 211 255 37 0.288417
-0.021083 -0.008335 0.900735 222 255 26 0.309904
-0.023390 -0.008231 0.899785 225 255 22 0.318942
-0.022003 -0.006098 0.897001 225 255 22 0.319994
-0.019692 -0.006212 0.897954 227 255 21 0.321286
-0.024324 -0.006006 0.896051 225 255 22 0.318583
-0.029900 -0.018253 0.909126 222 255 26 0.310127
-0.028770 -0.021168 0.912161 220 255 28 0.307735
-0.031485 -0.024121 0.913677 220 255 28 0.306334
-0.030330 -0.027037 0.916629 215 255 33 0.296636
-0.027616 -0.024131 0.915151 209 255 39 0.283104
-0.019324 -0.030354 0.923127 220 255 28 0.305381
-0.018163 -0.033792 0.925626 218 255 30 0.303267
-0.018922 -0.037204 0.927197 220 255 28 0.304816
-0.017828 -0.040606 0.929672 220 255 28 0.305651
-0.021580 -0.040535 0.927906 222 255 26 0.309048
-0.015171 -0.037247 0.928975 218 255 30 0.302047
-0.014081 -0.040668 0.931426 229 255 19 0.325410
-0.014316 -0.033771 0.927565 216 255 31 0.298354
-0.013525 -0.030263 0.926157 220 255 28 0.305164
-0.021908 -0.044288 0.928753 229 255 19 0.326803
-0.020433 -0.048081 0.930437 224 255 24 0.314875
-0.020806 -0.051868 0.931273 225 255 22 0.318096
-0.017227 -0.051884 0.932875 224 255 24 0.313924
-0.016794 -0.048147 0.932116 222 255 26 0.311629
-0.016378 -0.044404 0.931317 233 255 15 0.334505
-0.010023 -0.052113 0.936365 220 255 28 0.305410
-0.009504 -0.048359 0.935746 218 255 30 0.301139
-0.010833 -0.044563 0.934110 216 255 31 0.299334
-0.010353 -0.040773 0.933442 227 255 21 0.322821
-0.013131 -0.048254 0.933854 220 255 28 0.306608
-0.013581 -0.051991 0.934606 234 255 13 0.339682
-0.007648 -0.037346 0.933125 216 255 31 0.298704
-0.006731 -0.033768 0.931968 218 255 30 0.303270
-0.007768 -0.030175 0.929590 222 255 26 0.309168
-0.010501 -0.033778 0.929679 218 255 30 0.301933
-0.011330 -0.037262 0.930993 233 255 15 0.335928
-0.033282 -0.091181 0.922090 224 255 24 0.315358
-0.033810 -0.095253 0.919309 224 255 24 0.313572
-0.036714 -0.091686 0.920898 222 255 26 0.312455
-0.034309 -0.099209 0.916375 224 255 24 0.312511
-0.037252 -0.095744 0.918082 220 255 28 0.306242
-0.037753 -0.099658 0.915104 222 255 26 0.309642
-0.040166 -0.092190 0.919651 229 255 19 0.324348
-0.034791 -0.103019 0.913335 233 255 15 0.332610
-0.035231 -0.106722 0.910123 236 255 12 0.340712
-0.031805 -0.106279 0.911421 233 255 15 0.332428
-0.031364 -0.102536 0.914594 231 255 17 0.331840
-0.030890 -0.098684 0.917611 229 255 19 0.326678
-0.028396 -0.105756 0.912698 233 255 15 0.335378
-0.040674 -0.096231 0.916799 220 255 28 0.306222
-0.043569 -0.092666 0.918437 220 255 28 0.305409
-0.041139 -0.100151 0.913791 220 255 28 0.306650
-0.044075 -0.096640 0.915539 225 255 22 0.319668
-0.044521 -0.100528 0.912483 209 255 39 0.282506
-0.046965 -0.093124 0.917166 216 255 31 0.300006
-0.041576 -0.103900 0.910661 220 255 28 0.306749
-0.041985 -0.107511 0.907421 220 255 28 0.306994
-0.038610 -0.107145 0.908801 234 255 13 0.338498
-0.038202 -0.103469 0.912020 240 254 8 0.350310
-0.035574 -0.114753 0.898263 227 255 21 0.323886
-0.035446 -0.112291 0.902238 220 255 28 0.306490
-0.032217 -0.114414 0.899661 227 255 21 0.321699
-0.032091 -0.111901 0.903640 222 255 26 0.311924
-0.035330 -0.109649 0.906181 222 255 26 0.311028
-0.038715 -0.110014 0.904858 227 255 21 0.321392
-0.038827 -0.112628 0.900884 227 255 21 0.324206
-0.028813 -0.113985 0.900987 229 255 19 0.325685
-0.028676 -0.111485 0.904975 231 255 17 0.330291
-0.025404 -0.113527 0.902385 233 255 15 0.332047
-0.025272 -0.110949 0.906326 238 255 10 0.345293
-0.028536 -0.108753 0.908866 231 255 17 0.331038
-0.031938 -0.109217 0.907534 224 255 24 0.312595
-0.038949 -0.114997 0.896898 227 255 21 0.320905
-0.042202 -0.112905 0.899475 220 255 28 0.307333
-0.042086 -0.110329 0.903453 220 255 28 0.307031
-0.045343 -0.107839 0.905965 220 255 28 0.305306
-0.045440 -0.110580 0.901987 220 255 28 0.305283
-0.048681 -0.108132 0.904461 218 255 30 0.303101
-0.045515 -0.113144 0.897866 220 255 28 0.305687
-0.042285 -0.115261 0.895335 220 255 28 0.306960
-0.044925 -0.104237 0.909326 218 255 30 0.304393
-0.047875 -0.100857 0.911184 218 255 30 0.301341
-0.047449 -0.097030 0.914260 218 255 30 0.302269
-0.050332 -0.093526 0.915926 216 255 31 0.299217
-0.050788 -0.097400 0.912959 218 255 30 0.303323
-0.053655 -0.093932 0.914644 218 255 30 0.304419
-0.051214 -0.101217 0.909702 218 255 30 0.304605
-0.048266 -0.104573 0.907831 220 255 28 0.304887
-0.057581 -0.098100 0.910247 218 255 30 0.303755
-0.054640 -0.101489 0.908370 218 255 30 0.304261
-0.055086 -0.105121 0.904876 216 255 31 0.297432
-0.052103 -0.108376 0.902881 220 255 28 0.308414
-0.051674 -0.104846 0.906460 216 255 31 0.299555
-0.054167 -0.097775 0.911572 207 255 40 0.280608
-0.057078 -0.094353 0.913363 215 255 33 0.293862
-0.052252 -0.111092 0.898857 218 255 30 0.304283
-0.048964 -0.113390 0.896366 218 255 30 0.303921
-0.049023 -0.115696 0.892109 220 255 28 0.305150
-0.045678 -0.115477 0.893805 220 255 28 0.305598
-0.048810 -0.110852 0.900394 218 255 30 0.303094
-0.061707 -0.058575 0.916488 227 255 21 0.321337
-0.061698 -0.054355 0.915210 222 255 26 0.311097
-0.060230 -0.049942 0.914516 231 255 17 0.329344
-0.058663 -0.053947 0.916371 243 251 4 0.358528
