ply
format ascii 1.0
comment VCGLIB generated
element vertex 1020
property float x
property float y
property float z
property uchar red
property uchar green
property uchar blue
property float quality
end_header
-0.050937 0.003700 0.827143 255 50 0 0.735368
-0.069107 0.003392 0.819539 255 50 0 0.735918
-0.067360 0.002053 0.816899 255 50 0 0.736089
-0.070353 0.001425 0.815334 255 50 0 0.736055
-0.065478 0.000707 0.814229 255 50 0 0.736331
-0.068505 0.000108 0.812678 255 50 0 0.736047
-0.066504 -0.001133 0.810039 255 50 0 0.736185
-0.063529 -0.000589 0.811497 255 50 0 0.736702
-0.071424 -0.000602 0.811190 255 50 0 0.736014
-0.069528 -0.001782 0.808554 255 50 0 0.735970
-0.072477 -0.002532 0.807099 255 50 0 0.735762
-0.074142 -0.001431 0.809568 255 50 0 0.735683
-0.073088 0.000569 0.813609 255 50 0 0.735959
-0.075876 -0.000257 0.811988 255 50 0 0.735830
-0.074757 0.001787 0.816015 255 50 0 0.735991
-0.071966 0.002636 0.817746 255 50 0 0.735905
-0.073557 0.003852 0.820137 255 48 0 0.740214
-0.077488 0.000865 0.814343 255 50 0 0.735795
-0.076303 0.002933 0.818368 255 50 0 0.735830
-0.079069 0.002005 0.816727 255 50 0 0.735836
-0.070771 0.004635 0.821914 255 50 0 0.735748
-0.062004 -0.001829 0.808953 255 50 0 0.736966
-0.060504 -0.003007 0.806273 255 50 0 0.737077
-0.063468 -0.003521 0.804914 255 50 0 0.736512
-0.058967 -0.004074 0.803608 255 50 0 0.737296
-0.061947 -0.004578 0.802270 255 50 0 0.736700
-0.060413 -0.005529 0.799655 255 50 0 0.736798
-0.057466 -0.005017 0.800988 255 50 0 0.737336
-0.065007 -0.005159 0.800927 255 50 0 0.736181
-0.063516 -0.006117 0.798302 255 46 0 0.743977
-0.066560 -0.006757 0.797024 255 50 0 0.735983
-0.068015 -0.005845 0.799520 255 50 0 0.735628
-0.066503 -0.004149 0.803430 255 50 0 0.736016
-0.069481 -0.004837 0.802018 255 50 0 0.735576
-0.068004 -0.003019 0.805977 255 50 0 0.735963
-0.064975 -0.002367 0.807477 255 50 0 0.736408
-0.070998 -0.003739 0.804524 255 50 0 0.735637
-0.078100 -0.010696 0.792922 255 52 0 0.731323
-0.079408 -0.009841 0.795248 255 52 0 0.732004
-0.076806 -0.008786 0.796314 255 52 0 0.733133
-0.078119 -0.007844 0.798683 255 52 0 0.733124
-0.080725 -0.008946 0.797626 255 52 0 0.731568
-0.075280 -0.006758 0.799836 255 52 0 0.733923
-0.079420 -0.006852 0.801084 255 52 0 0.732918
-0.076672 -0.005712 0.802261 255 52 0 0.734034
-0.078048 -0.004592 0.804698 255 52 0 0.734341
-0.081935 -0.007938 0.800005 255 52 0 0.731569
-0.080686 -0.005750 0.803500 255 56 0 0.722942
-0.083271 -0.006886 0.802413 255 52 0 0.732138
-0.073896 -0.004706 0.803375 255 50 0 0.734857
-0.075306 -0.003524 0.805895 255 50 0 0.735265
-0.072423 -0.005784 0.800873 255 50 0 0.734798
-0.070989 -0.006778 0.798397 255 50 0 0.734899
-0.073898 -0.007747 0.797332 255 52 0 0.734033
-0.072486 -0.008646 0.794855 255 52 0 0.734324
-0.069525 -0.007672 0.795917 255 50 0 0.734953
-0.075418 -0.009657 0.793850 255 52 0 0.733366
-0.084746 -0.005987 0.804666 255 52 0 0.731827
-0.082295 -0.004749 0.805936 255 52 0 0.733439
-0.083745 -0.003773 0.808180 255 52 0 0.733473
-0.086174 -0.005074 0.806899 255 52 0 0.732070
-0.081258 -0.002546 0.809484 255 50 0 0.734615
-0.085215 -0.002833 0.810379 255 52 0 0.733931
-0.082758 -0.001512 0.811706 255 50 0 0.734890
-0.084225 -0.000569 0.813860 255 50 0 0.734892
-0.087526 -0.004144 0.809114 255 52 0 0.732325
-0.086617 -0.001893 0.812561 255 52 0 0.733819
-0.088940 -0.003255 0.811306 255 52 0 0.732597
-0.080246 -0.000281 0.813077 255 79 0 0.682741
-0.081720 0.000745 0.815260 255 50 0 0.735453
-0.078612 -0.001375 0.810722 255 50 0 0.735497
-0.076994 -0.002453 0.808325 255 50 0 0.735189
-0.079668 -0.003587 0.807096 255 50 0 0.734562
-0.124755 -0.006608 0.937236 255 54 0 0.728833
-0.126436 -0.007782 0.933286 255 54 0 0.729420
-0.122997 -0.005426 0.941058 255 58 0 0.722269
-0.125926 -0.006814 0.940752 255 81 0 0.678975
-0.127699 -0.007940 0.936795 255 54 0 0.729053
-0.129372 -0.009070 0.932817 255 56 0 0.723122
-0.122649 -0.004946 0.944896 255 54 0 0.728417
-0.122142 -0.004347 0.948997 255 54 0 0.728750
-0.119288 -0.003083 0.948887 255 61 0 0.715276
-0.119850 -0.003633 0.944607 255 61 0 0.717965
-0.130223 -0.009865 0.936578 255 54 0 0.728759
-0.131943 -0.011027 0.932469 255 54 0 0.728975
-0.128443 -0.008724 0.940569 255 44 0 0.749981
-0.131108 -0.010583 0.940069 255 54 0 0.728382
-0.132839 -0.011706 0.936097 255 73 0 0.692465
-0.134523 -0.012816 0.932050 255 54 0 0.728072
-0.127925 -0.008427 0.944546 255 54 0 0.729021
-0.127306 -0.007988 0.948606 255 54 0 0.728195
-0.124628 -0.006162 0.949016 255 54 0 0.727520
-0.125386 -0.006582 0.944735 255 56 0 0.723597
-0.120320 -0.003180 0.958587 255 52 0 0.730603
-0.121291 -0.003845 0.953685 255 54 0 0.729556
-0.123924 -0.005616 0.953541 255 54 0 0.728747
-0.123061 -0.004870 0.958302 255 61 0 0.717747
-0.115773 -0.001191 0.953074 255 58 0 0.720460
-0.118627 -0.002373 0.953487 255 77 0 0.686151
-0.133357 -0.020187 0.964270 255 54 0 0.727436
-0.135024 -0.021005 0.959263 255 54 0 0.727921
-0.132230 -0.017924 0.964137 255 54 0 0.727443
-0.136552 -0.021630 0.954627 255 44 0 0.748051
-0.133957 -0.018773 0.959107 255 32 0 0.773271
-0.135619 -0.019372 0.954312 255 54 0 0.728054
-0.131103 -0.015444 0.964349 255 54 0 0.727775
-0.138076 -0.022127 0.950100 255 38 0 0.761342
-0.139517 -0.022398 0.945849 255 54 0 0.726876
-0.140634 -0.024923 0.946132 255 56 0 0.725241
-0.139259 -0.024597 0.950381 255 54 0 0.727599
-0.137859 -0.024133 0.954690 255 54 0 0.728019
-0.141839 -0.027475 0.946450 255 36 0 0.762698
-0.132485 -0.016186 0.959436 255 54 0 0.727865
-0.129328 -0.012815 0.965011 255 54 0 0.727967
-0.133801 -0.016733 0.954733 255 52 0 0.733607
-0.130887 -0.013611 0.959846 255 54 0 0.727849
-0.132287 -0.014162 0.955046 255 54 0 0.727971
-0.135021 -0.017079 0.950324 255 50 0 0.734530
-0.136180 -0.017271 0.946123 255 54 0 0.727406
-0.137816 -0.019914 0.945923 255 54 0 0.727009
-0.136743 -0.019713 0.950032 255 56 0 0.722835
-0.143417 -0.022408 0.929725 255 56 0 0.722852
-0.142348 -0.022440 0.934014 255 67 0 0.705787
-0.145297 -0.025400 0.929381 255 56 0 0.723102
-0.141382 -0.022509 0.937964 255 46 0 0.744389
-0.144174 -0.025190 0.933993 255 21 0 0.789192
-0.143268 -0.025207 0.937930 255 56 0 0.723934
-0.147239 -0.028380 0.929079 255 56 0 0.723568
-0.140456 -0.022490 0.941917 255 56 0 0.725579
-0.138819 -0.019890 0.941947 255 56 0 0.725977
-0.139819 -0.019896 0.937940 255 56 0 0.724260
-0.145697 -0.027999 0.934005 255 56 0 0.723305
-0.148553 -0.031304 0.929079 255 56 0 0.724594
-0.144365 -0.027788 0.938279 255 56 0 0.724672
-0.147056 -0.030953 0.933969 255 56 0 0.724458
-0.145747 -0.030592 0.938422 255 56 0 0.725694
-0.149984 -0.034189 0.929204 255 56 0 0.725618
-0.143089 -0.027589 0.942432 255 56 0 0.725501
-0.141939 -0.025066 0.942048 255 56 0 0.725333
-0.134891 -0.012738 0.928404 255 83 0 0.673792
-0.135228 -0.012707 0.924517 255 54 0 0.729715
-0.132305 -0.010847 0.928919 255 54 0 0.729545
-0.132631 -0.010763 0.925019 255 54 0 0.730251
-0.135613 -0.012791 0.920097 255 52 0 0.730996
-0.135959 -0.013371 0.915165 255 52 0 0.732311
-0.139048 -0.015375 0.914305 255 52 0 0.732120
-0.138599 -0.014937 0.918831 255 52 0 0.730486
-0.138084 -0.014667 0.923501 255 54 0 0.729035
-0.142158 -0.017087 0.913723 255 52 0 0.732104
-0.129508 -0.009209 0.929437 255 54 0 0.730109
-0.129569 -0.009384 0.925931 255 56 0 0.723372
-0.126584 -0.007849 0.929943 255 54 0 0.730059
-0.129652 -0.009614 0.922213 255 36 0 0.765362
-0.131119 -0.011036 0.917414 255 52 0 0.731861
-0.132703 -0.011087 0.921142 255 48 0 0.739015
-0.136034 -0.015255 0.906433 255 50 0 0.734570
-0.134984 -0.014166 0.909287 255 52 0 0.733837
-0.138499 -0.015268 0.908536 255 63 0 0.712868
-0.137337 -0.014431 0.911496 255 54 0 0.729518
-0.133888 -0.013109 0.912601 255 52 0 0.733243
-0.141063 -0.016542 0.906064 255 50 0 0.734574
-0.141526 -0.016622 0.908496 255 40 0 0.756697
-0.144355 -0.017706 0.906020 255 52 0 0.734238
-0.144839 -0.017920 0.908380 255 52 0 0.733608
-0.141927 -0.016810 0.911046 255 52 0 0.733231
-0.144464 -0.022435 0.925244 255 56 0 0.724851
-0.141188 -0.019768 0.930423 255 56 0 0.724681
-0.145587 -0.022207 0.920944 255 54 0 0.727266
-0.142186 -0.019612 0.926107 255 23 0 0.785791
-0.143307 -0.019476 0.921515 255 54 0 0.727680
-0.139124 -0.017255 0.930848 255 85 0 0.669303
-0.146636 -0.021718 0.917018 255 54 0 0.728011
-0.147468 -0.020922 0.913654 255 61 0 0.715377
-0.149706 -0.023096 0.913983 255 54 0 0.730148
-0.148911 -0.023998 0.917090 255 54 0 0.728417
-0.147960 -0.024712 0.920574 255 54 0 0.726994
-0.151955 -0.025182 0.914341 255 54 0 0.729785
-0.139794 -0.017051 0.927015 255 54 0 0.730297
-0.136802 -0.015075 0.931459 255 54 0 0.726565
-0.140583 -0.017094 0.922635 255 21 0 0.789705
-0.137447 -0.014849 0.927619 255 54 0 0.729602
-0.141436 -0.017136 0.917918 255 67 0 0.705713
-0.144867 -0.019092 0.913618 255 52 0 0.731426
-0.144212 -0.019441 0.917218 255 54 0 0.730074
-0.147414 -0.018990 0.906190 255 52 0 0.733793
-0.150120 -0.020120 0.903759 255 23 0 0.786464
-0.147508 -0.019594 0.908655 255 52 0 0.732868
-0.150257 -0.020590 0.906332 255 42 0 0.751787
-0.150359 -0.021230 0.908766 255 54 0 0.728647
-0.153020 -0.021565 0.903795 255 52 0 0.733104
-0.147543 -0.020283 0.911124 255 56 0 0.725207
-0.144899 -0.018481 0.910970 255 54 0 0.727405
-0.152866 -0.022351 0.906539 255 19 0 0.794140
-0.155578 -0.023460 0.903991 255 52 0 0.732504
-0.152607 -0.023204 0.909232 255 52 0 0.731158
-0.155330 -0.024278 0.906854 255 52 0 0.732037
-0.155077 -0.025170 0.909543 255 21 0 0.792237
-0.158157 -0.025384 0.904114 255 52 0 0.732017
-0.152322 -0.024164 0.911811 255 52 0 0.733117
-0.150114 -0.022065 0.911374 255 52 0 0.731559
-0.135080 -0.013955 0.935589 255 56 0 0.725521
-0.133338 -0.012810 0.939601 255 54 0 0.727840
-0.135728 -0.014985 0.938920 255 54 0 0.726760
-0.137435 -0.016112 0.934951 255 56 0 0.726007
-0.132685 -0.012660 0.943441 255 54 0 0.727900
-0.132012 -0.012374 0.947334 255 54 0 0.728041
-0.129640 -0.010256 0.947974 255 54 0 0.728099
-0.130406 -0.010456 0.944026 255 54 0 0.728184
-0.139403 -0.018616 0.934493 255 56 0 0.724543
-0.137660 -0.017484 0.938438 255 56 0 0.725534
-0.136924 -0.017408 0.942282 255 54 0 0.726724
-0.134060 -0.014867 0.946726 255 54 0 0.727761
-0.134890 -0.014959 0.942813 255 54 0 0.727425
-0.128864 -0.010987 0.960710 255 54 0 0.727912
-0.130019 -0.011668 0.956000 255 30 0 0.774653
-0.126730 -0.008582 0.961610 255 54 0 0.728620
-0.128014 -0.009165 0.956762 255 54 0 0.728178
-0.131049 -0.012095 0.951526 255 50 0 0.736759
-0.133204 -0.014595 0.950791 255 54 0 0.727960
-0.125446 -0.007016 0.957650 255 52 0 0.733869
-0.126444 -0.007614 0.952926 255 54 0 0.728444
-0.128929 -0.009830 0.952200 255 69 0 0.701657
-0.166154 -0.026976 0.876099 255 50 0 0.734733
-0.168127 -0.028915 0.873999 255 50 0 0.734484
-0.166226 -0.027085 0.872967 255 58 0 0.719603
-0.170170 -0.030848 0.871912 255 50 0 0.734485
-0.168244 -0.028979 0.870938 255 50 0 0.734408
-0.170305 -0.030867 0.868862 255 50 0 0.734706
-0.166213 -0.027148 0.869896 255 50 0 0.734489
-0.172264 -0.032764 0.869887 255 50 0 0.734779
-0.174259 -0.034665 0.867976 255 81 0 0.677457
-0.173888 -0.034367 0.871036 255 50 0 0.734550
-0.171874 -0.032445 0.873074 255 50 0 0.735062
-0.169862 -0.030427 0.875217 255 50 0 0.734982
-0.173533 -0.034015 0.874260 255 50 0 0.735147
-0.168181 -0.029235 0.867747 255 50 0 0.734437
-0.165796 -0.027323 0.866722 255 50 0 0.734387
-0.170185 -0.031236 0.865579 255 52 0 0.734243
-0.167766 -0.029330 0.864563 255 52 0 0.733815
-0.169838 -0.031294 0.862368 255 52 0 0.734211
-0.165351 -0.027405 0.863498 255 52 0 0.733825
-0.172205 -0.033311 0.863471 255 50 0 0.734678
-0.174217 -0.035325 0.861413 255 52 0 0.734364
-0.174304 -0.035028 0.864676 255 50 0 0.734490
-0.172318 -0.032950 0.866730 255 50 0 0.734388
-0.180496 -0.045138 0.861541 255 52 0 0.732149
-0.179101 -0.042515 0.863016 255 52 0 0.733000
-0.180246 -0.044569 0.864737 255 52 0 0.732952
-0.177577 -0.039944 0.864561 255 52 0 0.733524
-0.178772 -0.041945 0.866279 255 63 0 0.714290
-0.177227 -0.039292 0.867948 255 50 0 0.734554
-0.179954 -0.043949 0.867958 255 50 0 0.734405
-0.175948 -0.037330 0.866255 255 50 0 0.734442
-0.175950 -0.037638 0.862997 255 52 0 0.734254
-0.177571 -0.040167 0.861378 255 52 0 0.733171
-0.178419 -0.041492 0.869426 255 50 0 0.734804
-0.179273 -0.043374 0.871164 255 50 0 0.734800
-0.176876 -0.038997 0.870916 255 73 0 0.691972
-0.177788 -0.040837 0.872652 255 50 0 0.735205
-0.176141 -0.038324 0.874364 255 50 0 0.735425
-0.178623 -0.042704 0.874514 255 50 0 0.736059
-0.175150 -0.036529 0.872623 255 50 0 0.735298
-0.175591 -0.036830 0.869478 255 50 0 0.734714
-0.163278 -0.026029 0.865776 255 52 0 0.733852
-0.161203 -0.024597 0.868069 255 50 0 0.737917
-0.163760 -0.025833 0.869002 255 50 0 0.734608
-0.161640 -0.024398 0.871297 255 50 0 0.734864
-0.159137 -0.023145 0.870387 255 50 0 0.735146
-0.157147 -0.021761 0.872655 255 50 0 0.735880
-0.156537 -0.021752 0.869494 255 50 0 0.735616
-0.158522 -0.023126 0.867278 255 50 0 0.734826
-0.160547 -0.024563 0.865053 255 52 0 0.734227
-0.155910 -0.021667 0.866419 255 50 0 0.735641
-0.164036 -0.025797 0.872122 255 50 0 0.734618
-0.161787 -0.024432 0.874389 255 50 0 0.734828
-0.164007 -0.025746 0.875182 255 50 0 0.734896
-0.161832 -0.024309 0.877477 255 50 0 0.734567
-0.159663 -0.023145 0.876571 255 50 0 0.735227
-0.157621 -0.021829 0.878746 255 50 0 0.736331
-0.157370 -0.021849 0.875690 255 50 0 0.736290
-0.159460 -0.023104 0.873594 255 50 0 0.735307
-0.150502 -0.019327 0.877692 255 48 0 0.738767
-0.152625 -0.020107 0.875554 255 50 0 0.737566
-0.155220 -0.020968 0.877916 255 50 0 0.736850
-0.153107 -0.020104 0.880136 255 50 0 0.737419
-0.149765 -0.019116 0.873272 255 48 0 0.738510
-0.151805 -0.019949 0.871006 255 50 0 0.737754
-0.149011 -0.018871 0.870369 255 48 0 0.738567
-0.151069 -0.019692 0.868100 255 50 0 0.737869
-0.153867 -0.020756 0.868728 255 50 0 0.736598
-0.154501 -0.020882 0.871869 255 50 0 0.736510
-0.153029 -0.020323 0.892856 255 50 0 0.735439
-0.156468 -0.021905 0.893469 255 52 0 0.734243
-0.155170 -0.021083 0.890970 255 50 0 0.735298
-0.154335 -0.021119 0.895322 255 50 0 0.734632
-0.158787 -0.022957 0.890111 255 52 0 0.734153
-0.159500 -0.023905 0.893088 255 52 0 0.733563
-0.161757 -0.025126 0.890859 255 52 0 0.733291
-0.164094 -0.026373 0.888576 255 52 0 0.733776
-0.162418 -0.026068 0.893909 255 52 0 0.732718
-0.160344 -0.024923 0.895802 255 52 0 0.732581
-0.157360 -0.022847 0.896228 255 52 0 0.733584
-0.157024 -0.023631 0.900329 253 17 0 0.799969
-0.154437 -0.021705 0.900288 255 52 0 0.733700
-0.159969 -0.025632 0.900042 255 48 0 0.739918
-0.151198 -0.020129 0.900592 255 81 0 0.678068
-0.163767 -0.025607 0.879739 255 54 0 0.727153
-0.161621 -0.024270 0.881909 255 56 0 0.722737
-0.165686 -0.026836 0.880529 255 50 0 0.735005
-0.159568 -0.022967 0.884070 255 50 0 0.734806
-0.157617 -0.021836 0.883144 255 50 0 0.735820
-0.163274 -0.025466 0.884304 255 52 0 0.734244
-0.161091 -0.024177 0.886477 255 52 0 0.734150
-0.157334 -0.021865 0.887553 255 50 0 0.735248
-0.151402 -0.019698 0.890345 248 13 0 0.805291
-0.153441 -0.020304 0.888667 255 50 0 0.736273
-0.151352 -0.019418 0.886404 255 89 0 0.662465
-0.155527 -0.020963 0.885355 255 50 0 0.735951
-0.151003 -0.019366 0.882136 255 50 0 0.738030
-0.153345 -0.020206 0.884430 255 58 0 0.720161
-0.140223 -0.015292 0.858522 255 48 0 0.738832
-0.138465 -0.014633 0.860979 255 48 0 0.739929
-0.141918 -0.016093 0.861199 255 48 0 0.739386
-0.136722 -0.014004 0.863421 255 48 0 0.740173
-0.140205 -0.015455 0.863646 255 48 0 0.740121
-0.138471 -0.014871 0.866041 255 48 0 0.740870
-0.143647 -0.016689 0.863935 255 48 0 0.739260
-0.135045 -0.013425 0.865758 255 48 0 0.740680
-0.133355 -0.013022 0.868119 255 48 0 0.741239
-0.131521 -0.011725 0.866061 255 48 0 0.740405
-0.133192 -0.012285 0.863671 255 48 0 0.740516
-0.134913 -0.012904 0.861190 255 48 0 0.739711
-0.129770 -0.010321 0.864032 255 48 0 0.739947
-0.141844 -0.016256 0.866162 255 48 0 0.740602
-0.144903 -0.017326 0.866737 255 48 0 0.739841
-0.140040 -0.015823 0.868395 255 44 0 0.749835
-0.143103 -0.016885 0.869023 255 48 0 0.741266
-0.135650 -0.014574 0.871428 255 48 0 0.741772
-0.137455 -0.014999 0.869385 255 48 0 0.741608
-0.127382 -0.013154 0.873727 255 48 0 0.741551
-0.129877 -0.013515 0.872437 255 48 0 0.742115
-0.128243 -0.012203 0.870749 255 48 0 0.741533
-0.131606 -0.013298 0.870292 255 48 0 0.741662
-0.124925 -0.010827 0.871339 255 48 0 0.741112
-0.126468 -0.010705 0.868973 255 48 0 0.741192
-0.123079 -0.009052 0.869904 255 36 0 0.762280
-0.124637 -0.008984 0.867503 255 48 0 0.740482
-0.128075 -0.010502 0.866483 255 48 0 0.740890
-0.129874 -0.011943 0.868398 255 48 0 0.741212
-0.148016 -0.018595 0.867332 255 50 0 0.738090
-0.149890 -0.019564 0.865016 255 50 0 0.737557
-0.146760 -0.018172 0.864476 255 48 0 0.738985
-0.148579 -0.019140 0.862206 255 50 0 0.737080
-0.151778 -0.020548 0.862612 255 50 0 0.735715
-0.153583 -0.021605 0.860221 255 50 0 0.734638
-0.154740 -0.021698 0.863303 255 50 0 0.734940
-0.152925 -0.020689 0.865685 255 50 0 0.736492
-0.145351 -0.017843 0.861384 255 38 0 0.758866
-0.147100 -0.019047 0.858814 255 50 0 0.736996
-0.143671 -0.017241 0.858678 255 36 0 0.764337
-0.145394 -0.018414 0.856073 255 50 0 0.736788
-0.148839 -0.020273 0.856223 255 50 0 0.735448
-0.150568 -0.021413 0.853760 255 52 0 0.734165
-0.152045 -0.021603 0.856871 255 50 0 0.734451
-0.150313 -0.020395 0.859562 255 50 0 0.735886
-0.160606 -0.028529 0.850052 255 52 0 0.732159
-0.158894 -0.026806 0.852543 255 52 0 0.732422
-0.162123 -0.028143 0.853332 255 52 0 0.732857
-0.157037 -0.025176 0.855065 255 52 0 0.732169
-0.160162 -0.026506 0.855957 255 52 0 0.732831
-0.158318 -0.024703 0.858723 255 52 0 0.733368
-0.163420 -0.027791 0.856848 255 52 0 0.733309
-0.155251 -0.023418 0.857648 255 52 0 0.733293
-0.153799 -0.023372 0.854486 255 75 0 0.688339
-0.155531 -0.025115 0.852015 255 52 0 0.732115
-0.161475 -0.026287 0.859284 255 52 0 0.733490
-0.164435 -0.027608 0.860082 255 52 0 0.733665
-0.159513 -0.024784 0.861735 255 104 0 0.635239
-0.162441 -0.026112 0.862598 255 52 0 0.733615
-0.157681 -0.023269 0.864101 255 52 0 0.734142
-0.156507 -0.023198 0.861004 255 58 0 0.720804
-0.104156 -0.011570 0.882913 255 50 0 0.736288
-0.105185 -0.009475 0.881052 255 42 0 0.752418
-0.101627 -0.010184 0.882067 255 50 0 0.736236
-0.106183 -0.007285 0.879209 255 50 0 0.736581
-0.107315 -0.004862 0.877388 255 50 0 0.736413
-0.101472 -0.007612 0.879987 255 50 0 0.735955
-0.098723 -0.009209 0.881394 255 50 0 0.735861
-0.102397 -0.005334 0.878146 255 50 0 0.735786
-0.103415 -0.002915 0.876311 255 50 0 0.735704
-0.112523 -0.001193 0.867649 255 50 0 0.737243
-0.111173 -0.002044 0.870187 255 50 0 0.737210
-0.114430 -0.002525 0.868417 255 50 0 0.737570
-0.109879 -0.002848 0.872695 255 50 0 0.736843
-0.113128 -0.003377 0.871000 255 50 0 0.737558
-0.111842 -0.004319 0.873521 255 50 0 0.737335
-0.116319 -0.004009 0.869175 255 50 0 0.737924
-0.108537 -0.003926 0.875086 255 50 0 0.736727
-0.105618 -0.002368 0.874370 255 50 0 0.736046
-0.115775 -0.005653 0.872166 255 48 0 0.738327
-0.114363 -0.006643 0.874564 255 50 0 0.738125
-0.086191 0.003282 0.867253 255 52 0 0.732820
-0.087782 0.004666 0.865035 255 52 0 0.733486
-0.084672 0.001968 0.869463 255 38 0 0.760062
-0.088828 0.000913 0.869886 255 52 0 0.733750
-0.090444 0.002353 0.867662 255 52 0 0.734226
-0.092128 0.003795 0.865409 255 52 0 0.734274
-0.085234 0.000212 0.871801 255 52 0 0.732113
-0.085818 -0.001689 0.874060 255 52 0 0.732169
-0.082380 -0.000966 0.874088 255 48 0 0.738797
-0.081669 0.000699 0.871729 255 52 0 0.730536
-0.094105 0.001738 0.867973 255 50 0 0.734683
-0.096057 0.002747 0.865757 255 50 0 0.735138
-0.092211 0.000687 0.870087 255 50 0 0.734615
-0.096130 -0.000274 0.870553 255 34 0 0.769062
-0.098052 0.000734 0.868455 255 44 0 0.749359
-0.100140 0.001672 0.866041 255 50 0 0.735896
-0.092306 -0.000968 0.872363 255 50 0 0.734496
-0.092430 -0.002473 0.874470 255 52 0 0.734176
-0.089054 -0.002183 0.874291 255 52 0 0.733530
-0.088981 -0.000574 0.872098 255 52 0 0.733522
-0.086508 -0.008113 0.879894 255 52 0 0.731189
-0.084308 -0.009640 0.882146 255 54 0 0.728752
-0.086291 -0.006056 0.878020 255 52 0 0.731313
-0.084005 -0.007770 0.880131 255 54 0 0.729189
-0.083755 -0.005754 0.878214 255 54 0 0.729977
-0.081844 -0.009038 0.882504 255 73 0 0.692812
-0.086082 -0.003934 0.876021 255 52 0 0.731873
-0.089260 -0.004472 0.876220 255 52 0 0.733326
-0.089453 -0.006639 0.878103 255 52 0 0.733281
-0.081111 -0.006978 0.880440 255 54 0 0.727112
-0.079093 -0.008498 0.883020 255 56 0 0.725162
-0.080413 -0.004766 0.878446 255 54 0 0.727909
-0.078357 -0.006412 0.881005 255 56 0 0.726211
-0.079682 -0.002409 0.876310 255 54 0 0.728480
-0.083058 -0.003395 0.876171 255 54 0 0.730103
-0.083916 0.010169 0.844530 255 52 0 0.734044
-0.088535 0.009662 0.842734 255 38 0 0.761066
-0.083398 0.010234 0.847918 255 52 0 0.733738
-0.087997 0.009853 0.846243 255 50 0 0.734381
-0.087420 0.009905 0.849659 255 52 0 0.734018
-0.092558 0.009214 0.844390 255 50 0 0.734824
-0.082872 0.010087 0.851258 255 52 0 0.733418
-0.082461 0.009858 0.854571 255 52 0 0.733120
-0.080253 0.009865 0.853769 255 52 0 0.732874
-0.080692 0.010125 0.850478 255 52 0 0.733231
-0.078072 0.009932 0.852921 255 52 0 0.732778
-0.078493 0.010124 0.849694 255 52 0 0.733222
-0.081134 0.010222 0.847128 255 52 0 0.733616
-0.075920 0.009868 0.852152 255 46 0 0.742297
-0.092320 0.009256 0.847171 255 50 0 0.734654
-0.096786 0.007832 0.844980 255 50 0 0.734982
-0.092045 0.009157 0.849951 255 50 0 0.734498
-0.096555 0.007918 0.847757 255 50 0 0.734997
-0.096255 0.007917 0.850512 255 50 0 0.734916
-0.100919 0.006257 0.845575 255 50 0 0.735035
-0.091777 0.008964 0.852681 255 38 0 0.760284
-0.091526 0.008631 0.855413 255 52 0 0.734291
-0.087029 0.009325 0.854969 255 52 0 0.733793
-0.087240 0.009699 0.852355 255 52 0 0.733899
-0.083215 0.006755 0.862256 255 52 0 0.732628
-0.082932 0.007837 0.859675 255 52 0 0.732731
-0.078771 0.006984 0.862093 255 40 0 0.755839
-0.078423 0.008073 0.859581 255 52 0 0.731974
-0.082648 0.008910 0.857165 255 52 0 0.733019
-0.087188 0.008339 0.857619 255 52 0 0.733605
-0.087350 0.007265 0.860221 255 46 0 0.743748
-0.074630 0.007370 0.861199 255 52 0 0.731311
-0.071846 0.007425 0.860801 255 52 0 0.730996
-0.074299 0.008234 0.857982 255 52 0 0.731684
-0.069195 0.007562 0.860435 255 42 0 0.753505
-0.071498 0.008164 0.857572 255 46 0 0.743538
-0.074016 0.009042 0.854713 255 52 0 0.732155
-0.076122 0.009082 0.855499 255 48 0 0.741926
-0.078247 0.009065 0.856303 255 52 0 0.732431
-0.076368 0.008186 0.858771 255 52 0 0.731895
-0.121211 -0.007295 0.868610 255 48 0 0.739380
-0.122688 -0.007334 0.865973 255 48 0 0.739430
-0.118565 -0.004916 0.867045 255 48 0 0.738601
-0.124238 -0.007378 0.863296 255 48 0 0.739017
-0.125730 -0.007471 0.860684 255 48 0 0.738300
-0.127785 -0.008923 0.862297 255 48 0 0.739215
-0.126195 -0.008944 0.864941 255 48 0 0.739686
-0.116586 -0.003347 0.866028 255 50 0 0.737965
-0.118822 -0.004141 0.863578 255 50 0 0.738050
-0.116921 -0.002807 0.862745 255 50 0 0.737785
-0.114722 -0.001933 0.865177 255 50 0 0.737711
-0.120094 -0.004414 0.860741 255 50 0 0.737964
-0.121422 -0.004699 0.858029 255 50 0 0.737407
-0.123607 -0.006013 0.859309 255 56 0 0.722890
-0.122226 -0.005839 0.862174 255 48 0 0.738387
-0.131319 -0.011375 0.849242 255 42 0 0.750314
-0.129901 -0.010344 0.851981 255 61 0 0.715769
-0.133770 -0.012495 0.851247 255 50 0 0.737550
-0.128453 -0.009398 0.854840 255 50 0 0.737793
-0.132210 -0.011559 0.854123 255 50 0 0.737970
-0.130774 -0.010593 0.856958 255 48 0 0.738592
-0.136100 -0.013621 0.853436 255 50 0 0.738220
-0.127028 -0.008381 0.857726 255 50 0 0.738064
-0.124864 -0.007090 0.856307 255 54 0 0.728238
-0.126121 -0.008174 0.853502 255 34 0 0.768084
-0.134494 -0.012694 0.855962 255 48 0 0.738516
-0.138166 -0.014462 0.855880 255 48 0 0.738327
-0.132876 -0.011869 0.858660 255 48 0 0.739059
-0.136531 -0.013617 0.858540 255 48 0 0.739199
-0.131295 -0.011087 0.861328 255 48 0 0.739609
-0.129284 -0.009754 0.859585 255 48 0 0.738865
-0.103110 0.004923 0.845633 255 50 0 0.734913
-0.100872 0.006133 0.848126 255 50 0 0.735236
-0.103056 0.004859 0.848144 255 58 0 0.721577
-0.105260 0.003555 0.845680 255 50 0 0.734925
-0.100792 0.005940 0.850652 255 42 0 0.752011
-0.105258 0.003548 0.848220 255 50 0 0.735457
-0.103021 0.004692 0.850710 255 67 0 0.704633
-0.105203 0.003404 0.850786 255 46 0 0.742324
-0.107354 0.002153 0.845714 255 50 0 0.734688
-0.107374 0.002197 0.848285 255 50 0 0.735516
-0.109443 0.000865 0.845850 255 50 0 0.734641
-0.100748 0.005652 0.853203 255 50 0 0.735504
-0.103023 0.004485 0.853261 255 50 0 0.736054
-0.100752 0.005275 0.855735 255 50 0 0.735673
-0.098440 0.006217 0.855691 255 44 0 0.749362
-0.098492 0.006605 0.853169 255 50 0 0.735177
-0.096162 0.007074 0.855581 255 50 0 0.734764
-0.096209 0.007541 0.853040 255 50 0 0.734857
-0.098585 0.006999 0.850631 255 50 0 0.735131
-0.093829 0.007859 0.855533 255 50 0 0.734496
-0.111436 -0.000516 0.845943 255 50 0 0.735115
-0.111397 -0.000356 0.848435 255 50 0 0.735657
-0.113529 -0.001815 0.846043 255 73 0 0.691817
-0.109323 0.001116 0.850878 255 50 0 0.736387
-0.113454 -0.001689 0.848535 255 21 0 0.790982
-0.111312 -0.000254 0.850976 255 50 0 0.736657
-0.115601 -0.003211 0.846068 255 50 0 0.735595
-0.117751 -0.004482 0.846211 255 50 0 0.735981
-0.109212 0.001069 0.856023 255 50 0 0.737303
-0.107232 0.002257 0.853354 255 50 0 0.736698
-0.105065 0.003309 0.855834 255 50 0 0.736656
-0.100286 0.002695 0.863470 255 50 0 0.735960
-0.100406 0.003604 0.860937 255 50 0 0.736065
-0.096149 0.003884 0.863301 255 50 0 0.735056
-0.096281 0.004824 0.860750 255 50 0 0.735106
-0.100559 0.004519 0.858349 255 50 0 0.735896
-0.104909 0.002589 0.858467 255 27 0 0.780184
-0.104709 0.001765 0.861172 255 50 0 0.737205
-0.091881 0.005025 0.862861 255 52 0 0.734115
-0.091711 0.006265 0.860369 255 52 0 0.734186
-0.087527 0.005903 0.862595 255 52 0 0.733481
-0.091586 0.007457 0.857924 255 52 0 0.734315
-0.093875 0.006746 0.858042 255 42 0 0.751089
-0.096168 0.006019 0.858184 255 50 0 0.734936
-0.093983 0.005552 0.860568 255 50 0 0.734494
-0.104606 -0.016509 0.802125 255 63 0 0.711269
-0.102802 -0.015002 0.803189 255 65 0 0.709979
-0.099719 -0.013977 0.802194 255 63 0 0.712884
-0.097956 -0.012352 0.803307 255 61 0 0.716358
-0.094903 -0.011287 0.802440 255 58 0 0.721236
-0.097418 -0.010011 0.806499 255 58 0 0.720687
-0.095481 -0.013568 0.799277 255 58 0 0.718884
-0.092386 -0.012611 0.798372 255 56 0 0.722704
-0.097396 -0.015039 0.798390 255 67 0 0.704603
-0.099283 -0.016410 0.797550 255 61 0 0.717280
-0.102331 -0.017320 0.798498 255 120 0 0.603696
-0.100109 -0.018229 0.794895 255 58 0 0.721788
-0.095364 -0.008377 0.807672 255 56 0 0.723459
-0.094060 -0.009148 0.805430 255 56 0 0.723952
-0.091959 -0.007532 0.806599 255 56 0 0.726365
-0.093333 -0.006733 0.808835 255 133 0 0.581035
-0.090604 -0.008358 0.804367 255 65 0 0.709076
-0.089805 -0.005874 0.807812 255 54 0 0.729631
-0.088458 -0.006752 0.805589 255 54 0 0.729576
-0.091161 -0.005024 0.810014 255 54 0 0.729512
-0.087057 -0.007571 0.803414 255 54 0 0.729586
-0.088008 -0.009782 0.800344 255 127 0 0.591914
-0.091516 -0.010536 0.801345 255 56 0 0.723801
-0.080715 -0.011990 0.792158 255 96 0 0.650448
-0.084366 -0.012506 0.793516 255 54 0 0.727287
-0.086761 -0.013800 0.792740 255 58 0 0.718860
-0.090130 -0.014230 0.794133 255 42 0 0.752294
-0.087870 -0.015812 0.789925 255 56 0 0.726199
-0.088996 -0.012135 0.797006 255 56 0 0.724327
-0.086769 -0.010741 0.797993 255 56 0 0.726315
-0.084424 -0.009346 0.798984 255 54 0 0.729279
-0.083171 -0.010315 0.796616 255 54 0 0.729054
-0.090001 -0.017151 0.789329 255 56 0 0.724994
-0.093075 -0.017771 0.790521 255 56 0 0.723449
-0.095070 -0.018964 0.789938 255 56 0 0.725259
-0.098129 -0.019526 0.791162 255 56 0 0.725265
-0.096117 -0.020826 0.787545 255 54 0 0.727937
-0.097079 -0.017668 0.793624 255 58 0 0.721901
-0.095148 -0.016293 0.794482 255 58 0 0.720521
-0.093179 -0.014855 0.795384 255 58 0 0.721005
-0.090538 -0.002705 0.813244 255 52 0 0.732139
-0.088470 -0.001184 0.814723 255 81 0 0.675989
-0.090015 -0.000618 0.816669 255 56 0 0.726283
-0.092124 -0.002188 0.815163 255 52 0 0.731840
-0.087940 0.000934 0.818240 255 50 0 0.734609
-0.091644 -0.000091 0.818638 255 65 0 0.709855
-0.089519 0.001526 0.820232 255 50 0 0.734644
-0.091060 0.002076 0.822236 255 50 0 0.734571
-0.093594 -0.001660 0.817160 255 52 0 0.731390
-0.093162 0.000418 0.820631 255 52 0 0.733161
-0.095172 -0.001191 0.819152 255 52 0 0.731188
-0.087287 0.003079 0.821857 255 50 0 0.735270
-0.088848 0.003676 0.823851 255 56 0 0.725538
-0.086513 0.005168 0.825546 255 50 0 0.735416
-0.084691 0.004489 0.823342 255 46 0 0.742633
-0.085469 0.002334 0.819625 255 61 0 0.714935
-0.082847 0.003695 0.821081 255 50 0 0.735616
-0.083576 0.001562 0.817421 255 50 0 0.735289
-0.086073 0.000211 0.816036 255 50 0 0.734621
-0.080971 0.002851 0.818847 255 50 0 0.735741
-0.094952 0.000602 0.822391 255 52 0 0.732654
-0.098459 -0.001192 0.822252 255 54 0 0.730447
-0.094756 0.002388 0.825666 255 52 0 0.733783
-0.098208 0.000544 0.825428 255 52 0 0.732168
-0.097892 0.002238 0.828545 255 52 0 0.733445
-0.101585 -0.001359 0.825217 255 54 0 0.730204
-0.094366 0.004115 0.828874 255 50 0 0.734506
-0.093889 0.005816 0.832166 255 50 0 0.734820
-0.092108 0.005744 0.830542 255 50 0 0.734964
-0.092581 0.004016 0.827226 255 50 0 0.734580
-0.090282 0.005632 0.828957 255 50 0 0.735073
-0.090736 0.003895 0.825579 255 50 0 0.734968
-0.092911 0.002247 0.823937 255 52 0 0.733996
-0.088446 0.005418 0.827257 255 50 0 0.735280
-0.084925 0.009128 0.837431 255 50 0 0.734629
-0.082917 0.008892 0.835667 255 54 0 0.729676
-0.085552 0.008028 0.833549 255 50 0 0.734953
-0.080809 0.008570 0.833824 255 50 0 0.734659
-0.083466 0.007738 0.831702 255 50 0 0.734902
-0.081268 0.007361 0.829787 255 50 0 0.734973
-0.078607 0.008185 0.831865 255 50 0 0.734843
-0.086083 0.006694 0.829581 255 50 0 0.735235
-0.083946 0.006320 0.827586 255 50 0 0.735288
-0.087984 0.006891 0.831190 255 63 0 0.713764
-0.089788 0.007057 0.832808 255 50 0 0.735027
-0.087361 0.008184 0.835073 255 50 0 0.734852
-0.089231 0.008276 0.836629 255 50 0 0.734906
-0.091596 0.007151 0.834408 255 50 0 0.735057
-0.086836 0.009234 0.838852 255 50 0 0.734691
-0.076820 0.007494 0.829636 255 50 0 0.735094
-0.074823 0.006638 0.827053 255 50 0 0.735300
-0.077685 0.005847 0.825231 255 50 0 0.735439
-0.072778 0.005675 0.824483 255 50 0 0.735505
-0.075619 0.004887 0.822645 255 50 0 0.735632
-0.078424 0.003947 0.820888 255 65 0 0.707945
-0.080290 0.004824 0.823121 255 50 0 0.735701
-0.082137 0.005602 0.825351 255 50 0 0.735447
-0.079490 0.006654 0.827522 255 50 0 0.735250
-0.101551 -0.000041 0.827851 255 52 0 0.731398
-0.104924 -0.002669 0.826936 255 54 0 0.728620
-0.101408 0.001255 0.830434 255 52 0 0.732695
-0.104849 -0.001401 0.829507 255 54 0 0.730296
-0.104757 -0.000096 0.832106 255 52 0 0.731647
-0.108267 -0.003957 0.828617 255 54 0 0.728713
-0.101293 0.002560 0.833071 255 52 0 0.733572
-0.101120 0.003832 0.835685 255 52 0 0.734214
-0.097566 0.004919 0.833964 255 50 0 0.734625
-0.097739 0.003608 0.831225 255 52 0 0.733930
-0.110178 -0.004249 0.831266 255 102 0 0.639356
-0.111882 -0.006229 0.829577 255 100 0 0.642257
-0.108463 -0.002218 0.833005 255 52 0 0.730579
-0.112091 -0.004571 0.833717 255 79 0 0.683169
-0.113830 -0.006496 0.831985 255 52 0 0.730999
-0.115536 -0.008323 0.830324 255 54 0 0.730008
-0.110300 -0.002592 0.835463 255 52 0 0.731259
-0.108587 -0.000572 0.837234 255 52 0 0.732587
-0.106686 -0.000350 0.834725 255 52 0 0.732011
-0.104913 0.001594 0.836472 255 52 0 0.733221
-0.101003 0.005729 0.843069 255 50 0 0.734900
-0.101056 0.005150 0.840584 255 50 0 0.734620
-0.096916 0.007382 0.842466 255 50 0 0.735062
-0.096993 0.006841 0.839964 255 50 0 0.735012
-0.101110 0.004525 0.838165 255 50 0 0.734496
-0.104905 0.002269 0.838854 255 52 0 0.733891
-0.104835 0.002939 0.841214 255 52 0 0.733976
-0.092911 0.008564 0.841389 255 34 0 0.766493
-0.093238 0.007788 0.838372 255 50 0 0.735041
-0.095416 0.006437 0.836129 255 50 0 0.734959
-0.134073 -0.013718 0.847270 255 50 0 0.737812
-0.137956 -0.016309 0.846705 255 50 0 0.737668
-0.140577 -0.018529 0.844858 255 71 0 0.695920
-0.144434 -0.020929 0.844443 255 44 0 0.749923
-0.141922 -0.020395 0.841911 255 56 0 0.726099
-0.142998 -0.019088 0.847560 255 71 0 0.698414
-0.146860 -0.021459 0.847035 255 52 0 0.733956
-0.140326 -0.017147 0.849115 255 65 0 0.708296
-0.137672 -0.015061 0.850663 255 50 0 0.737754
-0.144496 -0.023316 0.840418 255 52 0 0.732508
-0.145554 -0.023091 0.842358 255 52 0 0.732626
-0.148135 -0.025896 0.840762 255 54 0 0.729991
-0.147074 -0.026167 0.838909 255 67 0 0.706910
-0.149314 -0.025637 0.842620 255 52 0 0.730740
-0.150850 -0.028546 0.839226 255 54 0 0.728381
-0.151952 -0.028209 0.841017 255 54 0 0.729455
-0.154691 -0.030752 0.839410 255 54 0 0.728684
-0.149706 -0.028897 0.837513 255 54 0 0.727329
-0.153487 -0.031197 0.837748 255 54 0 0.727306
-0.152175 -0.031734 0.836099 255 56 0 0.725369
-0.153057 -0.027947 0.842837 255 54 0 0.729588
-0.155871 -0.030383 0.841177 255 54 0 0.729818
-0.157019 -0.030067 0.842998 255 54 0 0.730281
-0.151876 -0.025922 0.845032 255 52 0 0.731192
-0.148065 -0.023535 0.844765 255 52 0 0.732322
-0.157059 -0.027012 0.849444 255 52 0 0.731729
-0.153552 -0.025334 0.848695 255 52 0 0.731354
-0.152064 -0.023404 0.851133 255 52 0 0.732619
-0.148729 -0.021491 0.850303 255 52 0 0.733869
-0.150185 -0.023459 0.847943 255 52 0 0.732808
-0.155365 -0.027709 0.845680 255 92 0 0.659978
-0.158948 -0.029332 0.846380 255 52 0 0.731288
-0.146910 -0.019670 0.853659 255 87 0 0.667069
-0.143322 -0.017712 0.853495 255 50 0 0.736631
-0.141787 -0.016477 0.855881 255 50 0 0.737831
-0.139715 -0.015704 0.853379 255 50 0 0.737944
-0.145136 -0.019591 0.850245 255 50 0 0.735359
-0.117657 -0.009764 0.830599 255 52 0 0.732033
-0.119804 -0.011175 0.830887 255 50 0 0.735377
-0.116423 -0.007386 0.834016 255 54 0 0.728437
-0.118585 -0.008892 0.834297 255 50 0 0.735431
-0.120757 -0.010297 0.834456 255 50 0 0.737418
-0.122057 -0.012584 0.831154 255 48 0 0.738410
-0.124262 -0.013926 0.831373 255 48 0 0.738942
-0.117137 -0.006448 0.837761 255 52 0 0.733615
-0.114872 -0.005068 0.837594 255 52 0 0.733086
-0.112720 -0.003621 0.837488 255 52 0 0.732406
-0.126513 -0.015461 0.831598 255 48 0 0.738964
-0.128861 -0.016954 0.831867 255 48 0 0.738988
-0.125380 -0.012996 0.834835 255 48 0 0.739208
-0.127665 -0.014538 0.834955 255 50 0 0.738107
-0.130044 -0.016088 0.835144 255 48 0 0.738927
-0.131139 -0.018436 0.832181 255 50 0 0.736104
-0.133561 -0.019976 0.832431 255 52 0 0.733630
-0.126342 -0.012149 0.838158 255 50 0 0.738136
-0.124007 -0.010768 0.838101 255 50 0 0.737535
-0.121730 -0.009379 0.838003 255 36 0 0.762482
-0.123035 -0.011664 0.834587 255 48 0 0.738615
-0.119382 -0.007916 0.837885 255 50 0 0.736035
-0.117498 -0.005428 0.841918 255 50 0 0.735166
-0.115290 -0.004212 0.841803 255 52 0 0.734043
-0.113221 -0.002887 0.841688 255 52 0 0.733893
-0.119706 -0.006947 0.841928 255 50 0 0.736110
-0.121994 -0.008476 0.842042 255 50 0 0.736932
-0.108993 0.000159 0.841438 255 52 0 0.733217
-0.106950 0.001542 0.841331 255 52 0 0.733859
-0.110845 -0.001730 0.839463 255 52 0 0.732493
-0.105461 -0.014627 0.806598 255 67 0 0.704615
-0.107127 -0.016228 0.805351 255 67 0 0.706342
-0.103768 -0.012913 0.807859 255 67 0 0.706888
-0.106271 -0.012618 0.811044 255 69 0 0.702755
-0.107920 -0.014314 0.809784 255 69 0 0.700761
-0.109606 -0.015986 0.808488 255 156 0 0.537435
-0.103368 -0.010934 0.810753 255 63 0 0.711457
-0.102978 -0.008861 0.813662 255 122 0 0.598818
-0.100217 -0.009400 0.810077 255 61 0 0.717926
-0.100562 -0.011446 0.807148 255 63 0 0.714271
-0.110822 -0.014698 0.812554 255 73 0 0.693383
-0.112441 -0.016436 0.811112 255 71 0 0.696568
-0.109265 -0.012892 0.813943 255 71 0 0.698138
-0.111975 -0.013355 0.816457 255 73 0 0.693022
-0.113560 -0.015130 0.815037 255 73 0 0.692192
-0.115221 -0.016890 0.813655 255 71 0 0.698591
-0.109076 -0.011236 0.816614 255 127 0 0.590865
-0.108853 -0.009515 0.819206 255 63 0 0.713965
-0.105932 -0.009152 0.816501 255 112 0 0.620458
-0.106147 -0.010943 0.813773 255 67 0 0.706645
-0.102047 -0.003307 0.822351 255 54 0 0.727492
-0.102418 -0.005215 0.819482 255 56 0 0.724053
-0.098804 -0.003181 0.819288 255 54 0 0.727930
-0.099171 -0.005110 0.816398 255 56 0 0.725124
-0.102739 -0.007081 0.816601 255 58 0 0.719723
-0.105662 -0.007405 0.819331 255 61 0 0.718646
-0.105296 -0.005606 0.822102 255 56 0 0.723314
-0.095822 -0.003516 0.815970 255 54 0 0.728787
-0.094279 -0.003990 0.813968 255 108 0 0.628525
-0.096443 -0.005797 0.812779 255 56 0 0.725790
-0.092763 -0.004506 0.811998 255 54 0 0.729316
-0.094937 -0.006256 0.810811 255 56 0 0.725787
-0.096931 -0.007963 0.809635 255 58 0 0.722222
-0.099747 -0.007324 0.813231 255 58 0 0.720637
-0.116720 -0.016351 0.816773 255 71 0 0.696669
-0.118331 -0.018132 0.815367 255 69 0 0.700447
-0.115164 -0.014494 0.818172 255 71 0 0.697277
-0.118224 -0.015721 0.819708 255 65 0 0.708070
-0.119855 -0.017561 0.818379 255 67 0 0.704950
-0.121478 -0.019329 0.816944 175 255 73 0.208845
-0.115156 -0.013250 0.820333 255 67 0 0.706754
-0.115149 -0.011989 0.822505 255 61 0 0.718116
-0.112008 -0.010792 0.820957 255 65 0 0.710179
-0.112000 -0.012082 0.818676 255 69 0 0.702879
-0.123386 -0.019393 0.819542 255 61 0 0.716121
-0.124883 -0.021114 0.818225 255 58 0 0.720473
-0.121915 -0.017639 0.820860 255 58 0 0.719143
-0.125299 -0.019403 0.822028 255 56 0 0.724656
-0.126805 -0.021147 0.820755 255 58 0 0.720038
-0.128327 -0.022860 0.819423 255 65 0 0.708849
-0.123815 -0.017652 0.823265 255 54 0 0.726698
-0.122327 -0.015810 0.824603 255 52 0 0.730915
-0.120272 -0.015793 0.822212 255 58 0 0.720263
-0.118652 -0.013921 0.823586 255 58 0 0.720770
-0.113612 -0.008251 0.827959 255 56 0 0.725881
-0.115383 -0.010184 0.826438 255 56 0 0.725290
-0.111763 -0.008213 0.825473 255 58 0 0.721276
-0.110009 -0.006133 0.827027 189 0 0 0.895861
-0.113482 -0.010169 0.823966 255 58 0 0.719208
-0.117014 -0.012088 0.824996 255 56 0 0.724689
-0.118957 -0.012177 0.827382 255 52 0 0.731557
-0.120608 -0.014016 0.825923 255 52 0 0.731199
-0.106781 -0.004767 0.825396 255 56 0 0.725951
-0.108670 -0.006809 0.823950 255 56 0 0.722717
-0.108831 -0.008187 0.821646 255 58 0 0.718997
-0.124120 -0.125130 0.812585 255 48 0 0.741433
-0.121352 -0.124920 0.814646 255 32 0 0.770768
-0.123133 -0.123245 0.817832 255 46 0 0.743022
-0.120268 -0.123059 0.819559 255 48 0 0.740539
-0.118568 -0.124851 0.816550 255 48 0 0.738900
-0.122153 -0.121518 0.822522 255 48 0 0.740752
-0.117442 -0.123034 0.821246 255 48 0 0.738573
-0.119291 -0.121428 0.824048 255 36 0 0.763725
-0.116431 -0.121584 0.825523 255 48 0 0.738298
-0.115729 -0.124857 0.818328 255 50 0 0.737916
-0.114596 -0.123090 0.822834 255 50 0 0.737622
-0.112941 -0.124979 0.820057 255 50 0 0.736948
-0.121286 -0.120245 0.826803 255 48 0 0.739799
-0.118402 -0.120445 0.828202 255 48 0 0.738904
-0.120540 -0.119657 0.830917 255 48 0 0.739594
-0.123255 -0.119474 0.829262 255 65 0 0.710458
-0.123955 -0.120332 0.825109 255 48 0 0.741711
-0.125897 -0.119362 0.827623 255 46 0 0.742472
-0.126580 -0.120529 0.823331 255 46 0 0.745753
-0.124833 -0.121792 0.820654 255 46 0 0.744017
-0.127414 -0.122329 0.818593 255 46 0 0.745574
-0.128471 -0.119525 0.825975 255 46 0 0.746053
-0.129144 -0.121089 0.821483 255 42 0 0.750094
-0.131055 -0.119853 0.824390 255 75 0 0.689053
-0.125735 -0.123688 0.815592 255 46 0 0.744127
-0.109733 -0.124754 0.821774 255 34 0 0.769431
-0.111432 -0.122775 0.824707 255 50 0 0.737129
-0.108192 -0.122611 0.826328 255 50 0 0.736576
-0.106556 -0.124624 0.823519 255 50 0 0.736073
-0.110090 -0.121222 0.829187 255 50 0 0.736823
-0.105094 -0.122604 0.827987 255 50 0 0.736187
-0.106943 -0.121295 0.830803 255 50 0 0.736538
-0.103471 -0.124507 0.825213 255 50 0 0.735740
-0.109011 -0.120599 0.833744 255 50 0 0.737025
-0.111163 -0.120395 0.836514 255 54 0 0.728889
-0.112063 -0.120436 0.831834 255 42 0 0.750386
-0.114240 -0.120025 0.834557 255 50 0 0.738012
-0.115207 -0.120378 0.829978 255 58 0 0.718915
-0.113210 -0.121317 0.827351 255 50 0 0.737319
-0.117366 -0.119827 0.832696 255 61 0 0.718586
-0.122751 -0.121479 0.847904 255 50 0 0.737743
-0.119790 -0.121492 0.845204 255 48 0 0.738507
-0.122937 -0.120595 0.842963 255 48 0 0.740441
-0.125984 -0.120438 0.845646 253 17 0 0.797987
-0.119967 -0.120443 0.840282 255 46 0 0.742514
-0.126116 -0.119657 0.840848 255 46 0 0.742645
-0.123106 -0.119736 0.838174 255 46 0 0.743194
-0.126146 -0.119083 0.836171 255 46 0 0.744086
-0.129067 -0.119390 0.843522 255 48 0 0.740715
-0.129079 -0.118821 0.838818 255 46 0 0.744373
-0.131993 -0.118507 0.841478 255 46 0 0.742382
-0.120132 -0.119646 0.835516 255 48 0 0.740870
-0.123300 -0.119362 0.833560 255 48 0 0.741626
-0.117005 -0.120050 0.837415 255 48 0 0.740459
-0.113874 -0.120595 0.839402 255 48 0 0.740355
-0.116774 -0.121032 0.842290 255 48 0 0.741767
-0.134328 -0.117584 0.839668 255 46 0 0.744374
-0.131573 -0.118081 0.837208 255 46 0 0.745662
-0.133920 -0.117493 0.835477 255 44 0 0.749466
-0.136645 -0.116814 0.837936 255 114 0 0.614224
-0.131264 -0.118175 0.833034 255 44 0 0.746828
-0.136314 -0.117056 0.833819 255 44 0 0.747068
-0.133638 -0.117828 0.831311 255 44 0 0.749413
-0.136025 -0.117699 0.829608 179 0 0 0.913249
-0.139035 -0.116249 0.836299 255 40 0 0.754594
-0.138716 -0.116719 0.832228 255 44 0 0.749555
-0.141492 -0.115736 0.834724 255 44 0 0.747485
-0.131050 -0.118641 0.828792 255 44 0 0.748062
-0.133425 -0.118718 0.826971 255 42 0 0.752339
-0.128518 -0.118705 0.830341 255 46 0 0.745159
-0.125945 -0.118938 0.831927 255 56 0 0.724952
-0.128727 -0.118509 0.834567 255 46 0 0.744978
-0.130566 -0.023508 0.821823 255 65 0 0.708439
-0.131919 -0.025148 0.820577 255 81 0 0.677859
-0.129318 -0.021895 0.823039 255 63 0 0.714491
-0.132843 -0.024132 0.824162 128 0 0 0.998301
-0.134223 -0.025826 0.822930 255 69 0 0.702969
-0.135643 -0.027509 0.821700 255 69 0 0.699538
-0.131572 -0.022502 0.825293 255 61 0 0.714852
-0.130316 -0.020889 0.826390 255 56 0 0.725668
-0.127765 -0.020150 0.824240 255 87 0 0.665053
-0.126285 -0.018382 0.825490 255 52 0 0.730748
-0.138205 -0.028644 0.823836 255 69 0 0.701593
-0.140820 -0.029756 0.825882 255 67 0 0.704818
-0.141325 -0.031656 0.823061 255 69 0 0.699473
-0.137838 -0.026845 0.826542 255 65 0 0.707277
-0.136464 -0.025110 0.827713 255 63 0 0.711613
-0.131942 -0.020409 0.829491 255 54 0 0.730220
-0.129618 -0.018936 0.829143 255 52 0 0.732503
-0.127336 -0.017452 0.828810 255 50 0 0.736771
-0.133169 -0.022050 0.828413 255 56 0 0.724414
-0.136033 -0.023221 0.830267 129 0 0 0.989443
-0.134797 -0.021589 0.831368 255 54 0 0.729062
-0.123329 -0.014902 0.828005 255 25 0 0.784633
-0.124823 -0.016651 0.826756 255 50 0 0.736437
-0.157636 -0.026519 0.907191 255 52 0 0.731029
-0.160361 -0.027919 0.904453 255 52 0 0.731748
-0.157054 -0.027652 0.910142 255 52 0 0.730669
-0.159797 -0.029052 0.907606 255 52 0 0.731274
-0.159206 -0.030157 0.910555 255 52 0 0.731022
-0.162566 -0.030616 0.904718 255 52 0 0.732324
-0.156468 -0.028910 0.912871 255 46 0 0.742880
-0.155820 -0.030168 0.915592 255 50 0 0.738239
-0.153852 -0.027688 0.914948 255 44 0 0.747496
-0.154496 -0.026441 0.912275 255 54 0 0.729573
-0.161578 -0.031801 0.908060 255 50 0 0.735245
-0.163954 -0.033763 0.905363 255 52 0 0.732928
-0.160537 -0.033094 0.911235 255 52 0 0.731315
-0.162937 -0.034917 0.908705 255 52 0 0.732859
-0.161882 -0.036189 0.911922 255 40 0 0.754430
-0.165258 -0.037021 0.905902 255 52 0 0.733751
-0.159506 -0.034425 0.914256 255 44 0 0.749500
-0.158472 -0.035872 0.917146 255 44 0 0.749536
-0.157122 -0.032951 0.916384 255 54 0 0.729590
-0.158187 -0.031550 0.913540 255 54 0 0.730453
-0.151526 -0.033751 0.925108 255 54 0 0.726599
-0.152998 -0.032733 0.921737 255 54 0 0.727485
-0.150180 -0.031003 0.924721 255 56 0 0.725836
-0.151763 -0.030017 0.921100 255 54 0 0.727544
-0.154436 -0.031482 0.918596 255 54 0 0.728165
-0.155784 -0.034281 0.919426 255 54 0 0.729423
-0.154432 -0.035485 0.922475 255 54 0 0.728582
-0.148536 -0.028212 0.924579 255 56 0 0.725384
-0.149751 -0.027497 0.920779 255 54 0 0.727179
-0.146600 -0.025270 0.924804 255 56 0 0.724875
-0.150901 -0.026403 0.917476 255 54 0 0.728366
-0.152833 -0.028916 0.917986 255 54 0 0.727971
-0.141592 -0.110063 0.864924 255 46 0 0.743474
-0.139796 -0.111980 0.863109 255 48 0 0.741960
-0.143238 -0.110995 0.861105 255 46 0 0.742721
-0.144964 -0.109146 0.862877 255 46 0 0.743720
-0.141411 -0.112814 0.859166 255 48 0 0.742108
-0.146635 -0.110028 0.859118 255 46 0 0.742519
-0.144728 -0.111782 0.857247 255 48 0 0.742158
-0.147991 -0.110761 0.855433 255 48 0 0.741763
-0.148391 -0.108269 0.860936 255 100 0 0.640963
-0.149974 -0.109009 0.857268 255 48 0 0.741651
-0.151853 -0.107315 0.858998 255 48 0 0.741315
-0.142684 -0.113519 0.855211 255 48 0 0.741840
-0.145937 -0.112363 0.853368 255 65 0 0.710006
-0.143680 -0.113878 0.851200 255 46 0 0.742193
-0.140565 -0.114924 0.853235 255 48 0 0.741558
-0.139459 -0.114470 0.857311 255 48 0 0.741541
-0.137362 -0.115974 0.855308 255 48 0 0.740936
-0.136061 -0.115386 0.859485 255 67 0 0.704807
-0.138000 -0.113677 0.861303 255 77 0 0.685806
-0.133960 -0.117106 0.857519 255 48 0 0.739879
-0.155279 -0.105428 0.856951 255 48 0 0.741733
-0.152660 -0.108057 0.855283 255 48 0 0.741358
-0.156265 -0.106004 0.853230 255 25 0 0.782200
-0.158869 -0.103250 0.854774 255 48 0 0.741596
-0.153391 -0.108626 0.851443 255 32 0 0.769729
-0.160033 -0.103711 0.851015 255 48 0 0.741211
-0.157158 -0.106356 0.849382 255 46 0 0.742593
-0.161203 -0.103788 0.847258 255 46 0 0.742545
-0.162677 -0.100868 0.852452 255 48 0 0.740163
-0.164176 -0.101057 0.848685 255 48 0 0.740744
-0.166820 -0.098286 0.850063 255 48 0 0.739256
-0.154066 -0.108897 0.847587 255 46 0 0.742534
-0.158054 -0.106384 0.845657 255 46 0 0.743110
-0.154593 -0.108937 0.843879 255 46 0 0.743951
-0.151567 -0.110414 0.845618 255 46 0 0.743625
-0.151168 -0.110225 0.849528 255 46 0 0.742472
-0.148756 -0.111691 0.847431 255 46 0 0.742951
-0.148482 -0.111349 0.851464 255 46 0 0.742295
-0.150629 -0.109766 0.853441 255 83 0 0.674450
-0.146166 -0.112796 0.849303 255 96 0 0.652041
-0.142162 -0.115173 0.838793 255 46 0 0.745329
-0.139722 -0.115890 0.840436 255 46 0 0.744703
-0.142796 -0.114833 0.842894 255 46 0 0.743326
-0.137393 -0.116772 0.842141 255 46 0 0.743165
-0.140419 -0.115699 0.844624 255 46 0 0.742787
-0.138069 -0.116669 0.846463 255 48 0 0.741786
-0.135067 -0.117687 0.843951 255 48 0 0.741927
-0.143342 -0.114470 0.846975 255 54 0 0.726640
-0.140967 -0.115359 0.848853 255 48 0 0.741891
-0.145826 -0.113314 0.845203 255 46 0 0.743330
-0.148510 -0.112126 0.843454 255 46 0 0.744104
-0.145351 -0.113674 0.841208 255 46 0 0.744885
-0.148040 -0.112562 0.839613 255 46 0 0.745547
-0.151431 -0.110771 0.841913 255 46 0 0.744462
-0.144727 -0.114179 0.837266 255 44 0 0.746322
-0.131958 -0.118937 0.845972 255 48 0 0.740309
-0.128936 -0.119934 0.848138 255 48 0 0.739175
-0.131734 -0.119156 0.850550 255 48 0 0.739457
-0.125695 -0.121047 0.850385 255 50 0 0.737887
-0.128548 -0.120160 0.852815 255 48 0 0.738450
-0.131227 -0.118918 0.855193 255 48 0 0.739063
-0.134645 -0.117677 0.852949 255 48 0 0.740353
-0.137866 -0.116501 0.850856 255 48 0 0.741206
-0.134963 -0.117845 0.848430 255 48 0 0.740722
-0.166355 -0.091340 0.867204 255 50 0 0.737295
-0.163493 -0.094135 0.866910 255 48 0 0.738839
-0.166242 -0.092848 0.863302 255 50 0 0.736256
-0.160790 -0.096992 0.866630 255 48 0 0.740540
-0.163438 -0.095719 0.863120 255 48 0 0.738518
-0.160724 -0.098477 0.862891 255 48 0 0.740038
-0.166247 -0.094454 0.859689 255 50 0 0.736295
-0.158071 -0.099659 0.866344 255 48 0 0.740618
-0.155353 -0.102120 0.866039 255 48 0 0.741178
-0.156009 -0.100240 0.869493 255 48 0 0.740989
-0.158777 -0.097669 0.869862 255 48 0 0.740614
-0.161534 -0.094950 0.870262 243 9 0 0.813737
-0.156815 -0.098356 0.873318 255 48 0 0.740347
-0.166372 -0.095544 0.857294 255 50 0 0.737286
-0.162746 -0.097908 0.859578 255 25 0 0.784468
-0.162692 -0.099029 0.857245 255 48 0 0.738898
-0.166571 -0.096569 0.854922 255 50 0 0.737469
