ply
format ascii 1.0
comment VCGLIB generated
element vertex 997
property float x
property float y
property float z
property uchar red
property uchar green
property uchar blue
property float quality
end_header
0.102209 -0.135689 0.852882 229 255 19 0.325241
0.104306 -0.136242 0.853836 215 255 33 0.295277
0.105687 -0.133787 0.849422 216 255 31 0.299891
0.103535 -0.133175 0.848461 233 255 15 0.332204
0.106355 -0.136800 0.854755 209 255 39 0.282927
0.107735 -0.134345 0.850371 216 255 31 0.297844
0.109708 -0.134831 0.851306 211 255 37 0.287656
0.108429 -0.137473 0.855831 213 255 35 0.290393
0.105034 -0.139407 0.859269 222 255 26 0.309172
0.107128 -0.140061 0.860321 222 255 26 0.309176
0.103704 -0.141802 0.863799 224 255 24 0.315682
0.101570 -0.141123 0.862752 227 255 21 0.322628
0.105699 -0.142411 0.864801 222 255 26 0.309389
0.108398 -0.126207 0.841556 209 255 39 0.284758
0.109898 -0.122571 0.837736 211 255 37 0.287841
0.113768 -0.123562 0.839600 184 255 64 0.229295
0.110462 -0.126761 0.842521 209 255 39 0.282063
0.112439 -0.127318 0.843522 202 255 46 0.268833
0.109085 -0.130593 0.846475 209 255 39 0.281631
0.107055 -0.130027 0.845477 213 255 35 0.291288
0.111042 -0.131123 0.847421 211 255 37 0.288695
0.120494 -0.124105 0.842342 179 255 69 0.215512
0.117592 -0.127768 0.845520 195 255 53 0.252948
0.116412 -0.131562 0.849325 184 255 64 0.227157
0.113499 -0.135198 0.852498 213 255 35 0.291313
0.116804 -0.135390 0.853661 207 255 40 0.280003
0.117257 -0.123854 0.840993 189 255 58 0.239014
0.115689 -0.138044 0.858091 216 255 31 0.299610
0.113887 -0.137913 0.857498 216 255 31 0.298307
0.112695 -0.140451 0.861928 198 255 49 0.260401
0.114441 -0.140527 0.862492 200 255 48 0.262836
0.110861 -0.140345 0.861374 202 255 46 0.266363
0.111416 -0.142822 0.866341 207 255 40 0.278638
0.109576 -0.142727 0.865819 200 255 48 0.265311
0.113205 -0.142914 0.866856 207 255 40 0.279946
0.117365 -0.140064 0.863091 218 255 30 0.304204
0.118609 -0.137575 0.858738 198 255 49 0.260226
0.119811 -0.134980 0.854315 216 255 31 0.298546
0.122754 -0.134583 0.854999 198 255 49 0.259449
0.121729 -0.137076 0.859187 206 255 42 0.273920
0.120742 -0.139510 0.863324 233 255 15 0.333455
0.118035 -0.142092 0.867319 209 255 39 0.281712
0.115404 -0.144672 0.871313 213 255 35 0.292434
0.118766 -0.144110 0.871477 213 255 35 0.289325
0.119376 -0.131592 0.850443 204 255 44 0.271477
0.120570 -0.127823 0.846694 195 255 53 0.250026
0.123211 -0.123995 0.843476 173 255 75 0.206816
0.126293 -0.123906 0.844512 170 255 78 0.197727
0.123454 -0.127603 0.847616 186 255 62 0.233338
0.122320 -0.131207 0.851155 193 255 55 0.247686
0.132405 -0.123465 0.846586 173 255 75 0.204476
0.129712 -0.126991 0.849518 188 255 60 0.235906
0.128609 -0.130274 0.852732 211 255 37 0.286943
0.125946 -0.133885 0.855628 195 255 53 0.253296
0.129234 -0.133308 0.856222 215 255 33 0.295951
0.125350 -0.130884 0.852064 173 255 75 0.203287
0.126522 -0.127339 0.848584 171 255 76 0.200809
0.129332 -0.123759 0.845667 182 255 66 0.226377
0.128445 -0.135667 0.860064 213 255 35 0.289631
0.125822 -0.138402 0.863871 193 255 55 0.246652
0.125041 -0.140692 0.867646 229 255 19 0.326721
0.122419 -0.143303 0.871433 206 255 42 0.275208
0.126170 -0.142596 0.871397 225 255 22 0.319996
0.121330 -0.141491 0.867673 197 255 51 0.254292
0.125008 -0.136415 0.859768 195 255 53 0.250748
0.128632 -0.139945 0.868073 204 255 44 0.270222
0.129384 -0.137611 0.864306 224 255 24 0.312584
0.131851 -0.134866 0.860949 227 255 21 0.323458
0.132655 -0.132512 0.857149 195 255 53 0.250483
0.136070 -0.131803 0.858047 200 255 48 0.264741
0.135345 -0.134071 0.861627 215 255 33 0.293800
0.132834 -0.136772 0.864959 215 255 33 0.294953
0.132171 -0.139043 0.868511 224 255 24 0.315502
0.129719 -0.141714 0.871824 204 255 44 0.272431
0.133313 -0.140918 0.872266 207 255 40 0.277453
0.131919 -0.129794 0.853687 204 255 44 0.270719
0.132972 -0.126523 0.850492 218 255 30 0.301811
0.135817 -0.123120 0.847906 200 255 48 0.264886
0.139229 -0.122649 0.849029 198 255 49 0.258130
0.136372 -0.125996 0.851611 240 254 8 0.348605
0.135354 -0.129068 0.854628 189 255 58 0.239236
0.146000 -0.121589 0.851539 202 255 46 0.266503
0.143191 -0.124847 0.853901 206 255 42 0.273740
0.142166 -0.127742 0.856774 215 255 33 0.293373
0.139474 -0.131034 0.859083 215 255 33 0.295314
0.142892 -0.130300 0.860128 222 255 26 0.310692
0.138723 -0.128481 0.855715 204 255 44 0.269566
0.139784 -0.125438 0.852731 197 255 51 0.257608
0.142612 -0.122183 0.850346 200 255 48 0.262804
0.142108 -0.132467 0.863531 234 255 13 0.338785
0.139679 -0.135113 0.866555 202 255 46 0.268236
0.138948 -0.137322 0.869942 225 255 22 0.318275
0.136596 -0.139994 0.872968 218 255 30 0.301245
0.139846 -0.139126 0.873630 220 255 28 0.307939
0.135650 -0.138245 0.869226 227 255 21 0.320349
0.136323 -0.135962 0.865685 200 255 48 0.263374
0.138741 -0.133302 0.862645 198 255 49 0.260092
0.142126 -0.136531 0.870757 222 255 26 0.308989
0.142862 -0.134282 0.867392 206 255 42 0.275223
0.145215 -0.131724 0.864513 209 255 39 0.282508
0.145985 -0.129539 0.861120 195 255 53 0.251428
0.149066 -0.128798 0.862080 218 255 30 0.303330
0.148251 -0.130888 0.865370 202 255 46 0.268562
0.145967 -0.133469 0.868271 229 255 19 0.328078
0.145147 -0.135624 0.871523 209 255 39 0.282327
0.142860 -0.138244 0.874384 215 255 33 0.295793
0.145889 -0.137394 0.875125 225 255 22 0.316975
0.145441 -0.127139 0.857879 204 255 44 0.272707
0.146456 -0.124230 0.855014 204 255 44 0.270838
0.149085 -0.121111 0.852716 220 255 28 0.306055
0.152227 -0.120497 0.853808 209 255 39 0.282864
0.149613 -0.123623 0.856109 207 255 40 0.280010
0.148542 -0.126373 0.858875 207 255 40 0.277816
0.158224 -0.119497 0.855825 213 255 35 0.289495
0.155610 -0.122463 0.858067 218 255 30 0.301341
0.154568 -0.125121 0.860756 216 255 31 0.299963
0.152058 -0.128138 0.862978 211 255 37 0.288093
0.155045 -0.127499 0.863843 213 255 35 0.289722
0.151598 -0.125793 0.859874 213 255 35 0.292510
0.152645 -0.123021 0.857117 209 255 39 0.283878
0.155218 -0.120059 0.854854 218 255 30 0.302866
0.154151 -0.129536 0.867015 215 255 33 0.295886
0.151862 -0.132016 0.869835 211 255 37 0.287132
0.151045 -0.134133 0.873009 227 255 21 0.320993
0.148783 -0.136660 0.875836 213 255 35 0.290251
0.151716 -0.135952 0.876518 224 255 24 0.316188
0.148132 -0.134893 0.872305 218 255 30 0.303580
0.148958 -0.132706 0.869073 211 255 37 0.288700
0.151205 -0.130247 0.866232 224 255 24 0.314629
0.154047 -0.133607 0.873697 211 255 37 0.288574
0.154863 -0.131428 0.870540 216 255 31 0.299641
0.157264 -0.129127 0.867741 218 255 30 0.301588
0.158122 -0.127065 0.864578 216 255 31 0.297792
0.157888 -0.130990 0.871160 222 255 26 0.309337
0.157026 -0.133121 0.874248 222 255 26 0.311505
0.154671 -0.135513 0.877073 213 255 35 0.291522
0.157622 -0.124670 0.861628 216 255 31 0.299287
0.158645 -0.121986 0.858944 213 255 35 0.291942
0.161344 -0.119210 0.856728 215 255 33 0.293789
0.162156 -0.113786 0.851638 220 255 28 0.307067
0.088077 -0.113714 0.825041 229 255 19 0.328106
0.086366 -0.116472 0.828382 229 255 19 0.325482
0.084368 -0.115476 0.827157 231 255 17 0.328343
0.084652 -0.119304 0.831718 225 255 22 0.319939
0.082663 -0.118278 0.830505 231 255 17 0.330401
0.080922 -0.121057 0.833865 229 255 19 0.327134
0.082953 -0.122076 0.835105 227 255 21 0.322655
0.080705 -0.117241 0.829287 229 255 19 0.326465
0.078981 -0.120037 0.832631 224 255 24 0.315450
0.077012 -0.119008 0.831408 222 255 26 0.311120
0.080425 -0.113818 0.825190 236 255 12 0.343520
0.084127 -0.112053 0.823057 233 255 15 0.333640
0.087774 -0.110266 0.820997 238 255 10 0.347341
0.083805 -0.108640 0.819092 234 255 13 0.337661
0.081208 -0.123815 0.838830 224 255 24 0.314979
0.079577 -0.125628 0.842766 229 255 19 0.327949
0.077490 -0.124454 0.841333 218 255 30 0.301047
0.077966 -0.127427 0.846743 211 255 37 0.286453
0.075835 -0.126224 0.845318 204 255 44 0.272251
0.073741 -0.125061 0.843861 215 255 33 0.295464
0.071717 -0.123994 0.842664 225 255 22 0.318880
0.075463 -0.123399 0.840109 216 255 31 0.300399
0.073487 -0.122405 0.838881 233 255 15 0.333014
0.077183 -0.121724 0.836350 222 255 26 0.312210
0.079203 -0.122766 0.837587 222 255 26 0.308779
0.075262 -0.120709 0.835127 224 255 24 0.316092
0.063917 -0.121213 0.837756 215 255 33 0.296815
0.067618 -0.120221 0.835205 227 255 21 0.323459
0.069418 -0.118556 0.831652 238 255 10 0.344940
0.073153 -0.117569 0.829181 231 255 17 0.329456
0.069320 -0.116184 0.827009 231 255 17 0.329533
0.073222 -0.119955 0.833872 227 255 21 0.320409
0.071499 -0.121656 0.837592 216 255 31 0.298659
0.069692 -0.123298 0.841391 220 255 28 0.306984
0.067688 -0.122581 0.840128 222 255 26 0.311027
0.070968 -0.113668 0.824115 236 255 12 0.341070
0.074539 -0.111731 0.822135 236 255 12 0.343321
0.076192 -0.109216 0.819270 238 255 10 0.345136
0.079785 -0.107320 0.817356 242 253 6 0.355194
0.075858 -0.106057 0.815689 238 255 10 0.346536
0.080157 -0.110548 0.821007 240 254 8 0.347791
0.076785 -0.115670 0.827179 233 255 15 0.333741
0.099927 -0.083466 0.812106 231 255 17 0.328828
0.098598 -0.087783 0.812668 227 255 21 0.322585
0.095195 -0.091600 0.812511 233 255 15 0.332972
0.093841 -0.095807 0.813238 233 255 15 0.332415
0.089685 -0.094751 0.811763 234 255 13 0.338774
0.090896 -0.090762 0.811129 236 255 12 0.340513
0.094340 -0.087005 0.811187 231 255 17 0.328393
0.095522 -0.082900 0.810647 231 255 17 0.328812
0.094470 -0.099923 0.815739 231 255 17 0.330724
0.092874 -0.103646 0.817818 231 255 17 0.330498
0.089375 -0.106589 0.818891 233 255 15 0.333111
0.085301 -0.105192 0.817185 234 255 13 0.339682
0.088861 -0.102334 0.816069 231 255 17 0.328720
0.090342 -0.098846 0.814212 229 255 19 0.324642
0.077213 -0.102797 0.814029 236 255 12 0.341524
0.080683 -0.100008 0.813065 249 244 0 0.368123
0.082024 -0.096713 0.811458 240 254 8 0.350806
0.085464 -0.093849 0.810461 245 249 3 0.359852
0.081201 -0.092892 0.809232 242 253 6 0.354374
0.086262 -0.097696 0.812730 236 255 12 0.343178
0.084809 -0.101161 0.814464 243 251 4 0.355963
0.081336 -0.103926 0.815495 233 255 15 0.334809
0.082232 -0.089165 0.808613 243 251 4 0.359233
0.085573 -0.085651 0.808496 242 253 6 0.354363
0.086586 -0.081769 0.807827 242 253 6 0.354171
0.091173 -0.082225 0.809151 251 242 0 0.373749
0.090006 -0.086312 0.809764 238 255 10 0.344660
0.086702 -0.089923 0.809699 236 255 12 0.342110
0.072322 -0.108179 0.817499 243 251 4 0.356822
0.070715 -0.110705 0.820275 229 255 19 0.325337
0.067212 -0.112843 0.822218 229 255 19 0.327343
0.065608 -0.115420 0.825095 234 255 13 0.338333
0.061960 -0.114671 0.823275 236 255 12 0.340880
0.063459 -0.112102 0.820536 224 255 24 0.312547
0.066854 -0.109893 0.818595 233 255 15 0.332279
0.068403 -0.107314 0.815995 242 253 6 0.352745
0.071900 -0.105191 0.814131 238 255 10 0.343991
0.067901 -0.104287 0.812741 242 253 6 0.354641
0.065691 -0.117542 0.829469 234 255 13 0.336325
0.063892 -0.119232 0.833062 236 255 12 0.340203
0.060328 -0.120525 0.835630 224 255 24 0.314651
0.058633 -0.122214 0.839209 227 255 21 0.321114
0.055244 -0.121865 0.836976 225 255 22 0.320262
0.056926 -0.120030 0.833582 224 255 24 0.316221
0.060330 -0.118530 0.831056 225 255 22 0.319857
0.062041 -0.116785 0.827581 224 255 24 0.312943
0.048792 -0.122594 0.832732 227 255 21 0.322088
0.050421 -0.120571 0.829531 218 255 30 0.304451
0.053646 -0.118388 0.827235 222 255 26 0.311831
0.055236 -0.116366 0.824003 231 255 17 0.329881
0.058522 -0.114413 0.821570 227 255 21 0.323466
0.055128 -0.114306 0.819874 233 255 15 0.333173
0.058598 -0.116421 0.825756 225 255 22 0.319502
0.056927 -0.118269 0.829153 220 255 28 0.306349
0.053666 -0.120226 0.831528 224 255 24 0.314356
0.052004 -0.122128 0.834862 225 255 22 0.317286
0.056427 -0.111493 0.817320 227 255 21 0.323246
0.059556 -0.108898 0.815582 238 255 10 0.344481
0.060853 -0.106166 0.813080 242 253 6 0.352842
0.064077 -0.103739 0.811316 243 251 4 0.358770
0.060224 -0.103269 0.809830 236 255 12 0.340919
0.064611 -0.106662 0.814499 243 251 4 0.356190
0.063174 -0.109287 0.817072 238 255 10 0.344861
0.059960 -0.111769 0.818907 233 255 15 0.335856
-0.059236 -0.146306 0.778191 224 255 24 0.314990
-0.060325 -0.145817 0.781430 202 255 46 0.269190
-0.063557 -0.145317 0.780229 222 255 26 0.310757
-0.064652 -0.145007 0.783490 231 255 17 0.328367
-0.061424 -0.145428 0.784690 225 255 22 0.318391
-0.067887 -0.144696 0.782295 240 254 8 0.349564
-0.065726 -0.144782 0.786766 234 255 13 0.336293
-0.068953 -0.144500 0.785574 240 254 8 0.351346
-0.070031 -0.144359 0.788838 236 255 12 0.342559
-0.062509 -0.145121 0.787959 227 255 21 0.324020
-0.066809 -0.144577 0.790028 233 255 15 0.334647
-0.063587 -0.144862 0.791212 229 255 19 0.326917
-0.072179 -0.144319 0.784384 222 255 26 0.309505
-0.073249 -0.144222 0.787661 240 254 8 0.349020
-0.076449 -0.144121 0.786475 240 254 8 0.350285
-0.075542 -0.144308 0.783352 245 249 3 0.360095
-0.071265 -0.144585 0.781263 216 255 31 0.299931
-0.074634 -0.144589 0.780234 247 246 1 0.363960
-0.070347 -0.144919 0.778154 242 253 6 0.353749
-0.066954 -0.145065 0.779190 162 255 85 0.182655
-0.066035 -0.145499 0.776101 225 255 22 0.318487
-0.073709 -0.144843 0.777119 245 249 3 0.360202
-0.069427 -0.145284 0.775064 234 255 13 0.336226
-0.072787 -0.145185 0.774053 238 255 10 0.345071
-0.062637 -0.145827 0.777143 222 255 26 0.310850
-0.064908 -0.144358 0.794798 211 255 37 0.286973
-0.067868 -0.144030 0.793446 229 255 19 0.326752
-0.069174 -0.143578 0.797012 233 255 15 0.333088
-0.066190 -0.143832 0.798348 222 255 26 0.312208
-0.072131 -0.143343 0.795675 213 255 35 0.291841
-0.070441 -0.143001 0.800544 231 255 17 0.330127
-0.073400 -0.142805 0.799227 233 255 15 0.332459
-0.074627 -0.142060 0.802737 231 255 17 0.329501
-0.067461 -0.143186 0.801868 229 255 19 0.327078
-0.071667 -0.142212 0.804044 229 255 19 0.327340
-0.068695 -0.142406 0.805365 229 255 19 0.324930
-0.076361 -0.142665 0.797903 233 255 15 0.335488
-0.077591 -0.141973 0.801409 231 255 17 0.330827
-0.080536 -0.141918 0.800106 233 255 15 0.332564
-0.079560 -0.142669 0.796750 233 255 15 0.334938
-0.075342 -0.143277 0.794524 234 255 13 0.337894
-0.078531 -0.143226 0.793347 213 255 35 0.290002
-0.074303 -0.143761 0.791100 238 255 10 0.343776
-0.071083 -0.143862 0.792271 234 255 13 0.339236
-0.077501 -0.143695 0.789914 238 255 10 0.344069
-0.093603 -0.140302 0.793774 233 255 15 0.332278
-0.092704 -0.140951 0.790400 229 255 19 0.327976
-0.089341 -0.141392 0.791989 234 255 13 0.339494
-0.088427 -0.141881 0.788582 238 255 10 0.344248
-0.091772 -0.141430 0.786997 236 255 12 0.340987
-0.085058 -0.142319 0.790174 236 255 12 0.341109
-0.087464 -0.142220 0.785172 242 253 6 0.352377
-0.084113 -0.142686 0.786751 229 255 19 0.327630
-0.083139 -0.143044 0.783318 249 244 0 0.369355
-0.090810 -0.141790 0.783578 238 255 10 0.347146
-0.086474 -0.142563 0.781742 215 255 33 0.296699
-0.089821 -0.142159 0.780156 251 242 0 0.372190
-0.080764 -0.143205 0.788331 240 254 8 0.349507
-0.079791 -0.143552 0.784892 220 255 28 0.305839
-0.081797 -0.142761 0.791756 236 255 12 0.342934
-0.082816 -0.142201 0.795163 236 255 12 0.341747
-0.086072 -0.141769 0.793580 220 255 28 0.308004
-0.087055 -0.141072 0.796964 218 255 30 0.301025
-0.083798 -0.141494 0.798540 233 255 15 0.333721
-0.090315 -0.140670 0.795386 233 255 15 0.334663
-0.088854 -0.142334 0.777096 236 255 12 0.340496
-0.085553 -0.142731 0.778633 251 242 0 0.372611
-0.084597 -0.142940 0.775567 254 238 0 0.379422
-0.087894 -0.142549 0.774053 225 255 22 0.317653
-0.081305 -0.143395 0.777092 233 255 15 0.332794
-0.083654 -0.143148 0.772533 216 255 31 0.300153
-0.080363 -0.143622 0.774044 255 211 0 0.430900
-0.079411 -0.143908 0.771027 252 240 0 0.376885
-0.086937 -0.142761 0.771053 249 244 0 0.367293
-0.082704 -0.143460 0.769549 251 242 0 0.372305
-0.085974 -0.143015 0.768075 255 230 0 0.394890
-0.077060 -0.144190 0.775560 255 236 0 0.384800
-0.076115 -0.144500 0.772516 234 255 13 0.338253
-0.077970 -0.143924 0.778655 240 254 8 0.350638
-0.078884 -0.143708 0.781773 251 242 0 0.374410
-0.082222 -0.143191 0.780198 220 255 28 0.306822
-0.052059 -0.141972 0.811723 224 255 24 0.314046
-0.054121 -0.140637 0.815401 222 255 26 0.308898
-0.057691 -0.139150 0.818235 218 255 30 0.302188
-0.059680 -0.137513 0.821788 211 255 37 0.288481
-0.063200 -0.135879 0.824605 204 255 44 0.271968
-0.060119 -0.135814 0.826107 200 255 48 0.265382
-0.062790 -0.137626 0.820288 215 255 33 0.296297
-0.066263 -0.135962 0.823094 202 255 46 0.265851
-0.061067 -0.139336 0.816806 222 255 26 0.308727
-0.059327 -0.140885 0.813267 224 255 24 0.314440
-0.055712 -0.142119 0.810344 224 255 24 0.316402
-0.059353 -0.142337 0.808958 225 255 22 0.318442
-0.062005 -0.133703 0.829601 180 255 67 0.221608
-0.065331 -0.131673 0.832337 171 255 76 0.201106
-0.067224 -0.129734 0.835875 220 255 28 0.305766
-0.070093 -0.129812 0.834297 222 255 26 0.308870
-0.068295 -0.131739 0.830788 215 255 33 0.294969
-0.066514 -0.133791 0.827310 207 255 40 0.277588
-0.079163 -0.129678 0.829418 231 255 17 0.330615
-0.075557 -0.131742 0.826992 222 255 26 0.312326
-0.073936 -0.133850 0.823586 220 255 28 0.305145
-0.070281 -0.135893 0.821141 218 255 30 0.304659
-0.074312 -0.135958 0.819259 222 255 26 0.310174
-0.069936 -0.133871 0.825531 204 255 44 0.272937
-0.071692 -0.131773 0.829004 218 255 30 0.302638
-0.073473 -0.129772 0.832478 242 253 6 0.355406
-0.072950 -0.137785 0.815842 224 255 24 0.316313
-0.070639 -0.137717 0.816721 225 255 22 0.319184
-0.069251 -0.139464 0.813317 211 255 37 0.287497
-0.071553 -0.139493 0.812418 216 255 31 0.296879
-0.066937 -0.139415 0.814180 224 255 24 0.315626
-0.067800 -0.140969 0.809820 227 255 21 0.321681
-0.065497 -0.140968 0.810707 225 255 22 0.319714
-0.064019 -0.142297 0.807152 220 255 28 0.305645
-0.070153 -0.141096 0.808952 227 255 21 0.323348
-0.066357 -0.142315 0.806251 227 255 21 0.323433
-0.063177 -0.140970 0.811606 225 255 22 0.318181
-0.061699 -0.142312 0.808057 225 255 22 0.316429
-0.066606 -0.137747 0.818644 220 255 28 0.307278
-0.101273 -0.128444 0.817108 255 228 0 0.402028
-0.098198 -0.128690 0.818677 255 232 0 0.394463
-0.096903 -0.130654 0.815436 252 240 0 0.375693
-0.099997 -0.130456 0.813883 255 232 0 0.392658
-0.093863 -0.130961 0.817006 243 251 4 0.356652
-0.095649 -0.132715 0.812239 238 255 10 0.343925
-0.092592 -0.133042 0.813836 234 255 13 0.339201
-0.091329 -0.135030 0.810630 231 255 17 0.329306
-0.098739 -0.132431 0.810629 236 255 12 0.343726
-0.094411 -0.134719 0.809029 229 255 19 0.326972
-0.097515 -0.134448 0.807412 229 255 19 0.327275
-0.089534 -0.133328 0.815407 234 255 13 0.337481
-0.088239 -0.135273 0.812197 206 255 42 0.276028
-0.085188 -0.135585 0.813770 231 255 17 0.328129
-0.086623 -0.133538 0.817109 233 255 15 0.334647
-0.090932 -0.131124 0.818686 255 222 0 0.410226
-0.088042 -0.131378 0.820394 240 254 8 0.349188
-0.092373 -0.129079 0.822042 249 244 0 0.368919
-0.095259 -0.128902 0.820380 251 242 0 0.374225
-0.089485 -0.129332 0.823735 255 236 0 0.385372
-0.096619 -0.136246 0.804105 229 255 19 0.324743
-0.093364 -0.136565 0.805651 233 255 15 0.332555
-0.092412 -0.138189 0.802303 218 255 30 0.303033
-0.095668 -0.137789 0.800737 233 255 15 0.334212
-0.089157 -0.138568 0.803856 229 255 19 0.327954
-0.091410 -0.139571 0.798873 233 255 15 0.332155
-0.088157 -0.139989 0.800456 233 255 15 0.332105
-0.094686 -0.139185 0.797280 251 242 0 0.372027
-0.084897 -0.140327 0.802003 231 255 17 0.331469
-0.081783 -0.140680 0.803629 231 255 17 0.329634
-0.086060 -0.138868 0.805483 234 255 13 0.338657
-0.082961 -0.139181 0.807090 213 255 35 0.291811
-0.087190 -0.137209 0.808887 229 255 19 0.327104
-0.090263 -0.136857 0.807270 229 255 19 0.326782
-0.084094 -0.137492 0.810476 229 255 19 0.324983
-0.072919 -0.140922 0.807543 229 255 19 0.325642
-0.074320 -0.139375 0.811035 227 255 21 0.322369
-0.077074 -0.139262 0.809641 227 255 21 0.323933
-0.075688 -0.137675 0.814471 225 255 22 0.320291
-0.078418 -0.137569 0.813105 227 255 21 0.322391
-0.079748 -0.135685 0.816483 227 255 21 0.320522
-0.077029 -0.135798 0.817866 225 255 22 0.316717
-0.081178 -0.137499 0.811731 227 255 21 0.324163
-0.082488 -0.135639 0.815127 229 255 19 0.324624
-0.080028 -0.139193 0.808365 229 255 19 0.325572
-0.078849 -0.140736 0.804940 220 255 28 0.305582
-0.075886 -0.140820 0.806237 229 255 19 0.327691
-0.078513 -0.133737 0.821161 224 255 24 0.316387
-0.080099 -0.131569 0.824546 229 255 19 0.325432
-0.082674 -0.131523 0.823108 227 255 21 0.323796
-0.081722 -0.129562 0.827966 229 255 19 0.327378
-0.084273 -0.129447 0.826494 234 255 13 0.338279
-0.086836 -0.129419 0.825074 238 255 10 0.347176
-0.085372 -0.131432 0.821747 236 255 12 0.343551
-0.083930 -0.133590 0.818454 231 255 17 0.330551
-0.081212 -0.133622 0.819788 227 255 21 0.324158
0.028510 -0.112643 0.733189 227 255 21 0.322199
0.028331 -0.115389 0.734282 222 255 26 0.311239
0.028079 -0.118173 0.735376 222 255 26 0.311475
0.027838 -0.120959 0.736463 225 255 22 0.319985
0.016298 -0.098019 0.728070 231 255 17 0.331198
0.016944 -0.100538 0.730162 229 255 19 0.326193
0.019504 -0.100765 0.729210 231 255 17 0.328699
0.020119 -0.103505 0.731292 229 255 19 0.327079
0.017551 -0.103222 0.732252 215 255 33 0.293230
0.022694 -0.103837 0.730318 224 255 24 0.313167
0.020666 -0.106306 0.733251 229 255 19 0.325758
0.023172 -0.106503 0.732237 229 255 19 0.324529
0.023594 -0.109162 0.734114 227 255 21 0.324120
0.018087 -0.105982 0.734211 229 255 19 0.327937
0.021097 -0.108848 0.735110 216 255 31 0.300207
0.018594 -0.108598 0.736126 222 255 26 0.309369
0.025707 -0.106750 0.731192 222 255 26 0.310020
0.026158 -0.109539 0.733069 220 255 28 0.308304
0.025435 -0.104194 0.729333 213 255 35 0.292808
0.025030 -0.101636 0.727428 225 255 22 0.318976
0.022293 -0.101195 0.728315 225 255 22 0.318223
0.021784 -0.098729 0.726357 220 255 28 0.307564
0.024575 -0.099080 0.725375 216 255 31 0.299549
0.019076 -0.098373 0.727220 231 255 17 0.329999
0.018533 -0.111537 0.737421 215 255 33 0.294317
0.020942 -0.111744 0.736362 229 255 19 0.325110
0.020866 -0.114660 0.737536 225 255 22 0.319268
0.018411 -0.114547 0.738632 213 255 35 0.291268
0.023252 -0.114779 0.736489 229 255 19 0.324282
0.020687 -0.117559 0.738722 220 255 28 0.305196
0.023127 -0.117681 0.737598 220 255 28 0.308077
0.022937 -0.120666 0.738727 229 255 19 0.326540
0.018305 -0.117384 0.739803 220 255 28 0.305830
0.020514 -0.120466 0.739830 213 255 35 0.291076
0.018074 -0.120420 0.740929 216 255 31 0.300228
0.025535 -0.117841 0.736502 224 255 24 0.313730
0.025371 -0.120753 0.737611 229 255 19 0.325276
0.025772 -0.115058 0.735410 220 255 28 0.307065
0.026006 -0.112338 0.734231 225 255 22 0.320107
0.023445 -0.111981 0.735309 227 255 21 0.323955
0.018920 -0.145249 0.716806 234 255 13 0.337132
0.016425 -0.145526 0.713921 225 255 22 0.318976
0.014201 -0.145496 0.711036 224 255 24 0.315205
0.010656 -0.145555 0.711922 224 255 24 0.316233
0.008356 -0.145606 0.714173 222 255 26 0.310011
0.012981 -0.145581 0.714809 222 255 26 0.310386
0.010672 -0.145617 0.717114 229 255 19 0.324733
0.006079 -0.145659 0.716450 220 255 28 0.307212
0.003782 -0.145692 0.718732 234 255 13 0.338313
0.001023 -0.145557 0.715763 234 255 13 0.337561
0.003302 -0.145507 0.713519 222 255 26 0.309060
0.005597 -0.145477 0.711292 224 255 24 0.314561
-0.001719 -0.145463 0.712831 220 255 28 0.308224
0.015658 -0.145347 0.717734 234 255 13 0.336661
0.013706 -0.145074 0.720069 222 255 26 0.311063
0.018253 -0.144607 0.720611 222 255 26 0.309785
0.016269 -0.144306 0.722945 224 255 24 0.313876
0.011725 -0.144786 0.722377 234 255 13 0.336853
0.009818 -0.144482 0.724681 234 255 13 0.337621
0.006743 -0.145096 0.721688 234 255 13 0.338163
0.008716 -0.145382 0.719396 222 255 26 0.310743
-0.003352 -0.144815 0.727914 225 255 22 0.316562
-0.001534 -0.145025 0.725593 234 255 13 0.338730
-0.006779 -0.145220 0.724835 234 255 13 0.337510
0.000255 -0.145262 0.723300 233 255 15 0.335597
-0.004948 -0.145446 0.722519 234 255 13 0.337627
-0.003125 -0.145705 0.720264 234 255 13 0.337686
-0.010153 -0.145656 0.721792 222 255 26 0.311652
0.002034 -0.145473 0.720998 218 255 30 0.304146
0.004980 -0.144882 0.723971 234 255 13 0.338541
0.003266 -0.144653 0.726277 234 255 13 0.339099
-0.007997 -0.145621 0.719511 234 255 13 0.336106
-0.013252 -0.145430 0.718783 233 255 15 0.334259
-0.005909 -0.145575 0.717270 224 255 24 0.314470
-0.011093 -0.145427 0.716533 233 255 15 0.334649
-0.009002 -0.145390 0.714313 222 255 26 0.311441
-0.016271 -0.145303 0.715814 222 255 26 0.311489
-0.003809 -0.145518 0.715038 216 255 31 0.299135
-0.001030 -0.145639 0.718000 236 255 12 0.341203
0.021034 -0.143529 0.723312 238 255 10 0.344913
0.019339 -0.142896 0.725555 224 255 24 0.312521
0.021959 -0.141232 0.728042 229 255 19 0.324381
0.017625 -0.142217 0.727795 225 255 22 0.318506
0.015961 -0.141537 0.729994 233 255 15 0.334959
0.012921 -0.143030 0.727326 225 255 22 0.317113
0.014563 -0.143679 0.725152 222 255 26 0.310185
0.024703 -0.138883 0.730053 233 255 15 0.333560
0.022991 -0.137843 0.732130 220 255 28 0.305873
0.021389 -0.136732 0.734149 224 255 24 0.315127
0.018618 -0.139181 0.732109 225 255 22 0.317159
0.020280 -0.140215 0.730048 236 255 12 0.343625
0.010027 -0.137603 0.738267 234 255 13 0.339068
0.011520 -0.138603 0.736213 234 255 13 0.336567
0.006827 -0.139988 0.736008 234 255 13 0.336834
0.013015 -0.139557 0.734105 233 255 15 0.335606
0.008337 -0.140981 0.733963 225 255 22 0.317195
0.009845 -0.141914 0.731862 225 255 22 0.319294
0.003613 -0.142312 0.733692 234 255 13 0.338318
0.014488 -0.140579 0.732062 229 255 19 0.324381
0.017229 -0.138175 0.734187 225 255 22 0.319635
0.015783 -0.137108 0.736263 224 255 24 0.315946
0.005193 -0.142887 0.731441 234 255 13 0.338255
0.000034 -0.143604 0.730803 234 255 13 0.338809
0.006772 -0.143395 0.729154 231 255 17 0.328678
0.001694 -0.144138 0.728550 234 255 13 0.339216
0.008313 -0.143943 0.726904 224 255 24 0.316035
0.011392 -0.142489 0.729621 231 255 17 0.329708
0.027187 -0.131501 0.734983 234 255 13 0.337376
0.025353 -0.129891 0.736760 222 255 26 0.311805
0.023357 -0.133339 0.735495 222 255 26 0.310571
0.025158 -0.134914 0.733748 229 255 19 0.325788
0.026613 -0.125527 0.736686 222 255 26 0.311223
0.019183 -0.125264 0.739988 231 255 17 0.329500
0.016581 -0.125393 0.741108 224 255 24 0.316171
0.021717 -0.125175 0.738920 227 255 21 0.323969
0.020211 -0.129965 0.738984 233 255 15 0.332221
0.017642 -0.130045 0.740061 220 255 28 0.307846
0.015001 -0.130179 0.741162 220 255 28 0.306054
0.023520 -0.127570 0.737857 225 255 22 0.316960
0.015407 -0.133694 0.738716 233 255 15 0.332729
0.012508 -0.133956 0.739761 225 255 22 0.317597
0.018199 -0.133449 0.737690 224 255 24 0.313532
0.019770 -0.135118 0.735967 233 255 15 0.332692
0.021808 -0.131695 0.737230 231 255 17 0.329818
0.019903 -0.095594 0.722147 224 255 24 0.313487
0.022620 -0.095945 0.721331 229 255 19 0.325935
0.020598 -0.093003 0.716988 233 255 15 0.335206
0.018782 -0.094101 0.719977 225 255 22 0.318188
0.017696 -0.092619 0.717800 225 255 22 0.320311
0.015895 -0.093713 0.720776 229 255 19 0.325005
0.016995 -0.095209 0.722969 229 255 19 0.325249
0.013992 -0.094835 0.723722 231 255 17 0.331990
0.014702 -0.092268 0.718518 234 255 13 0.337759
0.012885 -0.093391 0.721544 224 255 24 0.312746
0.011739 -0.091945 0.719349 225 255 22 0.318562
0.015168 -0.096368 0.725886 220 255 28 0.306463
0.020892 -0.092042 0.712166 229 255 19 0.325629
0.018318 -0.090846 0.708117 224 255 24 0.313287
0.015318 -0.090438 0.708867 218 255 30 0.301927
0.013684 -0.090684 0.711689 220 255 28 0.306654
0.010571 -0.090357 0.712427 231 255 17 0.330258
0.008874 -0.090665 0.715250 233 255 15 0.332224
0.005976 -0.089564 0.711137 231 255 17 0.331364
0.018057 -0.091684 0.712939 229 255 19 0.327655
0.007772 -0.089877 0.708710 224 255 24 0.315496
0.010862 -0.090170 0.707958 229 255 19 0.327850
0.012548 -0.090611 0.705492 222 255 26 0.310861
0.015605 -0.090966 0.704743 229 255 19 0.324315
0.012888 -0.091231 0.701399 220 255 28 0.306607
0.009712 -0.090819 0.702165 220 255 28 0.306083
0.008012 -0.090368 0.704590 229 255 19 0.326915
0.004781 -0.090053 0.705321 227 255 21 0.323736
0.002967 -0.089772 0.707758 224 255 24 0.313761
0.000043 -0.089953 0.704456 231 255 17 0.329632
0.016073 -0.091680 0.700433 215 255 33 0.294927
0.012200 -0.093668 0.696500 227 255 21 0.322431
0.010252 -0.092517 0.698757 218 255 30 0.303773
0.007596 -0.093863 0.696132 215 255 33 0.296597
0.004325 -0.093399 0.696893 224 255 24 0.314152
0.002450 -0.092398 0.698941 240 254 8 0.348834
-0.000877 -0.092061 0.699699 229 255 19 0.327062
-0.002855 -0.091208 0.701796 222 255 26 0.310822
-0.005603 -0.092352 0.699270 240 254 8 0.348444
0.002007 -0.090838 0.702359 225 255 22 0.317284
0.005209 -0.091125 0.701585 222 255 26 0.309077
0.007106 -0.092105 0.699502 224 255 24 0.313027
0.089986 -0.016188 0.823105 249 244 0 0.367264
0.089478 -0.013617 0.825442 245 249 3 0.360171
0.086452 -0.013780 0.824054 243 251 4 0.357333
0.086962 -0.016356 0.821676 247 246 1 0.365517
0.085861 -0.011436 0.826602 238 255 10 0.346106
0.083408 -0.013995 0.822659 240 254 8 0.348412
0.082829 -0.011679 0.825207 247 246 1 0.364810
0.079753 -0.011904 0.823841 240 254 8 0.350631
0.083913 -0.016502 0.820280 236 255 12 0.342702
0.080346 -0.014193 0.821266 240 254 8 0.348186
0.080856 -0.016714 0.818863 238 255 10 0.344383
0.082183 -0.009619 0.827862 247 246 1 0.365464
0.079125 -0.009876 0.826467 252 240 0 0.377863
0.078436 -0.008101 0.829228 249 244 0 0.367730
0.081675 -0.007899 0.830804 245 249 3 0.362512
0.085398 -0.009414 0.829437 243 251 4 0.358514
0.084885 -0.007683 0.832374 243 251 4 0.356278
0.088600 -0.009209 0.831006 240 254 8 0.351507
0.089062 -0.011233 0.828175 240 254 8 0.349380
0.088088 -0.007442 0.833961 245 249 3 0.359391
0.077962 -0.016903 0.817464 238 255 10 0.344350
0.077269 -0.014387 0.819720 245 249 3 0.360051
0.074357 -0.014592 0.818333 238 255 10 0.347636
0.075059 -0.017101 0.816049 254 238 0 0.382362
0.073608 -0.012293 0.820713 243 251 4 0.357245
0.071432 -0.014827 0.816940 249 244 0 0.368412
0.070678 -0.012520 0.819340 245 249 3 0.361265
0.067726 -0.012753 0.817969 255 236 0 0.384328
0.072144 -0.017331 0.814638 238 255 10 0.344760
0.068495 -0.015062 0.815560 240 254 8 0.350272
0.069204 -0.017571 0.813244 238 255 10 0.345887
0.069863 -0.010454 0.821849 247 246 1 0.364650
0.066916 -0.010693 0.820471 240 254 8 0.347802
0.066032 -0.008885 0.823090 240 254 8 0.347729
0.069171 -0.008677 0.824619 242 253 6 0.352128
0.072975 -0.010245 0.823377 240 254 8 0.350501
0.072279 -0.008471 0.826149 240 254 8 0.349768
0.076054 -0.010062 0.824926 243 251 4 0.356064
0.076697 -0.012094 0.822269 243 251 4 0.358083
0.075363 -0.008282 0.827696 251 242 0 0.373991
0.061696 -0.005139 0.834244 255 228 0 0.398521
0.064996 -0.004980 0.835907 255 234 0 0.389607
0.065923 -0.005703 0.832996 251 242 0 0.373136
0.069204 -0.005516 0.834641 251 242 0 0.371322
0.068277 -0.004827 0.837552 255 236 0 0.384609
0.070119 -0.006377 0.831750 245 249 3 0.360339
0.072458 -0.005354 0.836274 249 244 0 0.369765
0.073379 -0.006205 0.833374 249 244 0 0.369429
0.076611 -0.006027 0.834999 238 255 10 0.346252
0.071532 -0.004675 0.839191 252 240 0 0.378881
0.075672 -0.005227 0.837939 245 249 3 0.360542
0.074752 -0.004564 0.840848 238 255 10 0.344826
0.074314 -0.007125 0.830437 252 240 0 0.375882
0.077558 -0.006975 0.832042 240 254 8 0.347829
0.071205 -0.007355 0.828940 243 251 4 0.356008
0.068080 -0.007549 0.827421 242 253 6 0.355365
0.067000 -0.006586 0.830218 245 249 3 0.361180
0.063851 -0.006815 0.828707 245 249 3 0.362775
0.064940 -0.007764 0.825911 245 249 3 0.359877
0.062765 -0.005937 0.831494 252 240 0 0.377088
0.078135 -0.004418 0.842521 255 232 0 0.390803
0.078922 -0.004991 0.839495 247 246 1 0.364205
0.082269 -0.004756 0.841201 242 253 6 0.353990
0.081484 -0.004239 0.844250 245 249 3 0.362127
0.083052 -0.005541 0.838156 242 253 6 0.354646
0.085663 -0.004550 0.842969 240 254 8 0.351527
0.086411 -0.005317 0.839909 247 246 1 0.363754
0.084932 -0.003979 0.846042 243 251 4 0.359033
0.087188 -0.006264 0.836837 245 249 3 0.361591
0.083976 -0.006531 0.835236 247 246 1 0.363379
0.080771 -0.006741 0.833651 243 251 4 0.355569
0.079852 -0.005746 0.836560 245 249 3 0.361170
0.057219 -0.105925 0.811479 220 255 28 0.305356
0.056003 -0.108696 0.813993 238 255 10 0.347374
0.053105 -0.111630 0.815641 242 253 6 0.354970
0.051916 -0.114539 0.818184 242 253 6 0.351894
0.048562 -0.114806 0.816332 216 255 31 0.298355
0.049684 -0.111696 0.813944 204 255 44 0.271398
0.052538 -0.108669 0.812376 222 255 26 0.312116
0.053671 -0.105753 0.809932 238 255 10 0.344144
0.056619 -0.103023 0.808321 240 254 8 0.350462
0.052979 -0.102824 0.806709 236 255 12 0.343000
0.051998 -0.116636 0.822174 216 255 31 0.300160
0.050440 -0.118813 0.825334 225 255 22 0.317981
0.047275 -0.121291 0.827548 227 255 21 0.323895
0.045698 -0.123466 0.830725 216 255 31 0.300677
0.042490 -0.124310 0.828620 227 255 21 0.320884
0.044071 -0.121981 0.825548 216 255 31 0.299505
0.047248 -0.119364 0.823440 233 255 15 0.333505
0.048765 -0.117007 0.820357 224 255 24 0.314421
0.036182 -0.126157 0.824516 215 255 33 0.295715
0.037684 -0.123606 0.821502 220 255 28 0.307151
0.040790 -0.120757 0.819511 220 255 28 0.305492
0.042288 -0.118147 0.816521 222 255 26 0.311822
0.045326 -0.115266 0.814486 222 255 26 0.311968
0.042091 -0.115838 0.812575 215 255 33 0.295026
0.045489 -0.117579 0.818455 204 255 44 0.272356
0.044020 -0.120028 0.821497 222 255 26 0.310588
0.040915 -0.122912 0.823561 215 255 33 0.293817
0.039385 -0.125318 0.826602 216 255 31 0.298983
0.043122 -0.112464 0.810258 218 255 30 0.300956
0.045818 -0.109114 0.808871 200 255 48 0.265572
0.046822 -0.105948 0.806545 225 255 22 0.318363
0.049530 -0.102808 0.805091 233 255 15 0.335493
0.046109 -0.102883 0.803337 227 255 21 0.324212
0.050212 -0.105821 0.808248 231 255 17 0.330358
0.049122 -0.108804 0.810678 229 255 19 0.326787
0.046425 -0.112111 0.812104 224 255 24 0.312531
0.037646 -0.006178 0.820953 255 218 0 0.419250
0.040591 -0.005973 0.822604 255 222 0 0.413884
0.041833 -0.006820 0.819968 255 236 0 0.382918
0.044754 -0.006680 0.821627 255 236 0 0.384524
0.043503 -0.005840 0.824282 255 228 0 0.399838
0.046000 -0.007558 0.818953 249 244 0 0.368739
0.047659 -0.006562 0.823283 255 224 0 0.406749
0.048906 -0.007442 0.820605 249 244 0 0.368988
0.051810 -0.007350 0.822234 252 240 0 0.378655
0.046406 -0.005739 0.825950 255 220 0 0.416256
0.050552 -0.006484 0.824954 255 236 0 0.385126
0.049310 -0.005638 0.827617 255 220 0 0.416514
0.050161 -0.008417 0.817899 249 244 0 0.369176
0.053051 -0.008327 0.819559 243 251 4 0.356016
0.054298 -0.009479 0.816849 254 238 0 0.380668
0.051545 -0.009577 0.815232 251 242 0 0.373681
0.047392 -0.008532 0.816284 251 242 0 0.371930
0.048782 -0.009702 0.813616 255 236 0 0.386630
0.044625 -0.008663 0.814657 249 244 0 0.368187
0.043218 -0.007695 0.817357 249 244 0 0.367984
0.040429 -0.007876 0.815732 247 246 1 0.365570
0.046018 -0.009822 0.811986 242 253 6 0.353789
0.041838 -0.008832 0.813044 247 246 1 0.367011
0.043236 -0.009986 0.810375 242 253 6 0.353328
0.039037 -0.006997 0.818365 255 236 0 0.386638
0.052415 -0.005499 0.829296 255 222 0 0.411826
0.053506 -0.006333 0.826533 252 240 0 0.378142
0.056605 -0.006180 0.828193 254 238 0 0.380535
0.055518 -0.005366 0.830955 255 224 0 0.410035
0.057714 -0.007043 0.825389 252 240 0 0.375475
0.059689 -0.006058 0.829848 255 236 0 0.384104
0.060791 -0.006915 0.827043 251 242 0 0.374558
0.058607 -0.005245 0.832603 255 228 0 0.401988
0.061880 -0.007876 0.824247 249 244 0 0.368578
0.063114 -0.009015 0.821539 242 253 6 0.352660
0.058951 -0.008009 0.822686 247 246 1 0.364968
0.060192 -0.009158 0.819978 247 246 1 0.364059
0.056016 -0.008161 0.821116 243 251 4 0.359374
0.054773 -0.007183 0.823809 255 236 0 0.384733
0.057257 -0.009306 0.818410 247 246 1 0.367017
0.066472 -0.017716 0.811776 247 246 1 0.363732
0.065590 -0.015205 0.813975 242 253 6 0.355062
0.062837 -0.015355 0.812515 243 251 4 0.359108
0.063732 -0.017871 0.810304 234 255 13 0.338655
0.061900 -0.013057 0.814829 249 244 0 0.370412
0.060085 -0.015522 0.811049 240 254 8 0.350406
0.059137 -0.013218 0.813373 251 242 0 0.371664
0.056361 -0.013387 0.811914 247 246 1 0.364054
0.060984 -0.018040 0.808830 243 251 4 0.355626
0.057318 -0.015698 0.809586 240 254 8 0.350690
0.058219 -0.018213 0.807354 243 251 4 0.356509
0.058138 -0.011131 0.815783 242 253 6 0.353235
0.055360 -0.011308 0.814339 242 253 6 0.354010
0.061077 -0.010977 0.817349 242 253 6 0.353153
0.063990 -0.010831 0.818924 242 253 6 0.353571
0.064818 -0.012900 0.816399 249 244 0 0.369826
0.055624 -0.018359 0.805799 243 251 4 0.356505
0.054564 -0.015817 0.807964 227 255 21 0.322710
0.051965 -0.015970 0.806412 240 254 8 0.349601
0.053018 -0.018505 0.804265 240 254 8 0.350962
0.050846 -0.013640 0.808681 240 254 8 0.351489
0.049356 -0.016115 0.804880 243 251 4 0.358038
0.048240 -0.013776 0.807145 240 254 8 0.351266
0.045619 -0.013945 0.805611 255 236 0 0.382959
0.050410 -0.018688 0.802740 233 255 15 0.334978
0.046736 -0.016271 0.803363 240 254 8 0.348324
0.047793 -0.018869 0.801225 233 255 15 0.333323
0.047072 -0.011689 0.809494 242 253 6 0.351964
0.044444 -0.011841 0.807966 247 246 1 0.364655
0.049839 -0.011542 0.811106 242 253 6 0.352346
0.052594 -0.011422 0.812734 242 253 6 0.353209
0.053608 -0.013502 0.810295 247 246 1 0.363507
0.072399 -0.020502 0.812515 245 249 3 0.363254
0.075310 -0.020280 0.813939 245 249 3 0.362452
0.075512 -0.023633 0.811929 227 255 21 0.321826
0.078211 -0.020065 0.815364 234 255 13 0.338389
0.078403 -0.023452 0.813383 236 255 12 0.340748
0.081266 -0.023247 0.814860 224 255 24 0.316341
0.081088 -0.019896 0.816813 243 251 4 0.358678
0.078539 -0.026961 0.811506 236 255 12 0.340432
0.081388 -0.026810 0.813029 234 255 13 0.338347
0.081501 -0.030349 0.811242 218 255 30 0.301117
0.078821 -0.030436 0.809875 220 255 28 0.305068
0.075833 -0.027082 0.810192 242 253 6 0.353696
0.076132 -0.030554 0.808531 229 255 19 0.325602
0.073125 -0.027234 0.808890 227 255 21 0.323980
0.072781 -0.023844 0.810656 233 255 15 0.333142
0.070033 -0.024023 0.809400 240 254 8 0.351533
0.073426 -0.030729 0.807208 238 255 10 0.346134
0.070392 -0.027418 0.807610 229 255 19 0.326549
0.070689 -0.030923 0.805903 234 255 13 0.339151
0.069647 -0.020712 0.811268 236 255 12 0.341471
0.083952 -0.019819 0.818017 238 255 10 0.347194
0.086986 -0.019601 0.819461 252 240 0 0.378838
0.086936 -0.023031 0.817396 242 253 6 0.354369
0.090006 -0.019458 0.820906 242 253 6 0.355108
0.089962 -0.022888 0.818866 245 249 3 0.361229
0.089833 -0.026562 0.817002 231 255 17 0.331890
0.089898 -0.030133 0.815356 229 255 19 0.326457
0.087029 -0.026599 0.815664 225 255 22 0.319078
0.087096 -0.030200 0.814004 227 255 21 0.321849
0.084210 -0.026722 0.814353 225 255 22 0.319521
0.084106 -0.023170 0.816129 243 251 4 0.355982
0.084302 -0.030271 0.812626 227 255 21 0.322872
0.088664 -0.045696 0.809594 204 255 44 0.271365
0.088844 -0.042067 0.810886 188 255 60 0.235361
0.086257 -0.042039 0.809653 188 255 60 0.235093
0.086071 -0.045649 0.808374 186 255 62 0.232632
0.086421 -0.038242 0.810982 197 255 51 0.256161
0.083641 -0.042015 0.808429 195 255 53 0.253394
0.083830 -0.038210 0.809738 189 255 58 0.239888
0.081221 -0.038198 0.808509 204 255 44 0.271249
0.083441 -0.045641 0.807147 231 255 17 0.329047
0.081025 -0.041991 0.807214 180 255 67 0.218822
0.080772 -0.045674 0.805994 195 255 53 0.250797
0.083961 -0.034350 0.811082 207 255 40 0.278048
0.081370 -0.034340 0.809864 209 255 39 0.283100
0.086756 -0.034274 0.812485 202 255 46 0.265687
0.089528 -0.034240 0.813919 200 255 48 0.262426
0.089185 -0.038235 0.812446 204 255 44 0.271984
0.078169 -0.045786 0.804838 213 255 35 0.291607
0.078294 -0.042143 0.805855 218 255 30 0.303444
0.075705 -0.042260 0.804702 231 255 17 0.331582
0.075555 -0.045891 0.803707 215 255 33 0.296202
0.075805 -0.038445 0.805760 206 255 42 0.275434
0.073096 -0.042390 0.803589 216 255 31 0.297706
0.073225 -0.038590 0.804614 204 255 44 0.272552
0.070623 -0.038723 0.803509 218 255 30 0.301858
0.072887 -0.046056 0.802653 225 255 22 0.319067
0.070439 -0.042573 0.802539 216 255 31 0.299295
0.070209 -0.046267 0.801648 218 255 30 0.300922
0.073281 -0.034726 0.805772 218 255 30 0.302956
0.070696 -0.034871 0.804640 220 255 28 0.306636
0.076009 -0.034528 0.807102 215 255 33 0.295999
0.078699 -0.034373 0.808456 213 255 35 0.290462
0.078527 -0.038311 0.807112 220 255 28 0.306487
0.083866 -0.003785 0.848846 255 224 0 0.408158
0.080375 -0.004038 0.847037 255 218 0 0.421637
0.079311 -0.003787 0.849716 255 182 0 0.486778
0.077002 -0.004206 0.845338 255 226 0 0.405714
0.075930 -0.003901 0.848008 255 189 0 0.474572
0.072540 -0.004045 0.846361 255 189 0 0.474322
0.073625 -0.004350 0.843656 255 222 0 0.411755
0.074844 -0.003641 0.850695 255 156 0 0.537901
0.071465 -0.003713 0.849010 255 145 0 0.555409
0.070417 -0.003284 0.851594 255 189 0 0.476128
0.073846 -0.003329 0.853373 255 170 0 0.507970
0.078296 -0.003600 0.852501 255 158 0 0.533554
0.077316 -0.003368 0.855215 255 162 0 0.524872
0.081919 -0.003486 0.854448 255 151 0 0.543286
0.082893 -0.003620 0.851676 255 191 0 0.471096
0.080996 -0.003315 0.857182 255 153 0 0.540245
0.070325 -0.004440 0.841946 255 222 0 0.413796
0.067071 -0.004541 0.840304 255 220 0 0.417802
0.065895 -0.004192 0.842960 255 176 0 0.499654
0.063781 -0.004662 0.838663 255 213 0 0.427917
0.062605 -0.004272 0.841325 255 182 0 0.484982
0.059297 -0.004354 0.839657 255 197 0 0.459130
0.060473 -0.004785 0.837002 255 172 0 0.507157
0.061465 -0.003774 0.843879 255 158 0 0.533029
0.058176 -0.003817 0.842207 255 170 0 0.509207
0.057092 -0.003120 0.844642 255 164 0 0.521841
0.060449 -0.003142 0.846405 255 189 0 0.476459
0.064825 -0.003763 0.845611 255 176 0 0.496650
0.063794 -0.003186 0.848153 255 199 0 0.456916
0.068162 -0.003733 0.847315 255 172 0 0.504749
0.069237 -0.004115 0.844652 255 189 0 0.475240
0.067123 -0.003224 0.849871 255 184 0 0.483858
0.056937 -0.001318 0.853389 236 255 12 0.340996
0.060261 -0.001524 0.855218 247 246 1 0.363948
0.061406 -0.002230 0.852902 255 236 0 0.385531
0.063550 -0.001770 0.857033 249 244 0 0.367638
0.064705 -0.002414 0.854705 255 203 0 0.445831
0.067993 -0.002629 0.856499 255 234 0 0.387534
0.066830 -0.002034 0.858848 247 246 1 0.365449
0.065898 -0.002913 0.852309 255 220 0 0.417502
0.069184 -0.003071 0.854093 255 218 0 0.418900
0.062587 -0.002788 0.850562 255 220 0 0.416729
0.059255 -0.002684 0.848806 255 215 0 0.422142
0.058084 -0.002075 0.851131 255 234 0 0.388904
0.054738 -0.001955 0.849347 255 230 0 0.398346
0.055903 -0.002603 0.847030 255 195 0 0.462518
0.053596 -0.001155 0.851597 242 253 6 0.354008
0.070268 -0.002284 0.860666 242 253 6 0.353795
0.073757 -0.002531 0.862581 234 255 13 0.338175
0.074912 -0.002983 0.860155 255 230 0 0.394932
0.077491 -0.002678 0.864641 254 238 0 0.382226
0.078633 -0.003078 0.862205 255 234 0 0.389706
0.079818 -0.003275 0.859712 255 211 0 0.430713
0.076099 -0.003267 0.857722 255 213 0 0.429228
0.072623 -0.003176 0.855884 255 213 0 0.426535
0.071431 -0.002824 0.858306 249 244 0 0.368422
0.034294 -0.125105 0.860040 227 255 21 0.323174
0.036128 -0.125606 0.856671 231 255 17 0.330204
0.039679 -0.125548 0.854395 222 255 26 0.312305
0.041503 -0.125797 0.850948 222 255 26 0.310694
0.045067 -0.125577 0.848617 222 255 26 0.309468
0.041678 -0.126388 0.846378 224 255 24 0.316036
0.044962 -0.125051 0.853213 224 255 24 0.314503
0.048494 -0.124972 0.850885 216 255 31 0.297050
0.043255 -0.124826 0.856622 224 255 24 0.314724
0.041545 -0.124534 0.859965 224 255 24 0.314754
0.037972 -0.124347 0.862194 224 255 24 0.312808
0.041680 -0.123886 0.864410 222 255 26 0.312333
0.043456 -0.125607 0.842999 220 255 28 0.305914
0.046863 -0.124388 0.840683 233 255 15 0.332563
0.048622 -0.123392 0.837232 220 255 28 0.307519
0.051851 -0.122956 0.839403 220 255 28 0.308291
0.050139 -0.123828 0.842856 216 255 31 0.298627
0.048458 -0.124575 0.846305 213 255 35 0.292079
0.055255 -0.123803 0.846340 222 255 26 0.312304
0.053679 -0.124470 0.849880 216 255 31 0.298361
0.052123 -0.125061 0.853396 224 255 24 0.312659
0.055216 -0.122856 0.841631 225 255 22 0.318021
0.052318 -0.125033 0.858109 231 255 17 0.330134
0.050771 -0.124831 0.861538 220 255 28 0.306777
0.048815 -0.124666 0.860261 202 255 46 0.269526
0.049219 -0.124579 0.864932 218 255 30 0.304123
0.047234 -0.124407 0.863635 222 255 26 0.309035
0.045674 -0.124144 0.866991 211 255 37 0.288593
0.047619 -0.124351 0.868266 231 255 17 0.329599
0.045253 -0.124291 0.862364 218 255 30 0.304363
0.043672 -0.123942 0.865702 222 255 26 0.310895
0.048632 -0.124778 0.855587 224 255 24 0.313857
0.022138 -0.117238 0.881895 224 255 24 0.313215
0.025800 -0.117921 0.879838 222 255 26 0.311661
0.027518 -0.118999 0.876770 222 255 26 0.310887
0.031130 -0.120150 0.874799 222 255 26 0.310298
0.027277 -0.120566 0.872706 224 255 24 0.312590
0.031345 -0.118862 0.878921 222 255 26 0.309209
0.034977 -0.120102 0.876963 220 255 28 0.306510
0.029659 -0.117928 0.881985 222 255 26 0.309953
0.027927 -0.117206 0.885108 238 255 10 0.343863
0.029025 -0.121659 0.869584 227 255 21 0.320662
0.032635 -0.122422 0.867518 224 255 24 0.313907
0.034387 -0.123608 0.864331 224 255 24 0.314863
0.038087 -0.123026 0.866497 222 255 26 0.312325
0.036423 -0.121986 0.869648 222 255 26 0.310972
0.034755 -0.120973 0.872765 222 255 26 0.310765
0.045984 -0.123539 0.871443 218 255 30 0.301351
0.044384 -0.122767 0.874553 224 255 24 0.315055
0.042326 -0.122446 0.873287 236 255 12 0.340992
0.042756 -0.122049 0.877667 216 255 31 0.297507
0.040713 -0.121614 0.876387 218 255 30 0.302473
0.039065 -0.120892 0.879505 216 255 31 0.300195
0.041096 -0.121393 0.880781 240 254 8 0.349943
0.038652 -0.121226 0.875125 220 255 28 0.305562
0.037016 -0.120434 0.878218 224 255 24 0.312869
0.040350 -0.122100 0.871994 220 255 28 0.305164
0.042001 -0.122973 0.868850 220 255 28 0.307164
0.043994 -0.123272 0.870149 254 238 0 0.382666
0.039386 -0.120476 0.883857 255 232 0 0.394194
0.037684 -0.119700 0.886929 211 255 37 0.285410
0.035649 -0.119057 0.885662 218 255 30 0.301413
0.035904 -0.119105 0.890061 238 255 10 0.346753
0.033913 -0.118370 0.888762 218 255 30 0.302430
0.031868 -0.117798 0.887480 220 255 28 0.307421
0.033629 -0.118465 0.884336 220 255 28 0.305235
0.035341 -0.119374 0.881274 220 255 28 0.305418
0.037359 -0.119874 0.882555 218 255 30 0.301538
0.072264 -0.050140 0.802208 216 255 31 0.299496
0.074940 -0.049970 0.803236 216 255 31 0.297931
0.074331 -0.053928 0.802733 222 255 26 0.309592
0.077596 -0.049805 0.804298 227 255 21 0.321869
0.076986 -0.053814 0.803784 213 255 35 0.292341
0.079693 -0.053632 0.804814 204 255 44 0.271853
0.080244 -0.049716 0.805405 218 255 30 0.301119
0.076455 -0.057684 0.803206 242 253 6 0.354846
0.079128 -0.057542 0.804218 229 255 19 0.327252
0.078617 -0.061391 0.803603 233 255 15 0.335656
0.076149 -0.061447 0.802709 251 242 0 0.373863
0.073969 -0.057764 0.802308 233 255 15 0.332814
0.073668 -0.061504 0.801856 227 255 21 0.324072
0.071528 -0.057829 0.801402 255 222 0 0.410162
0.071868 -0.054033 0.801821 225 255 22 0.319688
0.069447 -0.054080 0.800860 236 255 12 0.340009
0.071217 -0.061548 0.800974 240 254 8 0.350881
0.069080 -0.057904 0.800504 222 255 26 0.311743
0.068770 -0.061604 0.800138 243 251 4 0.355909
0.069825 -0.050202 0.801245 224 255 24 0.313374
0.082700 -0.049782 0.806448 207 255 40 0.280587
0.085369 -0.049761 0.807594 209 255 39 0.284233
0.084649 -0.053738 0.806832 245 249 3 0.360710
0.088022 -0.049709 0.808744 202 255 46 0.267246
0.087334 -0.053694 0.807953 211 255 37 0.288501
0.086633 -0.057633 0.807124 222 255 26 0.310980
0.086154 -0.061401 0.806348 211 255 37 0.288333
0.084155 -0.057562 0.806122 225 255 22 0.318486
0.083683 -0.061347 0.805367 234 255 13 0.336863
0.081666 -0.057541 0.805142 211 255 37 0.286558
0.082211 -0.053657 0.805789 225 255 22 0.318304
0.081129 -0.061367 0.804498 233 255 15 0.332324
0.083588 -0.073606 0.805930 243 251 4 0.359240
0.080636 -0.077316 0.805128 242 253 6 0.352916
0.081879 -0.069595 0.805307 243 251 4 0.357233
0.078899 -0.073384 0.804531 247 246 1 0.365832
0.077219 -0.069372 0.803780 255 205 0 0.444224
0.075953 -0.077006 0.803866 255 224 0 0.407773
0.080219 -0.065509 0.804531 227 255 21 0.322672
0.082744 -0.065507 0.805369 234 255 13 0.338266
0.085284 -0.065495 0.806187 252 240 0 0.376557
