ply
format ascii 1.0
comment Seamless Cloth Simulation with High Geometric Fidelity 
comment Mon Apr 29 17:18:41 2019
element vertex 1006
property float x
property float y
property float z
property float quality
property uchar red
property uchar green
property uchar blue
end_header
-0.797424 -0.637624 5.30738 0.999871 255 0 255 
-0.772555 -0.621124 5.28724 0.999905 255 0 255 
-0.782601 -0.619442 5.30526 0.999899 255 0 255 
-0.770308 -0.642279 5.25195 0.999864 255 0 255 
-0.757205 -0.623105 5.25135 0.999788 255 0 255 
-0.795776 -0.680266 5.25446 0.999852 255 0 255 
-0.817114 -0.696248 5.27469 0.999648 255 0 255 
-0.761309 -0.59925 5.30411 0.999801 255 0 255 
-0.754107 -0.603459 5.28473 0.999951 255 0 255 
-0.733466 -0.581404 5.28419 0.999951 255 0 255 
-0.739455 -0.577352 5.30328 0.999781 255 0 255 
-0.729625 -0.585835 5.26665 0.999972 255 0 255 
-0.71397 -0.558962 5.28486 0.99993 255 0 255 
-0.709996 -0.564439 5.26956 0.99983 255 0 255 
-0.718681 -0.553869 5.30193 0.999928 255 0 255 
-0.706063 -0.570502 5.25431 0.999888 255 0 255 
-0.723504 -0.587948 5.25269 0.999938 255 0 255 
-0.740511 -0.605501 5.25172 0.999919 255 0 255 
-0.746744 -0.60415 5.26754 0.999981 255 0 255 
-0.765268 -0.883225 5.25749 0.99983 255 0 255 
-0.777986 -0.859458 5.25622 0.999912 255 0 255 
-0.785976 -0.873006 5.27894 0.999808 255 0 255 
-0.791887 -0.835085 5.25517 0.999887 255 0 255 
-0.800239 -0.84887 5.27799 0.999776 255 0 255 
-0.815589 -0.823832 5.27822 0.999831 255 0 255 
-0.809909 -0.863218 5.30052 0.999742 255 0 255 
-0.806129 -0.810311 5.25482 0.999811 255 0 255 
-0.819782 -0.785293 5.25741 0.999346 255 0 255 
-0.800344 -0.795883 5.22987 0.99938 255 0 255 
-0.787222 -0.820325 5.22938 0.999836 255 0 255 
-0.773814 -0.844737 5.231 0.999969 255 0 255 
-0.782073 -0.806013 5.20627 0.999362 255 0 255 
-0.826071 -0.856948 5.3113 0.999809 255 0 255 
-0.826555 -0.838688 5.30208 0.999781 255 0 255 
-0.844767 -0.831001 5.31323 0.999927 255 0 255 
-0.843783 -0.849644 5.3219 0.999759 255 0 255 
-0.845153 -0.812934 5.30565 0.999975 255 0 255 
-0.860647 -0.824942 5.32588 0.99992 255 0 255 
-0.860093 -0.806976 5.31847 0.999981 255 0 255 
-0.874701 -0.801179 5.33152 0.999946 255 0 255 
-0.860676 -0.842721 5.33323 0.999694 255 0 255 
-0.875401 -0.818879 5.33839 0.999922 255 0 255 
-0.87538 -0.83698 5.34564 0.999686 255 0 255 
-0.859392 -0.789025 5.3112 0.999889 255 0 255 
-0.873446 -0.783824 5.32447 0.999894 255 0 255 
-0.870773 -0.765967 5.31783 0.99977 255 0 255 
-0.857989 -0.76967 5.3033 0.999392 255 0 255 
-0.845803 -0.79298 5.29637 0.999717 255 0 255 
-0.845583 -0.773684 5.28855 0.999217 255 0 255 
-0.831288 -0.798757 5.28201 0.999678 255 0 255 
-0.829213 -0.818895 5.29193 0.999889 255 0 255 
-0.832246 -0.779482 5.27318 0.99944 255 0 255 
-0.836428 -0.712626 5.29484 0.999743 255 0 255 
-0.832525 -0.734873 5.28116 0.999907 255 0 255 
-0.815257 -0.719427 5.26066 0.999857 255 0 255 
-0.821739 -0.738938 5.26352 0.999945 255 0 255 
-0.812125 -0.743401 5.24572 0.999858 255 0 255 
-0.827645 -0.759445 5.26799 0.99972 255 0 255 
-0.83983 -0.754127 5.28483 0.999789 255 0 255 
-0.851661 -0.750286 5.29976 0.999765 255 0 255 
-0.844112 -0.730986 5.29707 0.999927 255 0 255 
-0.855713 -0.727111 5.31238 0.999954 255 0 255 
-0.863924 -0.746624 5.31487 0.999802 255 0 255 
-0.846322 -0.709187 5.31018 0.999784 255 0 255 
-0.797758 -0.727196 5.22638 0.999798 255 0 255 
-0.794923 -0.752686 5.21662 0.999823 255 0 255 
-0.782967 -0.735949 5.19801 0.999559 255 0 255 
-0.778697 -0.76237 5.19075 0.999647 255 0 255 
-0.790141 -0.779224 5.20964 0.999537 255 0 255 
-0.807193 -0.769254 5.23622 0.999645 255 0 255 
-0.623958 -0.650321 5.13711 0.999941 255 0 255 
-0.639301 -0.662359 5.1347 0.999973 255 0 255 
-0.663594 -0.668548 5.13825 0.999849 255 0 255 
-0.678547 -0.681176 5.13542 0.99963 255 0 255 
-0.695208 -0.668212 5.14761 0.999344 255 0 255 
-0.679409 -0.654576 5.15165 0.999726 255 0 255 
-0.65595 -0.648972 5.14849 0.99996 255 0 255 
-0.638847 -0.635871 5.1521 0.999923 255 0 255 
-0.682469 -0.704714 5.12848 0.999714 255 0 255 
-0.693158 -0.721483 5.12936 0.999896 255 0 255 
-0.712198 -0.733214 5.13628 0.999709 255 0 255 
-0.720931 -0.750426 5.13782 0.999671 255 0 255 
-0.738675 -0.740158 5.14833 0.999209 255 0 255 
-0.728871 -0.721404 5.14709 0.99937 255 0 255 
-0.71055 -0.709491 5.14091 0.999802 255 0 255 
-0.699263 -0.691817 5.14084 0.999651 255 0 255 
-0.753769 -0.705819 5.17131 0.998884 255 0 255 
-0.743628 -0.686666 5.1713 0.999483 255 0 255 
-0.72423 -0.67408 5.16346 0.999628 255 0 255 
-0.711666 -0.655713 5.16501 0.999385 255 0 255 
-0.727481 -0.69794 5.15457 0.999684 255 0 255 
-0.755926 -0.729502 5.16425 0.998962 255 0 255 
-0.703656 -0.635731 5.17763 0.999625 255 0 255 
-0.68698 -0.620863 5.18142 0.999665 255 0 255 
-0.662822 -0.614217 5.17664 0.999798 255 0 255 
-0.671998 -0.634524 5.16354 0.999834 255 0 255 
-0.758207 -0.897636 5.2712 0.99996 255 0 255 
-0.769966 -0.892078 5.28027 0.999939 255 0 255 
-0.763342 -0.906453 5.29408 0.999967 255 0 255 
-0.751764 -0.911888 5.28443 0.999976 255 0 255 
-0.775618 -0.901485 5.30281 0.999946 255 0 255 
-0.757234 -0.920656 5.30718 0.999957 255 0 255 
-0.769555 -0.916245 5.31615 0.99994 255 0 255 
-0.763519 -0.930821 5.32966 0.999863 255 0 255 
-0.745984 -0.925942 5.29743 0.999961 255 0 255 
-0.751938 -0.935047 5.32023 0.999875 255 0 255 
-0.740467 -0.940485 5.31033 0.999857 255 0 255 
-0.781933 -0.911905 5.32562 0.999924 255 0 255 
-0.776158 -0.92709 5.33872 0.999757 255 0 255 
-0.789532 -0.923068 5.34784 0.999704 255 0 255 
-0.799197 -0.893489 5.32362 0.999836 255 0 255 
-0.791951 -0.882875 5.3015 0.999919 255 0 255 
-0.730645 -0.951717 5.32474 0.999955 255 0 255 
-0.742743 -0.946851 5.33453 0.999971 255 0 255 
-0.733063 -0.958641 5.34895 0.999983 255 0 255 
-0.721106 -0.96381 5.3386 0.999988 255 0 255 
-0.74511 -0.954148 5.35866 0.999981 255 0 255 
-0.723767 -0.971079 5.36287 0.999953 255 0 255 
-0.735654 -0.966148 5.37316 0.999946 255 0 255 
-0.711836 -0.976379 5.35267 0.99996 255 0 255 
-0.747953 -0.96242 5.38262 0.999924 255 0 255 
-0.760324 -0.959122 5.39169 0.999913 255 0 255 
-0.756931 -0.95004 5.36843 0.999952 255 0 255 
-0.769569 -0.946423 5.37753 0.999944 255 0 255 
-0.766073 -0.938287 5.35365 0.999956 255 0 255 
-0.754044 -0.942227 5.34424 0.999964 255 0 255 
-0.779531 -0.934532 5.36258 0.999913 255 0 255 
-0.840617 -0.937169 5.43432 0.999905 255 0 255 
-0.821564 -0.945302 5.42732 0.999775 255 0 255 
-0.829408 -0.931165 5.40922 0.99999 255 0 255 
-0.847884 -0.923457 5.41691 0.999997 255 0 255 
-0.810768 -0.938022 5.40128 0.999975 255 0 255 
-0.836464 -0.917688 5.39095 0.999753 255 0 255 
-0.817603 -0.924152 5.38304 0.999856 255 0 255 
-0.824696 -0.910875 5.36474 0.999619 255 0 255 
-0.855925 -0.909331 5.39917 0.999817 255 0 255 
-0.844641 -0.903872 5.3727 0.99934 255 0 255 
-0.862528 -0.896074 5.38205 0.999131 255 0 255 
-0.799442 -0.930014 5.37478 0.999851 255 0 255 
-0.805716 -0.917474 5.35675 0.999737 255 0 255 
-0.789328 -0.942657 5.38937 0.999991 255 0 255 
-0.778702 -0.955322 5.40424 0.9999 255 0 255 
-0.799476 -0.950927 5.41615 0.999828 255 0 255 
-0.854259 -0.872203 5.35215 0.999663 255 0 255 
-0.869216 -0.866424 5.36329 0.999712 255 0 255 
-0.837048 -0.879355 5.34154 0.99965 255 0 255 
-0.816757 -0.886798 5.33293 0.999837 255 0 255 
0.136432 -1.04254 5.13231 0.999965 255 0 255 
0.15887 -1.03858 5.11381 0.999968 255 0 255 
0.120742 -1.03828 5.1132 0.999969 255 0 255 
0.143377 -1.03452 5.09466 0.999966 255 0 255 
0.106723 -1.03264 5.09441 0.999971 255 0 255 
0.131733 -1.02794 5.07704 0.99998 255 0 255 
0.095129 -1.0258 5.07598 0.999962 255 0 255 
0.120825 -1.0215 5.05818 0.999963 255 0 255 
-0.319189 -1.02139 5.15064 0.999942 255 0 255 
-0.34524 -1.01183 5.14491 0.999932 255 0 255 
-0.30553 -1.01638 5.1358 0.999901 255 0 255 
-0.331366 -1.00752 5.12923 0.999882 255 0 255 
-0.317901 -1.00202 5.1147 0.999744 255 0 255 
-0.358296 -0.997518 5.12412 0.999787 255 0 255 
-0.292889 -1.01036 5.12112 0.999877 255 0 255 
-0.279844 -1.00367 5.10719 0.999836 255 0 255 
-0.26881 -1.01675 5.12655 0.999943 255 0 255 
-0.281746 -1.02337 5.14074 0.999913 255 0 255 
-0.294634 -1.02943 5.15522 0.999832 255 0 255 
-0.258311 -1.03003 5.14565 0.999884 255 0 255 
-0.341639 -0.991907 5.11066 0.999808 255 0 255 
-0.367557 -0.978821 5.10527 0.999822 255 0 255 
-0.325589 -0.985041 5.09781 0.999834 255 0 255 
-0.350545 -0.972336 5.09182 0.999768 255 0 255 
-0.3341 -0.964901 5.07913 0.999618 255 0 255 
-0.376651 -0.959093 5.08672 0.999582 255 0 255 
-0.309966 -0.977059 5.08548 0.999806 255 0 255 
-0.293832 -0.969082 5.07456 0.999769 255 0 255 
-0.286858 -0.986759 5.09066 0.999873 255 0 255 
-0.302604 -0.994726 5.10207 0.999819 255 0 255 
-0.184877 -0.978903 5.05691 0.999697 255 0 255 
-0.210967 -0.984813 5.07061 0.999814 255 0 255 
-0.179746 -0.992754 5.07141 0.999884 255 0 255 
-0.235533 -0.991295 5.08335 0.999873 255 0 255 
-0.20567 -0.999161 5.08427 0.99983 255 0 255 
-0.230044 -1.00571 5.09763 0.999843 255 0 255 
-0.173972 -1.00681 5.08483 0.999828 255 0 255 
-0.258632 -0.997733 5.09536 0.999868 255 0 255 
-0.265703 -0.980642 5.07938 0.999843 255 0 255 
-0.242775 -0.973906 5.06793 0.999789 255 0 255 
-0.197241 -1.01243 5.10045 0.999914 255 0 255 
-0.164067 -1.01749 5.10117 0.999929 255 0 255 
-0.219568 -1.01834 5.11613 0.999942 255 0 255 
-0.187841 -1.02328 5.11741 0.999953 255 0 255 
-0.210582 -1.02935 5.13366 0.999935 255 0 255 
-0.153915 -1.02814 5.11825 0.999922 255 0 255 
-0.239964 -1.02449 5.13123 0.999923 255 0 255 
-0.250459 -1.01126 5.11235 0.999921 255 0 255 
0.0586801 -0.982904 5.00928 0.999877 255 0 255 
0.0548425 -0.969799 4.99961 0.999846 255 0 255 
0.050495 -0.957074 4.99015 0.999912 255 0 255 
0.0494764 -0.941623 4.98373 0.999948 255 0 255 
0.0843044 -1.01785 5.05892 0.999958 255 0 255 
0.111304 -1.01263 5.04312 0.999953 255 0 255 
0.0748319 -1.00881 5.04359 0.999961 255 0 255 
0.102069 -1.00402 5.02752 0.99992 255 0 255 
0.0675623 -0.998818 5.02877 0.999937 255 0 255 
-0.155072 -0.973358 5.04668 0.999809 255 0 255 
-0.187013 -0.962133 5.04796 0.999828 255 0 255 
-0.125898 -0.967228 5.03735 0.999859 255 0 255 
-0.157294 -0.956893 5.03751 0.999791 255 0 255 
-0.127769 -0.951083 5.02756 0.999668 255 0 255 
-0.188822 -0.945046 5.0383 0.999565 255 0 255 
-0.0977221 -0.960525 5.02826 0.999884 255 0 255 
-0.0700949 -0.953875 5.01834 0.999857 255 0 255 
-0.0676034 -0.967879 5.02775 0.99991 255 0 255 
-0.0951488 -0.975111 5.0369 0.999846 255 0 255 
-0.123963 -0.981843 5.04685 0.999818 255 0 255 
-0.0650628 -0.982395 5.03702 0.999892 255 0 255 
-0.157167 -0.939364 5.0308 0.999832 255 0 255 
-0.185977 -0.925245 5.03396 0.999856 255 0 255 
-0.126632 -0.932951 5.02292 0.999821 255 0 255 
-0.154606 -0.919642 5.02603 0.999916 255 0 255 
-0.0975288 -0.934943 5.01782 0.999812 255 0 255 
-0.0686489 -0.936481 5.01237 0.99988 255 0 255 
0.0183831 -0.940534 4.99168 0.999861 255 0 255 
-0.011699 -0.939553 4.9988 0.999781 255 0 255 
-0.0116856 -0.955291 5.00554 0.999862 255 0 255 
0.0186651 -0.956112 4.99851 0.999853 255 0 255 
-0.0412109 -0.94662 5.00908 0.999897 255 0 255 
-0.0401223 -0.929684 5.00285 0.99991 255 0 255 
0.0220533 -0.969492 5.00792 0.999919 255 0 255 
-0.00897406 -0.969015 5.01524 0.999942 255 0 255 
-0.00541661 -0.98209 5.02464 0.999921 255 0 255 
0.025833 -0.98247 5.01731 0.999894 255 0 255 
-0.0370973 -0.97534 5.02634 0.999938 255 0 255 
-0.0398877 -0.961594 5.01705 0.999919 255 0 255 
0.063604 -1.02682 5.08369 0.999949 255 0 255 
0.0396878 -1.03088 5.09987 0.999967 255 0 255 
0.0760249 -1.03367 5.10208 0.999956 255 0 255 
0.0520262 -1.03796 5.11847 0.999951 255 0 255 
0.0158942 -1.03521 5.11571 0.999968 255 0 255 
-0.00719748 -1.03945 5.13105 0.999958 255 0 255 
-0.0214784 -1.03148 5.11291 0.999975 255 0 255 
0.00160641 -1.02736 5.09761 0.999975 255 0 255 
0.0254728 -1.02337 5.08191 0.999946 255 0 255 
-0.0359115 -1.02448 5.09483 0.999959 255 0 255 
0.0915178 -1.03991 5.12086 0.99995 255 0 255 
0.0702356 -1.043 5.13814 0.999965 255 0 255 
0.107155 -1.04396 5.14093 0.999963 255 0 255 
0.0497914 -1.04631 5.15461 0.999958 255 0 255 
0.0111623 -1.04438 5.15053 0.999969 255 0 255 
0.0318028 -1.04127 5.1347 0.999963 255 0 255 
-0.0621976 -1.05051 5.17605 0.999942 255 0 255 
-0.101807 -1.04851 5.17221 0.999965 255 0 255 
-0.0436944 -1.04642 5.16109 0.999975 255 0 255 
-0.0827942 -1.04522 5.15675 0.999961 255 0 255 
-0.0640217 -1.04146 5.14185 0.999955 255 0 255 
-0.121614 -1.04409 5.15285 0.999891 255 0 255 
-0.0257463 -1.04291 5.1463 0.999976 255 0 255 
-0.00667457 -1.0481 5.16586 0.999959 255 0 255 
-0.0998015 -1.0392 5.13793 0.999945 255 0 255 
-0.137775 -1.03607 5.13533 0.999951 255 0 255 
-0.0786169 -1.03417 5.1239 0.999972 255 0 255 
-0.115504 -1.03143 5.12031 0.999946 255 0 255 
-0.0941046 -1.02671 5.10617 0.999933 255 0 255 
-0.0570515 -1.02923 5.10931 0.999971 255 0 255 
-0.0428644 -1.03634 5.1275 0.999979 255 0 255 
0.032069 -0.993813 5.02983 0.999927 255 0 255 
0.000139105 -0.993988 5.03738 0.999933 255 0 255 
0.00616211 -1.00481 5.05052 0.99994 255 0 255 
0.0378262 -1.00464 5.04356 0.999935 255 0 255 
-0.0275771 -0.999964 5.05021 0.99993 255 0 255 
-0.0543973 -1.00582 5.06299 0.999927 255 0 255 
-0.0598447 -0.993942 5.04965 0.999935 255 0 255 
-0.0326228 -0.987839 5.03704 0.999927 255 0 255 
0.0473165 -1.01382 5.05906 0.999962 255 0 255 
0.0160975 -1.01435 5.06616 0.999965 255 0 255 
-0.00999796 -1.01952 5.08067 0.999965 255 0 255 
-0.0451198 -1.01484 5.07883 0.999966 255 0 255 
-0.0196088 -1.00985 5.06492 0.999962 255 0 255 
-0.127722 -1.0231 5.10351 0.999917 255 0 255 
-0.103198 -1.01722 5.09005 0.999954 255 0 255 
-0.137739 -1.01236 5.08713 0.999915 255 0 255 
-0.112692 -1.00708 5.07341 0.999867 255 0 255 
-0.0785813 -1.01144 5.07659 0.999955 255 0 255 
-0.0695409 -1.02074 5.09245 0.999964 255 0 255 
-0.145764 -1.00111 5.07223 0.999883 255 0 255 
-0.118166 -0.995226 5.06039 0.999911 255 0 255 
-0.151051 -0.987664 5.05831 0.999822 255 0 255 
-0.0912557 -0.98867 5.04809 0.999893 255 0 255 
-0.0863402 -1.00044 5.06159 0.999934 255 0 255 
-0.175288 -1.0329 5.13477 0.999962 255 0 255 
-0.195709 -1.03812 5.15155 0.99995 255 0 255 
-0.159579 -1.04134 5.15168 0.999913 255 0 255 
-0.181617 -1.04661 5.16958 0.999857 255 0 255 
-0.214696 -1.043 5.16836 0.99993 255 0 255 
-0.231711 -1.04764 5.18432 0.999868 255 0 255 
-0.244634 -1.03851 5.16486 0.999949 255 0 255 
-0.228474 -1.03417 5.14938 0.999947 255 0 255 
-0.141192 -1.04751 5.16995 0.999937 255 0 255 
-0.16222 -1.05082 5.18883 0.999955 255 0 255 
-0.120029 -1.05231 5.18935 0.999947 255 0 255 
-0.181358 -1.05407 5.20693 0.999918 255 0 255 
-0.214783 -1.0521 5.20448 0.999924 255 0 255 
-0.199146 -1.04962 5.18739 0.999918 255 0 255 
-0.26914 -1.05261 5.22154 0.999803 255 0 255 
-0.250878 -1.05282 5.21598 0.999838 255 0 255 
-0.267493 -1.04794 5.195 0.999815 255 0 255 
-0.28534 -1.04788 5.20047 0.999769 255 0 255 
-0.241285 -1.05047 5.20052 0.999894 255 0 255 
-0.224865 -1.05495 5.22038 0.99985 255 0 255 
-0.299188 -1.03805 5.18103 0.999923 255 0 255 
-0.280473 -1.03878 5.17601 0.999926 255 0 255 
-0.269343 -1.03461 5.1608 0.999927 255 0 255 
-0.256155 -1.04345 5.17992 0.999912 255 0 255 
-0.452783 -1.02807 5.22012 0.999987 255 0 255 
-0.454109 -1.03683 5.23755 0.999991 255 0 255 
-0.433613 -1.05212 5.26091 0.999901 255 0 255 
-0.455436 -1.04562 5.25495 0.999978 255 0 255 
-0.456519 -1.05432 5.27224 0.999886 255 0 255 
-0.478002 -1.03833 5.24777 0.999997 255 0 255 
-0.476491 -1.02922 5.23013 0.999988 255 0 255 
-0.47563 -1.02101 5.21253 0.999955 255 0 255 
-0.499314 -1.02265 5.22254 0.9999 255 0 255 
-0.396115 -1.05988 5.27817 0.999979 255 0 255 
-0.395094 -1.06453 5.29589 0.999962 255 0 255 
-0.417158 -1.0675 5.30745 0.999941 255 0 255 
-0.418725 -1.06233 5.29013 0.999991 255 0 255 
-0.432081 -1.05802 5.27842 0.999963 255 0 255 
-0.456806 -1.07143 5.33182 0.999871 255 0 255 
-0.460784 -1.06651 5.31404 0.999965 255 0 255 
-0.474146 -1.06205 5.30229 0.999954 255 0 255 
-0.477693 -1.05638 5.2845 0.999893 255 0 255 
-0.498662 -1.05824 5.2961 0.999828 255 0 255 
-0.453436 -1.06012 5.29032 0.999964 255 0 255 
-0.440191 -1.06438 5.3019 0.999993 255 0 255 
-0.43725 -1.06936 5.31972 0.999963 255 0 255 
-0.498741 -1.04919 5.27762 0.999966 255 0 255 
-0.520577 -1.04129 5.27037 0.999984 255 0 255 
-0.499007 -1.0402 5.25934 0.999994 255 0 255 
-0.52136 -1.03272 5.25213 0.999962 255 0 255 
-0.521155 -1.02406 5.23354 0.999899 255 0 255 
-0.543702 -1.0251 5.24409 0.999813 255 0 255 
-0.499581 -1.03132 5.24135 0.999979 255 0 255 
-0.477775 -1.04726 5.26615 0.999978 255 0 255 
-0.356293 -0.952127 5.07652 0.999722 255 0 255 
-0.380778 -0.935493 5.07334 0.99979 255 0 255 
-0.337009 -0.944127 5.06702 0.999718 255 0 255 
-0.360138 -0.928342 5.06322 0.999679 255 0 255 
-0.340124 -0.919971 5.05482 0.999495 255 0 255 
-0.384114 -0.91194 5.0603 0.999547 255 0 255 
-0.317986 -0.935575 5.05931 0.999689 255 0 255 
-0.299183 -0.927133 5.05207 0.999724 255 0 255 
-0.296876 -0.948255 5.06325 0.999829 255 0 255 
-0.315356 -0.956681 5.07057 0.999707 255 0 255 
-0.360214 -0.904832 5.05388 0.99966 255 0 255 
-0.381749 -0.886559 5.05344 0.999817 255 0 255 
-0.337098 -0.897111 5.04896 0.999756 255 0 255 
-0.357317 -0.879282 5.04768 0.999819 255 0 255 
-0.316412 -0.900567 5.04756 0.999693 255 0 255 
-0.296487 -0.903971 5.0469 0.999872 255 0 255 
-0.216235 -0.919612 5.03912 0.999843 255 0 255 
-0.244847 -0.915018 5.04246 0.99975 255 0 255 
-0.247808 -0.935337 5.04723 0.999706 255 0 255 
-0.219114 -0.939673 5.04363 0.999536 255 0 255 
-0.272903 -0.920926 5.04772 0.999828 255 0 255 
-0.270084 -0.897952 5.04272 0.99989 255 0 255 
-0.216679 -0.958687 5.05351 0.999714 255 0 255 
-0.245123 -0.956273 5.05729 0.9998 255 0 255 
-0.270374 -0.962702 5.06626 0.999831 255 0 255 
-0.273064 -0.941522 5.05533 0.99984 255 0 255 
-0.592646 -0.787666 5.08789 0.999929 255 0 255 
-0.573153 -0.777786 5.0827 0.999989 255 0 255 
-0.5752 -0.758536 5.08402 0.999952 255 0 255 
-0.554981 -0.74902 5.07879 0.999881 255 0 255 
-0.553305 -0.767893 5.07699 0.999927 255 0 255 
-0.533468 -0.75846 5.07089 0.99972 255 0 255 
-0.548825 -0.785577 5.07525 0.999947 255 0 255 
-0.567834 -0.795802 5.08117 0.99995 255 0 255 
-0.587144 -0.805895 5.08666 0.999833 255 0 255 
-0.562107 -0.814066 5.07973 0.999813 255 0 255 
-0.554947 -0.733055 5.08301 0.999961 255 0 255 
-0.53044 -0.710225 5.08442 0.999937 255 0 255 
-0.500059 -0.725458 5.07238 0.999862 255 0 255 
-0.521748 -0.731586 5.07561 0.999928 255 0 255 
-0.466761 -0.740363 5.06276 0.999829 255 0 255 
-0.489067 -0.746408 5.06558 0.999903 255 0 255 
-0.509308 -0.767519 5.06492 0.999823 255 0 255 
-0.474824 -0.766268 5.05884 0.999735 255 0 255 
-0.490688 -0.790273 5.06083 0.999851 255 0 255 
-0.51005 -0.79939 5.06622 0.999929 255 0 255 
-0.530254 -0.808457 5.07175 0.999892 255 0 255 
-0.508845 -0.830069 5.06772 0.999675 255 0 255 
-0.528996 -0.776588 5.0701 0.999898 255 0 255 
-0.387769 -0.96784 5.10034 0.999872 255 0 255 
-0.399619 -0.975263 5.11407 0.999979 255 0 255 
-0.37856 -0.986163 5.11883 0.999955 255 0 255 
-0.389838 -0.993294 5.13234 0.999904 255 0 255 
-0.411389 -0.982372 5.12761 0.99996 255 0 255 
-0.423815 -0.989547 5.14183 0.999904 255 0 255 
-0.433293 -0.970247 5.12309 0.999983 255 0 255 
-0.420382 -0.962887 5.1088 0.999945 255 0 255 
-0.408259 -0.955125 5.09521 0.999809 255 0 255 
-0.442243 -0.95076 5.10382 0.999825 255 0 255 
-0.366868 -1.00302 5.13905 0.999957 255 0 255 
-0.376202 -1.00864 5.15418 0.999988 255 0 255 
-0.35394 -1.01789 5.16 0.999966 255 0 255 
-0.410102 -1.005 5.16275 0.999967 255 0 255 
-0.399728 -0.998901 5.14771 0.999984 255 0 255 
-0.450601 -1.0031 5.17565 0.999963 255 0 255 
-0.450662 -0.987798 5.1501 0.999876 255 0 255 
-0.470724 -0.994353 5.16851 0.999963 255 0 255 
-0.430329 -1.01207 5.18218 0.999981 255 0 255 
-0.481892 -0.975937 5.14802 0.999939 255 0 255 
-0.472786 -0.96721 5.135 0.999978 255 0 255 
-0.46416 -0.958171 5.12153 0.999917 255 0 255 
-0.490328 -0.95587 5.12908 0.999914 255 0 255 
-0.481616 -0.947397 5.11558 0.999691 255 0 255 
-0.442019 -0.978909 5.13657 0.999959 255 0 255 
-0.701986 -0.97186 5.32144 0.999973 255 0 255 
-0.711884 -0.959427 5.30809 0.999953 255 0 255 
-0.7218 -0.948145 5.29401 0.999793 255 0 255 
-0.702602 -0.957084 5.27679 0.999702 255 0 255 
-0.682614 -0.980227 5.30347 0.999968 255 0 255 
-0.682875 -0.988296 5.3255 0.99996 255 0 255 
-0.683519 -0.996815 5.34746 0.999765 255 0 255 
-0.663764 -1.00517 5.32874 0.999721 255 0 255 
-0.73486 -0.919174 5.26767 0.999971 255 0 255 
-0.741497 -0.905178 5.25413 0.999956 255 0 255 
-0.748586 -0.891091 5.24074 0.999824 255 0 255 
-0.731296 -0.899649 5.22427 0.999687 255 0 255 
-0.723473 -0.913603 5.23802 0.999949 255 0 255 
-0.715864 -0.927783 5.25127 0.999974 255 0 255 
-0.718588 -0.937673 5.27272 0.999949 255 0 255 
-0.695335 -0.913914 5.1967 0.999646 255 0 255 
-0.686793 -0.927803 5.21027 0.999886 255 0 255 
-0.689397 -0.938279 5.22981 0.999934 255 0 255 
-0.682182 -0.952368 5.24202 0.999942 255 0 255 
-0.684914 -0.963617 5.26185 0.999783 255 0 255 
-0.665828 -0.969917 5.24608 0.999747 255 0 255 
-0.700459 -0.945919 5.25707 0.999919 255 0 255 
-0.705985 -0.920592 5.22407 0.999946 255 0 255 
-0.714036 -0.906529 5.21069 0.9998 255 0 255 
-0.665119 -0.978221 5.26697 0.999936 255 0 255 
-0.645333 -0.992241 5.27177 0.999966 255 0 255 
-0.664348 -0.987052 5.28768 0.999955 255 0 255 
-0.644975 -1.00155 5.29236 0.99994 255 0 255 
-0.644986 -1.01092 5.31294 0.999786 255 0 255 
-0.625757 -1.01606 5.29676 0.999801 255 0 255 
-0.663707 -0.99587 5.30837 0.999927 255 0 255 
-0.683652 -0.971889 5.28271 0.999939 255 0 255 
-0.60129 -0.934873 5.15087 0.999662 255 0 255 
-0.605117 -0.918804 5.14169 0.999843 255 0 255 
-0.596025 -0.904887 5.13023 0.999991 255 0 255 
-0.600438 -0.888443 5.12123 0.99994 255 0 255 
-0.590863 -0.874974 5.10915 0.99984 255 0 255 
-0.617088 -0.869131 5.11596 0.999761 255 0 255 
-0.573949 -0.894036 5.11446 0.999967 255 0 255 
-0.564826 -0.880769 5.10182 0.999798 255 0 255 
-0.569565 -0.909068 5.12283 0.999997 255 0 255 
-0.56577 -0.92417 5.13063 0.999951 255 0 255 
-0.575036 -0.937436 5.14282 0.999819 255 0 255 
-0.548538 -0.940593 5.13442 0.999791 255 0 255 
-0.616276 -0.851181 5.10978 0.99991 255 0 255 
-0.602901 -0.837419 5.10121 0.999994 255 0 255 
-0.60113 -0.819648 5.0953 0.999945 255 0 255 
-0.577479 -0.827541 5.08879 0.999933 255 0 255 
-0.577864 -0.844498 5.0944 0.999977 255 0 255 
-0.578461 -0.861344 5.09996 0.999937 255 0 255 
-0.524074 -0.842705 5.07629 0.999911 255 0 255 
-0.509862 -0.860772 5.07798 0.999969 255 0 255 
-0.538151 -0.855519 5.08484 0.999972 255 0 255 
-0.523587 -0.873528 5.08682 0.999964 255 0 255 
-0.537314 -0.88587 5.09555 0.999881 255 0 255 
-0.510131 -0.890815 5.08869 0.999887 255 0 255 
-0.551917 -0.868104 5.09361 0.999949 255 0 255 
-0.550621 -0.834775 5.08215 0.999877 255 0 255 
-0.520039 -0.903481 5.10037 0.999969 255 0 255 
-0.502212 -0.918768 5.10405 0.999974 255 0 255 
-0.5299 -0.915841 5.11183 0.999996 255 0 255 
-0.512089 -0.930894 5.11573 0.999968 255 0 255 
-0.521265 -0.943106 5.12719 0.999844 255 0 255 
-0.539355 -0.928182 5.12307 0.999947 255 0 255 
-0.546932 -0.898489 5.10711 0.99997 255 0 255 
-0.428174 -0.754627 5.05468 0.999847 255 0 255 
-0.412571 -0.774022 5.05014 0.999851 255 0 255 
-0.429315 -0.795042 5.04954 0.99974 255 0 255 
-0.445873 -0.775541 5.05395 0.999873 255 0 255 
-0.370186 -0.77317 5.04647 0.99993 255 0 255 
-0.36809 -0.798418 5.04445 0.999961 255 0 255 
-0.392904 -0.804718 5.04562 0.99991 255 0 255 
-0.402392 -0.789335 5.04792 0.999937 255 0 255 
-0.390227 -0.844893 5.04778 0.999942 255 0 255 
-0.412918 -0.853445 5.05148 0.999724 255 0 255 
-0.402389 -0.828274 5.04863 0.999951 255 0 255 
-0.42614 -0.836877 5.05248 0.99993 255 0 255 
-0.439575 -0.819898 5.05326 0.999892 255 0 255 
-0.450389 -0.844431 5.05711 0.999746 255 0 255 
-0.415525 -0.811714 5.04908 0.999961 255 0 255 
-0.380603 -0.82102 5.04564 0.999985 255 0 255 
-0.47317 -0.824181 5.0603 0.999843 255 0 255 
-0.48203 -0.807294 5.0605 0.999926 255 0 255 
-0.461414 -0.798676 5.05595 0.999795 255 0 255 
-0.396703 -0.871145 5.05279 0.99993 255 0 255 
-0.415073 -0.881041 5.05944 0.999905 255 0 255 
-0.399456 -0.896284 5.05993 0.999927 255 0 255 
-0.417461 -0.9058 5.06746 0.999794 255 0 255 
-0.434274 -0.890561 5.06677 0.99995 255 0 255 
-0.453402 -0.900009 5.07494 0.99985 255 0 255 
-0.45177 -0.872381 5.06569 0.999992 255 0 255 
-0.43212 -0.863223 5.05835 0.999919 255 0 255 
-0.398474 -0.922148 5.0705 0.999877 255 0 255 
-0.412993 -0.93215 5.0814 0.999971 255 0 255 
-0.394429 -0.945546 5.08402 0.999921 255 0 255 
-0.427551 -0.94171 5.09224 0.999928 255 0 255 
-0.448131 -0.925632 5.08922 0.999996 255 0 255 
-0.43293 -0.915652 5.07795 0.999935 255 0 255 
-0.474871 -0.923456 5.09713 0.99997 255 0 255 
-0.492074 -0.907252 5.09311 0.999975 255 0 255 
-0.481114 -0.895631 5.08217 0.999921 255 0 255 
-0.464615 -0.911871 5.08627 0.999971 255 0 255 
-0.458347 -0.937143 5.10048 0.999941 255 0 255 
-0.495516 -0.879637 5.08056 0.999969 255 0 255 
-0.480272 -0.868091 5.07229 0.999985 255 0 255 
-0.494747 -0.849242 5.07023 0.999903 255 0 255 
-0.465551 -0.856119 5.06464 0.999962 255 0 255 
-0.466817 -0.8842 5.0738 0.999967 255 0 255 
-0.581982 -0.947298 5.15726 0.999946 255 0 255 
-0.56289 -0.959853 5.16335 0.999992 255 0 255 
-0.556116 -0.949956 5.14876 0.999959 255 0 255 
-0.537683 -0.96241 5.15461 0.999994 255 0 255 
-0.54443 -0.972569 5.16912 0.999972 255 0 255 
-0.526842 -0.985434 5.17492 0.99984 255 0 255 
-0.551509 -0.984853 5.18493 0.999866 255 0 255 
-0.56897 -0.971831 5.17914 0.999972 255 0 255 
-0.587952 -0.959181 5.17223 0.999954 255 0 255 
-0.575729 -0.984197 5.19433 0.999774 255 0 255 
-0.530208 -0.951852 5.14059 0.99997 255 0 255 
-0.512073 -0.96322 5.14676 0.999992 255 0 255 
-0.489636 -0.985993 5.16208 0.99986 255 0 255 
-0.519366 -0.974128 5.16092 0.999959 255 0 255 
-0.46967 -1.01064 5.19557 0.999987 255 0 255 
-0.48824 -1.00179 5.18917 0.99998 255 0 255 
-0.493554 -1.01148 5.20554 0.999988 255 0 255 
-0.512358 -1.00275 5.19845 0.999994 255 0 255 
-0.507208 -0.993443 5.18224 0.999983 255 0 255 
-0.517314 -1.01245 5.21574 0.999986 255 0 255 
-0.536453 -1.00289 5.20917 0.999986 255 0 255 
-0.539937 -1.01381 5.22678 0.999972 255 0 255 
-0.559265 -1.00388 5.21943 0.999963 255 0 255 
-0.555937 -0.993481 5.20191 0.999961 255 0 255 
-0.531386 -0.993956 5.192 0.999972 255 0 255 
-0.699605 -0.89553 5.18518 0.99974 255 0 255 
-0.694478 -0.881678 5.16793 0.999836 255 0 255 
-0.698564 -0.863222 5.15757 0.999845 255 0 255 
-0.691049 -0.848163 5.14246 0.999632 255 0 255 
-0.71307 -0.840686 5.15192 0.999497 255 0 255 
-0.676184 -0.870805 5.14755 0.999811 255 0 255 
-0.667409 -0.855993 5.13253 0.9996 255 0 255 
-0.672594 -0.888462 5.15694 0.999911 255 0 255 
-0.667628 -0.905934 5.16736 0.999702 255 0 255 
-0.674824 -0.920163 5.18359 0.999453 255 0 255 
-0.651561 -0.926476 5.17123 0.999403 255 0 255 
-0.711647 -0.820833 5.14491 0.999653 255 0 255 
-0.69894 -0.805433 5.13399 0.999883 255 0 255 
-0.696093 -0.785395 5.1279 0.999852 255 0 255 
-0.67448 -0.795111 5.11925 0.999897 255 0 255 
-0.676676 -0.813796 5.12493 0.999966 255 0 255 
-0.678602 -0.832831 5.13101 0.99979 255 0 255 
-0.62698 -0.812097 5.10269 0.999914 255 0 255 
-0.628606 -0.829857 5.1082 0.999964 255 0 255 
-0.642808 -0.844293 5.11799 0.99981 255 0 255 
-0.642489 -0.862405 5.12431 0.999867 255 0 255 
-0.653789 -0.821878 5.11572 0.99991 255 0 255 
-0.650884 -0.803211 5.1105 0.999917 255 0 255 
-0.626893 -0.883512 5.12871 0.99989 255 0 255 
-0.622721 -0.900271 5.13783 0.999915 255 0 255 
-0.630983 -0.914744 5.15189 0.999715 255 0 255 
-0.626916 -0.931102 5.16102 0.999734 255 0 255 
-0.647835 -0.894886 5.14725 0.999884 255 0 255 
-0.651517 -0.877016 5.13766 0.999925 255 0 255 
-0.542381 -1.03345 5.26321 0.999937 255 0 255 
-0.541777 -1.04167 5.28213 0.999948 255 0 255 
-0.520079 -1.0499 5.28919 0.999951 255 0 255 
-0.51868 -1.05865 5.30814 0.999822 255 0 255 
-0.54044 -1.05 5.30119 0.999895 255 0 255 
-0.538464 -1.05805 5.32021 0.999765 255 0 255 
-0.561903 -1.04064 5.29434 0.999927 255 0 255 
-0.563315 -1.03269 5.27525 0.999919 255 0 255 
-0.56453 -1.02449 5.25601 0.999846 255 0 255 
-0.585372 -1.0233 5.26818 0.999774 255 0 255 
-0.493768 -1.06366 5.31419 0.999928 255 0 255 
-0.480014 -1.06786 5.32608 0.999957 255 0 255 
-0.47555 -1.0723 5.34419 0.999906 255 0 255 
-0.494854 -1.07248 5.3566 0.999924 255 0 255 
-0.499055 -1.06841 5.33815 0.999961 255 0 255 
-0.513595 -1.06371 5.32622 0.999917 255 0 255 
-0.530328 -1.06895 5.38431 0.999931 255 0 255 
-0.53591 -1.06587 5.36496 0.999959 255 0 255 
-0.55173 -1.06047 5.35315 0.999898 255 0 255 
-0.557406 -1.0562 5.33422 0.999767 255 0 255 
-0.576706 -1.05324 5.3486 0.999728 255 0 255 
-0.532261 -1.0632 5.33878 0.999879 255 0 255 
-0.517341 -1.06795 5.35095 0.999945 255 0 255 
-0.511634 -1.07162 5.36979 0.999911 255 0 255 
-0.588986 -1.04391 5.33619 0.9999 255 0 255 
-0.590879 -1.03675 5.31579 0.999951 255 0 255 
-0.603434 -1.02724 5.30277 0.999933 255 0 255 
-0.606094 -1.02 5.28242 0.999813 255 0 255 
-0.583323 -1.0309 5.28842 0.99991 255 0 255 
-0.559786 -1.04853 5.31419 0.999891 255 0 255 
-0.606883 -0.945741 5.16712 0.999902 255 0 255 
-0.612712 -0.956686 5.18311 0.999895 255 0 255 
-0.593829 -0.970322 5.18932 0.999937 255 0 255 
-0.60007 -0.982158 5.20585 0.999771 255 0 255 
-0.617731 -0.967815 5.20001 0.999869 255 0 255 
-0.622609 -0.979266 5.21755 0.999715 255 0 255 
-0.636678 -0.952165 5.19443 0.999899 255 0 255 
-0.632189 -0.941714 5.17732 0.999833 255 0 255 
-0.579185 -0.993573 5.21298 0.999916 255 0 255 
-0.581524 -1.00334 5.2315 0.99995 255 0 255 
-0.562545 -1.01431 5.23797 0.999929 255 0 255 
-0.583449 -1.0132 5.25009 0.999931 255 0 255 
-0.603394 -1.00079 5.24383 0.999957 255 0 255 
-0.60205 -0.991297 5.2247 0.999915 255 0 255 
-0.624705 -1.00629 5.27725 0.999959 255 0 255 
-0.624251 -0.997318 5.25727 0.999966 255 0 255 
-0.644796 -0.983186 5.25212 0.999952 255 0 255 
-0.644939 -0.974646 5.23163 0.999758 255 0 255 
-0.623799 -0.988145 5.2375 0.999919 255 0 255 
-0.605113 -1.01029 5.26267 0.999922 255 0 255 
-0.662565 -0.958432 5.22712 0.999884 255 0 255 
-0.669628 -0.94459 5.21517 0.999896 255 0 255 
-0.666753 -0.933951 5.19593 0.999813 255 0 255 
-0.640823 -0.963272 5.21288 0.999889 255 0 255 
-0.621589 -1.02327 5.31799 0.999939 255 0 255 
-0.609075 -1.03268 5.33097 0.999965 255 0 255 
-0.605442 -1.04003 5.35258 0.999865 255 0 255 
-0.594136 -1.04891 5.36528 0.999822 255 0 255 
-0.610975 -1.04492 5.382 0.999598 255 0 255 
-0.624109 -1.03482 5.36919 0.999846 255 0 255 
-0.627447 -1.02769 5.34744 0.99996 255 0 255 
-0.640762 -1.01765 5.334 0.999932 255 0 255 
-0.567745 -1.05781 5.36888 0.999919 255 0 255 
-0.552206 -1.06315 5.38041 0.999956 255 0 255 
-0.543268 -1.06625 5.40098 0.999884 255 0 255 
-0.5586 -1.06253 5.41804 0.999851 255 0 255 
-0.567122 -1.05978 5.39757 0.999927 255 0 255 
-0.584621 -1.05365 5.38587 0.99991 255 0 255 
-0.579445 -1.05415 5.4508 0.999885 255 0 255 
-0.598243 -1.04816 5.43952 0.99997 255 0 255 
-0.608769 -1.04519 5.41654 0.999884 255 0 255 
-0.628515 -1.03793 5.4037 0.999697 255 0 255 
-0.582651 -1.05491 5.4177 0.99993 255 0 255 
-0.649642 -1.02472 5.40069 0.999953 255 0 255 
-0.664341 -1.01414 5.38621 0.999993 255 0 255 
-0.668969 -1.00729 5.36197 0.999911 255 0 255 
-0.645798 -1.02153 5.36616 0.99997 255 0 255 
-0.761297 -0.867912 5.23627 0.99995 255 0 255 
-0.758602 -0.853192 5.21363 0.999878 255 0 255 
-0.770925 -0.829739 5.20976 0.999768 255 0 255 
-0.76633 -0.814899 5.19015 0.999451 255 0 255 
-0.754238 -0.838706 5.19321 0.999717 255 0 255 
-0.749392 -0.824135 5.17455 0.999337 255 0 255 
-0.74078 -0.862283 5.19795 0.999871 255 0 255 
-0.74446 -0.876671 5.2193 0.999887 255 0 255 
-0.774104 -0.78893 5.18907 0.99943 255 0 255 
-0.764065 -0.772121 5.17399 0.999539 255 0 255 
-0.768003 -0.74587 5.17678 0.999417 255 0 255 
-0.752076 -0.756338 5.16031 0.999417 255 0 255 
-0.746418 -0.782003 5.15899 0.999617 255 0 255 
-0.757037 -0.798643 5.17336 0.99953 255 0 255 
-0.716276 -0.77619 5.13746 0.999808 255 0 255 
-0.719433 -0.796405 5.14339 0.999772 255 0 255 
-0.730695 -0.812331 5.15573 0.999628 255 0 255 
-0.732037 -0.83228 5.16304 0.999588 255 0 255 
-0.734064 -0.766256 5.14817 0.999767 255 0 255 
-0.719508 -0.855391 5.16757 0.999758 255 0 255 
-0.714572 -0.874032 5.17951 0.999839 255 0 255 
-0.719127 -0.888364 5.19766 0.999773 255 0 255 
-0.736602 -0.847373 5.17967 0.999807 255 0 255 
-0.824032 -0.56312 5.38396 0.999953 255 0 255 
-0.824914 -0.577504 5.37737 0.999962 255 0 255 
-0.797809 -0.559874 5.36757 0.999915 255 0 255 
-0.825766 -0.591057 5.37015 0.999928 255 0 255 
-0.79814 -0.573795 5.36137 0.999953 255 0 255 
-0.799387 -0.587778 5.35437 0.999866 255 0 255 
-0.770749 -0.555868 5.35166 0.999952 255 0 255 
-0.825887 -0.605077 5.36285 0.999878 255 0 255 
-0.826716 -0.618353 5.35424 0.999888 255 0 255 
-0.850101 -0.618614 5.37135 0.999896 255 0 255 
-0.849145 -0.605308 5.37965 0.9999 255 0 255 
-0.848974 -0.591548 5.38793 0.999851 255 0 255 
-0.874097 -0.618759 5.38925 0.999879 255 0 255 
-0.75014 -0.549787 5.3394 0.999951 255 0 255 
-0.773533 -0.57273 5.34185 0.999945 255 0 255 
-0.753912 -0.566762 5.32883 0.999968 255 0 255 
-0.730845 -0.543184 5.32632 0.99997 255 0 255 
-0.776314 -0.588587 5.33064 0.999967 255 0 255 
-0.734893 -0.560161 5.31508 0.999929 255 0 255 
-0.757585 -0.583298 5.31708 0.999893 255 0 255 
-0.714079 -0.536416 5.31311 0.999938 255 0 255 
-0.77983 -0.604001 5.31849 0.999942 255 0 255 
-0.805576 -0.6189 5.33071 0.999928 255 0 255 
-0.803144 -0.604008 5.3428 0.999946 255 0 255 
-0.846382 -0.670297 5.33298 0.9999 255 0 255 
-0.858824 -0.68696 5.33282 0.999809 255 0 255 
-0.833263 -0.653898 5.33204 0.999958 255 0 255 
-0.85416 -0.651039 5.35717 0.999827 255 0 255 
-0.867285 -0.666997 5.35772 0.999811 255 0 255 
-0.881195 -0.683468 5.35705 0.999864 255 0 255 
-0.83035 -0.636908 5.3436 0.999885 255 0 255 
-0.891018 -0.665121 5.37552 0.999838 255 0 255 
-0.904381 -0.679415 5.37557 0.999833 255 0 255 
-0.877709 -0.651169 5.37491 0.99972 255 0 255 
-0.90102 -0.647079 5.3935 0.999498 255 0 255 
-0.914401 -0.660847 5.39414 0.999802 255 0 255 
-0.928014 -0.674442 5.39399 0.999802 255 0 255 
-0.875823 -0.635295 5.38247 0.999804 255 0 255 
-0.851951 -0.635119 5.36519 0.999782 255 0 255 
-0.927651 -0.692436 5.38594 0.999859 255 0 255 
-0.926207 -0.711383 5.37827 0.999883 255 0 255 
-0.904054 -0.697075 5.36788 0.999861 255 0 255 
-0.902461 -0.715857 5.36066 0.999845 255 0 255 
-0.924137 -0.730607 5.37133 0.999725 255 0 255 
-0.920991 -0.750513 5.36498 0.999674 255 0 255 
-0.945368 -0.740673 5.38262 0.999619 255 0 255 
-0.948561 -0.720897 5.38964 0.999776 255 0 255 
-0.950753 -0.701623 5.39717 0.999798 255 0 255 
-0.969835 -0.730519 5.40046 0.999744 255 0 255 
-0.880316 -0.702855 5.34657 0.999849 255 0 255 
-0.879196 -0.724012 5.3367 0.999907 255 0 255 
-0.888351 -0.740946 5.33882 0.999746 255 0 255 
-0.896402 -0.758689 5.34175 0.99964 255 0 255 
-0.903244 -0.809238 5.35988 0.999643 255 0 255 
-0.914997 -0.787633 5.36446 0.999813 255 0 255 
-0.919125 -0.818927 5.37677 0.999587 255 0 255 
-0.930842 -0.796848 5.38151 0.999834 255 0 255 
-0.899342 -0.776101 5.34752 0.999799 255 0 255 
-0.946209 -0.805772 5.39542 0.999755 255 0 255 
-0.95764 -0.784893 5.39771 0.999731 255 0 255 
-0.966956 -0.764154 5.40058 0.999828 255 0 255 
-0.973536 -0.791185 5.41087 0.999697 255 0 255 
-0.984261 -0.770413 5.41413 0.999704 255 0 255 
-0.938315 -0.760564 5.37854 0.999842 255 0 255 
-0.889374 -0.844093 5.36392 0.999541 255 0 255 
-0.902571 -0.851165 5.38164 0.99974 255 0 255 
-0.882856 -0.873394 5.3814 0.999599 255 0 255 
-0.896261 -0.88024 5.39869 0.999461 255 0 255 
-0.915518 -0.857641 5.39922 0.999783 255 0 255 
-0.927347 -0.863568 5.41626 0.999561 255 0 255 
-0.930421 -0.837924 5.40182 0.999842 255 0 255 
-0.878675 -0.897423 5.40361 0.999618 255 0 255 
-0.871859 -0.910921 5.42035 0.999937 255 0 255 
-0.8949 -0.898968 5.42422 0.999709 255 0 255 
-0.864154 -0.924799 5.43744 0.999923 255 0 255 
-0.887018 -0.912767 5.44111 0.999764 255 0 255 
-0.878512 -0.926407 5.45784 0.999633 255 0 255 
-0.856671 -0.93865 5.45435 0.999649 255 0 255 
-0.90851 -0.900237 5.44481 0.999544 255 0 255 
-0.899738 -0.913773 5.46125 0.999476 255 0 255 
-0.921029 -0.900166 5.46524 0.999251 255 0 255 
-0.925206 -0.881413 5.44037 0.999665 255 0 255 
-0.911589 -0.88106 5.41999 0.999766 255 0 255 
-0.979395 -0.860436 5.48563 0.999801 255 0 255 
-0.967895 -0.861508 5.46804 0.999822 255 0 255 
-0.982279 -0.844099 5.46554 0.999911 255 0 255 
-0.955449 -0.862782 5.45091 0.999661 255 0 255 
-0.970201 -0.845148 5.44793 0.999853 255 0 255 
-0.956961 -0.845985 5.43075 0.99954 255 0 255 
-0.984959 -0.828139 5.44566 0.999883 255 0 255 
-0.941947 -0.863287 5.43351 0.999787 255 0 255 
-0.938511 -0.881093 5.45733 0.999727 255 0 255 
-0.95076 -0.880063 5.47434 0.999577 255 0 255 
-0.973328 -0.824327 5.43144 0.999838 255 0 255 
-0.987364 -0.805515 5.43243 0.999727 255 0 255 
-0.960243 -0.820823 5.41697 0.999798 255 0 255 
-0.9441 -0.841907 5.41612 0.999822 255 0 255 
-0.964656 -0.87328 5.49931 0.999923 255 0 255 
-0.949171 -0.886447 5.51356 0.999956 255 0 255 
-0.935796 -0.893841 5.48923 0.999794 255 0 255 
-0.92077 -0.907638 5.50395 0.999907 255 0 255 
-0.934668 -0.899738 5.52817 0.99995 255 0 255 
-0.920609 -0.912965 5.5431 0.999785 255 0 255 
-0.948488 -0.894179 5.54447 0.999899 255 0 255 
-0.963165 -0.881013 5.52997 0.999951 255 0 255 
-0.978167 -0.868193 5.5158 0.999953 255 0 255 
-0.976545 -0.876217 5.5466 0.999905 255 0 255 
-0.90195 -0.914977 5.48892 0.999884 255 0 255 
-0.882239 -0.928679 5.48531 0.999889 255 0 255 
-0.884488 -0.92914 5.51236 0.99998 255 0 255 
-0.861731 -0.941551 5.48227 0.99975 255 0 255 
-0.864822 -0.942936 5.50912 0.999924 255 0 255 
-0.866387 -0.942476 5.53589 0.999961 255 0 255 
-0.867136 -0.945163 5.55505 0.999878 255 0 255 
-0.884385 -0.931959 5.53124 0.999953 255 0 255 
-0.884086 -0.934653 5.55056 0.999875 255 0 255 
-0.902615 -0.921114 5.52679 0.999912 255 0 255 
-0.902273 -0.918401 5.50784 0.99998 255 0 255 
-0.901977 -0.923747 5.54627 0.999898 255 0 255 
-0.870713 -0.940517 5.65859 0.999989 255 0 255 
-0.868863 -0.938977 5.63412 0.999904 255 0 255 
-0.88646 -0.92955 5.62699 0.999965 255 0 255 
-0.887593 -0.931179 5.65108 0.999987 255 0 255 
-0.885363 -0.929116 5.60307 0.999859 255 0 255 
-0.904249 -0.920496 5.61976 0.999979 255 0 255 
-0.903773 -0.919867 5.59574 0.999957 255 0 255 
-0.921316 -0.910977 5.58894 0.99997 255 0 255 
-0.904921 -0.922138 5.64404 0.999985 255 0 255 
-0.922304 -0.91145 5.61285 0.999973 255 0 255 
-0.922234 -0.913357 5.6373 0.999947 255 0 255 
-0.902142 -0.920772 5.57276 0.999962 255 0 255 
-0.920969 -0.911601 5.56564 0.999942 255 0 255 
-0.885394 -0.931227 5.57602 0.999975 255 0 255 
-0.867755 -0.942216 5.58029 0.999982 255 0 255 
-0.868445 -0.939907 5.60653 0.999925 255 0 255 
-0.949254 -0.895289 5.61027 0.999978 255 0 255 
-0.950496 -0.897948 5.62974 0.99997 255 0 255 
-0.948099 -0.893594 5.59151 0.999924 255 0 255 
-0.976855 -0.878467 5.58391 0.99991 255 0 255 
-0.976931 -0.880855 5.60346 0.999979 255 0 255 
-0.977499 -0.883424 5.62305 0.99998 255 0 255 
-0.962678 -0.884564 5.56849 0.999932 255 0 255 
-0.873561 -0.938977 5.68048 0.999975 255 0 255 
-0.876529 -0.937154 5.70575 0.99997 255 0 255 
-0.892787 -0.929014 5.69527 0.999981 255 0 255 
-0.879319 -0.935289 5.73081 0.999976 255 0 255 
-0.895484 -0.927608 5.72081 0.999974 255 0 255 
-0.898382 -0.925781 5.74627 0.999964 255 0 255 
-0.882486 -0.932545 5.75582 0.99995 255 0 255 
-0.912325 -0.920282 5.71173 0.999966 255 0 255 
-0.915041 -0.919244 5.73778 0.999954 255 0 255 
-0.932603 -0.911842 5.7295 0.999948 255 0 255 
-0.929548 -0.912302 5.70602 0.999978 255 0 255 
-0.909371 -0.920858 5.68892 0.999993 255 0 255 
-0.926928 -0.91221 5.68281 0.999983 255 0 255 
-0.906922 -0.921273 5.66619 0.99999 255 0 255 
-0.890141 -0.929885 5.673 0.999989 255 0 255 
-0.924541 -0.912379 5.6599 0.999987 255 0 255 
-0.888319 -0.927294 5.7757 0.999895 255 0 255 
-0.894152 -0.920152 5.79793 0.999912 255 0 255 
-0.909675 -0.916113 5.78756 0.999948 255 0 255 
-0.900845 -0.911705 5.82084 0.999967 255 0 255 
-0.916426 -0.908511 5.81088 0.999964 255 0 255 
-0.932646 -0.904613 5.8013 0.999928 255 0 255 
-0.950295 -0.899301 5.79397 0.99995 255 0 255 
-0.926405 -0.910831 5.78019 0.999947 255 0 255 
-0.943689 -0.905014 5.77251 0.999876 255 0 255 
-0.920263 -0.915721 5.75906 0.999932 255 0 255 
-0.903723 -0.921591 5.76696 0.999969 255 0 255 
-0.937848 -0.908888 5.75082 0.999937 255 0 255 
-1.00546 -0.881461 5.76618 0.999945 255 0 255 
-0.985283 -0.889196 5.7512 0.999934 255 0 255 
-0.979725 -0.891121 5.73084 0.999937 255 0 255 
-0.960554 -0.899189 5.71674 0.999959 255 0 255 
-0.988849 -0.886237 5.70459 0.999969 255 0 255 
-0.977481 -0.89099 5.77889 0.999936 255 0 255 
-0.985195 -0.885433 5.684 0.999987 255 0 255 
-0.968479 -0.891355 5.66656 0.999986 255 0 255 
-0.966274 -0.890232 5.64617 0.999979 255 0 255 
-0.957402 -0.898823 5.69279 0.999982 255 0 255 
-0.700227 -0.163276 5.66032 0.999984 255 0 255 
-0.708501 -0.176622 5.64578 0.999979 255 0 255 
-0.688246 -0.175495 5.63436 0.999972 255 0 255 
-0.695892 -0.189494 5.62094 0.99998 255 0 255 
-0.716448 -0.190234 5.63129 0.999976 255 0 255 
-0.725023 -0.204152 5.61706 0.999969 255 0 255 
-0.734786 -0.193035 5.63838 0.999978 255 0 255 
-0.726233 -0.179626 5.65316 0.999985 255 0 255 
-0.678167 -0.188406 5.61188 0.999971 255 0 255 
-0.688784 -0.202629 5.6008 0.999975 255 0 255 
-0.667712 -0.20349 5.58791 0.99996 255 0 255 
-0.677867 -0.218768 5.57695 0.99997 255 0 255 
-0.69985 -0.217644 5.58854 0.99997 255 0 255 
-0.710704 -0.232436 5.57651 0.999957 255 0 255 
-0.717822 -0.217545 5.59643 0.999958 255 0 255 
-0.706901 -0.203423 5.60875 0.999972 255 0 255 
-0.768225 -0.261842 5.57507 0.999943 255 0 255 
-0.757779 -0.245635 5.58553 0.999931 255 0 255 
-0.747117 -0.230617 5.59596 0.999951 255 0 255 
-0.762013 -0.232042 5.60342 0.999964 255 0 255 
-0.751507 -0.218107 5.61368 0.99996 255 0 255 
-0.735855 -0.217311 5.60662 0.999975 255 0 255 
-0.729348 -0.231604 5.58595 0.999953 255 0 255 
-0.740255 -0.245988 5.57544 0.999933 255 0 255 
-0.780685 -0.228648 5.62 0.999938 255 0 255 
-0.772904 -0.215073 5.6319 0.999964 255 0 255 
-0.765057 -0.202664 5.64415 0.99997 255 0 255 
-0.7881 -0.218762 5.63853 0.999955 255 0 255 
-0.743289 -0.205399 5.62609 0.999972 255 0 255 
-0.850242 -0.278712 5.6148 0.999962 255 0 255 
-0.828024 -0.259323 5.62083 0.999977 255 0 255 
-0.821687 -0.270508 5.60379 0.999988 255 0 255 
-0.85596 -0.298894 5.59746 0.999972 255 0 255 
-0.8201 -0.24495 5.63025 0.999926 255 0 255 
-0.788061 -0.241569 5.60889 0.999839 255 0 255 
-0.793188 -0.272932 5.57974 0.999951 255 0 255 
-0.818536 -0.285466 5.58693 0.999988 255 0 255 
-0.804082 -0.290759 5.57059 0.999989 255 0 255 
-0.796996 -0.258111 5.59732 0.999924 255 0 255 
-0.828003 -0.309149 5.56923 0.999985 255 0 255 
-0.841661 -0.304342 5.58266 0.999969 255 0 255 
-0.864655 -0.321214 5.58108 0.999946 255 0 255 
-0.851096 -0.325649 5.56724 0.99997 255 0 255 
-0.810958 -0.421364 5.46409 0.999984 255 0 255 
-0.789037 -0.42395 5.4521 0.999964 255 0 255 
-0.765235 -0.425719 5.44033 0.999962 255 0 255 
-0.765599 -0.406665 5.45204 0.999894 255 0 255 
-0.788641 -0.442669 5.44021 0.999978 255 0 255 
-0.810055 -0.456964 5.44126 0.999992 255 0 255 
-0.81085 -0.439816 5.45284 0.999993 255 0 255 
-0.831914 -0.453807 5.45434 0.999982 255 0 255 
-0.727109 -0.39124 5.44895 0.999976 255 0 255 
-0.707079 -0.383335 5.44686 0.999988 255 0 255 
-0.726166 -0.411266 5.43458 0.99997 255 0 255 
-0.706067 -0.402937 5.43173 0.999989 255 0 255 
-0.688899 -0.375599 5.44442 0.99999 255 0 255 
-0.743651 -0.436623 5.4238 0.999964 255 0 255 
-0.763803 -0.481128 5.40261 0.99996 255 0 255 
-0.764242 -0.463663 5.41494 0.999975 255 0 255 
-0.788714 -0.479261 5.41736 0.999977 255 0 255 
-0.811958 -0.493004 5.42109 0.999974 255 0 255 
-0.788689 -0.460699 5.42911 0.999983 255 0 255 
-0.832741 -0.488736 5.43383 0.999984 255 0 255 
-0.853968 -0.483799 5.44658 0.999987 255 0 255 
-0.855036 -0.500866 5.43692 0.999981 255 0 255 
-0.831848 -0.471688 5.44342 0.999987 255 0 255 
-0.811109 -0.475468 5.43136 0.999986 255 0 255 
-0.771359 -0.337411 5.51032 0.999948 255 0 255 
-0.740406 -0.331482 5.5014 0.999976 255 0 255 
-0.709806 -0.327786 5.49237 0.999993 255 0 255 
-0.718965 -0.312615 5.50816 0.999991 255 0 255 
-0.731693 -0.346931 5.48548 0.999989 255 0 255 
-0.754307 -0.366164 5.47951 0.999984 255 0 255 
-0.763204 -0.352327 5.49416 0.999963 255 0 255 
-0.783735 -0.369878 5.49037 0.999984 255 0 255 
-0.684207 -0.300266 5.50566 0.999989 255 0 255 
-0.670036 -0.30483 5.49603 0.999984 255 0 255 
-0.652594 -0.298177 5.49394 0.99999 255 0 255 
-0.660413 -0.31967 5.47839 0.999995 255 0 255 
-0.677154 -0.326034 5.48096 0.999977 255 0 255 
-0.695101 -0.332467 5.48294 0.999988 255 0 255 
-0.694317 -0.360415 5.45979 0.999989 255 0 255 
-0.712476 -0.36715 5.46219 0.999988 255 0 255 
-0.732169 -0.37516 5.46381 0.999989 255 0 255 
-0.676273 -0.353062 5.45766 0.999977 255 0 255 
-0.769485 -0.391188 5.46638 0.999972 255 0 255 
-0.790679 -0.406629 5.46497 0.999972 255 0 255 
-0.793438 -0.390231 5.47876 0.999981 255 0 255 
-0.752495 -0.262507 5.56558 0.999943 255 0 255 
-0.736216 -0.26415 5.55678 0.999974 255 0 255 
-0.723783 -0.247933 5.56677 0.999968 255 0 255 
-0.706631 -0.249774 5.55768 0.999972 255 0 255 
-0.719015 -0.26573 5.54844 0.999985 255 0 255 
-0.701926 -0.267001 5.53931 0.99996 255 0 255 
-0.733304 -0.280563 5.54107 0.999989 255 0 255 
-0.750255 -0.279326 5.54918 0.999956 255 0 255 
-0.766599 -0.278916 5.55809 0.999958 255 0 255 
-0.765209 -0.29659 5.54149 0.999954 255 0 255 
-0.69104 -0.235286 5.56635 0.999979 255 0 255 
-0.671609 -0.237149 5.55546 0.999965 255 0 255 
-0.658851 -0.220931 5.56611 0.99998 255 0 255 
-0.652033 -0.239354 5.54555 0.99999 255 0 255 
-0.666643 -0.254169 5.53777 0.999981 255 0 255 
-0.686356 -0.252679 5.54815 0.999987 255 0 255 
-0.648929 -0.278265 5.50945 0.999993 255 0 255 
-0.666458 -0.284647 5.51219 0.999977 255 0 255 
-0.683788 -0.280797 5.52161 0.99999 255 0 255 
-0.701915 -0.286498 5.52332 0.999991 255 0 255 
-0.649589 -0.258328 5.52797 0.999984 255 0 255 
-0.734938 -0.310293 5.51689 0.999995 255 0 255 
-0.751123 -0.308242 5.525 0.999968 255 0 255 
-0.717762 -0.283822 5.5324 0.999996 255 0 255 
-0.840044 -0.333341 5.55349 0.999979 255 0 255 
-0.816037 -0.31699 5.55514 0.99999 255 0 255 
-0.816389 -0.333145 5.54104 0.999987 255 0 255 
-0.839876 -0.347882 5.54054 0.999984 255 0 255 
-0.862551 -0.348727 5.55409 0.999944 255 0 255 
-0.86299 -0.362762 5.54111 0.999969 255 0 255 
-0.79119 -0.298847 5.55431 0.99997 255 0 255 
-0.791228 -0.315619 5.53965 0.999984 255 0 255 
-0.796505 -0.344082 5.5183 0.999981 255 0 255 
-0.820194 -0.350118 5.5278 0.999995 255 0 255 
-0.811306 -0.359877 5.51357 0.999995 255 0 255 
-0.781719 -0.326489 5.52443 0.999956 255 0 255 
-0.83506 -0.373051 5.51552 0.999988 255 0 255 
-0.855364 -0.378346 5.52271 0.99996 255 0 255 
-0.868448 -0.392143 5.51904 0.999942 255 0 255 
-0.830546 -0.420329 5.47423 0.999983 255 0 255 
-0.849681 -0.419558 5.48441 0.999987 255 0 255 
-0.848467 -0.433406 5.47279 0.999975 255 0 255 
-0.831605 -0.406127 5.48584 0.999993 255 0 255 
-0.813532 -0.390349 5.48816 0.999983 255 0 255 
-0.8127 -0.405953 5.47626 0.99999 255 0 255 
-0.871339 -0.44128 5.47714 0.999925 255 0 255 
-0.887641 -0.441252 5.48554 0.999948 255 0 255 
-0.904843 -0.453256 5.48407 0.999964 255 0 255 
-0.877651 -0.425347 5.49379 0.999974 255 0 255 
-0.861504 -0.411032 5.49632 0.999981 255 0 255 
-0.853558 -0.396349 5.50535 0.99999 255 0 255 
-0.834905 -0.392789 5.49875 0.999994 255 0 255 
-0.875588 -0.4069 5.5093 0.999935 255 0 255 
-0.806252 -0.373164 5.49912 0.999984 255 0 255 
-0.789101 -0.355969 5.50393 0.999966 255 0 255 
-0.897024 -0.46493 5.47335 0.999928 255 0 255 
-0.874119 -0.457704 5.46969 0.999977 255 0 255 
-0.888858 -0.476853 5.46359 0.99998 255 0 255 
-0.91153 -0.48303 5.46745 0.999946 255 0 255 
