ply
format ascii 1.0
comment VCGLIB generated
element vertex 966
property float x
property float y
property float z
property uchar red
property uchar green
property uchar blue
property float quality
end_header
0.095208 -0.024081 0.823736 66 255 182 0.426403
0.094463 -0.028978 0.823304 62 255 185 0.425227
0.092236 -0.024353 0.822380 59 255 189 0.420790
0.091494 -0.029301 0.821846 62 255 185 0.423070
0.089224 -0.024743 0.820975 62 255 185 0.423762
0.089974 -0.019966 0.821506 69 255 179 0.431829
0.088610 -0.029520 0.820211 95 255 153 0.464423
0.093112 -0.047879 0.816015 75 255 172 0.438691
0.093133 -0.043775 0.818073 56 255 192 0.416145
0.090499 -0.043704 0.816378 69 255 179 0.430206
0.090442 -0.047846 0.814386 79 255 169 0.441493
0.090461 -0.039256 0.818585 23 255 224 0.377081
0.087799 -0.043635 0.814760 75 255 172 0.438487
0.087842 -0.039212 0.816801 53 255 195 0.410294
0.085176 -0.039216 0.815176 59 255 189 0.421108
0.087643 -0.047825 0.812825 79 255 169 0.442610
0.085053 -0.043637 0.813103 79 255 169 0.442130
0.084750 -0.047892 0.811385 79 255 169 0.443293
0.087915 -0.034636 0.818821 59 255 189 0.421480
0.085304 -0.034639 0.817143 53 255 195 0.412621
0.090740 -0.034501 0.820681 66 255 182 0.426899
0.093521 -0.034379 0.822507 66 255 182 0.429058
0.093133 -0.039262 0.820624 56 255 192 0.417294
0.081804 -0.048094 0.810038 79 255 169 0.443067
0.082099 -0.043889 0.811287 79 255 169 0.443463
0.079231 -0.044099 0.809839 79 255 169 0.444022
0.078791 -0.048336 0.808753 79 255 169 0.442981
0.079474 -0.039647 0.811453 75 255 172 0.439988
0.076313 -0.044371 0.808538 79 255 169 0.444328
0.076697 -0.039882 0.809909 79 255 169 0.442945
0.073906 -0.040132 0.808528 79 255 169 0.444293
0.075695 -0.048733 0.807582 79 255 169 0.444181
0.073325 -0.044778 0.807355 82 255 166 0.446313
0.072569 -0.049267 0.806508 82 255 166 0.445824
0.076851 -0.035386 0.811735 62 255 185 0.423136
0.074106 -0.035654 0.810194 72 255 176 0.435950
0.079716 -0.035053 0.813500 49 255 198 0.409925
0.082504 -0.034784 0.815295 46 255 202 0.405864
0.082373 -0.039389 0.813264 72 255 176 0.435060
0.091211 -0.003734 0.853657 69 255 179 0.429876
0.087601 -0.004342 0.851818 69 255 179 0.432550
0.086284 -0.005286 0.854979 72 255 176 0.434534
0.084169 -0.004748 0.850198 69 255 179 0.433423
0.082795 -0.005569 0.853357 72 255 176 0.434920
0.079282 -0.005734 0.851793 72 255 176 0.435106
0.080674 -0.004990 0.848577 72 255 176 0.433998
0.081420 -0.006145 0.856483 72 255 176 0.435331
0.077881 -0.006218 0.854913 72 255 176 0.435554
0.076528 -0.006303 0.857888 72 255 176 0.435769
0.080142 -0.006390 0.859542 85 255 163 0.449568
0.085018 -0.006094 0.858203 72 255 176 0.435110
0.083792 -0.006479 0.861304 72 255 176 0.435322
0.088943 -0.005762 0.860234 72 255 176 0.434832
0.090072 -0.004859 0.856998 72 255 176 0.433648
0.087872 -0.006322 0.863373 72 255 176 0.435130
0.077106 -0.005148 0.846905 75 255 172 0.440607
0.073536 -0.005279 0.845249 72 255 176 0.435292
0.072046 -0.005970 0.848501 72 255 176 0.436097
0.069821 -0.005511 0.843563 72 255 176 0.435748
0.068335 -0.006121 0.846852 72 255 176 0.436358
0.064518 -0.006242 0.845112 72 255 176 0.436688
0.065985 -0.005747 0.841840 72 255 176 0.436089
0.066897 -0.006207 0.849874 72 255 176 0.436506
0.063123 -0.006248 0.848143 72 255 176 0.436763
0.061828 -0.005721 0.850973 72 255 176 0.436781
0.065641 -0.005809 0.852792 72 255 176 0.436608
0.070648 -0.006224 0.851645 72 255 176 0.436342
0.069353 -0.005911 0.854582 72 255 176 0.436399
0.074351 -0.006247 0.853321 72 255 176 0.435977
0.075741 -0.005878 0.850148 72 255 176 0.435689
0.073004 -0.006100 0.856261 72 255 176 0.435997
0.061679 -0.003086 0.860284 72 255 176 0.436461
0.065313 -0.003517 0.862163 72 255 176 0.436561
0.066576 -0.004602 0.859776 72 255 176 0.436494
0.068808 -0.004041 0.863932 72 255 176 0.436496
0.070125 -0.005049 0.861520 72 255 176 0.436220
0.073609 -0.005561 0.863228 72 255 176 0.436016
0.072259 -0.004617 0.865689 72 255 176 0.436190
0.071538 -0.005804 0.858957 72 255 176 0.436087
0.075034 -0.006200 0.860638 72 255 176 0.435932
0.067926 -0.005460 0.857274 72 255 176 0.436413
0.064245 -0.005252 0.855470 59 255 189 0.421827
0.062933 -0.004293 0.857968 72 255 176 0.436617
0.059197 -0.004020 0.856116 72 255 176 0.436663
0.060470 -0.005056 0.853640 72 255 176 0.436730
0.057994 -0.002737 0.858409 72 255 176 0.436242
0.075840 -0.005169 0.867433 72 255 176 0.436151
0.079473 -0.005706 0.869294 72 255 176 0.435948
0.080855 -0.006373 0.866711 95 255 153 0.461401
0.083830 -0.006085 0.871512 72 255 176 0.435623
0.085125 -0.006576 0.868905 72 255 176 0.435528
0.086500 -0.006680 0.866198 72 255 176 0.435354
0.082295 -0.006693 0.864087 72 255 176 0.435485
0.078634 -0.006498 0.862322 72 255 176 0.435729
0.077197 -0.006010 0.864944 72 255 176 0.435858
0.032918 -0.128027 0.863428 62 255 185 0.424342
0.035024 -0.129005 0.859901 59 255 189 0.421862
0.038835 -0.128198 0.857417 23 255 224 0.375495
0.041096 -0.128292 0.854058 59 255 189 0.418296
0.044928 -0.127067 0.851853 59 255 189 0.419621
0.041738 -0.129074 0.849783 56 255 192 0.415716
0.044404 -0.126287 0.856205 56 255 192 0.415020
0.048161 -0.125359 0.854009 62 255 185 0.425183
0.042316 -0.126180 0.859479 66 255 182 0.426561
0.040281 -0.126046 0.862859 66 255 182 0.428741
0.036507 -0.126204 0.865303 66 255 182 0.428093
0.040183 -0.124772 0.867321 69 255 179 0.432415
0.043773 -0.127825 0.846715 56 255 192 0.414209
0.047205 -0.125134 0.844771 59 255 189 0.418561
0.049128 -0.123331 0.841828 59 255 189 0.421592
0.052114 -0.121707 0.843813 95 255 153 0.464534
0.050259 -0.123394 0.846777 62 255 185 0.425043
0.048365 -0.124855 0.849774 62 255 185 0.423411
0.055152 -0.122210 0.849891 69 255 179 0.430608
0.053416 -0.123428 0.853148 69 255 179 0.430590
0.051708 -0.124549 0.856413 46 255 202 0.403280
0.055289 -0.120708 0.845714 66 255 182 0.429645
0.051606 -0.124568 0.860879 72 255 176 0.433985
0.049788 -0.124545 0.864235 72 255 176 0.435209
0.047855 -0.124649 0.862983 69 255 179 0.432596
0.047920 -0.124237 0.867569 72 255 176 0.436402
0.045994 -0.124478 0.866363 72 255 176 0.434441
0.044070 -0.124047 0.869679 72 255 176 0.435804
0.046097 -0.124082 0.870963 72 255 176 0.437027
0.044012 -0.124779 0.865131 69 255 179 0.432918
0.042127 -0.124341 0.868514 75 255 172 0.440559
0.047961 -0.125023 0.858466 46 255 202 0.403328
0.020115 -0.114146 0.885468 69 255 179 0.430697
0.023705 -0.114842 0.883261 69 255 179 0.430997
0.025394 -0.116514 0.880193 69 255 179 0.431216
0.028953 -0.118322 0.878147 69 255 179 0.432323
0.025304 -0.119589 0.876422 69 255 179 0.431212
0.029146 -0.115840 0.882169 69 255 179 0.431551
0.032720 -0.117790 0.880106 69 255 179 0.432450
0.027531 -0.114311 0.885322 69 255 179 0.431184
0.025779 -0.113303 0.888563 69 255 179 0.431015
0.027119 -0.121764 0.873327 69 255 179 0.431134
0.030762 -0.123049 0.871041 69 255 179 0.431189
0.032733 -0.125236 0.867724 66 255 182 0.428892
0.036342 -0.123740 0.869588 88 255 160 0.454084
0.034438 -0.121890 0.872824 72 255 176 0.433628
0.032563 -0.119796 0.875962 69 255 179 0.433011
0.044200 -0.122949 0.874146 72 255 176 0.437331
0.042296 -0.121617 0.877288 72 255 176 0.435833
0.040332 -0.121612 0.876154 72 255 176 0.435629
0.040510 -0.120414 0.880507 72 255 176 0.433943
0.038473 -0.120066 0.879315 72 255 176 0.434424
0.036751 -0.118585 0.882538 69 255 179 0.432693
0.038695 -0.119084 0.883679 69 255 179 0.432119
0.036406 -0.119710 0.878120 72 255 176 0.433785
0.034751 -0.118137 0.881338 69 255 179 0.432673
0.038294 -0.121402 0.874933 72 255 176 0.435049
0.040107 -0.122797 0.871690 72 255 176 0.435489
0.042180 -0.122891 0.872918 72 255 176 0.436087
0.036927 -0.117660 0.886908 69 255 179 0.431594
0.035166 -0.116449 0.890105 69 255 179 0.431497
0.033319 -0.115522 0.888903 69 255 179 0.431431
0.033319 -0.115847 0.893511 46 255 202 0.406219
0.031518 -0.114599 0.892203 69 255 179 0.431634
0.029622 -0.113864 0.890938 69 255 179 0.431493
0.031424 -0.114754 0.887628 69 255 179 0.431354
0.033077 -0.116220 0.884413 69 255 179 0.431685
0.035027 -0.116785 0.885642 69 255 179 0.431639
0.074542 -0.053597 0.807169 85 255 163 0.449253
0.077757 -0.053110 0.808210 82 255 166 0.446293
0.076728 -0.057806 0.807758 82 255 166 0.446563
0.080905 -0.052731 0.809320 79 255 169 0.443704
0.079867 -0.057441 0.808862 82 255 166 0.447314
0.083135 -0.057029 0.809910 79 255 169 0.444979
0.083930 -0.052536 0.810643 79 255 169 0.444660
0.079078 -0.061970 0.808353 79 255 169 0.445289
0.082261 -0.061628 0.809331 79 255 169 0.444560
0.081540 -0.066048 0.808986 75 255 172 0.440901
0.078626 -0.066366 0.808116 75 255 172 0.439812
0.076217 -0.062249 0.807480 79 255 169 0.443709
0.075768 -0.066598 0.807462 75 255 172 0.438574
0.073501 -0.062511 0.806588 79 255 169 0.441558
0.073946 -0.058124 0.806838 82 255 166 0.447810
0.071258 -0.058376 0.805879 79 255 169 0.445133
0.073064 -0.066818 0.806617 72 255 176 0.437205
0.070823 -0.062767 0.805737 75 255 172 0.440081
0.070495 -0.066967 0.805785 72 255 176 0.434104
0.071848 -0.053790 0.806126 82 255 166 0.448137
0.086745 -0.052526 0.811787 69 255 179 0.432557
0.089727 -0.052411 0.813160 79 255 169 0.442358
0.088809 -0.056945 0.812226 79 255 169 0.443160
0.092617 -0.052396 0.814363 75 255 172 0.440909
0.091809 -0.056803 0.813476 0 218 255 0.336572
0.090868 -0.061283 0.812476 79 255 169 0.442528
0.090184 -0.065491 0.811774 79 255 169 0.442040
0.088060 -0.061271 0.811463 59 255 189 0.421869
0.087409 -0.065540 0.810763 79 255 169 0.442798
0.085211 -0.061404 0.810389 79 255 169 0.444073
0.086070 -0.056963 0.810988 79 255 169 0.443530
0.084410 -0.065729 0.809963 79 255 169 0.442659
0.086830 -0.079017 0.812137 121 255 127 0.492837
0.083570 -0.082938 0.811850 66 255 182 0.428624
0.085042 -0.074938 0.811252 75 255 172 0.438854
0.081701 -0.079147 0.811071 66 255 182 0.427555
0.079837 -0.075047 0.809935 69 255 179 0.432454
0.078543 -0.082770 0.810949 30 255 218 0.386577
0.083148 -0.070601 0.810323 79 255 169 0.442131
0.086099 -0.070294 0.811066 79 255 169 0.444220
0.089006 -0.070110 0.811812 79 255 169 0.442599
0.087894 -0.074672 0.811901 75 255 172 0.438420
0.076519 -0.079195 0.810020 59 255 189 0.418084
0.073601 -0.082388 0.809961 53 255 195 0.413509
0.074382 -0.075298 0.808847 62 255 185 0.422418
0.071639 -0.078983 0.808812 53 255 195 0.413193
0.069622 -0.075226 0.807414 59 255 189 0.419970
0.068735 -0.081999 0.808683 53 255 195 0.413152
0.072427 -0.071241 0.807332 91 255 156 0.460763
0.075029 -0.071091 0.808119 69 255 179 0.433364
0.077768 -0.070971 0.808690 72 255 176 0.434522
0.077075 -0.075211 0.809403 66 255 182 0.427851
0.070266 -0.085372 0.810496 59 255 189 0.418395
0.071796 -0.088587 0.811997 108 255 140 0.477813
0.075243 -0.085773 0.811618 53 255 195 0.410217
0.076838 -0.089039 0.813014 62 255 185 0.422505
0.073361 -0.091704 0.813061 66 255 182 0.425964
0.074863 -0.094909 0.813705 66 255 182 0.428153
0.070201 -0.094333 0.812469 66 255 182 0.429462
0.068653 -0.091283 0.811531 66 255 182 0.427855
0.067093 -0.088135 0.810487 66 255 182 0.427839
0.065644 -0.093945 0.810781 72 255 176 0.436705
0.080106 -0.086289 0.812441 59 255 189 0.419024
0.081584 -0.089731 0.813768 62 255 185 0.422688
0.084984 -0.086646 0.813231 66 255 182 0.426399
0.080707 -0.092791 0.814203 62 255 185 0.424630
0.079646 -0.095691 0.814230 88 255 160 0.454156
0.075130 -0.103585 0.816577 69 255 179 0.431773
0.076638 -0.100914 0.815939 69 255 179 0.431434
0.072140 -0.099843 0.815294 69 255 179 0.431475
0.070765 -0.102530 0.816022 69 255 179 0.432078
0.075828 -0.097755 0.815023 69 255 179 0.429703
0.080503 -0.098815 0.815388 69 255 179 0.430038
0.066555 -0.101901 0.815119 69 255 179 0.432584
0.067646 -0.099180 0.814310 69 255 179 0.432564
0.063433 -0.098745 0.812878 72 255 176 0.433900
0.062327 -0.101374 0.814091 36 255 211 0.390802
0.066672 -0.096558 0.812637 75 255 172 0.438093
0.071236 -0.097049 0.814134 69 255 179 0.430809
0.083089 -0.141419 0.924631 49 255 198 0.406570
0.084761 -0.140948 0.926273 46 255 202 0.402370
0.084440 -0.142465 0.921953 46 255 202 0.405696
0.086093 -0.141990 0.923636 43 255 205 0.401697
0.087431 -0.143006 0.920991 43 255 205 0.400434
0.085735 -0.143469 0.919281 46 255 202 0.404199
0.087726 -0.141745 0.925304 40 255 208 0.397348
0.089068 -0.142744 0.922682 40 255 208 0.395425
0.090670 -0.142712 0.924368 40 255 208 0.394800
0.088577 -0.141188 0.928149 40 255 208 0.395989
0.085615 -0.140163 0.929102 43 255 205 0.400838
0.088456 -0.145405 0.914391 49 255 198 0.407576
0.089678 -0.144585 0.917688 46 255 202 0.402785
0.090159 -0.146479 0.911141 53 255 195 0.410853
0.091293 -0.145708 0.914443 49 255 198 0.406279
0.093059 -0.146741 0.911162 49 255 198 0.408775
0.091870 -0.147474 0.907848 56 255 192 0.416229
0.092542 -0.145165 0.917776 46 255 202 0.405401
0.094205 -0.146246 0.914492 49 255 198 0.409136
0.095342 -0.145923 0.917745 49 255 198 0.407895
0.093025 -0.144369 0.921118 43 255 205 0.400116
0.101113 -0.141491 0.926320 7 238 240 0.358107
0.098213 -0.141706 0.925766 14 246 234 0.365435
0.099128 -0.140424 0.928299 40 255 208 0.397352
0.095687 -0.141911 0.925337 17 250 231 0.367831
0.096433 -0.140571 0.927778 36 255 211 0.390890
0.093930 -0.140733 0.927302 33 255 215 0.390041
0.097273 -0.139284 0.930237 59 255 189 0.420865
0.093221 -0.142229 0.924885 23 255 224 0.376335
0.095589 -0.143865 0.921602 30 255 218 0.382876
0.098076 -0.143479 0.921992 0 206 255 0.327415
0.094399 -0.139284 0.930602 53 255 195 0.413405
0.095702 -0.138343 0.932465 62 255 185 0.425677
0.091724 -0.139265 0.931009 46 255 202 0.404333
0.092895 -0.138266 0.932833 79 255 169 0.444086
0.090176 -0.140134 0.929586 33 255 215 0.390235
0.103074 -0.139493 0.927741 82 255 166 0.448321
0.100316 -0.138027 0.930280 82 255 166 0.447203
0.098021 -0.136624 0.933021 108 255 140 0.479502
0.101060 -0.143100 0.922919 14 246 234 0.364631
0.101129 -0.144700 0.919518 33 255 215 0.389078
0.098203 -0.145264 0.918653 40 255 208 0.395821
0.098257 -0.147051 0.915255 53 255 195 0.413171
0.101202 -0.146350 0.916150 49 255 198 0.406545
0.101265 -0.147983 0.912738 59 255 189 0.418002
0.103382 -0.145408 0.917732 43 255 205 0.400109
0.103373 -0.143868 0.921168 23 255 224 0.377262
0.103526 -0.142339 0.924684 17 250 231 0.369702
0.105946 -0.143073 0.922941 30 255 218 0.383409
0.096599 -0.146891 0.913153 53 255 195 0.413477
0.095458 -0.147277 0.909885 53 255 195 0.411531
0.097988 -0.147735 0.908610 59 255 189 0.419613
0.094292 -0.147858 0.906591 56 255 192 0.414661
0.096777 -0.148222 0.905320 56 255 192 0.417849
0.095423 -0.148989 0.902022 59 255 189 0.421652
0.093004 -0.148722 0.903275 62 255 185 0.422295
0.099282 -0.148512 0.904025 59 255 189 0.419301
0.097823 -0.149216 0.900734 75 255 172 0.439526
0.100362 -0.149421 0.899436 62 255 185 0.424663
0.101022 -0.148362 0.906097 59 255 189 0.421110
0.099624 -0.147757 0.910687 59 255 189 0.418142
0.107544 -0.149676 0.895988 66 255 182 0.428108
0.107624 -0.149106 0.899216 66 255 182 0.426636
0.106141 -0.148702 0.903393 62 255 185 0.423949
0.106050 -0.148536 0.906680 59 255 189 0.421851
0.104333 -0.148423 0.910937 59 255 189 0.418980
0.107386 -0.148645 0.908968 62 255 185 0.422213
0.102935 -0.148332 0.908511 69 255 179 0.433562
0.102548 -0.148884 0.901922 62 255 185 0.422868
0.103977 -0.149562 0.897756 66 255 182 0.427815
0.108092 -0.147431 0.911611 56 255 192 0.417072
0.107737 -0.146123 0.915143 49 255 198 0.408435
0.108646 -0.144999 0.917948 46 255 202 0.404676
0.106167 -0.144560 0.919380 40 255 208 0.396760
0.103870 -0.146922 0.914317 53 255 195 0.410341
0.118446 -0.148085 0.904636 66 255 182 0.426249
0.117288 -0.148028 0.901827 66 255 182 0.428408
0.118657 -0.147847 0.898575 79 255 169 0.443418
0.118729 -0.147974 0.895553 69 255 179 0.430619
0.120054 -0.148123 0.892413 69 255 179 0.430712
0.117738 -0.148515 0.892847 69 255 179 0.430599
0.121271 -0.147643 0.895141 69 255 179 0.430148
0.122546 -0.147756 0.891982 69 255 179 0.430249
0.121173 -0.147571 0.898009 69 255 179 0.429829
0.121048 -0.147668 0.900935 79 255 169 0.443490
0.123719 -0.147453 0.894644 69 255 179 0.429824
0.125030 -0.147528 0.891703 69 255 179 0.433535
0.125843 -0.139444 0.869338 72 255 176 0.435543
0.123532 -0.141765 0.872675 79 255 169 0.444385
0.122289 -0.143668 0.875986 72 255 176 0.435261
0.119780 -0.145785 0.879524 72 255 176 0.434448
0.122143 -0.145290 0.879216 82 255 166 0.447489
0.119844 -0.144278 0.876219 72 255 176 0.435957
0.117273 -0.146352 0.879677 72 255 176 0.434474
0.121014 -0.142325 0.872743 72 255 176 0.436080
0.122066 -0.140314 0.869353 72 255 176 0.435580
0.121212 -0.145930 0.882634 72 255 176 0.435239
0.119054 -0.146840 0.886336 72 255 176 0.434894
0.117855 -0.147648 0.889782 69 255 179 0.432843
0.115457 -0.148849 0.893480 69 255 179 0.430735
0.115587 -0.148039 0.890382 69 255 179 0.432450
0.113116 -0.149246 0.894046 69 255 179 0.430534
0.116738 -0.147244 0.886793 72 255 176 0.434808
0.117680 -0.146597 0.883203 72 255 176 0.435394
0.108628 -0.148659 0.892202 66 255 182 0.429676
0.111191 -0.147779 0.888154 72 255 176 0.434181
0.111964 -0.147228 0.884326 72 255 176 0.434853
0.114249 -0.146676 0.880239 72 255 176 0.434545
0.111238 -0.147098 0.880734 72 255 176 0.433906
0.114967 -0.146951 0.883748 79 255 169 0.441801
0.114122 -0.147549 0.887434 72 255 176 0.434039
0.113003 -0.148305 0.891032 69 255 179 0.431905
0.110343 -0.149433 0.895059 66 255 182 0.429296
0.112478 -0.145405 0.876924 72 255 176 0.435449
0.115189 -0.143449 0.873189 72 255 176 0.436974
0.116259 -0.141552 0.869556 72 255 176 0.435797
0.119254 -0.140929 0.869537 72 255 176 0.436084
0.118228 -0.142889 0.872954 72 255 176 0.436287
0.117064 -0.144765 0.876401 72 255 176 0.435873
0.116478 -0.148268 0.896205 53 255 195 0.412035
0.116273 -0.148123 0.899185 82 255 166 0.447620
0.115001 -0.148205 0.902647 82 255 166 0.448895
0.114781 -0.148346 0.905742 82 255 166 0.449012
0.112458 -0.148590 0.906577 62 255 185 0.422455
0.112580 -0.148447 0.903300 66 255 182 0.426104
0.113925 -0.148351 0.899857 66 255 182 0.429008
0.114081 -0.148594 0.896795 69 255 179 0.429948
0.116859 -0.147198 0.908123 62 255 185 0.424879
0.113931 -0.146435 0.912116 75 255 172 0.438026
0.114354 -0.147402 0.908911 62 255 185 0.423017
0.111443 -0.145178 0.916659 56 255 192 0.414665
0.110342 -0.146274 0.913786 56 255 192 0.415397
0.110726 -0.147469 0.910469 59 255 189 0.418141
0.109890 -0.148624 0.907790 62 255 185 0.422567
0.108981 -0.148569 0.905181 62 255 185 0.423375
0.109003 -0.148672 0.901936 79 255 169 0.444355
0.110423 -0.148912 0.898225 66 255 182 0.428341
0.111561 -0.148518 0.900745 66 255 182 0.427834
0.104218 -0.144116 0.871134 75 255 172 0.437709
0.103770 -0.144790 0.875066 69 255 179 0.432466
0.106761 -0.143378 0.870905 69 255 179 0.433088
0.106784 -0.144503 0.874798 72 255 176 0.434053
0.103706 -0.145780 0.879035 66 255 182 0.428402
0.103823 -0.147251 0.882932 66 255 182 0.428708
0.101969 -0.147049 0.883307 88 255 160 0.453195
0.101984 -0.145816 0.879361 66 255 182 0.428780
0.100260 -0.146972 0.883712 62 255 185 0.423577
0.100405 -0.145994 0.879709 66 255 182 0.426679
0.102342 -0.145117 0.875385 69 255 179 0.431740
0.098601 -0.147036 0.884109 62 255 185 0.424174
0.109909 -0.142752 0.870257 69 255 179 0.432989
0.110350 -0.144009 0.873727 72 255 176 0.435215
0.113123 -0.142137 0.869795 72 255 176 0.433877
0.109020 -0.145591 0.877780 72 255 176 0.434788
0.107545 -0.147115 0.881857 69 255 179 0.432465
0.105067 -0.148586 0.893686 62 255 185 0.425210
0.106030 -0.147901 0.889598 66 255 182 0.426488
0.102359 -0.147828 0.891172 91 255 156 0.460662
0.101450 -0.148512 0.895317 62 255 185 0.422107
0.104943 -0.147423 0.886288 66 255 182 0.426244
0.108639 -0.147391 0.885140 69 255 179 0.432497
0.099592 -0.148114 0.895741 53 255 195 0.414009
0.097073 -0.147931 0.897018 53 255 195 0.412625
0.098726 -0.147224 0.892010 46 255 202 0.403814
0.094670 -0.147797 0.898319 53 255 195 0.412785
0.096312 -0.147112 0.893334 46 255 202 0.402624
0.097735 -0.146836 0.888247 53 255 195 0.410785
0.099479 -0.146913 0.887846 49 255 198 0.409863
0.101265 -0.147116 0.887424 53 255 195 0.413797
0.100526 -0.147505 0.891583 53 255 195 0.410495
0.128638 -0.146179 0.888261 69 255 179 0.431836
0.129625 -0.145165 0.885158 69 255 179 0.433165
0.131811 -0.144262 0.881962 69 255 179 0.433283
0.134031 -0.143297 0.878867 69 255 179 0.433019
0.131485 -0.143435 0.878950 69 255 179 0.433011
0.132907 -0.141539 0.875875 72 255 176 0.435318
0.135625 -0.139688 0.872808 72 255 176 0.437455
0.136966 -0.137799 0.869810 72 255 176 0.437149
0.139752 -0.137781 0.869824 72 255 176 0.437359
0.135506 -0.141496 0.875782 72 255 176 0.435215
0.120072 -0.147281 0.889372 69 255 179 0.432511
0.121212 -0.146406 0.885991 72 255 176 0.434313
0.123312 -0.145415 0.882473 72 255 176 0.434767
0.124246 -0.144689 0.879093 72 255 176 0.434000
0.126542 -0.144162 0.879001 72 255 176 0.434152
0.125589 -0.144936 0.882180 72 255 176 0.434408
0.123391 -0.145977 0.885612 72 255 176 0.433764
0.122343 -0.146883 0.888855 69 255 179 0.432502
0.124533 -0.143156 0.875913 72 255 176 0.435434
0.125832 -0.141173 0.872648 72 255 176 0.436026
0.128127 -0.138931 0.869507 72 255 176 0.436271
0.130621 -0.138436 0.869603 72 255 176 0.435779
0.128027 -0.140632 0.872667 72 255 176 0.436261
0.126729 -0.142538 0.875824 72 255 176 0.435572
0.134322 -0.138042 0.869813 72 255 176 0.437401
0.133061 -0.139883 0.872840 72 255 176 0.437115
0.130405 -0.141953 0.875899 72 255 176 0.435535
0.128928 -0.143766 0.878963 72 255 176 0.434046
0.130507 -0.140231 0.872740 62 255 185 0.425639
0.129278 -0.144455 0.882130 66 255 182 0.428918
0.127089 -0.145512 0.885398 69 255 179 0.432743
0.126039 -0.146443 0.888529 69 255 179 0.431360
-0.064574 -0.081867 0.719362 72 255 176 0.437323
-0.062316 -0.081307 0.720515 72 255 176 0.436032
-0.059453 -0.081740 0.720911 17 250 231 0.368169
-0.057277 -0.081136 0.722160 72 255 176 0.433931
-0.054587 -0.081557 0.722640 69 255 179 0.432812
-0.055869 -0.079463 0.724131 69 255 179 0.432796
-0.055878 -0.083098 0.720461 72 255 176 0.433784
-0.053108 -0.083410 0.720751 69 255 179 0.433137
-0.056977 -0.084506 0.718167 72 255 176 0.434853
-0.059924 -0.084208 0.717827 72 255 176 0.435861
-0.062829 -0.083807 0.717478 72 255 176 0.437117
-0.061052 -0.085508 0.715544 72 255 176 0.436813
-0.053633 -0.079391 0.725508 69 255 179 0.432501
-0.051052 -0.080208 0.726184 69 255 179 0.432340
-0.048871 -0.080115 0.727573 69 255 179 0.432096
-0.046293 -0.080819 0.727979 108 255 140 0.478314
-0.047316 -0.082825 0.725050 69 255 179 0.432024
-0.051879 -0.082349 0.723150 69 255 179 0.432596
-0.042964 -0.085623 0.723431 69 255 179 0.432277
-0.045432 -0.085149 0.722887 69 255 179 0.432110
-0.046300 -0.086110 0.720475 69 255 179 0.432786
-0.048818 -0.085587 0.719791 69 255 179 0.432982
-0.049714 -0.086380 0.717308 72 255 176 0.433978
-0.048602 -0.083882 0.722989 69 255 179 0.431811
-0.044811 -0.083415 0.725744 69 255 179 0.431709
-0.052422 -0.086326 0.716964 72 255 176 0.434341
-0.053170 -0.087504 0.714551 72 255 176 0.435515
-0.056031 -0.087346 0.714211 59 255 189 0.420330
-0.059022 -0.087092 0.713866 72 255 176 0.436449
-0.056911 -0.088549 0.712031 72 255 176 0.436291
-0.058153 -0.085835 0.716067 72 255 176 0.436156
-0.008494 -0.093075 0.750673 69 255 179 0.431342
-0.006521 -0.095557 0.752289 69 255 179 0.431049
-0.005015 -0.098511 0.753812 69 255 179 0.429748
-0.003581 -0.101659 0.755906 56 255 192 0.416838
-0.002869 -0.105440 0.757720 82 255 166 0.447298
-0.007491 -0.096782 0.750919 69 255 179 0.431459
-0.009418 -0.094592 0.749259 69 255 179 0.431625
-0.002877 -0.108923 0.760742 69 255 179 0.432227
-0.003850 -0.112731 0.762207 43 255 205 0.402099
-0.004854 -0.116760 0.763907 72 255 176 0.434006
-0.006077 -0.120718 0.764609 72 255 176 0.433819
-0.003850 -0.109179 0.758903 69 255 179 0.432196
-0.006999 -0.119891 0.761857 72 255 176 0.434162
-0.005942 -0.116285 0.760772 72 255 176 0.433835
-0.004900 -0.112706 0.759572 43 255 205 0.399805
-0.003647 -0.105928 0.755814 69 255 179 0.431347
-0.004748 -0.102853 0.753324 69 255 179 0.431201
-0.006068 -0.099857 0.751732 69 255 179 0.431182
-0.004239 -0.109427 0.756387 75 255 172 0.441194
-0.006249 -0.119341 0.759579 72 255 176 0.434163
-0.004536 -0.112729 0.756966 53 255 195 0.412791
-0.005069 -0.115970 0.758093 69 255 179 0.433426
-0.003296 -0.106399 0.752817 69 255 179 0.431188
-0.010222 -0.097369 0.745480 69 255 179 0.432108
-0.008182 -0.098991 0.747482 69 255 179 0.431658
-0.006333 -0.100967 0.749558 69 255 179 0.431484
-0.004647 -0.103452 0.751122 69 255 179 0.431224
-0.010133 -0.096230 0.747442 69 255 179 0.431912
-0.007844 -0.124701 0.766634 69 255 179 0.433149
-0.010211 -0.127997 0.766527 69 255 179 0.432603
-0.012427 -0.131507 0.767368 69 255 179 0.431797
-0.014719 -0.134670 0.767330 69 255 179 0.431013
-0.008847 -0.123696 0.764334 72 255 176 0.433668
-0.017472 -0.138008 0.769466 69 255 179 0.429905
-0.020436 -0.139680 0.768938 66 255 182 0.429515
-0.023336 -0.141957 0.769471 69 255 179 0.430354
-0.026254 -0.143396 0.768929 69 255 179 0.430458
-0.023591 -0.140392 0.766470 66 255 182 0.428813
-0.020761 -0.138251 0.766230 66 255 182 0.429597
-0.017747 -0.136466 0.766793 56 255 192 0.417695
-0.025996 -0.140915 0.763882 66 255 182 0.429188
-0.023442 -0.138784 0.763792 66 255 182 0.429534
-0.020700 -0.136700 0.763602 69 255 179 0.430242
-0.017924 -0.134901 0.764205 69 255 179 0.430871
-0.015173 -0.132856 0.764628 69 255 179 0.431639
-0.013246 -0.129046 0.763169 69 255 179 0.432865
-0.011065 -0.126301 0.763267 69 255 179 0.433497
-0.024172 -0.137945 0.759060 69 255 179 0.430431
-0.021841 -0.135766 0.759275 69 255 179 0.431522
-0.019445 -0.134154 0.759936 69 255 179 0.431856
-0.016880 -0.132140 0.760115 69 255 179 0.432168
-0.014374 -0.130470 0.760869 69 255 179 0.432752
-0.022864 -0.137283 0.761294 69 255 179 0.430284
-0.025373 -0.139323 0.761329 66 255 182 0.429605
-0.012020 -0.127204 0.759830 72 255 176 0.433875
-0.010136 -0.124725 0.759949 72 255 176 0.434251
-0.008197 -0.121945 0.759601 85 255 163 0.450877
-0.008950 -0.122755 0.761925 72 255 176 0.434189
-0.044016 -0.146121 0.751151 66 255 182 0.426379
-0.041730 -0.145136 0.752372 66 255 182 0.427104
-0.039827 -0.144494 0.754166 66 255 182 0.427170
-0.037398 -0.143901 0.755390 66 255 182 0.425852
-0.035328 -0.143639 0.757206 66 255 182 0.427244
-0.038922 -0.144832 0.757700 66 255 182 0.427177
-0.041629 -0.145414 0.756578 66 255 182 0.429041
-0.043592 -0.145923 0.754692 66 255 182 0.428825
-0.046175 -0.146947 0.753650 66 255 182 0.429640
-0.032123 -0.141586 0.756503 66 255 182 0.428116
-0.029869 -0.140825 0.757991 66 255 182 0.428095
-0.027348 -0.139376 0.758777 66 255 182 0.429495
-0.033645 -0.143035 0.759332 66 255 182 0.426815
-0.029078 -0.141996 0.763467 66 255 182 0.428575
-0.031743 -0.142715 0.762217 66 255 182 0.428154
-0.036832 -0.145019 0.760353 66 255 182 0.428311
-0.034798 -0.144259 0.762458 66 255 182 0.427936
-0.040395 -0.146089 0.760980 69 255 179 0.430739
-0.042827 -0.146397 0.759152 69 255 179 0.430588
-0.045765 -0.147000 0.758183 69 255 179 0.431926
-0.048060 -0.147627 0.756288 69 255 179 0.432090
-0.032377 -0.143898 0.764680 69 255 179 0.429747
-0.029415 -0.143540 0.766513 69 255 179 0.429719
-0.035407 -0.145330 0.764985 69 255 179 0.430689
-0.038259 -0.146884 0.765224 69 255 179 0.432787
-0.037698 -0.145862 0.762761 69 255 179 0.430291
-0.032657 -0.145633 0.768587 69 255 179 0.432740
-0.029328 -0.145211 0.769825 40 255 208 0.398205
-0.035721 -0.147247 0.769382 72 255 176 0.433864
-0.038851 -0.148667 0.770139 72 255 176 0.434222
-0.038564 -0.147821 0.767706 72 255 176 0.433862
-0.052319 -0.148942 0.767331 72 255 176 0.434718
-0.048731 -0.148658 0.766825 72 255 176 0.434594
-0.051616 -0.148828 0.764717 72 255 176 0.434667
-0.045168 -0.148264 0.766321 72 255 176 0.434207
-0.047991 -0.148341 0.764137 72 255 176 0.434261
-0.044488 -0.147710 0.763614 72 255 176 0.433638
-0.050796 -0.148595 0.761942 72 255 176 0.434496
-0.041635 -0.147677 0.765784 72 255 176 0.433943
-0.042038 -0.148321 0.768213 72 255 176 0.434220
-0.045595 -0.148731 0.768697 72 255 176 0.434470
-0.046982 -0.147704 0.761007 69 255 179 0.433524
-0.049571 -0.148173 0.759059 72 255 176 0.433804
-0.046416 -0.142451 0.716846 72 255 176 0.434256
-0.046244 -0.143821 0.720332 72 255 176 0.434320
-0.046206 -0.145304 0.723847 72 255 176 0.434393
-0.043397 -0.144584 0.721063 72 255 176 0.434233
-0.049215 -0.144534 0.723254 72 255 176 0.434919
-0.052689 -0.143537 0.722391 72 255 176 0.435703
-0.049402 -0.142941 0.719537 72 255 176 0.434828
-0.052864 -0.141928 0.718714 72 255 176 0.435592
-0.041250 -0.145641 0.723875 72 255 176 0.433694
-0.043525 -0.146109 0.726980 72 255 176 0.433921
-0.040692 -0.146329 0.727564 72 255 176 0.433777
-0.037940 -0.146533 0.728247 69 255 179 0.433209
-0.043045 -0.146818 0.730707 72 255 176 0.434116
-0.046145 -0.146611 0.729984 72 255 176 0.434569
-0.048846 -0.145794 0.726905 72 255 176 0.434990
-0.050444 -0.147714 0.734726 56 255 192 0.415003
-0.051972 -0.146703 0.730799 72 255 176 0.435473
-0.053621 -0.145497 0.726876 72 255 176 0.435885
-0.055329 -0.146279 0.729919 72 255 176 0.436032
-0.048853 -0.146969 0.731551 72 255 176 0.434946
-0.058386 -0.144648 0.726691 72 255 176 0.437037
-0.056069 -0.143630 0.723840 72 255 176 0.436741
-0.059385 -0.142551 0.722853 75 255 172 0.437893
-0.062729 -0.141517 0.721771 75 255 172 0.438596
-0.057048 -0.141666 0.719966 72 255 176 0.436477
-0.029855 -0.083233 0.738569 53 255 195 0.411116
-0.032051 -0.083538 0.737073 69 255 179 0.432636
-0.034016 -0.083693 0.735453 75 255 172 0.440509
-0.029995 -0.085483 0.736774 69 255 179 0.432690
-0.032016 -0.085696 0.735174 69 255 179 0.432769
-0.035893 -0.083607 0.733604 53 255 195 0.411992
-0.037745 -0.083382 0.731642 69 255 179 0.432654
-0.038177 -0.080828 0.733666 69 255 179 0.432253
-0.036271 -0.081004 0.735655 69 255 179 0.432369
-0.033242 -0.086387 0.732596 69 255 179 0.432907
-0.029611 -0.087702 0.734286 108 255 140 0.478422
-0.031150 -0.087766 0.732314 69 255 179 0.432701
-0.034796 -0.086257 0.730714 69 255 179 0.432598
-0.036251 -0.085998 0.728669 69 255 179 0.432569
-0.042340 -0.084584 0.726475 69 255 179 0.432349
-0.041584 -0.083227 0.729253 69 255 179 0.432476
-0.038785 -0.084877 0.729136 69 255 179 0.432939
-0.039566 -0.085897 0.726056 69 255 179 0.432276
-0.044200 -0.081266 0.729489 69 255 179 0.432485
-0.042341 -0.080593 0.731466 79 255 169 0.442466
-0.040475 -0.079791 0.733267 69 255 179 0.431875
-0.011621 -0.091352 0.748899 69 255 179 0.431841
-0.014699 -0.089808 0.747492 69 255 179 0.431978
-0.017500 -0.088182 0.746094 69 255 179 0.432120
-0.020107 -0.086470 0.744751 69 255 179 0.432167
-0.019205 -0.084282 0.746033 69 255 179 0.431849
-0.016603 -0.085979 0.747408 69 255 179 0.431977
-0.012590 -0.093084 0.747604 69 255 179 0.432223
-0.015624 -0.091856 0.746068 69 255 179 0.432506
-0.018523 -0.090501 0.744727 69 255 179 0.432667
-0.020890 -0.089107 0.743010 46 255 202 0.403896
-0.027741 -0.084311 0.740377 69 255 179 0.432278
-0.025371 -0.085151 0.741916 69 255 179 0.432018
-0.029187 -0.080159 0.740298 69 255 179 0.431560
-0.027058 -0.081257 0.742004 69 255 179 0.431821
-0.022808 -0.085864 0.743376 69 255 179 0.432082
-0.028313 -0.076741 0.741979 85 255 163 0.450864
-0.024406 -0.081555 0.743992 69 255 179 0.431545
-0.026169 -0.078166 0.743684 69 255 179 0.431361
-0.021751 -0.082561 0.745314 69 255 179 0.431524
-0.034015 -0.080706 0.737347 69 255 179 0.431965
-0.038035 -0.077488 0.735665 69 255 179 0.431378
-0.035756 -0.077351 0.737447 69 255 179 0.431285
-0.033303 -0.077290 0.739074 69 255 179 0.431019
-0.031416 -0.079367 0.739467 69 255 179 0.431568
-0.042820 -0.077168 0.733657 69 255 179 0.431837
-0.044961 -0.078125 0.731611 69 255 179 0.431991
-0.047212 -0.076535 0.730924 69 255 179 0.430653
-0.045060 -0.075616 0.732959 69 255 179 0.430307
-0.047279 -0.073910 0.732150 66 255 182 0.429522
-0.040219 -0.076197 0.735234 49 255 198 0.409099
-0.046425 -0.068501 0.734384 66 255 182 0.429562
-0.043825 -0.069008 0.735614 66 255 182 0.427835
-0.041567 -0.070577 0.736213 66 255 182 0.428160
-0.038988 -0.070824 0.737178 66 255 182 0.428580
-0.036864 -0.072302 0.737584 69 255 179 0.430056
-0.042189 -0.073267 0.735267 56 255 192 0.417264
-0.044408 -0.071613 0.734699 66 255 182 0.428359
-0.046877 -0.071286 0.733406 20 254 228 0.372996
-0.034034 -0.071031 0.739889 69 255 179 0.430872
-0.032301 -0.073486 0.740663 69 255 179 0.429990
-0.030191 -0.074652 0.741764 69 255 179 0.430728
-0.013228 -0.094722 0.745964 69 255 179 0.432395
-0.016306 -0.093543 0.744408 69 255 179 0.432711
-0.019080 -0.092431 0.742800 69 255 179 0.432900
-0.021355 -0.091021 0.741387 69 255 179 0.432974
-0.016303 -0.094899 0.742394 69 255 179 0.432853
-0.013337 -0.095966 0.743885 69 255 179 0.432559
-0.027757 -0.089306 0.735811 69 255 179 0.432893
-0.025872 -0.090234 0.737864 69 255 179 0.432756
-0.023720 -0.090645 0.739703 69 255 179 0.432924
-0.028090 -0.087248 0.738172 69 255 179 0.432847
-0.025910 -0.088061 0.740018 69 255 179 0.432618
-0.023531 -0.088642 0.741679 69 255 179 0.432766
-0.026024 -0.090716 0.727949 59 255 189 0.419271
-0.027172 -0.090351 0.723517 69 255 179 0.432053
-0.025085 -0.090859 0.724355 69 255 179 0.431912
-0.022866 -0.091153 0.725065 53 255 195 0.413104
-0.028250 -0.089865 0.719033 72 255 176 0.437045
-0.029404 -0.089735 0.722864 69 255 179 0.432101
-0.031551 -0.088918 0.722205 69 255 179 0.432263
-0.021227 -0.090672 0.721767 69 255 179 0.431905
-0.019355 -0.089780 0.718340 69 255 179 0.431278
-0.018230 -0.090491 0.722515 69 255 179 0.431863
-0.022263 -0.089915 0.717723 69 255 179 0.431561
-0.025246 -0.089782 0.717120 69 255 179 0.431716
-0.027579 -0.091144 0.710035 69 255 179 0.431525
-0.029177 -0.090625 0.713074 69 255 179 0.431980
-0.030879 -0.090260 0.716344 72 255 176 0.433758
-0.032000 -0.090578 0.712586 69 255 179 0.432379
-0.026369 -0.090317 0.713472 69 255 179 0.431573
-0.023511 -0.089986 0.713959 69 255 179 0.431340
-0.034398 -0.090081 0.714292 69 255 179 0.432804
-0.034704 -0.089501 0.717253 53 255 195 0.412917
-0.036970 -0.089218 0.716780 69 255 179 0.433268
-0.031179 -0.089526 0.719093 98 255 150 0.464923
-0.013411 -0.089235 0.720729 69 255 179 0.431089
-0.010318 -0.088497 0.719823 69 255 179 0.431063
-0.013368 -0.088723 0.716278 69 255 179 0.430890
-0.010435 -0.088412 0.715603 69 255 179 0.430891
-0.007579 -0.088370 0.715048 69 255 179 0.430779
-0.007379 -0.088340 0.719146 69 255 179 0.431024
-0.004264 -0.088109 0.718575 69 255 179 0.430927
-0.010653 -0.088565 0.711475 69 255 179 0.430708
-0.013546 -0.088562 0.712063 69 255 179 0.430905
-0.016365 -0.088646 0.712903 85 255 163 0.452925
-0.016382 -0.089126 0.717146 75 255 172 0.440111
-0.019265 -0.089126 0.713999 69 255 179 0.431090
-0.000739 -0.088070 0.717764 69 255 179 0.430732
0.001230 -0.088167 0.715302 69 255 179 0.430618
0.004553 -0.088253 0.714665 69 255 179 0.433378
0.001479 -0.088601 0.711241 69 255 179 0.430559
-0.001945 -0.088472 0.711783 69 255 179 0.430517
-0.005553 -0.088494 0.712478 69 255 179 0.430589
-0.006056 -0.091618 0.704129 69 255 179 0.430435
-0.008008 -0.090814 0.705970 69 255 179 0.430502
-0.011548 -0.090681 0.706595 69 255 179 0.430710
-0.013631 -0.089979 0.708631 69 255 179 0.430811
-0.016441 -0.091108 0.706066 69 255 179 0.430860
-0.008512 -0.089238 0.709333 69 255 179 0.430624
-0.005020 -0.089359 0.708661 69 255 179 0.430423
-0.001626 -0.089570 0.708068 69 255 179 0.430473
-0.019225 -0.090891 0.706796 69 255 179 0.430954
-0.022098 -0.090885 0.707740 69 255 179 0.431094
-0.019109 -0.089784 0.710216 91 255 156 0.458670
-0.024891 -0.090974 0.708855 69 255 179 0.431235
-0.016348 -0.089747 0.709352 82 255 166 0.447049
-0.037054 -0.088625 0.719852 69 255 179 0.433067
-0.037192 -0.087937 0.722913 69 255 179 0.432357
-0.039274 -0.088099 0.719173 69 255 179 0.433068
-0.034887 -0.088253 0.723318 69 255 179 0.432182
-0.039890 -0.086912 0.723105 69 255 179 0.432510
-0.036721 -0.087061 0.725828 69 255 179 0.432221
-0.031903 -0.088261 0.729665 69 255 179 0.432429
-0.028444 -0.089354 0.731468 69 255 179 0.432574
-0.032657 -0.088408 0.726804 69 255 179 0.432216
-0.029016 -0.089801 0.728766 69 255 179 0.432359
-0.037915 -0.090720 0.712258 69 255 179 0.433579
-0.037584 -0.091964 0.709524 69 255 179 0.433016
-0.039791 -0.092056 0.708787 72 255 176 0.433621
-0.040197 -0.090806 0.711639 72 255 176 0.433971
-0.042545 -0.090821 0.711007 72 255 176 0.434454
-0.033149 -0.091943 0.709185 69 255 179 0.432390
-0.030363 -0.091640 0.709643 69 255 179 0.431925
-0.031646 -0.093298 0.706695 69 255 179 0.432030
-0.034461 -0.093594 0.706145 69 255 179 0.432330
-0.038030 -0.097846 0.702605 69 255 179 0.432727
-0.039785 -0.095975 0.704248 69 255 179 0.433152
-0.041598 -0.094202 0.706149 75 255 172 0.439867
-0.042758 -0.096387 0.703839 69 255 179 0.433529
-0.038640 -0.093756 0.706510 69 255 179 0.432965
-0.036930 -0.095473 0.704475 69 255 179 0.432715
-0.045467 -0.095430 0.704885 72 255 176 0.434284
-0.046054 -0.093634 0.706958 72 255 176 0.434649
-0.048690 -0.093747 0.706335 72 255 176 0.434999
-0.042043 -0.092415 0.708367 72 255 176 0.434213
-0.049570 -0.088158 0.714192 72 255 176 0.435284
-0.047044 -0.088309 0.714908 72 255 176 0.435002
-0.050348 -0.089360 0.712069 72 255 176 0.435558
-0.053104 -0.089337 0.711629 72 255 176 0.435784
-0.053850 -0.090599 0.709691 72 255 176 0.435966
-0.043155 -0.087008 0.720313 69 255 179 0.432539
-0.043111 -0.088319 0.717085 72 255 176 0.433979
-0.039154 -0.089193 0.716060 72 255 176 0.433777
-0.042902 -0.089562 0.714000 72 255 176 0.434743
-0.044951 -0.090934 0.710391 72 255 176 0.434885
-0.047508 -0.091149 0.709839 72 255 176 0.435246
-0.050094 -0.091169 0.709302 91 255 156 0.458103
0.017938 -0.097921 0.732726 66 255 182 0.427953
0.019151 -0.100956 0.734594 66 255 182 0.425862
0.016361 -0.100389 0.735655 66 255 182 0.425851
0.015185 -0.097655 0.733725 66 255 182 0.428044
0.017610 -0.103506 0.737431 62 255 185 0.424331
0.013467 -0.099906 0.736407 62 255 185 0.425029
0.014816 -0.102857 0.738285 62 255 185 0.421976
0.012093 -0.102458 0.739357 59 255 189 0.421545
0.012063 -0.097234 0.734472 66 255 182 0.427780
0.010567 -0.099650 0.737336 59 255 189 0.421202
0.009043 -0.097085 0.735277 66 255 182 0.427499
0.016104 -0.105973 0.740135 59 255 189 0.419663
0.013447 -0.105515 0.741311 56 255 192 0.417733
0.014639 -0.108697 0.743178 59 255 189 0.418939
0.017025 -0.109106 0.741952 59 255 189 0.421039
0.018467 -0.106487 0.739191 59 255 189 0.420554
0.019234 -0.109612 0.740882 59 255 189 0.421782
0.020781 -0.106900 0.738092 62 255 185 0.422967
0.019974 -0.103913 0.736344 62 255 185 0.423269
0.021534 -0.109948 0.739782 62 255 185 0.423267
0.006354 -0.099611 0.739033 66 255 182 0.427398
0.004468 -0.097195 0.736922 66 255 182 0.429657
0.008139 -0.102255 0.741045 66 255 182 0.425898
0.003720 -0.102094 0.742715 66 255 182 0.429139
0.001837 -0.099603 0.740709 69 255 179 0.430166
-0.000242 -0.097379 0.738675 69 255 179 0.431152
0.007557 -0.105017 0.743802 66 255 182 0.426672
0.006663 -0.107791 0.746515 66 255 182 0.427474
0.010656 -0.108195 0.744870 62 255 185 0.423214
0.007145 -0.120551 0.751803 66 255 182 0.428749
0.009303 -0.117714 0.749708 62 255 185 0.425506
0.010983 -0.121228 0.750215 66 255 182 0.426394
0.011222 -0.114725 0.747616 59 255 189 0.421706
0.013151 -0.118299 0.748135 95 255 153 0.461415
0.015147 -0.115336 0.745947 59 255 189 0.419303
0.014950 -0.121836 0.748467 66 255 182 0.426184
0.013063 -0.111782 0.745460 56 255 192 0.417863
0.008992 -0.111143 0.747100 62 255 185 0.424614
0.007176 -0.114075 0.749205 66 255 182 0.427450
0.017667 -0.119056 0.745782 62 255 185 0.425185
0.019792 -0.122361 0.745553 66 255 182 0.427870
0.019813 -0.116098 0.743312 62 255 185 0.423946
0.019605 -0.112882 0.742126 62 255 185 0.422416
0.017367 -0.112433 0.743323 59 255 189 0.421319
0.017591 -0.115758 0.744578 62 255 185 0.422680
-0.016476 -0.091245 0.724482 69 255 179 0.431844
-0.016399 -0.092479 0.727290 69 255 179 0.432069
-0.019837 -0.091969 0.726234 69 255 179 0.432051
-0.019749 -0.093076 0.728996 69 255 179 0.432063
-0.016172 -0.093374 0.730117 69 255 179 0.432414
-0.015677 -0.094014 0.732762 69 255 179 0.432408
-0.012414 -0.093107 0.731307 69 255 179 0.432744
-0.012821 -0.092274 0.728677 69 255 179 0.432217
-0.013036 -0.091248 0.725845 69 255 179 0.432047
-0.009307 -0.092368 0.730005 69 255 179 0.432116
-0.022917 -0.092218 0.728450 69 255 179 0.432185
-0.022694 -0.092870 0.731591 69 255 179 0.432373
-0.019984 -0.093816 0.732712 75 255 172 0.439055
-0.018580 -0.094133 0.735043 69 255 179 0.432679
-0.007670 -0.098046 0.742230 69 255 179 0.432087
-0.009886 -0.096961 0.739949 69 255 179 0.432334
-0.012035 -0.095932 0.737626 69 255 179 0.432505
-0.005233 -0.097740 0.740841 69 255 179 0.432016
-0.013991 -0.095027 0.735235 108 255 140 0.479569
-0.006419 -0.096425 0.738253 88 255 160 0.453802
-0.007581 -0.095075 0.735585 69 255 179 0.432322
-0.002672 -0.095907 0.736487 69 255 179 0.431772
-0.008534 -0.093754 0.732801 69 255 179 0.432250
0.007736 -0.088860 0.718602 69 255 179 0.430719
0.004360 -0.088726 0.719182 69 255 179 0.430801
0.006032 -0.089437 0.721353 69 255 179 0.430872
0.000883 -0.088710 0.719889 69 255 179 0.430798
0.002546 -0.089355 0.722011 69 255 179 0.430876
-0.001169 -0.089482 0.722844 69 255 179 0.431033
-0.002760 -0.088809 0.720800 69 255 179 0.431000
0.004260 -0.090124 0.724149 69 255 179 0.430857
0.000492 -0.090141 0.724892 69 255 179 0.431064
0.002247 -0.090855 0.726950 82 255 166 0.446245
0.009233 -0.090780 0.725350 69 255 179 0.430629
0.010882 -0.090170 0.722606 69 255 179 0.430616
-0.008844 -0.089517 0.722112 69 255 179 0.431189
-0.007042 -0.090176 0.724201 69 255 179 0.431342
-0.011790 -0.089869 0.722833 69 255 179 0.431308
-0.010088 -0.090695 0.725032 69 255 179 0.431539
-0.008221 -0.091318 0.727176 69 255 179 0.431943
-0.003590 -0.091426 0.728266 69 255 179 0.431630
0.002466 -0.095618 0.734826 69 255 179 0.430479
0.000384 -0.094337 0.732751 69 255 179 0.431214
0.005475 -0.093752 0.731051 69 255 179 0.429924
0.007244 -0.095392 0.733159 66 255 182 0.428728
0.001160 -0.092628 0.729769 69 255 179 0.431087
-0.004427 -0.093063 0.731418 69 255 179 0.431915
0.010562 -0.095684 0.732500 66 255 182 0.428446
0.013745 -0.095875 0.731745 66 255 182 0.428607
0.012329 -0.094312 0.729733 66 255 182 0.429256
0.016583 -0.096067 0.730858 66 255 182 0.428860
0.015173 -0.094400 0.728810 66 255 182 0.429249
0.013900 -0.092742 0.726796 69 255 179 0.429892
0.010750 -0.092477 0.727552 69 255 179 0.430048
0.007371 -0.092286 0.728251 69 255 179 0.430344
0.009003 -0.093979 0.730464 66 255 182 0.429369
-0.024825 -0.091813 0.730462 69 255 179 0.432280
-0.024660 -0.092107 0.734223 69 255 179 0.432710
-0.022089 -0.093201 0.735182 69 255 179 0.432725
-0.020399 -0.093579 0.737462 69 255 179 0.432902
-0.026712 -0.090807 0.733190 69 255 179 0.432778
-0.023307 -0.092215 0.737587 69 255 179 0.432945
-0.018306 -0.094558 0.739541 69 255 179 0.432909
-0.014422 -0.095985 0.739591 69 255 179 0.432703
-0.016686 -0.095199 0.737376 69 255 179 0.432754
-0.001760 -0.099686 0.742237 69 255 179 0.431314
0.000301 -0.101977 0.744251 69 255 179 0.430432
0.002023 -0.104634 0.746189 69 255 179 0.429904
0.002216 -0.107313 0.748584 69 255 179 0.430040
-0.002179 -0.101987 0.745398 69 255 179 0.430974
-0.004797 -0.099746 0.743813 69 255 179 0.431771
-0.001016 -0.104460 0.747747 69 255 179 0.430808
-0.000201 -0.107227 0.750009 59 255 189 0.419131
-0.001123 -0.119899 0.755538 69 255 179 0.432554
0.000227 -0.116632 0.753900 69 255 179 0.431905
0.001159 -0.113447 0.752139 66 255 182 0.425915
0.002338 -0.120033 0.754030 69 255 179 0.431615
0.001801 -0.110281 0.750403 69 255 179 0.430561
0.003669 -0.116882 0.752130 69 255 179 0.430866
0.005860 -0.110718 0.748402 66 255 182 0.428210
0.003720 -0.113656 0.750818 69 255 179 0.430365
-0.004685 -0.101713 0.747145 69 255 179 0.431335
-0.002470 -0.112921 0.754634 69 255 179 0.432051
-0.003951 -0.119470 0.757328 69 255 179 0.433257
-0.002507 -0.109732 0.753376 69 255 179 0.431277
-0.002555 -0.116291 0.755591 69 255 179 0.432564
0.014725 -0.137915 0.743406 69 255 179 0.430100
0.013299 -0.136211 0.745212 69 255 179 0.430119
0.017332 -0.134329 0.744557 66 255 182 0.429616
0.016000 -0.132575 0.746373 66 255 182 0.429646
0.011757 -0.134425 0.747084 69 255 179 0.430223
0.010226 -0.132361 0.749069 59 255 189 0.419642
0.006555 -0.136190 0.747816 69 255 179 0.431090
0.008245 -0.138204 0.745974 69 255 179 0.431249
0.009963 -0.140000 0.744142 49 255 198 0.408251
0.002872 -0.139823 0.746382 69 255 179 0.431964
0.019645 -0.130009 0.744843 66 255 182 0.429092
0.018155 -0.127442 0.745918 66 255 182 0.428490
0.021281 -0.125101 0.744493 66 255 182 0.428561
0.016590 -0.124830 0.747099 66 255 182 0.427474
0.013835 -0.124558 0.748772 66 255 182 0.427487
0.015424 -0.127430 0.747363 66 255 182 0.428073
0.012620 -0.127167 0.748906 66 255 182 0.427844
0.005706 -0.123338 0.752259 69 255 179 0.429961
0.006412 -0.126323 0.751721 66 255 182 0.429425
0.004861 -0.128964 0.751954 69 255 179 0.430408
0.005546 -0.131816 0.751194 69 255 179 0.430290
0.000729 -0.131267 0.753099 69 255 179 0.431603
0.009324 -0.129495 0.749932 66 255 182 0.429030
0.009858 -0.123867 0.750532 66 255 182 0.426260
-0.001881 -0.132970 0.752359 69 255 179 0.431950
-0.004494 -0.134482 0.751616 49 255 198 0.408524
0.001491 -0.135480 0.749651 69 255 179 0.431344
-0.000928 -0.137149 0.748906 69 255 179 0.431686
-0.003340 -0.138731 0.748167 88 255 160 0.456934
-0.007251 -0.135809 0.750876 69 255 179 0.431915
-0.010028 -0.137054 0.750267 69 255 179 0.431705
-0.007951 -0.133617 0.752746 69 255 179 0.432324
-0.005153 -0.132296 0.753419 69 255 179 0.432461
-0.002407 -0.130779 0.754173 69 255 179 0.432474
-0.005770 -0.130073 0.755189 69 255 179 0.432697
-0.008686 -0.131501 0.754536 69 255 179 0.433058
-0.011537 -0.132892 0.753927 69 255 179 0.432851
-0.010912 -0.134912 0.752114 69 255 179 0.432304
-0.013577 -0.136375 0.751527 69 255 179 0.431798
-0.014190 -0.134452 0.753383 69 255 179 0.432602
-0.016630 -0.136028 0.752749 69 255 179 0.432036
0.002976 -0.125983 0.753127 69 255 179 0.431196
0.000581 -0.122852 0.754531 69 255 179 0.432227
-0.001551 -0.125420 0.754924 66 255 182 0.426489
-0.000353 -0.128433 0.754065 69 255 179 0.432175
-0.003739 -0.127790 0.755119 69 255 179 0.432771
-0.003442 -0.122493 0.756111 69 255 179 0.433153
-0.005673 -0.124883 0.756338 69 255 179 0.433456
-0.007603 -0.127320 0.756555 69 255 179 0.433339
-0.009592 -0.129578 0.756651 69 255 179 0.433203
-0.012414 -0.131145 0.756132 69 255 179 0.433444
-0.015114 -0.132684 0.755562 69 255 179 0.432850
-0.017588 -0.134367 0.755101 69 255 179 0.432555
-0.019947 -0.136127 0.754610 69 255 179 0.431655
-0.012700 -0.129586 0.758681 72 255 176 0.433594
-0.008373 -0.124442 0.757935 75 255 172 0.441346
-0.006273 -0.121976 0.757634 53 255 195 0.410229
-0.022400 -0.136790 0.756748 69 255 179 0.430807
-0.020076 -0.134843 0.757077 69 255 179 0.431882
-0.017913 -0.133139 0.757947 69 255 179 0.431957
-0.014937 -0.131255 0.757868 69 255 179 0.433370
-0.037002 -0.144274 0.745564 66 255 182 0.426862
-0.039186 -0.145407 0.742206 66 255 182 0.428551
-0.041390 -0.146589 0.738922 69 255 179 0.432066
-0.042020 -0.146268 0.741643 69 255 179 0.430440
-0.038586 -0.145708 0.739407 69 255 179 0.430655
