ply
format ascii 1.0
comment VCGLIB generated
element vertex 956
property float x
property float y
property float z
property uchar red
property uchar green
property uchar blue
property float quality
end_header
-0.176672 -0.058591 0.869747 202 255 46 0.592137
-0.175644 -0.064176 0.871773 202 255 46 0.592059
-0.177347 -0.056396 0.867253 202 255 46 0.592110
-0.177460 -0.052945 0.867715 202 255 46 0.592065
-0.177817 -0.053932 0.864782 202 255 46 0.592077
-0.177661 -0.057409 0.864372 202 255 46 0.592098
-0.177364 -0.060908 0.863980 202 255 46 0.592087
-0.178088 -0.054933 0.861902 202 255 46 0.592198
-0.175899 -0.060887 0.872153 202 255 46 0.591688
-0.174988 -0.062851 0.874538 202 255 46 0.592131
-0.176058 -0.057604 0.872568 202 255 46 0.592146
-0.175205 -0.059574 0.874959 202 255 46 0.592004
-0.176146 -0.054323 0.873020 202 255 46 0.592160
-0.176801 -0.052017 0.870594 202 255 46 0.591866
-0.176767 -0.055289 0.870165 202 255 46 0.592108
-0.175508 -0.043553 0.869518 202 255 46 0.592070
-0.176230 -0.046653 0.868908 202 255 46 0.592096
-0.175952 -0.044064 0.866702 202 255 46 0.592375
-0.176690 -0.047177 0.866101 202 255 46 0.592111
-0.176898 -0.049781 0.868300 202 255 46 0.592079
-0.176236 -0.048869 0.871186 202 255 46 0.592091
-0.176285 -0.044786 0.863846 202 255 46 0.592092
-0.177010 -0.048119 0.863168 202 255 46 0.592087
-0.176408 -0.045398 0.860967 202 255 46 0.592048
-0.177109 -0.048752 0.860294 202 255 46 0.592106
-0.177612 -0.051505 0.862505 202 255 46 0.592071
-0.177302 -0.050542 0.865437 202 255 46 0.592010
-0.162362 -0.079391 0.883848 202 255 46 0.593383
-0.164488 -0.078788 0.881705 202 255 46 0.591691
-0.160664 -0.081626 0.883606 202 255 46 0.591131
-0.162771 -0.081028 0.881453 202 255 46 0.591633
-0.161059 -0.083260 0.881218 202 255 46 0.591586
-0.164926 -0.080423 0.879305 202 255 46 0.591690
-0.158981 -0.083858 0.883368 202 255 46 0.593036
-0.157310 -0.086101 0.883111 202 255 46 0.591595
-0.156885 -0.084435 0.885423 202 255 46 0.591903
-0.158536 -0.082194 0.885692 202 255 46 0.591580
-0.163100 -0.082631 0.879072 202 255 46 0.590965
-0.165200 -0.081989 0.876723 202 255 46 0.591669
-0.161284 -0.084850 0.878836 202 255 46 0.591571
-0.163362 -0.084211 0.876489 202 255 46 0.591615
-0.161528 -0.086425 0.876264 202 255 46 0.591579
-0.159501 -0.087084 0.878609 202 255 46 0.591929
-0.157721 -0.089309 0.878375 202 255 46 0.591592
-0.157516 -0.087707 0.880740 202 255 46 0.591586
-0.159287 -0.085482 0.880977 202 255 46 0.591568
-0.150903 -0.090991 0.883222 202 255 46 0.593412
-0.153026 -0.089366 0.883192 202 255 46 0.591607
-0.150830 -0.089416 0.885302 202 255 46 0.591637
-0.152936 -0.087784 0.885279 202 255 46 0.591597
-0.155161 -0.087737 0.883144 202 255 46 0.591586
-0.155363 -0.089342 0.880787 202 255 46 0.593177
-0.153210 -0.090958 0.880826 202 255 46 0.591604
-0.150585 -0.087804 0.887486 202 255 46 0.592610
-0.152535 -0.086135 0.887579 202 255 46 0.591625
-0.150207 -0.086161 0.889630 202 255 46 0.591988
-0.154502 -0.084452 0.887663 202 255 46 0.591599
-0.154905 -0.086114 0.885350 202 255 46 0.592323
-0.173900 -0.065097 0.875460 202 255 46 0.592130
-0.172733 -0.067341 0.876427 202 255 46 0.592130
-0.173362 -0.068692 0.873644 202 255 46 0.592137
-0.174526 -0.066439 0.872695 202 255 46 0.592115
-0.171974 -0.070264 0.875975 202 255 46 0.591925
-0.171157 -0.073205 0.875551 202 255 46 0.591869
-0.170617 -0.071665 0.878157 202 255 46 0.591927
-0.171386 -0.068737 0.878594 202 255 46 0.592043
-0.174892 -0.067835 0.869876 202 255 46 0.592111
-0.173793 -0.070159 0.870854 202 255 46 0.591500
-0.172814 -0.073168 0.870441 202 255 46 0.592034
-0.171507 -0.074686 0.872789 202 255 46 0.591942
-0.172426 -0.071689 0.873209 202 255 46 0.592070
-0.166731 -0.080164 0.875788 202 255 46 0.591765
-0.168276 -0.078356 0.874840 202 255 46 0.591860
-0.167933 -0.076780 0.877433 202 255 46 0.592075
-0.166408 -0.078601 0.878368 202 255 46 0.591768
-0.169691 -0.075762 0.875188 202 255 46 0.591929
-0.170019 -0.077260 0.872429 202 255 46 0.591931
-0.167442 -0.075252 0.880019 202 255 46 0.592397
-0.165709 -0.076189 0.882073 202 255 46 0.591236
-0.168749 -0.072687 0.880384 202 255 46 0.591924
-0.169280 -0.074220 0.877780 202 255 46 0.591927
-0.163461 -0.085775 0.874047 202 255 46 0.591621
-0.161419 -0.087972 0.873947 202 255 46 0.591209
-0.163549 -0.087269 0.871359 202 255 46 0.591645
-0.161500 -0.089461 0.871267 202 255 46 0.591599
-0.159413 -0.090176 0.873849 202 255 46 0.591580
-0.157421 -0.092375 0.873756 202 255 46 0.591594
-0.157571 -0.090839 0.876070 202 255 46 0.591590
-0.159555 -0.088643 0.876163 202 255 46 0.591577
-0.163402 -0.088847 0.868634 202 255 46 0.591639
-0.161031 -0.091122 0.868462 202 255 46 0.593042
-0.163303 -0.090320 0.865448 202 255 46 0.592287
-0.158683 -0.093409 0.868298 202 255 46 0.591583
-0.156897 -0.094029 0.870926 202 255 46 0.591606
-0.159185 -0.091750 0.871103 202 255 46 0.591576
-0.149258 -0.096644 0.875865 202 255 46 0.591056
-0.151645 -0.095852 0.874404 202 255 46 0.591670
-0.152591 -0.094039 0.876691 202 255 46 0.592442
-0.150196 -0.094835 0.878168 202 255 46 0.591686
-0.154517 -0.094122 0.874084 202 255 46 0.591517
-0.153959 -0.095742 0.871266 202 255 46 0.591630
-0.150516 -0.093324 0.880222 202 255 46 0.591658
-0.155220 -0.090912 0.878695 202 255 46 0.591597
-0.155073 -0.092445 0.876383 202 255 46 0.591611
-0.176481 -0.067416 0.856174 202 255 46 0.591727
-0.176877 -0.064300 0.855110 202 255 46 0.591751
-0.177244 -0.063107 0.858323 202 255 46 0.591992
-0.176827 -0.066188 0.859363 202 255 46 0.591991
-0.177433 -0.060558 0.855644 202 255 46 0.591957
-0.177851 -0.056863 0.856218 202 255 46 0.592284
-0.177309 -0.058012 0.853104 202 255 46 0.592004
-0.176827 -0.061738 0.852571 202 255 46 0.592026
-0.176920 -0.065067 0.862165 202 255 46 0.591943
-0.177420 -0.062085 0.861104 202 255 46 0.592071
-0.177812 -0.058508 0.861480 202 255 46 0.592061
-0.177997 -0.055913 0.859027 202 255 46 0.592216
-0.177676 -0.059507 0.858665 202 255 46 0.592021
-0.176398 -0.046150 0.858060 202 255 46 0.592110
-0.177063 -0.049669 0.857372 202 255 46 0.592115
-0.176100 -0.046839 0.855194 202 255 46 0.592148
-0.176739 -0.050374 0.854556 202 255 46 0.592108
-0.177519 -0.053252 0.856763 202 255 46 0.592077
-0.177647 -0.052299 0.859628 202 255 46 0.592196
-0.175686 -0.047711 0.852181 202 255 46 0.592157
-0.176179 -0.051463 0.851386 202 255 46 0.592107
-0.174885 -0.048715 0.849061 202 255 46 0.592160
-0.176819 -0.054723 0.852213 202 255 46 0.592272
-0.152108 -0.041106 0.817532 205 255 43 0.594756
-0.153785 -0.043163 0.817663 205 255 43 0.593961
-0.155440 -0.044229 0.819278 205 255 43 0.595753
-0.157186 -0.046276 0.819391 205 255 43 0.595208
-0.158823 -0.047355 0.820995 205 255 43 0.594090
-0.158910 -0.049334 0.818052 205 255 43 0.593920
-0.157092 -0.044310 0.822322 205 255 43 0.594952
-0.158736 -0.045390 0.823922 205 255 43 0.596301
-0.155054 -0.042058 0.822150 205 255 43 0.595122
-0.153097 -0.039786 0.821933 205 255 43 0.595438
-0.151466 -0.038709 0.820341 205 255 43 0.594643
-0.150765 -0.036322 0.823166 205 255 43 0.595627
-0.160511 -0.051720 0.818150 205 255 43 0.593823
-0.162297 -0.053409 0.819853 205 255 43 0.594211
-0.163915 -0.055864 0.820010 202 255 46 0.593357
-0.165636 -0.057642 0.821785 202 255 46 0.593034
-0.165304 -0.059111 0.818590 202 255 46 0.593054
-0.164242 -0.054420 0.823210 205 255 43 0.593886
-0.165967 -0.056179 0.824978 202 255 46 0.593628
-0.162437 -0.051682 0.822910 202 255 46 0.593505
-0.160617 -0.049019 0.822691 202 255 46 0.593376
-0.165524 -0.050799 0.829771 202 255 46 0.593418
-0.163314 -0.048954 0.827785 202 255 46 0.593180
-0.161678 -0.045069 0.829047 205 255 43 0.594367
-0.159398 -0.043298 0.827125 205 255 43 0.594612
-0.161031 -0.047150 0.825837 205 255 43 0.594503
-0.164630 -0.052523 0.826366 202 255 46 0.593432
-0.166822 -0.054416 0.828389 202 255 46 0.592950
-0.157611 -0.040006 0.828567 205 255 43 0.595318
-0.154820 -0.037046 0.828571 205 255 43 0.596220
-0.155310 -0.038776 0.826766 205 255 43 0.595768
-0.152078 -0.034115 0.828535 205 255 43 0.596297
-0.152548 -0.035803 0.826767 208 255 40 0.599518
-0.149864 -0.032842 0.826730 205 255 43 0.595443
-0.149372 -0.031155 0.828523 205 255 43 0.594841
-0.152996 -0.037563 0.824978 205 255 43 0.595521
-0.150295 -0.034564 0.824964 205 255 43 0.597184
-0.157028 -0.042083 0.825337 205 255 43 0.595105
-0.166394 -0.061647 0.818801 205 255 43 0.594360
-0.167668 -0.063775 0.820866 202 255 46 0.593363
-0.168611 -0.066389 0.821120 202 255 46 0.592535
-0.169712 -0.068619 0.823233 202 255 46 0.592381
-0.169220 -0.069546 0.819647 202 255 46 0.592013
-0.169108 -0.065472 0.824712 202 255 46 0.592428
-0.170163 -0.067728 0.826821 202 255 46 0.592431
-0.168087 -0.062543 0.824229 202 255 46 0.593101
-0.166994 -0.059696 0.823792 202 255 46 0.592896
-0.169810 -0.071816 0.821976 202 255 46 0.592417
-0.169837 -0.074569 0.820288 202 255 46 0.592308
-0.170284 -0.074099 0.824324 202 255 46 0.592247
-0.170261 -0.076888 0.822657 202 255 46 0.592237
-0.170617 -0.079142 0.824980 202 255 46 0.592211
-0.170196 -0.079610 0.820949 202 255 46 0.591830
-0.170657 -0.076383 0.826657 202 255 46 0.592112
-0.170997 -0.078624 0.828980 202 255 46 0.592160
-0.170694 -0.073191 0.827905 202 255 46 0.592096
-0.170261 -0.070910 0.825575 202 255 46 0.592275
-0.172161 -0.074552 0.834741 202 255 46 0.591896
-0.172016 -0.071629 0.834004 202 255 46 0.592135
-0.171377 -0.069340 0.831361 202 255 46 0.592078
-0.171106 -0.066418 0.830610 202 255 46 0.592495
-0.171334 -0.075441 0.830534 202 255 46 0.592139
-0.171891 -0.077708 0.833171 202 255 46 0.591542
-0.170690 -0.062778 0.831970 202 255 46 0.592415
-0.169627 -0.059601 0.831299 202 255 46 0.591780
-0.168053 -0.057403 0.828959 202 255 46 0.591690
-0.168738 -0.061147 0.827700 202 255 46 0.592533
-0.169734 -0.064076 0.828200 202 255 46 0.592401
-0.172007 -0.079508 0.835770 202 255 46 0.592190
-0.171286 -0.082218 0.834173 202 255 46 0.591340
-0.171163 -0.080417 0.831567 202 255 46 0.592209
-0.170382 -0.083153 0.829995 202 255 46 0.592199
-0.170509 -0.084947 0.832588 202 255 46 0.591686
-0.169696 -0.087606 0.830947 202 255 46 0.592225
-0.170381 -0.086985 0.835575 202 255 46 0.591310
-0.171133 -0.084253 0.837162 202 255 46 0.592129
-0.170575 -0.081025 0.827282 202 255 46 0.590672
-0.170099 -0.083428 0.825582 202 255 46 0.592131
-0.170159 -0.081526 0.823277 202 255 46 0.591880
-0.169658 -0.083886 0.821545 202 255 46 0.592291
-0.169602 -0.085778 0.823845 202 255 46 0.592282
-0.169006 -0.088136 0.822115 202 255 46 0.592288
-0.169409 -0.087899 0.826546 202 255 46 0.592271
-0.169921 -0.085523 0.828268 202 255 46 0.592232
-0.165692 -0.095881 0.821599 202 255 46 0.591361
-0.166801 -0.093848 0.823971 202 255 46 0.592492
-0.165713 -0.095917 0.826099 202 255 46 0.591707
-0.167841 -0.091788 0.826312 202 255 46 0.591671
-0.166742 -0.093863 0.828447 202 255 46 0.591306
-0.167731 -0.091767 0.830763 202 255 46 0.592299
-0.165567 -0.095963 0.830588 202 255 46 0.592250
-0.168821 -0.089696 0.828633 202 255 46 0.592275
-0.168446 -0.089970 0.824226 202 255 46 0.590308
-0.167373 -0.092051 0.821886 202 255 46 0.592477
-0.165374 -0.096091 0.833586 202 255 46 0.592203
-0.167071 -0.093574 0.832997 202 255 46 0.591489
-0.166800 -0.093697 0.836005 202 255 46 0.591199
-0.165108 -0.096203 0.836564 202 255 46 0.592437
-0.168446 -0.091180 0.835408 202 255 46 0.592327
-0.166370 -0.093864 0.838984 202 255 46 0.592143
-0.168041 -0.091322 0.838401 202 255 46 0.592141
-0.164721 -0.096381 0.839548 202 255 46 0.591274
-0.169701 -0.088781 0.837799 202 255 46 0.592116
-0.169107 -0.089379 0.833176 202 255 46 0.592242
-0.163725 -0.098122 0.822681 202 255 46 0.591432
-0.162773 -0.099762 0.819786 202 255 46 0.592468
-0.161756 -0.100340 0.823739 202 255 46 0.591612
-0.160797 -0.101942 0.820820 202 255 46 0.591995
-0.158829 -0.104101 0.821844 202 255 46 0.592590
-0.159803 -0.103535 0.817894 202 255 46 0.592621
-0.159785 -0.102519 0.824767 202 255 46 0.591013
-0.157787 -0.104702 0.825802 202 255 46 0.593126
-0.161770 -0.100390 0.828237 202 255 46 0.591960
-0.163773 -0.098150 0.827180 202 255 46 0.592380
-0.158058 -0.105198 0.816393 205 255 43 0.593775
-0.155206 -0.107366 0.816463 202 255 46 0.593053
-0.153492 -0.108941 0.814910 202 255 46 0.593617
-0.150684 -0.111011 0.814911 205 255 43 0.595454
-0.152877 -0.110008 0.811757 202 255 46 0.593094
-0.151285 -0.109987 0.818070 202 255 46 0.593555
-0.148505 -0.112033 0.818047 202 255 46 0.593229
-0.153628 -0.108162 0.820030 202 255 46 0.593210
-0.155953 -0.106312 0.821951 202 255 46 0.592856
-0.146091 -0.112005 0.825579 202 255 46 0.593668
-0.148853 -0.110215 0.827884 202 255 46 0.593254
-0.149970 -0.109673 0.825740 202 255 46 0.593361
-0.151584 -0.108341 0.830108 202 255 46 0.592851
-0.152737 -0.107780 0.827963 202 255 46 0.592924
-0.155502 -0.105810 0.830139 202 255 46 0.590505
-0.154308 -0.106378 0.832280 202 255 46 0.592876
-0.153888 -0.107237 0.825810 202 255 46 0.593664
-0.156684 -0.105236 0.827966 202 255 46 0.592561
-0.151540 -0.109078 0.823878 205 255 43 0.593894
-0.149223 -0.110865 0.821912 202 255 46 0.593326
-0.147666 -0.111432 0.823755 202 255 46 0.593540
-0.145399 -0.113152 0.821747 205 255 43 0.594653
-0.146971 -0.112597 0.819915 205 255 43 0.594994
-0.143840 -0.113712 0.823550 202 255 46 0.593529
-0.156226 -0.104291 0.833525 202 255 46 0.592710
-0.159185 -0.101699 0.835560 202 255 46 0.592280
-0.159408 -0.101543 0.832587 202 255 46 0.593440
-0.162016 -0.099066 0.837567 202 255 46 0.593243
-0.162318 -0.098898 0.834589 202 255 46 0.592837
-0.162554 -0.098737 0.831588 202 255 46 0.592414
-0.160602 -0.100957 0.830412 202 255 46 0.591423
-0.158651 -0.103128 0.829207 202 255 46 0.592499
-0.157446 -0.103706 0.831382 202 255 46 0.592630
-0.141823 -0.114892 0.821390 205 255 43 0.594062
-0.143386 -0.114374 0.819601 205 255 43 0.593934
-0.141406 -0.115595 0.817429 205 255 43 0.594379
-0.144938 -0.113847 0.817770 205 255 43 0.593832
-0.142951 -0.115084 0.815595 205 255 43 0.595987
-0.144493 -0.114516 0.813754 205 255 43 0.594356
-0.146486 -0.113275 0.815916 202 255 46 0.593728
-0.140999 -0.116316 0.813397 205 255 43 0.594584
-0.142550 -0.115774 0.811548 205 255 43 0.594683
-0.140628 -0.117002 0.809313 205 255 43 0.596502
-0.138747 -0.117615 0.810902 205 255 43 0.596328
-0.139116 -0.116895 0.814966 205 255 43 0.594964
-0.136869 -0.118206 0.812476 205 255 43 0.595264
-0.137227 -0.117423 0.816510 205 255 43 0.595516
-0.139515 -0.116163 0.818971 205 255 43 0.594796
-0.134995 -0.118716 0.814035 205 255 43 0.595866
-0.149032 -0.112165 0.813033 202 255 46 0.593612
-0.147413 -0.113287 0.811125 205 255 43 0.594152
-0.149571 -0.112322 0.807969 205 255 43 0.594032
-0.151195 -0.111178 0.809879 202 255 46 0.593567
-0.146887 -0.113934 0.807613 205 255 43 0.595401
-0.146408 -0.114589 0.804087 205 255 43 0.596927
-0.143522 -0.115807 0.806709 205 255 43 0.595447
-0.140929 -0.118076 0.795187 202 255 46 0.592735
-0.140812 -0.117842 0.798744 208 255 40 0.599261
-0.137674 -0.119495 0.797411 208 255 40 0.598486
-0.140732 -0.117593 0.802301 205 255 43 0.597015
-0.137565 -0.119217 0.800949 208 255 40 0.597724
-0.137484 -0.118960 0.804489 205 255 43 0.595770
-0.134429 -0.120873 0.799605 205 255 43 0.596096
-0.140679 -0.117312 0.805816 205 255 43 0.595795
-0.143546 -0.116085 0.803191 205 255 43 0.596683
-0.143610 -0.116361 0.799650 202 255 46 0.592892
-0.132347 -0.121595 0.800961 205 255 43 0.595812
-0.134063 -0.120552 0.803652 205 255 43 0.595789
-0.132000 -0.121219 0.805003 205 255 43 0.596877
-0.130281 -0.122284 0.802299 205 255 43 0.596761
-0.133727 -0.120142 0.807656 205 255 43 0.595642
-0.129923 -0.121859 0.806330 205 255 43 0.595999
-0.131646 -0.120759 0.808985 205 255 43 0.596292
-0.128218 -0.122941 0.803661 205 255 43 0.595647
-0.133410 -0.119668 0.811665 208 255 40 0.599465
-0.135279 -0.119168 0.810063 205 255 43 0.595619
-0.137165 -0.118598 0.808500 205 255 43 0.595419
-0.135607 -0.119580 0.806079 205 255 43 0.595646
-0.096173 -0.020702 0.782875 202 255 46 0.592191
-0.097121 -0.022492 0.780990 202 255 46 0.592300
-0.098945 -0.021499 0.783883 205 255 43 0.594047
-0.099922 -0.023302 0.782000 202 255 46 0.593052
-0.102714 -0.024124 0.783018 202 255 46 0.591875
-0.100887 -0.025123 0.780134 202 255 46 0.592323
-0.101732 -0.022328 0.784901 202 255 46 0.593183
-0.104507 -0.023170 0.785951 202 255 46 0.591503
-0.100977 -0.020251 0.787417 202 255 46 0.591599
-0.098219 -0.019426 0.786370 202 255 46 0.591898
-0.103355 -0.025989 0.780953 202 255 46 0.592010
-0.105817 -0.026888 0.781785 205 255 43 0.593783
-0.109105 -0.029463 0.781115 202 255 46 0.592892
-0.105876 -0.028892 0.779084 202 255 46 0.591954
-0.110680 -0.028764 0.783501 202 255 46 0.590278
-0.107623 -0.025937 0.784717 202 255 46 0.590834
-0.105173 -0.025012 0.783860 202 255 46 0.591578
-0.114581 -0.028252 0.788043 198 255 49 0.587628
-0.112086 -0.026943 0.787493 198 255 49 0.588571
-0.111695 -0.025166 0.789753 202 255 46 0.590245
-0.109571 -0.025655 0.786950 202 255 46 0.590198
-0.109169 -0.023887 0.789215 202 255 46 0.590205
-0.106654 -0.022640 0.788697 205 255 43 0.594638
-0.108773 -0.022126 0.791473 202 255 46 0.590146
-0.107094 -0.020516 0.792495 202 255 46 0.590265
-0.104280 -0.019291 0.791822 202 255 46 0.590847
-0.102635 -0.017691 0.792828 202 255 46 0.591001
-0.100312 -0.018530 0.789517 202 255 46 0.591480
-0.103819 -0.021444 0.788054 202 255 46 0.591336
-0.120224 -0.039484 0.775787 202 255 46 0.591583
-0.119945 -0.037762 0.778167 202 255 46 0.591285
-0.119674 -0.036089 0.780581 202 255 46 0.591273
-0.122701 -0.038294 0.779580 202 255 46 0.591288
-0.116633 -0.033921 0.781568 202 255 46 0.591272
-0.116837 -0.035564 0.779067 202 255 46 0.591282
-0.117038 -0.037283 0.776587 202 255 46 0.591305
-0.114539 -0.034827 0.778452 202 255 46 0.591346
-0.122838 -0.036996 0.782001 202 255 46 0.591275
-0.122979 -0.035756 0.784439 202 255 46 0.591236
-0.125801 -0.037944 0.783311 202 255 46 0.591281
-0.120108 -0.033586 0.785600 202 255 46 0.591207
-0.119909 -0.034818 0.783071 202 255 46 0.591308
-0.114135 -0.029741 0.785259 198 255 49 0.588556
-0.113667 -0.031298 0.782511 202 255 46 0.591067
-0.117009 -0.032382 0.784169 202 255 46 0.590983
-0.117374 -0.030880 0.786791 198 255 49 0.588245
-0.112277 -0.031886 0.780431 202 255 46 0.591281
-0.110691 -0.032628 0.778060 202 255 46 0.590766
-0.134588 -0.034144 0.801519 198 255 49 0.587736
-0.136633 -0.034668 0.803776 198 255 49 0.589111
-0.138692 -0.035147 0.805994 202 255 46 0.591945
-0.138864 -0.036930 0.803077 202 255 46 0.590362
-0.136431 -0.032905 0.806704 198 255 49 0.588914
-0.133943 -0.030441 0.807312 198 255 49 0.588212
-0.134281 -0.032288 0.804414 198 255 49 0.587692
-0.131812 -0.029802 0.804992 198 255 49 0.589179
-0.141668 -0.038812 0.803971 202 255 46 0.591146
-0.141610 -0.037289 0.806906 202 255 46 0.591465
-0.143705 -0.039492 0.805999 202 255 46 0.591768
-0.145803 -0.041686 0.805084 202 255 46 0.592013
-0.143676 -0.037961 0.808902 202 255 46 0.592369
-0.141463 -0.035690 0.809765 202 255 46 0.591157
-0.138509 -0.033561 0.808876 202 255 46 0.590571
-0.138418 -0.031760 0.812069 208 255 40 0.600327
-0.135693 -0.028975 0.812928 202 255 46 0.591735
-0.136071 -0.030904 0.809755 198 255 49 0.588775
-0.141412 -0.033884 0.812925 205 255 43 0.594602
-0.131902 -0.027291 0.809986 198 255 49 0.589463
-0.128468 -0.025024 0.808806 202 255 46 0.590313
-0.123601 -0.029381 0.795911 195 255 53 0.585368
-0.125195 -0.028770 0.798641 195 255 53 0.585914
-0.126775 -0.028152 0.801345 202 255 46 0.589980
-0.127608 -0.030855 0.798248 198 255 49 0.586740
-0.124326 -0.026134 0.801769 198 255 49 0.588376
-0.121613 -0.023964 0.802155 198 255 49 0.588887
-0.122614 -0.026648 0.799046 198 255 49 0.586503
-0.119907 -0.024470 0.799433 198 255 49 0.587774
-0.130353 -0.032029 0.799631 198 255 49 0.587884
-0.129907 -0.029843 0.802594 198 255 49 0.587620
-0.132253 -0.031996 0.802058 195 255 53 0.585542
-0.129243 -0.027519 0.805551 198 255 49 0.589646
-0.126111 -0.025884 0.804331 198 255 49 0.588264
-0.124039 -0.021722 0.808957 202 255 46 0.590143
-0.125346 -0.023436 0.807608 202 255 46 0.589925
-0.121949 -0.021627 0.806427 202 255 46 0.589860
-0.120648 -0.019926 0.807792 202 255 46 0.589983
-0.123254 -0.023330 0.805073 198 255 49 0.589697
-0.117570 -0.018817 0.806265 198 255 49 0.589215
-0.119011 -0.020551 0.804903 198 255 49 0.589399
-0.115797 -0.019362 0.803352 198 255 49 0.588688
-0.114371 -0.017620 0.804713 198 255 49 0.588987
-0.118837 -0.021717 0.802764 198 255 49 0.586524
-0.114326 -0.026646 0.790129 198 255 49 0.587260
-0.116711 -0.028335 0.790151 195 255 53 0.585536
-0.114044 -0.025089 0.792256 198 255 49 0.587415
-0.116447 -0.026725 0.792236 195 255 53 0.585464
-0.116161 -0.025168 0.794348 198 255 49 0.586052
-0.118847 -0.028417 0.792235 195 255 53 0.585240
-0.113746 -0.023521 0.794359 198 255 49 0.588170
-0.113446 -0.021960 0.796461 198 255 49 0.588646
-0.111122 -0.022036 0.793963 202 255 46 0.593504
-0.111406 -0.023601 0.791855 198 255 49 0.589116
-0.118810 -0.027023 0.794347 195 255 53 0.585345
-0.121219 -0.028901 0.794085 195 255 53 0.585202
-0.118776 -0.025628 0.796431 195 255 53 0.585399
-0.121192 -0.027475 0.796163 195 255 53 0.583677
-0.117371 -0.022643 0.799580 198 255 49 0.587120
-0.116110 -0.023796 0.796459 198 255 49 0.586935
-0.111656 -0.017190 0.802506 198 255 49 0.588915
-0.113195 -0.018915 0.801287 198 255 49 0.588362
-0.110338 -0.018521 0.798923 202 255 46 0.591182
-0.108798 -0.016810 0.800152 198 255 49 0.589157
-0.113316 -0.020462 0.798903 202 255 46 0.592935
-0.115930 -0.020889 0.800957 198 255 49 0.588410
-0.106347 -0.016988 0.797442 202 255 46 0.591204
-0.107996 -0.018613 0.796454 198 255 49 0.589429
-0.109556 -0.020318 0.795216 198 255 49 0.589301
-0.126210 -0.036966 0.785709 202 255 46 0.591258
-0.126626 -0.036052 0.788135 202 255 46 0.590964
-0.128369 -0.038165 0.786018 202 255 46 0.591254
-0.124454 -0.034879 0.787852 202 255 46 0.590920
-0.122064 -0.033730 0.787487 202 255 46 0.590884
-0.130166 -0.038457 0.787713 202 255 46 0.590877
-0.128752 -0.036512 0.789821 202 255 46 0.591000
-0.130639 -0.036922 0.791379 202 255 46 0.590254
-0.132062 -0.038867 0.789276 202 255 46 0.591035
-0.128247 -0.034799 0.792729 198 255 49 0.589751
-0.126122 -0.034343 0.791079 202 255 46 0.590922
-0.123820 -0.031619 0.792653 198 255 49 0.587907
-0.121441 -0.031113 0.790792 198 255 49 0.587402
-0.125945 -0.032087 0.794323 198 255 49 0.587973
-0.119512 -0.030961 0.788880 198 255 49 0.587652
-0.132777 -0.033996 0.799368 198 255 49 0.588433
-0.130971 -0.033838 0.797211 198 255 49 0.588978
-0.133395 -0.035829 0.796951 202 255 46 0.589897
-0.135545 -0.037613 0.796569 202 255 46 0.590194
-0.135074 -0.035868 0.799044 198 255 49 0.589576
-0.137240 -0.037629 0.798642 202 255 46 0.590274
-0.128604 -0.033043 0.795859 198 255 49 0.588604
-0.130612 -0.035601 0.794090 198 255 49 0.589728
-0.134046 -0.039439 0.790656 202 255 46 0.590453
-0.133008 -0.037732 0.792743 202 255 46 0.590266
-0.135092 -0.038421 0.793918 202 255 46 0.590296
-0.136128 -0.040113 0.791825 202 255 46 0.590446
-0.138322 -0.040970 0.792882 202 255 46 0.590660
-0.137651 -0.039627 0.795037 202 255 46 0.590418
-0.139949 -0.040640 0.795996 202 255 46 0.590582
-0.140629 -0.042001 0.793835 202 255 46 0.590507
-0.143071 -0.043246 0.794760 202 255 46 0.590822
-0.144836 -0.043852 0.796500 202 255 46 0.591094
-0.146986 -0.045396 0.796050 202 255 46 0.591256
-0.143119 -0.042193 0.798265 202 255 46 0.591134
-0.140816 -0.040470 0.798652 202 255 46 0.590895
-0.148702 -0.046247 0.797639 202 255 46 0.591724
-0.150453 -0.047062 0.799194 202 255 46 0.592088
-0.152053 -0.048565 0.797401 202 255 46 0.592015
-0.148846 -0.045577 0.800982 202 255 46 0.592452
-0.147045 -0.044677 0.799416 202 255 46 0.591697
-0.144875 -0.042977 0.799939 202 255 46 0.591393
-0.143865 -0.040838 0.803347 202 255 46 0.592181
-0.141947 -0.039946 0.801589 202 255 46 0.591003
-0.146741 -0.043743 0.801682 202 255 46 0.591840
-0.139197 -0.038319 0.800639 202 255 46 0.590554
-0.136898 -0.036243 0.801082 198 255 49 0.589711
-0.155649 -0.049497 0.806642 202 255 46 0.593375
-0.158077 -0.051797 0.808132 202 255 46 0.593588
-0.160488 -0.054125 0.809637 202 255 46 0.593249
-0.159819 -0.054037 0.806894 202 255 46 0.593112
-0.158708 -0.051897 0.810868 205 255 43 0.593838
-0.156749 -0.049146 0.812070 205 255 43 0.594069
-0.156161 -0.049324 0.809378 202 255 46 0.593004
-0.154177 -0.046558 0.810583 205 255 43 0.593798
-0.162598 -0.057384 0.806986 202 255 46 0.592727
-0.163410 -0.058376 0.809721 202 255 46 0.592912
-0.165081 -0.060636 0.808385 202 255 46 0.592561
-0.166685 -0.062923 0.807065 202 255 46 0.592332
-0.165845 -0.061701 0.811190 202 255 46 0.592633
-0.164120 -0.059075 0.812445 202 255 46 0.593276
-0.161198 -0.054814 0.812335 202 255 46 0.593535
-0.163933 -0.057473 0.816996 202 255 46 0.593256
-0.162338 -0.055001 0.816850 205 255 43 0.595421
-0.160947 -0.053414 0.815274 205 255 43 0.593808
-0.159343 -0.051013 0.815165 205 255 43 0.594005
-0.162615 -0.056389 0.813881 202 255 46 0.593473
-0.165446 -0.060183 0.815579 202 255 46 0.592832
-0.155918 -0.046330 0.816374 205 255 43 0.594090
-0.152936 -0.043329 0.814709 205 255 43 0.593921
-0.155018 -0.046521 0.813419 205 255 43 0.593884
-0.160379 -0.055065 0.798553 202 255 46 0.592620
-0.161780 -0.056502 0.800536 202 255 46 0.591767
-0.163895 -0.058433 0.801524 202 255 46 0.592228
-0.160502 -0.055279 0.802449 202 255 46 0.592967
-0.159094 -0.053832 0.800463 202 255 46 0.592387
-0.157798 -0.052633 0.802356 202 255 46 0.592762
-0.164464 -0.059822 0.805887 202 255 46 0.592463
-0.162799 -0.057344 0.803623 202 255 46 0.592636
-0.165454 -0.060808 0.803643 202 255 46 0.592254
-0.167796 -0.063737 0.804775 202 255 46 0.592219
-0.157557 -0.051794 0.805666 202 255 46 0.593316
-0.168574 -0.066825 0.808473 202 255 46 0.592284
-0.170295 -0.070937 0.810026 202 255 46 0.592221
-0.170001 -0.069136 0.807031 202 255 46 0.592197
-0.168935 -0.068587 0.811422 202 255 46 0.592343
-0.167658 -0.065840 0.812680 202 255 46 0.592473
-0.167223 -0.064383 0.809876 202 255 46 0.592437
-0.171066 -0.073360 0.808676 202 255 46 0.592194
-0.172022 -0.077595 0.808693 202 255 46 0.592151
-0.171069 -0.077602 0.811859 202 255 46 0.592216
-0.170404 -0.075168 0.813200 202 255 46 0.591811
-0.170161 -0.077335 0.818959 202 255 46 0.592290
-0.170041 -0.075059 0.816945 202 255 46 0.592014
-0.169678 -0.072306 0.818290 202 255 46 0.592219
-0.169414 -0.070075 0.816310 202 255 46 0.592432
-0.169841 -0.072818 0.814944 202 255 46 0.592309
-0.170518 -0.077428 0.815217 202 255 46 0.592271
-0.170601 -0.079708 0.817235 202 255 46 0.592244
-0.168456 -0.067412 0.817828 202 255 46 0.592521
-0.167434 -0.064752 0.817540 202 255 46 0.593008
-0.166516 -0.062732 0.815788 202 255 46 0.593105
-0.168605 -0.067940 0.814478 202 255 46 0.592440
-0.168057 -0.096322 0.807460 202 255 46 0.591681
-0.166263 -0.098254 0.808536 202 255 46 0.591517
-0.166240 -0.099304 0.806434 202 255 46 0.591464
-0.164552 -0.101149 0.807434 202 255 46 0.591429
-0.166324 -0.100279 0.804264 202 255 46 0.591943
-0.164504 -0.100146 0.809573 202 255 46 0.592126
-0.162727 -0.102011 0.810589 202 255 46 0.592217
-0.164937 -0.098745 0.812006 202 255 46 0.592191
-0.166765 -0.096792 0.810927 202 255 46 0.592352
-0.168555 -0.094847 0.809835 202 255 46 0.592057
-0.167190 -0.095343 0.813336 202 255 46 0.591504
-0.163977 -0.102205 0.804758 202 255 46 0.592016
-0.163992 -0.102846 0.802468 202 255 46 0.592184
-0.161782 -0.104025 0.805142 202 255 46 0.591805
-0.161714 -0.104721 0.802879 202 255 46 0.591982
-0.159554 -0.106506 0.803207 202 255 46 0.592483
-0.161752 -0.105356 0.800554 202 255 46 0.591995
-0.157321 -0.107668 0.805859 205 255 43 0.594066
-0.160020 -0.104862 0.808273 202 255 46 0.592325
-0.162199 -0.103074 0.807902 202 255 46 0.591436
-0.155333 -0.108062 0.811509 205 255 43 0.594405
-0.157055 -0.106447 0.813050 202 255 46 0.592783
-0.159506 -0.104446 0.812750 202 255 46 0.593118
-0.161240 -0.102799 0.814258 202 255 46 0.592314
-0.157556 -0.106878 0.808561 205 255 43 0.594123
-0.155110 -0.108850 0.808810 202 255 46 0.592693
-0.161632 -0.101536 0.816789 202 255 46 0.591596
-0.163516 -0.099490 0.815662 202 255 46 0.592366
-0.164645 -0.097677 0.818634 202 255 46 0.592412
-0.166487 -0.095598 0.817474 202 255 46 0.592256
-0.165362 -0.097434 0.814512 202 255 46 0.592267
-0.163133 -0.100752 0.813117 202 255 46 0.592964
-0.170247 -0.081713 0.819212 202 255 46 0.591809
-0.170224 -0.083824 0.817487 202 255 46 0.592258
-0.170632 -0.081772 0.815468 202 255 46 0.591758
-0.170562 -0.083922 0.813742 202 255 46 0.592252
-0.170133 -0.085908 0.815729 202 255 46 0.591866
-0.170001 -0.088017 0.813977 202 255 46 0.591476
-0.169513 -0.088114 0.818077 202 255 46 0.592232
-0.169612 -0.086009 0.819823 202 255 46 0.592177
-0.171359 -0.081700 0.811870 202 255 46 0.591877
-0.171695 -0.083635 0.810281 202 255 46 0.591795
-0.171158 -0.087707 0.810531 202 255 46 0.592093
-0.170861 -0.085840 0.812153 202 255 46 0.591377
-0.169924 -0.092835 0.808278 202 255 46 0.591518
-0.170029 -0.091175 0.810143 202 255 46 0.592093
-0.168639 -0.093256 0.811750 202 255 46 0.591577
-0.168660 -0.091695 0.813669 202 255 46 0.591446
-0.167717 -0.093577 0.815554 202 255 46 0.592231
-0.168214 -0.091751 0.817743 202 255 46 0.591494
-0.166917 -0.093860 0.819692 202 255 46 0.592321
-0.168650 -0.089943 0.819933 202 255 46 0.591401
-0.169115 -0.089904 0.815880 202 255 46 0.591759
-0.152239 -0.111027 0.805547 205 255 43 0.594977
-0.154789 -0.109359 0.805712 205 255 43 0.594952
-0.154447 -0.109878 0.802622 202 255 46 0.592335
-0.151918 -0.111548 0.802416 202 255 46 0.592433
-0.151664 -0.112031 0.799262 202 255 46 0.592531
-0.149055 -0.113321 0.801675 202 255 46 0.592574
-0.149307 -0.112818 0.804837 205 255 43 0.594066
-0.157120 -0.108167 0.803131 202 255 46 0.592222
-0.156878 -0.108697 0.800426 202 255 46 0.592519
-0.159320 -0.107025 0.800501 202 255 46 0.592143
-0.159039 -0.107553 0.797790 202 255 46 0.592200
-0.156709 -0.109148 0.797625 202 255 46 0.592354
-0.156497 -0.109652 0.794865 202 255 46 0.592442
-0.154115 -0.110854 0.797080 202 255 46 0.592304
-0.154221 -0.110398 0.799862 202 255 46 0.592403
-0.151911 -0.112842 0.787454 202 255 46 0.592865
-0.151793 -0.112682 0.790474 202 255 46 0.592845
-0.149315 -0.114084 0.789324 202 255 46 0.592853
-0.151700 -0.112516 0.793409 202 255 46 0.592722
-0.149186 -0.113924 0.792291 202 255 46 0.593177
-0.149104 -0.113720 0.795253 202 255 46 0.592811
-0.146653 -0.115312 0.791187 202 255 46 0.593090
-0.151679 -0.112291 0.796365 202 255 46 0.592655
-0.154088 -0.111096 0.794176 202 255 46 0.592661
-0.154114 -0.111307 0.791217 202 255 46 0.593184
-0.146549 -0.115200 0.794446 202 255 46 0.593341
-0.143789 -0.116698 0.793187 202 255 46 0.592790
-0.146472 -0.115015 0.797662 202 255 46 0.592724
-0.143686 -0.116567 0.796427 202 255 46 0.592739
-0.146432 -0.114800 0.800879 202 255 46 0.592633
-0.149075 -0.113536 0.798481 202 255 46 0.593099
-0.154275 -0.111595 0.788474 202 255 46 0.593175
-0.156566 -0.109996 0.792176 202 255 46 0.593260
-0.158977 -0.108115 0.795310 202 255 46 0.592259
-0.133393 -0.044896 0.770907 202 255 46 0.591562
-0.132791 -0.043827 0.773235 202 255 46 0.591524
-0.132226 -0.042786 0.775586 202 255 46 0.591484
-0.135313 -0.043925 0.774154 202 255 46 0.591524
-0.129144 -0.041641 0.777026 202 255 46 0.591401
-0.129639 -0.042753 0.774617 202 255 46 0.591458
-0.130161 -0.043829 0.772214 202 255 46 0.591508
-0.126915 -0.042758 0.773535 202 255 46 0.591474
-0.135045 -0.043209 0.776583 202 255 46 0.591470
-0.134781 -0.042506 0.779003 202 255 46 0.591441
-0.137718 -0.043659 0.777491 202 255 46 0.591980
-0.131817 -0.041327 0.780545 202 255 46 0.591337
-0.132035 -0.042071 0.778072 202 255 46 0.591404
-0.125855 -0.038952 0.780808 202 255 46 0.591318
-0.125921 -0.039988 0.778317 202 255 46 0.591342
-0.128978 -0.040629 0.779471 202 255 46 0.591361
-0.128825 -0.039624 0.781912 202 255 46 0.591299
-0.123145 -0.039699 0.777112 202 255 46 0.591343
-0.123590 -0.041120 0.774646 202 255 46 0.591408
-0.126438 -0.041371 0.775906 202 255 46 0.591403
-0.139160 -0.044330 0.774419 202 255 46 0.591544
-0.141563 -0.044561 0.775249 202 255 46 0.591497
-0.137064 -0.044943 0.771259 202 255 46 0.591577
-0.143484 -0.044981 0.783871 202 255 46 0.590920
-0.142676 -0.044340 0.786581 202 255 46 0.590685
-0.145941 -0.045795 0.785531 202 255 46 0.590821
-0.141867 -0.043699 0.789275 202 255 46 0.590431
-0.139123 -0.042848 0.787642 202 255 46 0.590177
-0.147468 -0.046273 0.787746 202 255 46 0.590795
-0.150412 -0.047571 0.787805 202 255 46 0.590897
-0.146157 -0.045591 0.789774 202 255 46 0.590722
-0.141834 -0.043106 0.791781 202 255 46 0.590958
-0.139524 -0.042072 0.790847 202 255 46 0.590228
-0.144923 -0.044698 0.791836 202 255 46 0.590606
-0.136662 -0.041146 0.789153 202 255 46 0.590166
-0.137684 -0.043292 0.779961 202 255 46 0.591312
-0.137666 -0.042897 0.782449 202 255 46 0.591193
-0.140446 -0.044108 0.780866 202 255 46 0.591150
-0.134871 -0.041677 0.784005 202 255 46 0.591305
-0.134823 -0.042084 0.781517 202 255 46 0.591375
-0.140101 -0.043538 0.784718 202 255 46 0.590745
-0.133950 -0.040374 0.787025 202 255 46 0.591053
-0.132062 -0.039949 0.785460 202 255 46 0.591271
-0.131944 -0.040642 0.782994 202 255 46 0.591296
-0.144459 -0.045167 0.780789 202 255 46 0.591234
-0.140362 -0.044184 0.778432 202 255 46 0.591396
-0.143548 -0.044920 0.777698 202 255 46 0.591405
-0.150521 -0.047779 0.790198 202 255 46 0.590997
-0.152653 -0.048900 0.790924 202 255 46 0.591121
-0.150677 -0.047973 0.792611 202 255 46 0.591112
-0.148289 -0.046725 0.791831 202 255 46 0.590835
-0.155239 -0.050603 0.792629 202 255 46 0.590455
-0.151347 -0.048276 0.795011 202 255 46 0.591541
-0.148835 -0.046670 0.794336 202 255 46 0.591223
-0.153718 -0.049715 0.795602 202 255 46 0.590355
-0.148868 -0.046779 0.785726 202 255 46 0.590972
-0.147567 -0.046189 0.783353 202 255 46 0.591050
-0.074178 -0.120700 0.869917 202 255 46 0.591732
-0.076069 -0.119253 0.873592 202 255 46 0.591640
-0.072269 -0.122051 0.866186 202 255 46 0.591982
-0.074799 -0.122311 0.865023 202 255 46 0.592001
-0.076704 -0.120929 0.868731 202 255 46 0.591769
-0.078590 -0.119455 0.872391 202 255 46 0.591655
-0.071630 -0.123517 0.861845 202 255 46 0.592400
-0.070992 -0.124926 0.857494 202 255 46 0.592722
-0.068506 -0.124724 0.858752 202 255 46 0.592698
-0.069147 -0.123334 0.863121 202 255 46 0.592237
-0.079343 -0.121065 0.867233 202 255 46 0.591841
-0.081291 -0.119680 0.870854 202 255 46 0.591688
-0.077382 -0.122422 0.863567 202 255 46 0.591918
-0.076772 -0.123790 0.859104 202 255 46 0.592514
-0.073569 -0.125058 0.856071 202 255 46 0.592788
-0.074184 -0.123670 0.860539 202 255 46 0.592376
-0.068751 -0.128424 0.844048 202 255 46 0.591574
-0.065519 -0.129805 0.841028 202 255 46 0.590836
-0.069487 -0.127097 0.848496 202 255 46 0.592073
-0.066220 -0.128286 0.845435 202 255 46 0.591378
-0.066959 -0.126973 0.849885 202 255 46 0.592018
-0.062980 -0.129674 0.842415 202 255 46 0.590743
-0.070226 -0.125912 0.852982 202 255 46 0.593379
-0.072810 -0.126074 0.851569 202 255 46 0.593530
-0.063713 -0.128096 0.846735 202 255 46 0.591372
-0.060542 -0.129477 0.843715 202 255 46 0.591522
-0.064471 -0.126764 0.851126 202 255 46 0.591842
-0.061275 -0.127919 0.848053 202 255 46 0.591547
-0.066481 -0.125679 0.854937 205 255 43 0.593820
-0.081494 -0.029416 0.893199 202 255 46 0.591573
-0.082160 -0.026247 0.890621 202 255 46 0.591665
-0.081977 -0.022936 0.888322 202 255 46 0.590875
-0.079758 -0.025773 0.891227 202 255 46 0.591148
-0.079151 -0.028987 0.893808 202 255 46 0.591691
-0.081694 -0.019536 0.886057 202 255 46 0.591063
-0.081381 -0.015966 0.883878 198 255 49 0.589562
-0.076737 -0.025454 0.892357 202 255 46 0.590063
-0.077308 -0.018969 0.887348 202 255 46 0.589974
-0.078986 -0.015715 0.884562 198 255 49 0.589032
-0.079154 -0.022511 0.889072 202 255 46 0.590453
-0.080324 -0.007561 0.876972 202 255 46 0.590383
-0.079691 -0.010277 0.879457 202 255 46 0.590749
-0.082682 -0.010733 0.878887 202 255 46 0.590325
-0.083339 -0.007970 0.876515 202 255 46 0.590991
-0.080535 -0.013196 0.881628 198 255 49 0.589676
-0.078152 -0.012897 0.882316 198 255 49 0.589280
-0.085801 -0.008359 0.876247 202 255 46 0.591049
-0.086220 -0.011331 0.878403 202 255 46 0.590879
-0.084187 -0.013772 0.880962 202 255 46 0.590375
-0.083769 -0.071739 0.908223 202 255 46 0.591468
-0.083409 -0.067228 0.908181 202 255 46 0.591559
-0.085480 -0.076518 0.907663 202 255 46 0.591383
-0.087146 -0.081190 0.906932 202 255 46 0.591259
-0.085833 -0.067414 0.907634 202 255 46 0.591535
-0.088165 -0.076512 0.907039 202 255 46 0.591509
-0.086141 -0.072014 0.907610 202 255 46 0.591565
-0.092152 -0.094020 0.900285 202 255 46 0.591261
-0.092543 -0.098002 0.898281 202 255 46 0.591504
-0.089960 -0.089739 0.902793 202 255 46 0.591254
-0.088638 -0.093539 0.901301 202 255 46 0.591375
-0.089010 -0.097578 0.899241 202 255 46 0.591331
-0.089468 -0.085658 0.904651 202 255 46 0.591212
-0.086695 -0.097297 0.900159 202 255 46 0.591347
-0.086319 -0.089240 0.903932 202 255 46 0.590936
-0.085400 -0.093132 0.902594 202 255 46 0.591256
-0.086779 -0.085245 0.905497 202 255 46 0.591166
-0.084632 -0.100364 0.897521 202 255 46 0.590842
-0.084869 -0.103660 0.893927 202 255 46 0.591185
-0.086947 -0.100611 0.896589 202 255 46 0.591261
-0.087186 -0.103911 0.893038 202 255 46 0.591252
-0.085091 -0.106950 0.890368 202 255 46 0.591162
-0.085317 -0.110194 0.886798 202 255 46 0.591309
-0.082821 -0.110007 0.887900 202 255 46 0.591287
-0.082616 -0.106761 0.891522 202 255 46 0.591568
-0.089489 -0.100976 0.895218 202 255 46 0.591261
-0.089981 -0.104365 0.891215 202 255 46 0.591146
-0.089053 -0.107466 0.888066 202 255 46 0.591107
-0.088135 -0.110659 0.885037 202 255 46 0.591287
-0.082971 -0.117436 0.874406 202 255 46 0.591548
-0.084662 -0.115168 0.877993 202 255 46 0.591788
-0.081966 -0.114983 0.879574 202 255 46 0.591391
-0.080273 -0.117245 0.875964 202 255 46 0.591484
-0.084993 -0.112715 0.882391 202 255 46 0.591237
-0.087814 -0.113166 0.880658 202 255 46 0.591295
-0.077752 -0.117085 0.877110 202 255 46 0.591490
-0.079450 -0.114757 0.880623 202 255 46 0.591486
-0.079894 -0.112352 0.884832 202 255 46 0.591321
-0.082393 -0.112539 0.883737 202 255 46 0.591226
-0.078648 -0.057135 0.907527 202 255 46 0.591521
-0.078500 -0.052741 0.905933 202 255 46 0.591689
-0.077827 -0.048218 0.904516 202 255 46 0.591593
-0.077268 -0.043790 0.903110 202 255 46 0.591833
-0.076605 -0.056626 0.908130 202 255 46 0.591845
-0.075731 -0.047816 0.905259 202 255 46 0.591521
-0.076481 -0.052258 0.906570 202 255 46 0.591711
-0.076885 -0.032372 0.896784 202 255 46 0.590403
-0.077290 -0.036081 0.898735 202 255 46 0.591591
-0.076846 -0.039833 0.901078 202 255 46 0.591579
-0.079291 -0.032678 0.895851 202 255 46 0.591601
-0.079413 -0.036389 0.898076 202 255 46 0.591540
-0.102732 0.000431 0.858814 202 255 46 0.591438
-0.104618 0.000662 0.856728 202 255 46 0.591397
-0.100892 0.000287 0.860931 202 255 46 0.591527
-0.104258 -0.000486 0.861278 202 255 46 0.591438
-0.106088 -0.000345 0.859187 202 255 46 0.591376
-0.107984 -0.000113 0.857101 202 255 46 0.591271
-0.102419 -0.000675 0.863355 202 255 46 0.591491
-0.100602 -0.000924 0.865393 202 255 46 0.591554
-0.099242 -0.000128 0.863077 202 255 46 0.591550
-0.097636 -0.000512 0.865223 202 255 46 0.591578
-0.108715 -0.000897 0.859623 202 255 46 0.591327
-0.110720 -0.000766 0.857661 202 255 46 0.591312
-0.106757 -0.000925 0.861582 202 255 46 0.591453
-0.104921 -0.001141 0.863643 202 255 46 0.591506
-0.103107 -0.001334 0.865692 202 255 46 0.591549
-0.098248 -0.005689 0.871747 202 255 46 0.591538
-0.099733 -0.004355 0.869672 202 255 46 0.591549
-0.100149 -0.002639 0.867552 202 255 46 0.591377
-0.094529 -0.005074 0.871502 202 255 46 0.591679
-0.094541 -0.003506 0.869355 202 255 46 0.591588
-0.092027 -0.004731 0.871512 202 255 46 0.591856
-0.094584 -0.001835 0.867231 202 255 46 0.591584
-0.097560 -0.002192 0.867380 202 255 46 0.591923
-0.116699 -0.003975 0.841866 202 255 46 0.590228
-0.120553 -0.006289 0.840389 202 255 46 0.590212
-0.116431 -0.003532 0.844230 202 255 46 0.590203
-0.120278 -0.005868 0.842731 202 255 46 0.590157
-0.120007 -0.005437 0.845077 202 255 46 0.590100
-0.124151 -0.008098 0.841281 202 255 46 0.590506
-0.116190 -0.003067 0.846597 202 255 46 0.590527
-0.115923 -0.002714 0.848948 202 255 46 0.590570
-0.112479 -0.001331 0.848313 202 255 46 0.590624
-0.112723 -0.001759 0.845945 202 255 46 0.591767
-0.123486 -0.007250 0.843652 202 255 46 0.589889
-0.127126 -0.009404 0.842623 202 255 46 0.590805
-0.122833 -0.006393 0.846043 202 255 46 0.590544
-0.126453 -0.008559 0.845006 202 255 46 0.590832
-0.122209 -0.005542 0.848444 202 255 46 0.590726
-0.118778 -0.003657 0.849899 202 255 46 0.590842
-0.119398 -0.004513 0.847501 202 255 46 0.590437
-0.112682 -0.001399 0.855622 202 255 46 0.591104
-0.114674 -0.002000 0.853589 202 255 46 0.590961
-0.111938 -0.001384 0.853023 202 255 46 0.591391
-0.109951 -0.000746 0.855064 202 255 46 0.590999
-0.115306 -0.002320 0.851279 202 255 46 0.590697
-0.118123 -0.003360 0.852206 202 255 46 0.590872
-0.106542 0.000345 0.854572 202 255 46 0.591107
-0.108462 -0.000055 0.852403 202 255 46 0.590813
-0.110483 -0.000659 0.850360 202 255 46 0.590612
-0.133465 -0.019248 0.828498 202 255 46 0.593169
-0.135135 -0.021271 0.826916 202 255 46 0.591331
-0.131779 -0.017208 0.830095 202 255 46 0.593253
-0.135865 -0.019792 0.830906 202 255 46 0.593261
-0.137204 -0.022542 0.827314 205 255 43 0.596674
-0.139278 -0.023784 0.827714 205 255 43 0.594560
-0.134152 -0.017819 0.832510 205 255 43 0.595710
-0.132431 -0.015845 0.834123 202 255 46 0.592403
-0.130116 -0.015417 0.831666 202 255 46 0.591519
-0.128448 -0.013625 0.833228 202 255 46 0.591026
-0.141651 -0.025248 0.828383 205 255 43 0.594915
-0.139358 -0.022431 0.830046 202 255 46 0.593734
-0.141692 -0.023914 0.830734 205 255 43 0.594223
-0.144044 -0.026695 0.829048 205 255 43 0.595133
-0.139391 -0.021133 0.832408 205 255 43 0.594740
-0.144084 -0.025356 0.831393 205 255 43 0.594427
-0.141727 -0.022625 0.833078 202 255 46 0.593448
-0.146466 -0.028109 0.829692 205 255 43 0.595590
-0.139387 -0.019868 0.834780 202 255 46 0.592533
-0.135889 -0.017259 0.835656 202 255 46 0.592044
-0.129202 -0.011312 0.840822 202 255 46 0.590938
-0.131279 -0.013220 0.839018 202 255 46 0.590535
-0.128254 -0.012035 0.837683 202 255 46 0.591027
-0.126196 -0.010088 0.839476 202 255 46 0.590657
-0.131856 -0.014525 0.836560 202 255 46 0.590331
-0.135262 -0.016022 0.838081 202 255 46 0.591886
-0.122444 -0.007986 0.838584 202 255 46 0.591524
-0.124367 -0.009639 0.836791 202 255 46 0.590553
-0.124450 -0.010466 0.834547 202 255 46 0.590629
-0.128357 -0.012812 0.835450 202 255 46 0.591071
-0.141303 -0.032159 0.815971 205 255 43 0.596214
-0.141536 -0.030538 0.818927 205 255 43 0.597016
-0.143756 -0.033042 0.817883 208 255 40 0.599535
-0.145942 -0.035513 0.816821 205 255 43 0.594800
-0.143987 -0.031405 0.820830 205 255 43 0.596621
-0.141446 -0.028827 0.821834 205 255 43 0.596809
-0.137714 -0.026326 0.821145 208 255 40 0.598914
-0.148685 -0.037135 0.818594 205 255 43 0.597374
-0.147662 -0.034590 0.821362 205 255 43 0.596047
-0.146111 -0.029784 0.826243 208 255 40 0.598030
-0.143691 -0.028324 0.825617 208 255 40 0.597726
-0.141313 -0.026857 0.824950 205 255 43 0.596144
-0.146585 -0.031473 0.824466 205 255 43 0.595897
-0.137601 -0.024402 0.824257 205 255 43 0.595464
-0.135525 -0.023134 0.823862 208 255 40 0.600333
-0.147671 -0.042330 0.806887 202 255 46 0.592597
-0.149529 -0.042942 0.808667 202 255 46 0.593023
-0.149468 -0.044346 0.805831 202 255 46 0.593291
-0.147714 -0.040935 0.809726 202 255 46 0.592981
-0.145624 -0.038721 0.810736 202 255 46 0.592911
-0.145741 -0.040203 0.807914 202 255 46 0.592420
-0.151943 -0.046297 0.806208 202 255 46 0.593355
-0.152204 -0.045417 0.808987 202 255 46 0.593510
-0.153882 -0.047460 0.807835 202 255 46 0.593693
-0.152386 -0.044359 0.811714 202 255 46 0.593715
-0.149664 -0.041903 0.811418 202 255 46 0.593411
-0.149633 -0.039601 0.815788 205 255 43 0.594973
-0.147193 -0.038086 0.814014 205 255 43 0.594568
-0.143669 -0.034721 0.814891 205 255 43 0.595278
-0.143702 -0.036433 0.811856 205 255 43 0.593781
-0.154371 -0.050113 0.798942 202 255 46 0.592255
-0.152961 -0.048741 0.800777 202 255 46 0.592637
-0.157214 -0.052435 0.798280 202 255 46 0.592180
-0.155539 -0.050717 0.802134 202 255 46 0.592827
-0.153792 -0.048258 0.805325 202 255 46 0.593298
-0.149768 -0.045412 0.803533 202 255 46 0.592806
-0.151530 -0.047108 0.802713 202 255 46 0.592983
-0.158765 -0.053491 0.796420 202 255 46 0.591922
-0.155743 -0.051197 0.796003 202 255 46 0.591783
0.117133 -0.003558 0.879410 202 255 46 0.592490
0.112394 -0.002603 0.879609 202 255 46 0.592846
0.118288 -0.003918 0.876954 202 255 46 0.592667
0.113521 -0.002935 0.877150 202 255 46 0.592280
0.114676 -0.003302 0.874686 202 255 46 0.592167
0.111207 -0.002114 0.881969 202 255 46 0.592875
0.124658 -0.007697 0.868456 202 255 46 0.592268
0.120450 -0.006172 0.868972 202 255 46 0.592979
0.119673 -0.005320 0.871594 202 255 46 0.592603
0.116205 -0.004760 0.869473 202 255 46 0.592283
0.121130 -0.007024 0.866222 202 255 46 0.592538
0.116915 -0.005580 0.866811 202 255 46 0.592203
0.117671 -0.006450 0.864137 202 255 46 0.592004
0.118905 -0.004553 0.874179 202 255 46 0.592690
0.115456 -0.004028 0.872129 202 255 46 0.592166
0.084870 -0.001881 0.867486 205 255 43 0.595441
0.088695 -0.001779 0.869543 208 255 40 0.599938
0.089823 -0.002217 0.867132 208 255 40 0.601344
0.092446 -0.001742 0.871578 211 255 36 0.601785
0.093622 -0.002140 0.869181 208 255 40 0.598691
0.097394 -0.002000 0.871201 205 255 43 0.595026
0.096208 -0.001597 0.873582 205 255 43 0.597387
0.094803 -0.002458 0.866749 205 255 43 0.594642
0.098567 -0.002358 0.868775 202 255 46 0.593567
0.099721 -0.002673 0.866302 202 255 46 0.592798
0.095997 -0.002731 0.864318 202 255 46 0.592667
0.091008 -0.002566 0.864754 205 255 43 0.596392
0.092184 -0.002839 0.862321 202 255 46 0.593748
0.087181 -0.002721 0.862736 208 255 40 0.599662
0.086017 -0.002349 0.865128 208 255 40 0.597758
0.082095 -0.002486 0.863046 205 255 43 0.594448
0.088394 -0.002991 0.860317 205 255 43 0.595026
0.083240 -0.002858 0.860645 208 255 40 0.597891
0.084363 -0.003133 0.858164 205 255 43 0.597451
0.080956 -0.001997 0.865405 202 255 46 0.592831
0.099918 -0.001701 0.875623 205 255 43 0.595196
0.103652 -0.001836 0.877710 205 255 43 0.594049
0.104811 -0.002259 0.875296 202 255 46 0.593448
0.107433 -0.001984 0.879830 202 255 46 0.593251
0.108600 -0.002393 0.877439 202 255 46 0.592924
0.109741 -0.002682 0.874975 202 255 46 0.592544
0.110900 -0.003123 0.872551 202 255 46 0.592315
0.105997 -0.002586 0.872899 202 255 46 0.592347
0.107189 -0.002928 0.870450 202 255 46 0.592511
0.102255 -0.002449 0.870814 202 255 46 0.593222
0.101084 -0.002113 0.873232 202 255 46 0.593489
0.103456 -0.002775 0.868364 202 255 46 0.592657
0.114021 -0.006237 0.862055 202 255 46 0.592247
0.113216 -0.005322 0.864654 202 255 46 0.592303
0.109590 -0.005141 0.862629 202 255 46 0.591950
0.110364 -0.005971 0.859972 202 255 46 0.592166
0.108719 -0.004300 0.865179 202 255 46 0.592224
0.105917 -0.004884 0.860576 202 255 46 0.592418
0.105068 -0.004074 0.863176 202 255 46 0.592492
0.101463 -0.003916 0.861166 202 255 46 0.592497
