ply
format ascii 1.0
comment VCGLIB generated
element vertex 959
property float x
property float y
property float z
property uchar red
property uchar green
property uchar blue
property float quality
end_header
0.001621 -0.005776 0.814897 53 255 195 0.413075
-0.000696 -0.005869 0.813471 27 255 221 0.381123
-0.004449 -0.004955 0.814896 49 255 198 0.409586
-0.003001 -0.005960 0.812052 53 255 195 0.413138
-0.006714 -0.005044 0.813455 49 255 198 0.408318
-0.008130 -0.003859 0.816238 40 255 208 0.398001
-0.010368 -0.003943 0.814805 40 255 208 0.395237
-0.005276 -0.006021 0.810625 53 255 195 0.411603
-0.008947 -0.005106 0.812022 49 255 198 0.406944
-0.007511 -0.006070 0.809194 49 255 198 0.409775
-0.011777 -0.002681 0.817569 30 255 218 0.386039
-0.000196 -0.002062 0.824438 30 255 218 0.385529
0.002145 -0.001973 0.825782 30 255 218 0.385795
0.003417 -0.003295 0.823308 43 255 205 0.400852
0.004494 -0.001887 0.827118 27 255 221 0.380858
0.005761 -0.003229 0.824641 43 255 205 0.400959
0.007076 -0.004444 0.822111 53 255 195 0.410763
0.008504 -0.005515 0.819295 56 255 192 0.414569
0.004781 -0.004576 0.820616 53 255 195 0.411391
0.006196 -0.005597 0.817820 53 255 195 0.414006
0.002499 -0.004677 0.819137 53 255 195 0.410603
0.001133 -0.003434 0.821815 43 255 205 0.400365
0.003897 -0.005689 0.816378 53 255 195 0.413517
0.012913 -0.007637 0.811168 66 255 182 0.428004
0.010586 -0.007779 0.809591 62 255 185 0.423863
0.009047 -0.007332 0.812562 59 255 189 0.418825
0.008274 -0.007926 0.808035 62 255 185 0.423964
0.006756 -0.007443 0.810963 59 255 189 0.418523
0.004474 -0.007551 0.809361 59 255 189 0.418444
0.005974 -0.008071 0.806484 62 255 185 0.424179
0.005289 -0.006709 0.813811 56 255 192 0.416556
0.003014 -0.006807 0.812176 56 255 192 0.415891
0.007596 -0.006629 0.815250 56 255 192 0.416887
0.009903 -0.006541 0.816698 56 255 192 0.417273
0.011369 -0.007246 0.813992 59 255 189 0.418917
0.003621 -0.008224 0.805144 33 255 215 0.389185
0.001314 -0.008356 0.803599 62 255 185 0.424402
-0.000198 -0.007784 0.806628 59 255 189 0.418558
-0.000975 -0.008496 0.802048 62 255 185 0.423963
-0.002467 -0.007881 0.805068 59 255 189 0.418782
-0.004699 -0.007966 0.803483 66 255 182 0.429390
-0.003243 -0.008617 0.800473 62 255 185 0.422479
-0.003920 -0.007072 0.807982 56 255 192 0.415830
-0.006122 -0.007140 0.806397 56 255 192 0.415678
-0.001628 -0.007014 0.809390 56 255 192 0.416499
0.000697 -0.006909 0.810778 56 255 192 0.416093
0.002138 -0.007670 0.807996 56 255 192 0.417927
0.037604 -0.006563 0.817918 62 255 185 0.422981
0.039129 -0.006902 0.814951 56 255 192 0.417613
0.036429 -0.007089 0.813288 59 255 189 0.420661
0.040637 -0.007401 0.811973 56 255 192 0.417781
0.037936 -0.007635 0.810347 59 255 189 0.419661
0.039395 -0.008536 0.807519 59 255 189 0.419086
0.042102 -0.008290 0.809113 59 255 189 0.419375
0.035228 -0.007920 0.808745 59 255 189 0.419524
0.036683 -0.008852 0.805944 59 255 189 0.418995
0.033938 -0.009227 0.804385 59 255 189 0.418966
0.032370 -0.008262 0.807184 59 255 189 0.419526
0.033588 -0.007374 0.811715 59 255 189 0.420566
0.030731 -0.007654 0.810134 59 255 189 0.420431
0.031936 -0.007031 0.814708 62 255 185 0.422516
0.034767 -0.006794 0.816322 62 255 185 0.422633
0.029073 -0.007251 0.813091 62 255 185 0.422142
0.043513 -0.010052 0.806600 59 255 189 0.419341
0.044715 -0.012189 0.804197 59 255 189 0.419136
0.042163 -0.012549 0.802677 59 255 189 0.418865
0.045808 -0.014741 0.802021 59 255 189 0.418484
0.043263 -0.015099 0.800519 59 255 189 0.418224
0.040690 -0.015488 0.799048 59 255 189 0.418007
0.037957 -0.015873 0.797557 56 255 192 0.417873
0.039448 -0.012856 0.801153 59 255 189 0.419423
0.036714 -0.013257 0.799624 59 255 189 0.418624
0.038107 -0.010671 0.803459 59 255 189 0.419036
0.040817 -0.010340 0.805022 59 255 189 0.419159
0.035365 -0.011052 0.801917 59 255 189 0.418896
0.030512 -0.017146 0.793146 56 255 192 0.417607
0.029198 -0.014451 0.795141 59 255 189 0.418374
0.031802 -0.014059 0.796591 59 255 189 0.418383
0.027742 -0.012177 0.797333 62 255 185 0.425561
0.030348 -0.011795 0.798820 59 255 189 0.418901
0.028805 -0.009881 0.801241 59 255 189 0.419019
0.026195 -0.010260 0.799713 59 255 189 0.418982
0.032914 -0.011434 0.800335 75 255 172 0.437800
0.031390 -0.009533 0.802795 59 255 189 0.419066
0.034268 -0.013639 0.798090 59 255 189 0.418406
0.035509 -0.016273 0.796042 56 255 192 0.417720
0.033030 -0.016691 0.794573 56 255 192 0.417626
0.024618 -0.009197 0.802423 59 255 189 0.419383
0.022952 -0.008396 0.805304 59 255 189 0.419953
0.025603 -0.008121 0.806842 69 255 179 0.432424
0.021227 -0.007870 0.808266 59 255 189 0.421341
0.023888 -0.007636 0.809826 59 255 189 0.421444
0.026519 -0.007419 0.811392 59 255 189 0.421844
0.028197 -0.007841 0.808451 59 255 189 0.420137
0.029820 -0.008530 0.805583 59 255 189 0.419402
0.027222 -0.008857 0.804020 59 255 189 0.419393
0.007036 -0.028702 0.775753 53 255 195 0.413515
0.008020 -0.032254 0.775196 53 255 195 0.412787
0.005502 -0.032594 0.773632 56 255 192 0.415958
0.008986 -0.035762 0.774668 56 255 192 0.414091
0.006472 -0.036063 0.773154 75 255 172 0.441014
0.007453 -0.039401 0.772606 59 255 189 0.418222
0.009973 -0.039192 0.774117 59 255 189 0.418354
0.003960 -0.036331 0.771687 56 255 192 0.415898
0.004943 -0.039621 0.771179 59 255 189 0.420180
0.002426 -0.039811 0.769862 62 255 185 0.422838
0.001244 -0.036651 0.770254 56 255 192 0.415409
0.002772 -0.032975 0.772141 53 255 195 0.413236
0.000076 -0.033358 0.770656 4 234 244 0.352366
0.001575 -0.029635 0.772579 82 255 166 0.448491
0.004288 -0.029191 0.774154 75 255 172 0.438647
0.003005 -0.025827 0.774721 53 255 195 0.413858
-0.001114 -0.030050 0.771101 53 255 195 0.413476
0.000320 -0.026330 0.773126 53 255 195 0.413788
-0.002307 -0.026816 0.771585 53 255 195 0.413256
0.005728 -0.025234 0.776354 56 255 192 0.414345
0.011226 -0.042803 0.774328 43 255 205 0.399084
0.012177 -0.046474 0.774432 88 255 160 0.453426
0.009930 -0.046540 0.773247 82 255 166 0.447259
0.013088 -0.049947 0.774658 98 255 150 0.465762
0.010845 -0.050043 0.773393 30 255 218 0.386009
0.008611 -0.050060 0.772154 108 255 140 0.477301
0.006058 -0.050147 0.770770 104 255 143 0.472918
0.007398 -0.046679 0.771802 88 255 160 0.455895
0.004837 -0.046768 0.770528 104 255 143 0.474368
0.006168 -0.043162 0.771531 72 255 176 0.433648
0.008714 -0.043048 0.772868 69 255 179 0.430425
0.003647 -0.043288 0.770145 20 254 228 0.372510
-0.002257 -0.050592 0.765806 88 255 160 0.455932
-0.000001 -0.050383 0.767226 98 255 150 0.464970
-0.001506 -0.047201 0.766884 95 255 153 0.464295
-0.003784 -0.047475 0.765567 4 234 244 0.353015
0.000778 -0.046970 0.768217 104 255 143 0.475900
-0.002979 -0.044010 0.766506 82 255 166 0.446539
-0.000697 -0.043724 0.767774 195 255 53 0.584250
-0.002071 -0.040440 0.767119 62 255 185 0.423895
-0.005203 -0.044314 0.765138 82 255 166 0.447090
-0.004311 -0.040791 0.765828 62 255 185 0.424831
-0.006534 -0.041173 0.764536 49 255 198 0.406392
0.001605 -0.043439 0.769042 79 255 169 0.444975
0.000158 -0.040138 0.768481 62 255 185 0.423128
0.002792 -0.046860 0.769393 104 255 143 0.474551
0.004015 -0.050205 0.769591 27 255 221 0.381853
0.002004 -0.050282 0.768396 101 255 147 0.471823
-0.008495 -0.038100 0.764460 53 255 195 0.413297
-0.005380 -0.037725 0.766146 56 255 192 0.416199
-0.007402 -0.034612 0.766182 53 255 195 0.412302
-0.010435 -0.034993 0.764362 49 255 198 0.409231
-0.004313 -0.034229 0.767899 53 255 195 0.413506
-0.009381 -0.031492 0.766081 53 255 195 0.410365
-0.006340 -0.031024 0.767888 53 255 195 0.412794
-0.008363 -0.027919 0.767912 53 255 195 0.412667
-0.012339 -0.031922 0.764145 49 255 198 0.409745
-0.011319 -0.028416 0.765963 43 255 205 0.400135
-0.014219 -0.028864 0.763913 53 255 195 0.411304
-0.003269 -0.030552 0.769621 53 255 195 0.413080
-0.005384 -0.027402 0.769728 53 255 195 0.413001
-0.002121 -0.033807 0.769239 75 255 172 0.440818
-0.000993 -0.036992 0.768882 56 255 192 0.417879
-0.003213 -0.037341 0.767564 56 255 192 0.416699
-0.013591 -0.036257 0.761838 46 255 202 0.404351
-0.011761 -0.039326 0.762131 46 255 202 0.404491
-0.009803 -0.042319 0.762138 0 218 255 0.337978
-0.013032 -0.043479 0.759606 40 255 208 0.398396
-0.014994 -0.041413 0.759197 33 255 215 0.389404
-0.015252 -0.037780 0.760306 88 255 160 0.453292
-0.016897 -0.039290 0.758678 20 254 228 0.374991
-0.017087 -0.035648 0.759598 46 255 202 0.402972
-0.015506 -0.034131 0.761280 49 255 198 0.406700
-0.017334 -0.031996 0.760592 49 255 198 0.409833
-0.018758 -0.037156 0.758020 43 255 205 0.399328
-0.018942 -0.033506 0.758907 56 255 192 0.416279
-0.020553 -0.034990 0.757239 49 255 198 0.406940
-0.015764 -0.030443 0.762303 53 255 195 0.410606
-0.006795 -0.048153 0.763365 85 255 163 0.451196
-0.005294 -0.051189 0.763607 88 255 160 0.454419
-0.008417 -0.052047 0.761127 72 255 176 0.436658
-0.010057 -0.049223 0.760738 66 255 182 0.426821
-0.010005 -0.045826 0.761574 59 255 189 0.419563
-0.013190 -0.054027 0.756899 20 254 228 0.371133
-0.013662 -0.050866 0.757576 20 254 228 0.373605
-0.015289 -0.048353 0.756901 4 234 244 0.354484
-0.015578 -0.044991 0.757290 23 255 224 0.377999
-0.018064 -0.046523 0.754897 27 255 221 0.381535
-0.012776 -0.046853 0.759261 36 255 211 0.390892
-0.010786 -0.052881 0.759110 53 255 195 0.412438
-0.020097 -0.044733 0.754393 17 250 231 0.367659
-0.020803 -0.041891 0.755068 23 255 224 0.376020
-0.022783 -0.040057 0.754348 33 255 215 0.388316
-0.023323 -0.037136 0.754764 46 255 202 0.404079
-0.026039 -0.039270 0.752074 46 255 202 0.403503
-0.017552 -0.042919 0.756876 23 255 224 0.375958
0.004665 -0.022143 0.778238 66 255 182 0.428086
0.001956 -0.022785 0.776494 56 255 192 0.414556
0.000845 -0.019905 0.778479 56 255 192 0.415067
-0.000693 -0.023377 0.774824 56 255 192 0.414183
-0.001770 -0.020525 0.776693 59 255 189 0.419694
-0.004321 -0.021138 0.774996 56 255 192 0.414330
-0.003274 -0.023915 0.773127 53 255 195 0.413867
-0.002930 -0.017879 0.778808 56 255 192 0.415030
-0.005465 -0.018487 0.776972 56 255 192 0.414735
-0.006645 -0.015987 0.779140 56 255 192 0.415216
-0.004070 -0.015502 0.780793 56 255 192 0.415658
-0.000275 -0.017324 0.780381 56 255 192 0.415812
-0.001475 -0.014976 0.782450 56 255 192 0.416192
0.002436 -0.016740 0.781983 56 255 192 0.416256
0.003584 -0.019281 0.779980 69 255 179 0.430509
0.001180 -0.014411 0.784097 69 255 179 0.433188
-0.006093 -0.024271 0.772094 53 255 195 0.412963
-0.009055 -0.024862 0.770134 53 255 195 0.412617
-0.009867 -0.021897 0.772612 53 255 195 0.413248
-0.011955 -0.025392 0.768111 56 255 192 0.414942
-0.012730 -0.022466 0.770495 53 255 195 0.412872
-0.015546 -0.022926 0.768360 53 255 195 0.412482
-0.014816 -0.025826 0.766017 53 255 195 0.411908
-0.013604 -0.019648 0.773173 75 255 172 0.437751
-0.016401 -0.020141 0.770905 53 255 195 0.413614
-0.017335 -0.017452 0.773686 56 255 192 0.414363
-0.014728 -0.017173 0.775081 56 255 192 0.414330
-0.010949 -0.019298 0.774443 56 255 192 0.414093
-0.012084 -0.016828 0.776452 56 255 192 0.414550
-0.008244 -0.018903 0.775702 56 255 192 0.414521
-0.007126 -0.021538 0.773777 53 255 195 0.413909
-0.009388 -0.016429 0.777791 56 255 192 0.414781
-0.022058 -0.010823 0.786209 56 255 192 0.415091
-0.019533 -0.010697 0.787531 56 255 192 0.415254
-0.018252 -0.012056 0.784443 59 255 189 0.421248
-0.015685 -0.011822 0.785715 56 255 192 0.415416
-0.016988 -0.010502 0.788809 56 255 192 0.415433
-0.014412 -0.013270 0.782668 56 255 192 0.415199
-0.013087 -0.011549 0.786970 56 255 192 0.415746
-0.011789 -0.012924 0.783880 56 255 192 0.415550
-0.009101 -0.012543 0.785055 56 255 192 0.416056
-0.014433 -0.010296 0.790104 56 255 192 0.415763
-0.010464 -0.011227 0.788210 56 255 192 0.416146
-0.011847 -0.010052 0.791395 56 255 192 0.416213
-0.010529 -0.014541 0.780887 56 255 192 0.415283
-0.007832 -0.014118 0.782026 56 255 192 0.415694
-0.013215 -0.014910 0.779459 56 255 192 0.414870
-0.015855 -0.015241 0.778014 56 255 192 0.414637
-0.017035 -0.013550 0.781158 56 255 192 0.414917
-0.019622 -0.013776 0.779642 56 255 192 0.414869
-0.018456 -0.015506 0.776525 56 255 192 0.414673
-0.020830 -0.012249 0.782887 56 255 192 0.415035
-0.009408 -0.009883 0.792863 56 255 192 0.416804
-0.008047 -0.010983 0.790042 56 255 192 0.416750
-0.005513 -0.010708 0.791461 72 255 176 0.435132
-0.006916 -0.009681 0.794340 62 255 185 0.422657
-0.004129 -0.011848 0.788635 56 255 192 0.416969
-0.002917 -0.010409 0.792914 56 255 192 0.417871
-0.001505 -0.011490 0.790020 56 255 192 0.417460
-0.004355 -0.009443 0.795864 59 255 189 0.418355
-0.000148 -0.012777 0.787215 75 255 172 0.440127
-0.002772 -0.013252 0.785476 56 255 192 0.416558
-0.005318 -0.013713 0.783759 56 255 192 0.416111
-0.006647 -0.012220 0.786857 56 255 192 0.416434
-0.023452 -0.009890 0.789243 56 255 192 0.414230
-0.020955 -0.009795 0.790520 56 255 192 0.414513
-0.022361 -0.008866 0.793522 49 255 198 0.410088
-0.024877 -0.008959 0.792252 49 255 198 0.409695
-0.019853 -0.008774 0.794815 53 255 195 0.410183
-0.023775 -0.007899 0.796500 40 255 208 0.397883
-0.021252 -0.007805 0.797804 43 255 205 0.401386
-0.022639 -0.006683 0.800753 33 255 215 0.389291
-0.026287 -0.007949 0.795220 43 255 205 0.399619
-0.025172 -0.006778 0.799435 33 255 215 0.387021
-0.027715 -0.006828 0.798129 40 255 208 0.396570
-0.018720 -0.007667 0.799106 0 190 255 0.308723
-0.020110 -0.006559 0.802058 27 255 221 0.381997
-0.017566 -0.006406 0.803383 56 255 192 0.415942
-0.016176 -0.007536 0.800476 46 255 202 0.406047
-0.017322 -0.008644 0.796138 23 255 224 0.375504
-0.014764 -0.008513 0.797480 53 255 195 0.412315
-0.015881 -0.009513 0.793139 56 255 192 0.415534
-0.018417 -0.009662 0.791832 56 255 192 0.415061
-0.013325 -0.009317 0.794443 56 255 192 0.416285
-0.029195 -0.005909 0.800915 30 255 218 0.385257
-0.026648 -0.005825 0.802286 30 255 218 0.384375
-0.028134 -0.004835 0.805095 36 255 211 0.392916
-0.030697 -0.004922 0.803719 33 255 215 0.390099
-0.025602 -0.004706 0.806462 88 255 160 0.453419
-0.029645 -0.003757 0.807902 43 255 205 0.401674
-0.027087 -0.003621 0.809265 46 255 202 0.404414
-0.032223 -0.003850 0.806529 43 255 205 0.401432
-0.024538 -0.003434 0.810612 40 255 208 0.397934
-0.021957 -0.003253 0.811899 40 255 208 0.395484
-0.023065 -0.004570 0.807776 40 255 208 0.394896
-0.020501 -0.004403 0.809082 36 255 211 0.391298
-0.021589 -0.005617 0.804925 40 255 208 0.394612
-0.024121 -0.005733 0.803602 36 255 211 0.390986
-0.019031 -0.005465 0.806237 137 255 111 0.511868
-0.014324 -0.002862 0.816118 27 255 221 0.382649
-0.012923 -0.004103 0.813354 40 255 208 0.396381
-0.015458 -0.004244 0.811882 0 178 255 0.297124
-0.011511 -0.005240 0.810566 49 255 198 0.406646
-0.014059 -0.005340 0.809099 53 255 195 0.413232
-0.012629 -0.006294 0.806259 49 255 198 0.406720
-0.010077 -0.006190 0.807735 49 255 198 0.409041
-0.016544 -0.005409 0.807641 43 255 205 0.400560
-0.015118 -0.006373 0.804811 46 255 202 0.402581
-0.018005 -0.004337 0.810471 40 255 208 0.394592
-0.019454 -0.003161 0.813289 36 255 211 0.390991
-0.016913 -0.003020 0.814701 27 255 221 0.381061
-0.008647 -0.007273 0.804789 59 255 189 0.421119
-0.007244 -0.008149 0.801903 79 255 169 0.442792
-0.009756 -0.008286 0.800308 56 255 192 0.417411
-0.005826 -0.008840 0.798927 59 255 189 0.420157
-0.008355 -0.009031 0.797370 59 255 189 0.418604
-0.010831 -0.009180 0.795813 56 255 192 0.417096
-0.012281 -0.008420 0.798889 53 255 195 0.413962
-0.013704 -0.007492 0.801894 53 255 195 0.410627
-0.011205 -0.007397 0.803327 53 255 195 0.412762
-0.023654 -0.012316 0.782012 56 255 192 0.415349
-0.022453 -0.013871 0.778770 43 255 205 0.401537
-0.025298 -0.013881 0.777851 56 255 192 0.415321
-0.021284 -0.015598 0.775713 56 255 192 0.414675
-0.024134 -0.015608 0.774791 56 255 192 0.415031
-0.023043 -0.017514 0.771906 56 255 192 0.414454
-0.020182 -0.017520 0.772851 56 255 192 0.414402
-0.027065 -0.015565 0.773759 56 255 192 0.415450
-0.025972 -0.017460 0.770849 56 255 192 0.414880
-0.029011 -0.017352 0.769700 56 255 192 0.415661
-0.029911 -0.015668 0.772573 56 255 192 0.416139
-0.028016 -0.014012 0.776765 56 255 192 0.415695
-0.030857 -0.014100 0.775566 36 255 211 0.391076
-0.029013 -0.012600 0.779895 56 255 192 0.415622
-0.026304 -0.012483 0.780978 56 255 192 0.415383
-0.027314 -0.011197 0.784201 56 255 192 0.415099
-0.031809 -0.012668 0.778706 56 255 192 0.416449
-0.030012 -0.011298 0.783124 56 255 192 0.415341
-0.032794 -0.011355 0.781976 56 255 192 0.416263
-0.024662 -0.011026 0.785221 56 255 192 0.415191
-0.019845 -0.019335 0.770352 53 255 195 0.413882
-0.019003 -0.022053 0.767750 53 255 195 0.412602
-0.022494 -0.021125 0.767051 53 255 195 0.413334
-0.018270 -0.024923 0.765393 53 255 195 0.411702
-0.021709 -0.023921 0.764612 53 255 195 0.412214
-0.021019 -0.026829 0.762379 53 255 195 0.411192
-0.017610 -0.027875 0.763273 53 255 195 0.410501
-0.025228 -0.022886 0.763696 53 255 195 0.413807
-0.024509 -0.025723 0.761427 53 255 195 0.412498
-0.028080 -0.024617 0.760357 56 255 192 0.414418
-0.028252 -0.022707 0.762445 56 255 192 0.414511
-0.025419 -0.021026 0.765907 53 255 195 0.413900
-0.028467 -0.020860 0.764715 56 255 192 0.414694
-0.025687 -0.019197 0.768320 56 255 192 0.414381
-0.022740 -0.019301 0.769373 69 255 179 0.429703
-0.028731 -0.019076 0.767159 56 255 192 0.415325
-0.041465 -0.023143 0.757329 59 255 189 0.418796
-0.041547 -0.021559 0.759448 40 255 208 0.396898
-0.038187 -0.021630 0.760353 46 255 202 0.402837
-0.038297 -0.020110 0.762536 59 255 189 0.418199
-0.041681 -0.020054 0.761627 59 255 189 0.419018
-0.034978 -0.020216 0.763448 56 255 192 0.416650
-0.038401 -0.018641 0.764851 59 255 189 0.418488
-0.035124 -0.018708 0.765709 56 255 192 0.417140
-0.035262 -0.017282 0.768107 56 255 192 0.417479
-0.041805 -0.018612 0.763960 59 255 189 0.419279
-0.038542 -0.017215 0.767257 59 255 189 0.418480
-0.041969 -0.017167 0.766408 49 255 198 0.407169
-0.031934 -0.018793 0.766558 56 255 192 0.416021
-0.032086 -0.017323 0.768923 56 255 192 0.416506
-0.031705 -0.020537 0.764107 56 255 192 0.415417
-0.031445 -0.022345 0.761776 56 255 192 0.415383
-0.034791 -0.021970 0.761095 56 255 192 0.416535
-0.034589 -0.023793 0.758790 56 255 192 0.416368
-0.031272 -0.024187 0.759582 46 255 202 0.405984
-0.037974 -0.023441 0.758067 56 255 192 0.417730
-0.042727 -0.015766 0.769114 59 255 189 0.419496
-0.039532 -0.015549 0.770171 59 255 189 0.418683
-0.040302 -0.014232 0.772966 49 255 198 0.408186
-0.043467 -0.014462 0.771931 59 255 189 0.419677
-0.037230 -0.014029 0.774021 59 255 189 0.418023
-0.041056 -0.013004 0.775850 59 255 189 0.418757
-0.037948 -0.012822 0.776929 56 255 192 0.417800
-0.038651 -0.011690 0.779903 56 255 192 0.417677
-0.044257 -0.013193 0.774779 59 255 189 0.419727
-0.041772 -0.011831 0.778806 59 255 189 0.418653
-0.044989 -0.011982 0.777688 59 255 189 0.419681
-0.034948 -0.012631 0.777975 56 255 192 0.416964
-0.035656 -0.011560 0.780992 56 255 192 0.416605
-0.033967 -0.014072 0.774824 56 255 192 0.417041
-0.033014 -0.015640 0.771790 56 255 192 0.416659
-0.036237 -0.015597 0.770988 56 255 192 0.417752
-0.034731 -0.004042 0.805409 36 255 211 0.393147
-0.033193 -0.005117 0.802591 33 255 215 0.390353
-0.035744 -0.005259 0.801450 36 255 211 0.393122
-0.031683 -0.006104 0.799803 23 255 224 0.378748
-0.034220 -0.006259 0.798679 36 255 211 0.392665
-0.032709 -0.007176 0.795924 23 255 224 0.377790
-0.030193 -0.007025 0.797042 11 242 237 0.361332
-0.036801 -0.006352 0.797536 30 255 218 0.386447
-0.035276 -0.007276 0.794781 33 255 215 0.387361
-0.037948 -0.007344 0.793576 46 255 202 0.405495
-0.039407 -0.006461 0.796246 36 255 211 0.392953
-0.038277 -0.005415 0.800197 36 255 211 0.394207
-0.040861 -0.005525 0.798907 46 255 202 0.403954
-0.039736 -0.004407 0.802902 43 255 205 0.401202
-0.037200 -0.004246 0.804175 43 255 205 0.399585
-0.042345 -0.004526 0.801599 49 255 198 0.406801
-0.028914 -0.008047 0.794216 36 255 211 0.391428
-0.027484 -0.009082 0.791246 49 255 198 0.408380
-0.030121 -0.009181 0.790220 49 255 198 0.406963
-0.026063 -0.010057 0.788244 53 255 195 0.413846
-0.028702 -0.010204 0.787224 27 255 221 0.382298
-0.031392 -0.010264 0.786130 53 255 195 0.414050
-0.034053 -0.010385 0.784897 56 255 192 0.415148
-0.032676 -0.009332 0.789065 14 246 234 0.366871
-0.035333 -0.009411 0.787831 53 255 195 0.412148
-0.033966 -0.008336 0.791944 36 255 211 0.393087
-0.031418 -0.008222 0.793110 33 255 215 0.389391
-0.036624 -0.008411 0.790729 46 255 202 0.406100
-0.046069 -0.011030 0.780424 59 255 189 0.419754
-0.043032 -0.010770 0.781695 59 255 189 0.418709
-0.044115 -0.009852 0.784502 59 255 189 0.418221
-0.047131 -0.010076 0.783214 59 255 189 0.419622
-0.041181 -0.009654 0.785751 56 255 192 0.416192
-0.045218 -0.008909 0.787298 53 255 195 0.412494
-0.042295 -0.008720 0.788541 56 255 192 0.414474
-0.043394 -0.007759 0.791290 53 255 195 0.413759
-0.048202 -0.009116 0.786028 59 255 189 0.419461
-0.046315 -0.007948 0.790088 56 255 192 0.417590
-0.049286 -0.008124 0.788815 62 255 185 0.425157
-0.039475 -0.008517 0.789735 53 255 195 0.410508
-0.040593 -0.007565 0.792487 49 255 198 0.408103
-0.038189 -0.009549 0.786817 53 255 195 0.413506
-0.036927 -0.010559 0.783895 56 255 192 0.415628
-0.039939 -0.010656 0.782797 56 255 192 0.417174
-0.050597 -0.007282 0.791425 40 255 208 0.397605
-0.047750 -0.007039 0.792796 56 255 192 0.417225
-0.049051 -0.006164 0.795375 56 255 192 0.417527
-0.051889 -0.006391 0.794022 59 255 189 0.419260
-0.046296 -0.005919 0.796684 53 255 195 0.412597
-0.050364 -0.005222 0.797937 56 255 192 0.417554
-0.047633 -0.004981 0.799240 56 255 192 0.414279
-0.053166 -0.005458 0.796566 59 255 189 0.419247
-0.044991 -0.004735 0.800509 53 255 195 0.410793
-0.043535 -0.005736 0.797827 0 174 255 0.294946
-0.042069 -0.006675 0.795162 46 255 202 0.405097
-0.044854 -0.006863 0.794003 53 255 195 0.412238
-0.047929 -0.012416 0.776748 59 255 189 0.420232
-0.048946 -0.011513 0.779296 59 255 189 0.420288
-0.051882 -0.011958 0.778417 53 255 195 0.412285
-0.050884 -0.012873 0.775839 59 255 189 0.420489
-0.052894 -0.011024 0.780944 49 255 198 0.407846
-0.054829 -0.012433 0.777458 59 255 189 0.420355
-0.055785 -0.011504 0.780076 59 255 189 0.420206
-0.058698 -0.011997 0.779108 59 255 189 0.419606
-0.053797 -0.013405 0.774982 59 255 189 0.420304
-0.057707 -0.012967 0.776599 59 255 189 0.419836
-0.056724 -0.013949 0.774096 59 255 189 0.419899
-0.056770 -0.010534 0.782611 59 255 189 0.420060
-0.059677 -0.011031 0.781695 40 255 208 0.396948
-0.060662 -0.010040 0.784264 27 255 221 0.379004
-0.057822 -0.009489 0.785367 59 255 189 0.419832
-0.053949 -0.010021 0.783714 59 255 189 0.420315
-0.054985 -0.008996 0.786480 59 255 189 0.420132
-0.051073 -0.009548 0.784850 69 255 179 0.433210
-0.050028 -0.010531 0.782044 49 255 198 0.409588
-0.052102 -0.008543 0.787657 59 255 189 0.420023
-0.059551 -0.014783 0.773420 59 255 189 0.418815
-0.060468 -0.013852 0.775754 59 255 189 0.418437
-0.063284 -0.014715 0.775097 56 255 192 0.417366
-0.062348 -0.015676 0.772790 43 255 205 0.399343
-0.064192 -0.013761 0.777451 56 255 192 0.416851
-0.066064 -0.015632 0.774519 14 246 234 0.366330
-0.066979 -0.014648 0.776818 30 255 218 0.386468
-0.069772 -0.015593 0.776249 56 255 192 0.414949
-0.065111 -0.016615 0.772222 56 255 192 0.416291
-0.068776 -0.016587 0.773992 56 255 192 0.415159
-0.067857 -0.017605 0.771734 17 250 231 0.368019
-0.067940 -0.013674 0.779151 56 255 192 0.415772
-0.070698 -0.014571 0.778558 56 255 192 0.415455
-0.071635 -0.013576 0.780866 56 255 192 0.415177
-0.068948 -0.012618 0.781641 56 255 192 0.415553
-0.065205 -0.012748 0.779935 56 255 192 0.417147
-0.066217 -0.011724 0.782448 56 255 192 0.416966
-0.062466 -0.011869 0.780765 59 255 189 0.418382
-0.061454 -0.012864 0.778245 59 255 189 0.418455
-0.063443 -0.010864 0.783307 59 255 189 0.418157
-0.072502 -0.010026 0.788677 56 255 192 0.415270
-0.069809 -0.009094 0.789668 56 255 192 0.415796
-0.068574 -0.010021 0.787215 56 255 192 0.415761
-0.067071 -0.008232 0.790703 49 255 198 0.409735
-0.065854 -0.009143 0.788268 56 255 192 0.417562
-0.063125 -0.008316 0.789277 59 255 189 0.418819
-0.064293 -0.007415 0.791761 59 255 189 0.418790
-0.064664 -0.010028 0.785724 56 255 192 0.417890
-0.061884 -0.009191 0.786806 56 255 192 0.417910
-0.067403 -0.010870 0.784846 46 255 202 0.402562
-0.070160 -0.011771 0.784007 56 255 192 0.415449
-0.071341 -0.010892 0.786354 56 255 192 0.414825
-0.074022 -0.011815 0.785544 23 255 224 0.378426
-0.072838 -0.012694 0.783213 53 255 195 0.413044
-0.075151 -0.010901 0.787866 53 255 195 0.413655
-0.061461 -0.006894 0.792885 59 255 189 0.419364
-0.058660 -0.006386 0.794094 59 255 189 0.419843
-0.057407 -0.007313 0.791551 59 255 189 0.419858
-0.055911 -0.005897 0.795347 59 255 189 0.419806
-0.054619 -0.006838 0.792794 59 255 189 0.419862
-0.053323 -0.007726 0.790212 59 255 189 0.419963
-0.056182 -0.008166 0.789054 59 255 189 0.419974
-0.059040 -0.008662 0.787917 59 255 189 0.419579
-0.060253 -0.007800 0.790414 59 255 189 0.419396
-0.001998 -0.093301 0.699180 56 255 192 0.416651
0.001327 -0.093586 0.698329 56 255 192 0.416413
0.003465 -0.095038 0.696606 56 255 192 0.416147
0.006769 -0.095451 0.695846 56 255 192 0.415806
0.004438 -0.097772 0.694026 56 255 192 0.415892
0.001011 -0.097282 0.694824 56 255 192 0.416196
-0.001120 -0.095804 0.696499 56 255 192 0.416437
-0.004612 -0.095472 0.697223 56 255 192 0.416564
-0.006832 -0.094189 0.698999 56 255 192 0.416611
-0.009376 -0.096215 0.697269 56 255 192 0.416494
0.011321 -0.094839 0.695799 56 255 192 0.415392
0.014638 -0.095354 0.694801 56 255 192 0.414940
0.012358 -0.097759 0.692980 56 255 192 0.415290
0.009004 -0.097162 0.693937 56 255 192 0.415532
0.010516 -0.105147 0.688781 56 255 192 0.415775
0.008087 -0.103170 0.690348 56 255 192 0.415856
0.004634 -0.102557 0.691327 56 255 192 0.416106
0.002279 -0.100572 0.692872 56 255 192 0.416060
0.000145 -0.103291 0.691693 56 255 192 0.416342
0.006851 -0.099694 0.692532 56 255 192 0.415728
0.010223 -0.100307 0.691495 56 255 192 0.415412
-0.003399 -0.102694 0.692630 56 255 192 0.416511
-0.005745 -0.100881 0.693991 56 255 192 0.416506
-0.009292 -0.100439 0.694769 56 255 192 0.416571
-0.011685 -0.098777 0.696126 56 255 192 0.416499
-0.014008 -0.101293 0.695023 56 255 192 0.416609
-0.006963 -0.097886 0.695828 62 255 185 0.424732
-0.003516 -0.098270 0.695051 56 255 192 0.416560
-0.001162 -0.100057 0.693697 56 255 192 0.416415
0.010195 -0.111303 0.686829 56 255 192 0.416184
0.008672 -0.114101 0.686844 56 255 192 0.416683
0.007139 -0.116846 0.686769 56 255 192 0.417166
0.003963 -0.127870 0.688633 59 255 189 0.418510
-0.000113 -0.127538 0.689576 46 255 202 0.405821
-0.003703 -0.125778 0.690228 62 255 185 0.425123
-0.007649 -0.125453 0.691095 56 255 192 0.417823
-0.011188 -0.123646 0.691692 56 255 192 0.417518
-0.011989 -0.126559 0.692179 59 255 189 0.418046
-0.006853 -0.122563 0.690567 56 255 192 0.417481
-0.010388 -0.120749 0.691144 56 255 192 0.417158
-0.003015 -0.123009 0.689653 56 255 192 0.417616
0.000824 -0.123467 0.688747 56 255 192 0.417827
0.004447 -0.125231 0.688100 59 255 189 0.418103
0.005003 -0.122558 0.687427 56 255 192 0.417764
-0.015895 -0.126115 0.692883 56 255 192 0.417912
-0.019277 -0.124107 0.693415 56 255 192 0.416739
-0.023163 -0.123605 0.694142 59 255 189 0.418008
-0.026532 -0.121492 0.694649 59 255 189 0.418068
-0.027705 -0.124555 0.695044 59 255 189 0.418214
-0.022113 -0.120530 0.693715 56 255 192 0.417716
-0.025444 -0.118460 0.694200 59 255 189 0.418004
-0.018338 -0.121102 0.692941 56 255 192 0.417463
-0.014591 -0.121663 0.692196 53 255 195 0.411187
-0.022270 -0.112297 0.693843 56 255 192 0.417762
-0.018651 -0.112912 0.693042 56 255 192 0.417047
-0.015716 -0.115027 0.692389 56 255 192 0.416741
-0.012059 -0.115626 0.691564 56 255 192 0.416504
-0.009032 -0.117717 0.690902 56 255 192 0.416798
-0.007663 -0.114617 0.690582 56 255 192 0.416600
-0.013381 -0.118668 0.691834 56 255 192 0.416793
-0.017164 -0.118089 0.692613 56 255 192 0.417000
-0.020890 -0.117517 0.693390 69 255 179 0.430640
-0.023843 -0.115382 0.694081 56 255 192 0.417959
-0.003959 -0.115182 0.689626 56 255 192 0.416745
-0.000822 -0.117185 0.688871 56 255 192 0.416878
0.002877 -0.117752 0.687919 56 255 192 0.417169
0.006083 -0.119723 0.687113 56 255 192 0.417520
0.001784 -0.120618 0.688280 56 255 192 0.417501
-0.002063 -0.120153 0.689197 56 255 192 0.417222
-0.005908 -0.119696 0.690124 56 255 192 0.417085
-0.017588 -0.100827 0.695665 56 255 192 0.416735
-0.019895 -0.099203 0.696830 56 255 192 0.416696
-0.023611 -0.098859 0.697580 56 255 192 0.416627
-0.026030 -0.097356 0.699006 56 255 192 0.416531
-0.028581 -0.099565 0.698086 56 255 192 0.416715
-0.020994 -0.096482 0.698661 56 255 192 0.416570
-0.023490 -0.095049 0.700137 56 255 192 0.416464
-0.017460 -0.096825 0.697961 56 255 192 0.416584
-0.013958 -0.097129 0.697304 56 255 192 0.416556
-0.031499 -0.099093 0.698686 56 255 192 0.416749
-0.032980 -0.097629 0.699889 53 255 195 0.411114
-0.035812 -0.097308 0.700543 56 255 192 0.416911
-0.033181 -0.095314 0.701939 56 255 192 0.416644
-0.030423 -0.095534 0.701111 56 255 192 0.416573
-0.027647 -0.095899 0.700380 56 255 192 0.416515
-0.026346 -0.092815 0.703536 56 255 192 0.416455
-0.023555 -0.092981 0.702636 56 255 192 0.416454
-0.020721 -0.093179 0.701832 56 255 192 0.416539
-0.030638 -0.093599 0.703649 56 255 192 0.416518
-0.015709 -0.092284 0.701897 56 255 192 0.416640
-0.012357 -0.092594 0.701149 56 255 192 0.416663
-0.010191 -0.093922 0.699620 56 255 192 0.416617
-0.014910 -0.094543 0.699359 56 255 192 0.416648
-0.018468 -0.094284 0.700102 56 255 192 0.416594
-0.025903 -0.111656 0.694498 59 255 189 0.418097
-0.028657 -0.109569 0.695361 56 255 192 0.417710
-0.032346 -0.108825 0.695960 59 255 189 0.418117
-0.034929 -0.106856 0.696596 72 255 176 0.436306
-0.036862 -0.109376 0.696224 59 255 189 0.418226
-0.030377 -0.106202 0.696162 56 255 192 0.417495
-0.033011 -0.104267 0.696831 56 255 192 0.417237
-0.026636 -0.106899 0.695380 56 255 192 0.417439
-0.022989 -0.107513 0.694683 56 255 192 0.417393
-0.020343 -0.109497 0.693981 56 255 192 0.417366
-0.018397 -0.106630 0.694010 56 255 192 0.417077
-0.039725 -0.108681 0.696447 56 255 192 0.417828
-0.041549 -0.106803 0.696980 66 255 182 0.428325
-0.044423 -0.106124 0.697265 59 255 189 0.418079
-0.046357 -0.104233 0.697885 59 255 189 0.418220
-0.048404 -0.106660 0.697297 46 255 202 0.405018
-0.042451 -0.103745 0.697790 56 255 192 0.417708
-0.044384 -0.101908 0.698446 43 255 205 0.400376
-0.039650 -0.104350 0.697471 56 255 192 0.417378
-0.036855 -0.104959 0.697127 56 255 192 0.417392
-0.038139 -0.099311 0.699421 56 255 192 0.417173
-0.035406 -0.099809 0.698886 56 255 192 0.416285
-0.033654 -0.101425 0.697993 56 255 192 0.416925
-0.030791 -0.101972 0.697454 56 255 192 0.416879
-0.037585 -0.102029 0.698083 56 255 192 0.417247
-0.040389 -0.101446 0.698471 56 255 192 0.417417
-0.042093 -0.099845 0.699454 56 255 192 0.417575
-0.025968 -0.101264 0.696889 56 255 192 0.416788
-0.022285 -0.101746 0.696108 56 255 192 0.416794
-0.019782 -0.103521 0.695173 56 255 192 0.417033
-0.016217 -0.104010 0.694545 56 255 192 0.416810
-0.024485 -0.104271 0.695634 56 255 192 0.417141
-0.028247 -0.103710 0.696437 56 255 192 0.417061
-0.011543 -0.103118 0.694049 56 255 192 0.416566
-0.007994 -0.103636 0.693170 56 255 192 0.416426
-0.005502 -0.105547 0.692096 56 255 192 0.416532
-0.001903 -0.106011 0.691252 56 255 192 0.416488
-0.003994 -0.108806 0.690706 56 255 192 0.416485
-0.007656 -0.108302 0.691555 56 255 192 0.416494
-0.010147 -0.106382 0.692640 56 255 192 0.416420
-0.013745 -0.105854 0.693501 56 255 192 0.416759
0.002615 -0.105297 0.690553 56 255 192 0.416273
0.006082 -0.105894 0.689577 56 255 192 0.416144
0.008614 -0.107926 0.688353 56 255 192 0.416060
0.006671 -0.110674 0.687790 56 255 192 0.416278
0.004158 -0.108627 0.689036 56 255 192 0.416229
0.000575 -0.108023 0.690022 56 255 192 0.416360
0.004286 -0.114881 0.687789 56 255 192 0.416880
0.000643 -0.114303 0.688719 56 255 192 0.416821
-0.002175 -0.112329 0.689740 56 255 192 0.416650
-0.005829 -0.111758 0.690661 56 255 192 0.416506
0.002342 -0.111451 0.688780 56 255 192 0.416533
-0.010399 -0.112621 0.691499 56 255 192 0.416403
-0.014099 -0.112084 0.692318 56 255 192 0.416546
-0.016739 -0.110069 0.693154 56 255 192 0.416846
-0.012193 -0.109186 0.692394 56 255 192 0.416394
-0.072016 -0.096094 0.703251 59 255 189 0.421865
-0.074851 -0.096954 0.703601 59 255 189 0.421613
-0.075083 -0.099225 0.702733 59 255 189 0.421806
-0.077688 -0.097799 0.703877 59 255 189 0.421675
-0.078005 -0.100133 0.703048 49 255 198 0.407883
-0.080917 -0.101023 0.703250 59 255 189 0.421720
-0.078261 -0.102460 0.702267 59 255 189 0.421852
-0.080628 -0.098626 0.704042 59 255 189 0.421691
-0.083513 -0.099548 0.704238 59 255 189 0.421702
-0.080007 -0.096105 0.704845 59 255 189 0.421682
-0.077058 -0.095340 0.704704 59 255 189 0.421585
-0.074234 -0.094522 0.704407 59 255 189 0.421653
-0.076409 -0.092948 0.705626 59 255 189 0.420839
-0.080878 -0.103872 0.702957 59 255 189 0.421807
-0.080440 -0.106502 0.702634 62 255 185 0.421975
-0.083466 -0.105323 0.703654 46 255 202 0.403633
-0.083023 -0.107978 0.703366 33 255 215 0.388089
-0.085545 -0.109476 0.704121 46 255 202 0.404633
-0.082517 -0.110646 0.703164 62 255 185 0.422362
-0.086035 -0.106806 0.704347 62 255 185 0.422234
-0.088539 -0.108357 0.705071 62 255 185 0.422059
-0.086181 -0.103865 0.704490 53 255 195 0.410521
-0.083547 -0.102424 0.703902 62 255 185 0.421977
-0.094260 -0.105831 0.707347 59 255 189 0.421015
-0.092968 -0.103399 0.707133 59 255 189 0.421641
-0.090277 -0.101815 0.706399 59 255 189 0.421748
-0.088845 -0.099453 0.706245 59 255 189 0.421856
-0.086003 -0.097977 0.705562 59 255 189 0.421509
-0.088507 -0.096324 0.706799 59 255 189 0.421316
-0.086280 -0.101054 0.704988 46 255 202 0.403871
-0.088831 -0.105474 0.705369 62 255 185 0.421935
-0.091447 -0.107127 0.706231 59 255 189 0.421609
-0.086510 -0.094498 0.707259 40 255 208 0.397468
-0.083526 -0.093641 0.706974 59 255 189 0.421289
-0.081544 -0.091963 0.707436 59 255 189 0.421080
-0.078523 -0.091170 0.707119 59 255 189 0.421383
-0.080605 -0.089360 0.708568 59 255 189 0.421220
-0.079421 -0.093714 0.705953 59 255 189 0.421513
-0.083024 -0.097024 0.705243 43 255 205 0.398676
-0.078440 -0.088140 0.709438 46 255 202 0.406203
-0.075419 -0.087917 0.709534 56 255 192 0.415210
-0.073364 -0.086771 0.710381 59 255 189 0.421465
-0.070378 -0.086508 0.710353 62 255 185 0.421938
-0.072183 -0.084711 0.712006 56 255 192 0.417297
-0.071504 -0.088575 0.708720 59 255 189 0.421643
-0.068574 -0.088285 0.708655 62 255 185 0.421989
-0.072406 -0.090538 0.707129 46 255 202 0.406139
-0.075450 -0.090860 0.707154 59 255 189 0.421518
-0.070052 -0.083896 0.713103 49 255 198 0.406860
-0.067118 -0.084046 0.713309 62 255 185 0.422012
-0.065137 -0.083232 0.714379 40 255 208 0.394669
-0.063553 -0.085033 0.712574 59 255 189 0.421537
-0.064625 -0.086699 0.710697 62 255 185 0.422311
-0.067495 -0.086671 0.710616 62 255 185 0.422274
-0.059979 -0.088324 0.709470 53 255 195 0.410744
-0.060804 -0.089860 0.707748 49 255 198 0.408033
-0.062799 -0.088335 0.709277 62 255 185 0.422405
-0.063669 -0.089923 0.707524 62 255 185 0.422103
-0.066588 -0.089923 0.707281 62 255 185 0.422020
-0.064607 -0.091458 0.705887 62 255 185 0.421937
-0.065682 -0.088328 0.708997 56 255 192 0.417423
-0.061785 -0.086723 0.710993 59 255 189 0.421622
-0.067537 -0.091844 0.705948 59 255 189 0.421832
-0.068243 -0.093695 0.704539 59 255 189 0.421749
-0.070410 -0.092183 0.705851 59 255 189 0.421782
-0.071246 -0.094117 0.704544 43 255 205 0.400284
-0.073452 -0.092555 0.705761 49 255 198 0.408628
-0.069466 -0.090193 0.707213 59 255 189 0.421683
-0.050714 -0.096483 0.702055 59 255 189 0.419467
-0.050133 -0.098499 0.700508 59 255 189 0.419064
-0.052717 -0.098855 0.700301 59 255 189 0.419628
-0.053459 -0.096689 0.701787 59 255 189 0.420070
-0.056318 -0.096973 0.701548 59 255 189 0.420563
-0.045191 -0.098711 0.700271 59 255 189 0.418234
-0.047877 -0.100711 0.699142 59 255 189 0.418542
-0.051119 -0.104237 0.698200 59 255 189 0.418904
-0.054038 -0.101770 0.699222 59 255 189 0.419674
-0.054451 -0.104766 0.698151 59 255 189 0.419567
-0.050724 -0.101275 0.699234 59 255 189 0.418991
-0.057972 -0.103467 0.698802 59 255 189 0.420348
-0.056421 -0.100492 0.699929 59 255 189 0.420332
-0.059371 -0.101030 0.699857 59 255 189 0.420817
-0.062445 -0.101551 0.699769 59 255 189 0.421208
-0.069099 -0.095633 0.703406 59 255 189 0.421742
-0.065390 -0.093298 0.704621 59 255 189 0.421665
-0.061606 -0.093649 0.704107 59 255 189 0.421506
-0.062304 -0.095423 0.702927 59 255 189 0.421464
-0.065080 -0.095884 0.702938 59 255 189 0.421546
-0.065732 -0.097702 0.701867 59 255 189 0.421650
-0.068631 -0.098190 0.701828 59 255 189 0.421839
-0.061778 -0.091410 0.706227 62 255 185 0.421944
-0.058085 -0.089790 0.707973 59 255 189 0.421836
-0.055334 -0.091858 0.706036 59 255 189 0.421056
-0.057999 -0.091997 0.705796 59 255 189 0.421446
-0.058779 -0.093458 0.704296 46 255 202 0.403757
-0.052535 -0.093826 0.704328 59 255 189 0.420287
-0.055158 -0.093971 0.704023 59 255 189 0.420766
-0.059008 -0.097427 0.701532 59 255 189 0.420962
-0.061788 -0.097921 0.701498 59 255 189 0.421367
-0.064917 -0.100242 0.700579 59 255 189 0.421542
-0.067713 -0.072253 0.723801 59 255 189 0.418858
-0.065146 -0.071609 0.724803 56 255 192 0.416027
-0.062531 -0.072118 0.724894 53 255 195 0.413794
-0.060011 -0.071393 0.725787 53 255 195 0.411044
-0.057433 -0.071847 0.725793 59 255 189 0.421765
-0.057540 -0.069206 0.727238 49 255 198 0.407606
-0.059806 -0.073866 0.724188 53 255 195 0.413183
-0.057208 -0.074345 0.724126 49 255 198 0.408498
-0.062062 -0.074637 0.723207 56 255 192 0.414614
-0.064325 -0.075334 0.722133 62 255 185 0.425348
-0.067001 -0.074807 0.721993 59 255 189 0.418440
-0.066169 -0.077214 0.720042 59 255 189 0.418037
-0.054963 -0.068859 0.728285 46 255 202 0.405311
-0.052568 -0.069732 0.728614 69 255 179 0.431917
-0.050034 -0.069408 0.729572 43 255 205 0.402197
-0.050311 -0.071929 0.728268 46 255 202 0.404003
-0.052698 -0.072378 0.727260 14 246 234 0.363306
-0.054982 -0.072754 0.726128 49 255 198 0.407010
-0.052371 -0.076002 0.724919 36 255 211 0.392191
-0.054488 -0.076370 0.723759 49 255 198 0.407109
-0.056588 -0.076638 0.722507 49 255 198 0.407859
-0.050188 -0.074460 0.726754 49 255 198 0.408341
-0.058425 -0.078441 0.720584 53 255 195 0.410194
-0.060443 -0.079252 0.719575 53 255 195 0.413712
-0.063026 -0.078773 0.719370 56 255 192 0.414341
-0.065091 -0.079417 0.718269 56 255 192 0.417519
-0.061362 -0.076995 0.721382 53 255 195 0.413293
-0.059115 -0.076327 0.722429 46 255 202 0.405863
-0.066609 -0.081304 0.716286 59 255 189 0.420411
-0.068727 -0.082110 0.715233 59 255 189 0.421423
-0.071613 -0.081843 0.715114 59 255 189 0.421747
-0.073791 -0.082692 0.714022 59 255 189 0.421502
-0.075248 -0.080538 0.715957 59 255 189 0.421000
-0.072905 -0.079750 0.716988 59 255 189 0.421216
-0.070077 -0.080009 0.717148 56 255 192 0.414064
-0.067838 -0.079172 0.718151 59 255 189 0.419773
-0.075183 -0.084861 0.712206 59 255 189 0.421223
-0.077264 -0.086031 0.711340 43 255 205 0.401737
-0.080362 -0.086167 0.711424 59 255 189 0.420739
-0.082529 -0.087376 0.710573 59 255 189 0.420889
-0.084303 -0.085322 0.712543 59 255 189 0.420541
-0.081967 -0.084139 0.713447 59 255 189 0.420433
-0.078978 -0.083980 0.713324 59 255 189 0.420493
-0.076729 -0.082810 0.714192 59 255 189 0.420777
-0.088229 -0.080938 0.717325 59 255 189 0.418551
-0.085612 -0.079651 0.718091 59 255 189 0.418751
-0.082438 -0.079583 0.717835 59 255 189 0.419409
-0.079864 -0.078427 0.718643 56 255 192 0.415951
-0.076748 -0.078300 0.718270 59 255 189 0.420535
-0.078129 -0.075918 0.720416 59 255 189 0.419765
-0.078481 -0.080637 0.716380 59 255 189 0.420224
-0.080697 -0.081858 0.715542 30 255 218 0.384637
-0.083948 -0.081963 0.715881 59 255 189 0.419911
-0.086321 -0.083140 0.714911 59 255 189 0.419687
-0.075456 -0.075020 0.721290 59 255 189 0.420353
-0.072517 -0.075344 0.721237 59 255 189 0.420487
-0.069926 -0.074466 0.722098 59 255 189 0.419879
-0.069137 -0.076900 0.720191 59 255 189 0.419973
-0.071402 -0.077754 0.719203 59 255 189 0.420683
-0.074418 -0.077390 0.719235 59 255 189 0.420704
-0.032719 -0.068720 0.738354 59 255 189 0.421856
-0.036799 -0.066208 0.735877 56 255 192 0.415496
-0.034300 -0.066397 0.737613 59 255 189 0.419336
-0.030133 -0.069075 0.739845 69 255 179 0.432167
-0.041819 -0.065706 0.734180 46 255 202 0.405612
-0.043916 -0.064300 0.733665 49 255 198 0.408759
-0.046291 -0.064099 0.732613 49 255 198 0.409637
-0.038852 -0.064947 0.735564 53 255 195 0.412648
-0.044170 -0.058351 0.735414 7 238 240 0.358666
-0.041508 -0.058917 0.736472 53 255 195 0.413929
-0.039454 -0.060399 0.736863 53 255 195 0.413281
-0.036822 -0.060878 0.737746 56 255 192 0.415467
-0.034777 -0.062299 0.737979 62 255 185 0.423737
-0.045061 -0.060579 0.734247 56 255 192 0.414556
-0.031612 -0.061995 0.740465 56 255 192 0.416465
-0.030097 -0.064273 0.741091 0 202 255 0.320367
-0.027926 -0.065637 0.742034 4 234 244 0.354061
-0.025380 -0.042092 0.751945 30 255 218 0.385030
-0.023391 -0.043917 0.752770 14 246 234 0.365674
-0.022573 -0.046612 0.752367 4 234 244 0.351874
-0.020478 -0.048329 0.752854 17 250 231 0.369405
-0.022857 -0.050200 0.750722 17 250 231 0.368990
-0.025158 -0.048896 0.750151 4 234 244 0.351686
-0.025989 -0.046197 0.750506 7 238 240 0.358073
-0.028204 -0.044762 0.749698 17 250 231 0.370526
-0.028976 -0.042002 0.749929 36 255 211 0.393558
-0.031902 -0.044738 0.747716 0 178 255 0.298093
-0.017590 -0.049602 0.754814 0 214 255 0.335865
-0.015940 -0.052120 0.755476 0 202 255 0.321429
-0.015259 -0.055031 0.755016 0 186 255 0.305630
-0.013436 -0.057395 0.755392 0 214 255 0.332342
-0.015421 -0.058366 0.753373 11 242 237 0.362053
-0.017428 -0.056463 0.753000 0 206 255 0.325859
-0.018152 -0.053539 0.753490 0 0 128 0.000000
-0.019956 -0.051420 0.752770 0 214 255 0.333798
-0.021174 -0.059168 0.749246 14 246 234 0.367087
-0.022155 -0.056558 0.749568 7 238 240 0.358841
-0.024215 -0.054765 0.748684 11 242 237 0.362507
-0.025056 -0.052068 0.748696 20 254 228 0.374671
-0.027290 -0.053954 0.746609 0 190 255 0.310305
-0.022053 -0.052922 0.750798 4 234 244 0.352280
-0.020234 -0.055026 0.751537 0 206 255 0.326196
-0.019225 -0.057629 0.751226 0 214 255 0.334887
-0.017201 -0.059549 0.751597 0 0 183 0.048450
-0.029761 -0.053065 0.746026 17 250 231 0.367993
-0.030945 -0.050758 0.746354 14 246 234 0.366915
-0.033439 -0.049793 0.745602 17 250 231 0.368725
-0.034611 -0.047430 0.745743 0 190 255 0.310278
-0.037281 -0.050193 0.743718 27 255 221 0.379316
-0.030766 -0.047094 0.747591 17 250 231 0.369327
-0.028520 -0.048467 0.748371 0 2 255 0.126944
-0.027361 -0.050779 0.748076 14 246 234 0.363734
-0.038731 -0.024799 0.756230 33 255 215 0.388164
-0.035335 -0.025142 0.757064 36 255 211 0.391098
-0.036085 -0.026500 0.755307 30 255 218 0.383814
-0.032034 -0.025533 0.757892 33 255 215 0.388938
-0.032791 -0.026917 0.756197 56 255 192 0.415738
-0.029594 -0.027349 0.757062 56 255 192 0.414641
-0.028834 -0.025970 0.758657 56 255 192 0.414716
-0.033553 -0.028338 0.754521 56 255 192 0.415904
-0.030351 -0.028781 0.755448 56 255 192 0.415090
-0.031127 -0.030224 0.753866 30 255 218 0.383778
-0.037411 -0.029368 0.752271 33 255 215 0.388608
-0.040013 -0.027586 0.753048 59 255 189 0.418060
-0.042711 -0.025874 0.753989 59 255 189 0.419032
-0.044028 -0.028701 0.750989 59 255 189 0.419036
-0.026075 -0.027130 0.759431 53 255 195 0.412733
-0.022547 -0.028284 0.760516 53 255 195 0.410950
-0.024171 -0.029743 0.758621 53 255 195 0.410520
-0.019122 -0.029381 0.761427 53 255 195 0.410209
-0.020738 -0.030901 0.759738 49 255 198 0.409636
-0.022358 -0.032378 0.757995 49 255 198 0.407843
-0.023145 -0.033826 0.756551 49 255 198 0.407601
-0.024930 -0.031176 0.757209 49 255 198 0.409809
-0.025708 -0.032619 0.755696 43 255 205 0.401593
-0.027577 -0.029953 0.756308 53 255 195 0.412845
-0.026827 -0.028536 0.757879 53 255 195 0.412529
-0.028361 -0.031408 0.754810 53 255 195 0.412863
-0.028601 -0.038314 0.751336 46 255 202 0.404668
-0.029872 -0.036038 0.751792 49 255 198 0.408215
-0.032479 -0.035015 0.750813 53 255 195 0.411995
-0.033863 -0.032773 0.751247 56 255 192 0.414483
-0.036540 -0.035336 0.748581 56 255 192 0.415548
-0.025903 -0.035930 0.753928 23 255 224 0.375470
-0.039554 -0.035048 0.747938 56 255 192 0.416697
-0.041398 -0.033351 0.748474 56 255 192 0.417458
-0.044517 -0.033133 0.747879 59 255 189 0.418488
-0.046442 -0.031530 0.748573 59 255 189 0.419004
-0.048846 -0.034449 0.746264 53 255 195 0.412432
-0.042061 -0.030291 0.750227 59 255 189 0.418405
-0.035581 -0.031026 0.751653 56 255 192 0.416125
-0.049644 -0.066707 0.730799 46 255 202 0.402732
-0.052257 -0.067157 0.729927 46 255 202 0.402636
-0.054674 -0.066254 0.729692 49 255 198 0.406374
-0.057265 -0.066577 0.728654 53 255 195 0.410940
-0.056923 -0.063912 0.729989 53 255 195 0.412382
-0.054166 -0.063770 0.730904 49 255 198 0.408567
-0.051738 -0.064722 0.731184 46 255 202 0.404652
-0.048714 -0.063260 0.732454 79 255 169 0.444497
-0.060291 -0.068612 0.727391 53 255 195 0.411050
-0.062822 -0.069428 0.726562 53 255 195 0.413451
-0.065631 -0.068705 0.726613 56 255 192 0.417166
-0.068168 -0.069438 0.725650 59 255 189 0.419137
-0.068493 -0.066614 0.727345 49 255 198 0.409619
-0.065627 -0.066007 0.728122 53 255 195 0.412623
-0.062861 -0.066574 0.728064 56 255 192 0.414748
-0.059990 -0.065946 0.728740 53 255 195 0.411876
-0.068152 -0.060756 0.730860 59 255 189 0.420020
-0.065065 -0.060257 0.731390 59 255 189 0.419925
-0.062261 -0.060961 0.731169 56 255 192 0.417606
-0.059148 -0.060439 0.731645 59 255 189 0.418529
-0.056333 -0.061248 0.731372 56 255 192 0.415649
-0.055697 -0.058588 0.732747 56 255 192 0.415992
-0.059734 -0.063062 0.730185 56 255 192 0.415631
-0.062641 -0.063773 0.729566 56 255 192 0.416730
-0.065450 -0.063018 0.729841 59 255 189 0.419543
-0.068351 -0.063740 0.729193 59 255 189 0.420200
-0.052815 -0.058548 0.733520 56 255 192 0.414967
-0.050362 -0.059611 0.733629 53 255 195 0.412322
-0.047506 -0.059585 0.734290 53 255 195 0.412708
-0.051118 -0.062113 0.732358 49 255 198 0.409066
-0.053559 -0.060989 0.732217 1 230 247 0.349835
-0.047312 -0.036219 0.745750 59 255 189 0.418595
-0.044199 -0.036358 0.746202 56 255 192 0.417742
-0.045825 -0.038019 0.745257 56 255 192 0.417355
-0.041166 -0.036614 0.746886 56 255 192 0.416051
-0.042774 -0.038257 0.745883 56 255 192 0.417532
-0.039774 -0.038540 0.746539 53 255 195 0.413716
-0.038168 -0.036895 0.747527 27 255 221 0.381961
-0.044379 -0.039847 0.744838 56 255 192 0.415420
-0.041361 -0.040143 0.745503 53 255 195 0.412747
-0.042961 -0.041707 0.744383 53 255 195 0.413115
-0.045992 -0.041587 0.743821 59 255 189 0.418848
-0.047460 -0.039767 0.744303 56 255 192 0.415662
-0.049079 -0.041506 0.743314 56 255 192 0.417465
-0.050559 -0.039748 0.743840 59 255 189 0.418566
-0.048937 -0.037969 0.744781 59 255 189 0.418533
-0.052077 -0.037997 0.744398 59 255 189 0.418960
-0.052130 -0.041503 0.742877 59 255 189 0.418660
-0.053645 -0.039760 0.743472 59 255 189 0.419058
-0.055190 -0.041526 0.742432 59 255 189 0.419031
-0.050482 -0.036230 0.745333 59 255 189 0.419012
-0.035427 -0.037714 0.748501 53 255 195 0.410505
-0.032741 -0.038707 0.749449 46 255 202 0.404468
-0.031637 -0.041045 0.749248 36 255 211 0.393712
