ply
format ascii 1.0
comment VCGLIB generated
element vertex 992
property float x
property float y
property float z
property uchar red
property uchar green
property uchar blue
property float quality
end_header
-0.142595 -0.044473 0.791777 0 226 250 0.344601
-0.139831 -0.043490 0.790154 0 110 255 0.234164
-0.148101 -0.047504 0.790229 11 242 237 0.361962
-0.151049 -0.048983 0.790256 20 254 228 0.371207
-0.146845 -0.046669 0.792254 0 226 250 0.344893
-0.142607 -0.043842 0.794279 17 250 231 0.368819
-0.140320 -0.042642 0.793332 0 218 255 0.336707
-0.145682 -0.045628 0.794323 0 210 255 0.328130
-0.137453 -0.041551 0.791596 0 226 250 0.345357
-0.138335 -0.044125 0.782438 46 255 202 0.406120
-0.138344 -0.043589 0.784926 43 255 205 0.399289
-0.141051 -0.045093 0.783412 43 255 205 0.401406
-0.135601 -0.042093 0.786393 46 255 202 0.404381
-0.135534 -0.042600 0.783907 49 255 198 0.406282
-0.140767 -0.044334 0.787234 23 255 224 0.377131
-0.134750 -0.040633 0.789394 36 255 211 0.394059
-0.132873 -0.040102 0.787759 46 255 202 0.403686
-0.132709 -0.040867 0.785278 46 255 202 0.404922
-0.145025 -0.046444 0.783379 43 255 205 0.399048
-0.140978 -0.045300 0.780988 46 255 202 0.404671
-0.144128 -0.046299 0.780295 46 255 202 0.404060
-0.151210 -0.049139 0.792592 7 238 240 0.356781
-0.153394 -0.050395 0.793259 7 238 240 0.357496
-0.151445 -0.049261 0.795029 0 226 250 0.344004
-0.149018 -0.047883 0.794292 0 210 255 0.331134
-0.156103 -0.052187 0.794819 20 254 228 0.372137
-0.152184 -0.049535 0.797412 0 130 255 0.251234
-0.149648 -0.047800 0.796800 0 206 255 0.327824
-0.154626 -0.051087 0.797885 7 238 240 0.359149
-0.149465 -0.048168 0.788202 27 255 221 0.380079
-0.148127 -0.047590 0.785892 30 255 218 0.385875
-0.073651 -0.120557 0.872458 56 255 192 0.417940
-0.075512 -0.119377 0.876159 56 255 192 0.416306
-0.071748 -0.121468 0.868607 75 255 172 0.440106
-0.074253 -0.121723 0.867395 59 255 189 0.421239
-0.076149 -0.120757 0.871213 72 255 176 0.434732
-0.078006 -0.119579 0.874921 56 255 192 0.416090
-0.071085 -0.122381 0.864092 69 255 179 0.429743
-0.070410 -0.123112 0.859545 79 255 169 0.443653
-0.067953 -0.122941 0.860848 85 255 163 0.451153
-0.068633 -0.122209 0.865417 69 255 179 0.429812
-0.078761 -0.120839 0.869646 66 255 182 0.426252
-0.080690 -0.119755 0.873322 49 255 198 0.407863
-0.076804 -0.121797 0.865879 75 255 172 0.438687
-0.076175 -0.122552 0.861234 66 255 182 0.429670
-0.072953 -0.123199 0.858067 82 255 166 0.445904
-0.073610 -0.122474 0.862724 66 255 182 0.428088
-0.068083 -0.125095 0.845635 56 255 192 0.415760
-0.064887 -0.126474 0.842603 53 255 195 0.410944
-0.068841 -0.124107 0.850202 59 255 189 0.419826
-0.065576 -0.125016 0.847062 56 255 192 0.415132
-0.066340 -0.124033 0.851636 56 255 192 0.417319
-0.062365 -0.126418 0.844024 53 255 195 0.411282
-0.069599 -0.123428 0.854850 72 255 176 0.434522
-0.072154 -0.123540 0.853387 72 255 176 0.436242
-0.063092 -0.124869 0.848382 56 255 192 0.415778
-0.059944 -0.126299 0.845360 53 255 195 0.412834
-0.063877 -0.123880 0.852914 59 255 189 0.418891
-0.060673 -0.124756 0.849740 56 255 192 0.415376
-0.065909 -0.123311 0.856878 69 255 179 0.431396
-0.079979 -0.030000 0.894699 53 255 195 0.411930
-0.080852 -0.027208 0.892034 53 255 195 0.410952
-0.080873 -0.024242 0.889814 46 255 202 0.404316
-0.078625 -0.026616 0.893006 46 255 202 0.402647
-0.077820 -0.029502 0.895624 33 255 215 0.389153
-0.080768 -0.021078 0.887693 43 255 205 0.398565
-0.080607 -0.017630 0.885673 79 255 169 0.442127
-0.075819 -0.026116 0.894582 53 255 195 0.412788
-0.076624 -0.020154 0.889560 27 255 221 0.382446
-0.078321 -0.017190 0.886631 46 255 202 0.404921
-0.078231 -0.023653 0.890957 33 255 215 0.387036
-0.079709 -0.009293 0.879138 33 255 215 0.388358
-0.079066 -0.011966 0.881561 30 255 218 0.383532
-0.081922 -0.012631 0.880783 40 255 208 0.397156
-0.082597 -0.009884 0.878546 43 255 205 0.401559
-0.079836 -0.014893 0.883588 27 255 221 0.379842
-0.077577 -0.014386 0.884499 14 246 234 0.365736
-0.084968 -0.010359 0.878245 7 238 240 0.355765
-0.085338 -0.013386 0.880166 49 255 198 0.409948
-0.083314 -0.015726 0.882638 46 255 202 0.402601
-0.082276 -0.073273 0.912862 53 255 195 0.412746
-0.081385 -0.068595 0.912617 56 255 192 0.415575
-0.084364 -0.078136 0.912223 36 255 211 0.394202
-0.086275 -0.082753 0.911331 46 255 202 0.404397
-0.083739 -0.068785 0.911910 56 255 192 0.417564
-0.087009 -0.078070 0.911313 40 255 208 0.397634
-0.084612 -0.073535 0.912063 53 255 195 0.410961
-0.091499 -0.094935 0.904006 49 255 198 0.409535
-0.091899 -0.098690 0.901816 53 255 195 0.413131
-0.089270 -0.090950 0.906835 49 255 198 0.406829
-0.087994 -0.094535 0.905289 66 255 182 0.426653
-0.088380 -0.098329 0.902984 53 255 195 0.411416
-0.088711 -0.087055 0.908829 43 255 205 0.398721
-0.086095 -0.098072 0.904046 53 255 195 0.411017
-0.085666 -0.090487 0.908335 49 255 198 0.406889
-0.084813 -0.094161 0.906874 49 255 198 0.408314
-0.086024 -0.086674 0.909969 46 255 202 0.404080
-0.084043 -0.100955 0.901226 46 255 202 0.404713
-0.084257 -0.104025 0.897283 27 255 221 0.380919
-0.086312 -0.101135 0.900134 53 255 195 0.410608
-0.086537 -0.104217 0.896257 43 255 205 0.399013
-0.084464 -0.107187 0.893445 46 255 202 0.405867
-0.084691 -0.110356 0.889617 46 255 202 0.406031
-0.082229 -0.110239 0.890810 36 255 211 0.392679
-0.082032 -0.107066 0.894720 62 255 185 0.422710
-0.088809 -0.101431 0.898596 53 255 195 0.410844
-0.089291 -0.104573 0.894257 53 255 195 0.411839
-0.088374 -0.107521 0.890866 30 255 218 0.384685
-0.087479 -0.110720 0.887713 27 255 221 0.382141
-0.082358 -0.117619 0.876888 53 255 195 0.413907
-0.084045 -0.115360 0.880519 49 255 198 0.409181
-0.081357 -0.115236 0.882182 49 255 198 0.408890
-0.079671 -0.117482 0.878523 72 255 176 0.435144
-0.084369 -0.112875 0.885034 43 255 205 0.401444
-0.087169 -0.113246 0.883173 43 255 205 0.401762
-0.077169 -0.117381 0.879737 53 255 195 0.413863
-0.078861 -0.115080 0.883311 49 255 198 0.410005
-0.079320 -0.112687 0.887678 46 255 202 0.404888
-0.081784 -0.112786 0.886482 46 255 202 0.403537
-0.075954 -0.057888 0.911195 56 255 192 0.415934
-0.075694 -0.053173 0.909156 56 255 192 0.414919
-0.075132 -0.048368 0.907339 53 255 195 0.413849
-0.074830 -0.043732 0.905622 53 255 195 0.412741
-0.074063 -0.057280 0.911849 56 255 192 0.414114
-0.073242 -0.047868 0.908204 49 255 198 0.409154
-0.073815 -0.052617 0.909872 53 255 195 0.413853
-0.075471 -0.032498 0.898953 43 255 205 0.402210
-0.075507 -0.036011 0.900913 49 255 198 0.409997
-0.074766 -0.039678 0.903409 43 255 205 0.400940
-0.077675 -0.032904 0.897704 46 255 202 0.402638
-0.077454 -0.036402 0.899991 56 255 192 0.415857
-0.102202 0.000277 0.861774 59 255 189 0.420730
-0.104200 0.000689 0.859642 59 255 189 0.418845
-0.100271 -0.000034 0.863908 59 255 189 0.420720
-0.103635 -0.000851 0.864251 59 255 189 0.418857
-0.105552 -0.000566 0.862132 59 255 189 0.418167
-0.107559 -0.000196 0.859974 56 255 192 0.416206
-0.101685 -0.001291 0.866312 59 255 189 0.418964
-0.099775 -0.001798 0.868313 59 255 189 0.419077
-0.098499 -0.000780 0.865995 59 255 189 0.420683
-0.096825 -0.001430 0.868063 59 255 189 0.420331
-0.108151 -0.001274 0.862540 72 255 176 0.435529
-0.110259 -0.001026 0.860496 56 255 192 0.415718
-0.106118 -0.001385 0.864533 56 255 192 0.417798
-0.104175 -0.001808 0.866618 59 255 189 0.418336
-0.102278 -0.002223 0.868654 66 255 182 0.426759
-0.097243 -0.007360 0.874166 59 255 189 0.421755
-0.098757 -0.005804 0.872273 59 255 189 0.420718
-0.099240 -0.003792 0.870323 59 255 189 0.419717
-0.093559 -0.006809 0.873841 53 255 195 0.411797
-0.093614 -0.005033 0.871854 62 255 185 0.424407
-0.091105 -0.006508 0.873788 62 255 185 0.423099
-0.093715 -0.003091 0.869904 62 255 185 0.423303
-0.096670 -0.003365 0.870101 59 255 189 0.421285
-0.116817 -0.003959 0.843973 46 255 202 0.403279
-0.120722 -0.006467 0.842319 49 255 198 0.407288
-0.116455 -0.003496 0.846412 46 255 202 0.402784
-0.120348 -0.006059 0.844694 46 255 202 0.405550
-0.119996 -0.005644 0.847113 1 230 247 0.349777
-0.124303 -0.008442 0.843103 53 255 195 0.411489
-0.116142 -0.003053 0.848857 46 255 202 0.405660
-0.115783 -0.002773 0.851281 33 255 215 0.390315
-0.112417 -0.001149 0.850762 49 255 198 0.409961
-0.112736 -0.001540 0.848320 46 255 202 0.405678
-0.123525 -0.007619 0.845520 85 255 163 0.453100
-0.127282 -0.009910 0.844364 53 255 195 0.413507
-0.122756 -0.006795 0.847990 20 254 228 0.372583
-0.126472 -0.009103 0.846812 53 255 195 0.411413
-0.122048 -0.005989 0.850502 62 255 185 0.425059
-0.118588 -0.003907 0.852141 49 255 198 0.408536
-0.119288 -0.004746 0.849639 46 255 202 0.405820
-0.112292 -0.001624 0.858331 53 255 195 0.413208
-0.114359 -0.002203 0.856122 17 250 231 0.367556
-0.111686 -0.001373 0.855633 53 255 195 0.410361
-0.109613 -0.000761 0.857823 53 255 195 0.413395
-0.115077 -0.002424 0.853728 49 255 198 0.408648
-0.117825 -0.003725 0.854558 49 255 198 0.407266
-0.106225 0.000500 0.857412 56 255 192 0.416571
-0.108257 0.000161 0.855132 66 255 182 0.427975
-0.110362 -0.000439 0.852956 53 255 195 0.410896
-0.134193 -0.019601 0.830485 66 255 182 0.428040
-0.135925 -0.021615 0.829024 182 255 66 0.568998
-0.132447 -0.017567 0.831981 69 255 179 0.431058
-0.136623 -0.020203 0.832755 56 255 192 0.417721
-0.138040 -0.022908 0.829406 56 255 192 0.416746
-0.140169 -0.024167 0.829790 53 255 195 0.411939
-0.134839 -0.018236 0.834281 62 255 185 0.422050
-0.133041 -0.016262 0.835850 69 255 179 0.430368
-0.130725 -0.015767 0.833525 62 255 185 0.424014
-0.128983 -0.013974 0.835032 66 255 182 0.428093
-0.142617 -0.025648 0.830416 53 255 195 0.411153
-0.140220 -0.022845 0.831953 56 255 192 0.415344
-0.142634 -0.024356 0.832624 56 255 192 0.414271
-0.145094 -0.027121 0.831032 59 255 189 0.419394
-0.140222 -0.021607 0.834173 56 255 192 0.414558
-0.145106 -0.025819 0.833219 114 255 134 0.484882
-0.142621 -0.023133 0.834807 53 255 195 0.412551
-0.147611 -0.028524 0.831661 66 255 182 0.426257
-0.140160 -0.020399 0.836442 56 255 192 0.415185
-0.136533 -0.017754 0.837318 56 255 192 0.416405
-0.129485 -0.011824 0.842496 56 255 192 0.415028
-0.131689 -0.013739 0.840644 72 255 176 0.433710
-0.128656 -0.012441 0.839389 59 255 189 0.418069
-0.126469 -0.010479 0.841212 23 255 224 0.375636
-0.132374 -0.014981 0.838239 56 255 192 0.417619
-0.135807 -0.016585 0.839675 56 255 192 0.414616
-0.122688 -0.008229 0.840446 53 255 195 0.412799
-0.124715 -0.009933 0.838619 59 255 189 0.418809
-0.124882 -0.010749 0.836410 59 255 189 0.420969
-0.128828 -0.013178 0.837211 30 255 218 0.386242
-0.142431 -0.032720 0.818555 0 226 250 0.345269
-0.142600 -0.031035 0.821439 79 255 169 0.445255
-0.144948 -0.033666 0.820366 0 218 255 0.337153
-0.147218 -0.036231 0.819269 30 255 218 0.386041
-0.145122 -0.031940 0.823238 40 255 208 0.397943
-0.142457 -0.029262 0.824255 221 255 27 0.613659
-0.138589 -0.026676 0.823586 43 255 205 0.401204
-0.150057 -0.037867 0.820916 56 255 192 0.414853
-0.148992 -0.035240 0.823673 185 255 62 0.570344
-0.147263 -0.030233 0.828382 62 255 185 0.424273
-0.144753 -0.028737 0.827830 163 255 85 0.545204
-0.142289 -0.027240 0.827233 49 255 198 0.409105
-0.147779 -0.031972 0.826685 66 255 182 0.428637
-0.138464 -0.024745 0.826543 56 255 192 0.414206
-0.136328 -0.023457 0.826166 0 218 255 0.337752
-0.148821 -0.043210 0.809442 14 246 234 0.367148
-0.150756 -0.043840 0.811161 23 255 224 0.378174
-0.150620 -0.045276 0.808341 23 255 224 0.375022
-0.148926 -0.041792 0.812256 23 255 224 0.375239
-0.146813 -0.039506 0.813296 69 255 179 0.430887
-0.146884 -0.041019 0.810491 7 238 240 0.358794
-0.153170 -0.047283 0.808633 36 255 211 0.393706
-0.153515 -0.046355 0.811379 53 255 195 0.411143
-0.155232 -0.048430 0.810172 59 255 189 0.418581
-0.153790 -0.045236 0.814055 59 255 189 0.419943
-0.150949 -0.042757 0.813873 40 255 208 0.396600
-0.151004 -0.040384 0.818143 59 255 189 0.420521
-0.148469 -0.038875 0.816481 195 255 53 0.584680
-0.144892 -0.035413 0.817431 1 230 247 0.349904
-0.144888 -0.037149 0.814443 0 214 255 0.334111
-0.155411 -0.051388 0.801252 23 255 224 0.378015
-0.154022 -0.049902 0.803154 23 255 224 0.375289
-0.158364 -0.053822 0.800380 36 255 211 0.392558
-0.156769 -0.051892 0.804368 40 255 208 0.395252
-0.155076 -0.049300 0.807666 69 255 179 0.429969
-0.150860 -0.046406 0.806023 17 250 231 0.371014
-0.152639 -0.048167 0.805144 20 254 228 0.372705
-0.159922 -0.054995 0.798402 36 255 211 0.393490
-0.156721 -0.052649 0.798213 23 255 224 0.375302
0.123686 -0.003108 0.885381 72 255 176 0.435759
0.118261 -0.002494 0.885168 66 255 182 0.426059
0.124911 -0.002973 0.882762 88 255 160 0.455107
0.119487 -0.002333 0.882589 75 255 172 0.437722
0.120687 -0.002214 0.879952 79 255 169 0.441412
0.116982 -0.002316 0.887569 82 255 166 0.446452
0.131979 -0.005241 0.873556 69 255 179 0.433000
0.127197 -0.003859 0.873907 72 255 176 0.435315
0.126342 -0.003480 0.876881 69 255 179 0.433421
0.122348 -0.002797 0.874245 69 255 179 0.432688
0.127878 -0.004259 0.870693 69 255 179 0.433215
0.123085 -0.003166 0.871248 69 255 179 0.430371
0.123946 -0.003600 0.868216 69 255 179 0.432910
0.125506 -0.003099 0.879657 69 255 179 0.433488
0.121502 -0.002438 0.877133 79 255 169 0.443370
0.087593 -0.003137 0.871135 66 255 182 0.428410
0.091865 -0.002838 0.873479 53 255 195 0.411046
0.093035 -0.003000 0.870966 69 255 179 0.430849
0.095958 -0.002610 0.875717 66 255 182 0.428205
0.097236 -0.002665 0.873228 72 255 176 0.435033
0.101391 -0.002318 0.875491 82 255 166 0.448060
0.100073 -0.002341 0.877949 75 255 172 0.438845
0.098534 -0.002569 0.870718 79 255 169 0.442376
0.102702 -0.002155 0.872940 85 255 163 0.449822
0.103989 -0.001913 0.870299 79 255 169 0.441572
0.099845 -0.002279 0.868131 72 255 176 0.435958
0.094344 -0.002893 0.868480 62 255 185 0.425747
0.095604 -0.002618 0.865875 72 255 176 0.433906
0.090010 -0.003297 0.866133 69 255 179 0.430101
0.088805 -0.003331 0.868690 66 255 182 0.426777
0.084121 -0.003745 0.866159 66 255 182 0.427436
0.091325 -0.003045 0.863557 59 255 189 0.420832
0.085286 -0.003730 0.863563 69 255 179 0.433086
0.086436 -0.003481 0.860844 66 255 182 0.428420
0.082941 -0.003497 0.868648 66 255 182 0.426970
0.104185 -0.002221 0.880213 85 255 163 0.449262
0.108318 -0.002239 0.882556 98 255 150 0.466820
0.109621 -0.002239 0.880081 98 255 150 0.467807
0.112628 -0.002260 0.885011 91 255 156 0.459123
0.113911 -0.002265 0.882566 88 255 160 0.453835
0.115109 -0.002143 0.879984 75 255 172 0.440965
0.116354 -0.002079 0.877391 72 255 176 0.434988
0.110900 -0.002082 0.877558 85 255 163 0.449681
0.112247 -0.001924 0.874987 75 255 172 0.438453
0.106776 -0.002091 0.875234 85 255 163 0.451681
0.105496 -0.002246 0.877776 91 255 156 0.460714
0.108055 -0.001876 0.872591 75 255 172 0.439517
0.119863 -0.003307 0.865709 72 255 176 0.434969
0.118923 -0.002841 0.868662 62 255 185 0.422090
0.114920 -0.002667 0.866275 75 255 172 0.437591
0.115694 -0.002964 0.863217 59 255 189 0.421162
0.113882 -0.002327 0.869141 66 255 182 0.426355
0.110792 -0.002419 0.863942 75 255 172 0.438610
0.109902 -0.002188 0.866897 75 255 172 0.438649
0.105904 -0.002087 0.864678 72 255 176 0.434254
0.111854 -0.002757 0.860900 72 255 176 0.433865
0.106888 -0.002195 0.861632 66 255 182 0.429479
0.107813 -0.002520 0.858704 75 255 172 0.438070
0.108978 -0.001934 0.869719 72 255 176 0.436188
0.104900 -0.001976 0.867509 75 255 172 0.438461
0.113035 -0.002033 0.872059 72 255 176 0.436490
0.117209 -0.002270 0.874515 72 255 176 0.434624
0.118040 -0.002499 0.871647 72 255 176 0.434086
0.103766 -0.002474 0.856545 72 255 176 0.437166
0.102733 -0.002255 0.859442 79 255 169 0.443792
0.098572 -0.002342 0.857246 72 255 176 0.434171
0.099620 -0.002373 0.854333 72 255 176 0.434521
0.097480 -0.002460 0.860147 72 255 176 0.435282
0.094125 -0.002656 0.854880 69 255 179 0.432371
0.093187 -0.002790 0.857851 69 255 179 0.432719
0.088151 -0.003212 0.854964 62 255 185 0.424463
0.095011 -0.002524 0.851826 69 255 179 0.431908
0.089063 -0.002821 0.851799 66 255 182 0.426686
0.089999 -0.002563 0.848683 79 255 169 0.443537
0.092212 -0.002949 0.860710 72 255 176 0.434173
0.087257 -0.003410 0.857931 66 255 182 0.426241
0.096538 -0.002518 0.863031 69 255 179 0.430029
0.100772 -0.002226 0.865272 75 255 172 0.438452
0.101724 -0.002230 0.862381 75 255 172 0.438607
0.095244 -0.002653 0.848132 69 255 179 0.430817
0.100183 -0.002800 0.851052 72 255 176 0.435608
0.100634 -0.003340 0.847627 72 255 176 0.435380
0.104364 -0.003053 0.853363 75 255 172 0.438944
0.104940 -0.003719 0.850050 75 255 172 0.438514
0.108978 -0.004069 0.852349 75 255 172 0.439235
0.108369 -0.003239 0.855606 56 255 192 0.416976
0.105500 -0.004578 0.846718 72 255 176 0.437471
0.109605 -0.004999 0.849116 75 255 172 0.438207
0.110148 -0.006010 0.845831 59 255 189 0.419727
0.106107 -0.005643 0.843464 72 255 176 0.436983
0.101167 -0.004074 0.844179 79 255 169 0.442752
0.101697 -0.004994 0.840631 69 255 179 0.432624
0.096263 -0.003519 0.840892 66 255 182 0.429281
0.095756 -0.002986 0.844539 69 255 179 0.429733
0.091355 -0.003056 0.841811 56 255 192 0.416068
0.096890 -0.004307 0.837332 69 255 179 0.432793
0.092154 -0.003567 0.838357 69 255 179 0.432689
0.092953 -0.004354 0.835030 56 255 192 0.414436
0.090643 -0.002708 0.845226 59 255 189 0.420319
0.112191 -0.003433 0.857687 75 255 172 0.439009
0.116210 -0.003823 0.860002 66 255 182 0.426099
0.116604 -0.004574 0.856694 75 255 172 0.437706
0.120127 -0.003992 0.862362 72 255 176 0.435829
0.120598 -0.004911 0.859098 72 255 176 0.437033
0.124462 -0.005263 0.861461 72 255 176 0.434697
0.124183 -0.004366 0.864874 72 255 176 0.433979
0.120881 -0.005840 0.855655 72 255 176 0.435593
0.124890 -0.006343 0.858067 56 255 192 0.416990
0.125087 -0.007406 0.854728 69 255 179 0.432983
0.121425 -0.007083 0.852442 72 255 176 0.433850
0.117118 -0.005574 0.853501 72 255 176 0.436457
0.117648 -0.006740 0.850179 72 255 176 0.433649
0.113369 -0.005270 0.851245 72 255 176 0.437400
0.112813 -0.004338 0.854579 75 255 172 0.438726
0.113875 -0.006411 0.847980 36 255 211 0.392999
0.124131 -0.015144 0.841186 66 255 182 0.425885
0.120629 -0.014885 0.839224 75 255 172 0.438631
0.120746 -0.012533 0.842224 59 255 189 0.418659
0.117263 -0.012261 0.840209 69 255 179 0.432285
0.117143 -0.014590 0.837237 69 255 179 0.431511
0.117352 -0.010173 0.843424 69 255 179 0.433116
0.113751 -0.011937 0.838201 72 255 176 0.434927
0.113829 -0.009856 0.841328 72 255 176 0.435577
0.110249 -0.009503 0.839327 75 255 172 0.437808
0.113661 -0.014355 0.835243 85 255 163 0.450052
0.110239 -0.011648 0.836114 72 255 176 0.436770
0.110068 -0.014018 0.832970 59 255 189 0.419989
0.113839 -0.008052 0.844598 72 255 176 0.435581
0.110212 -0.007670 0.842487 72 255 176 0.437102
0.117522 -0.008409 0.846735 59 255 189 0.418546
0.121235 -0.008777 0.848934 69 255 179 0.431734
0.121012 -0.010553 0.845607 69 255 179 0.430632
0.124689 -0.010959 0.847722 69 255 179 0.430670
0.124964 -0.009133 0.851262 69 255 179 0.431903
0.124442 -0.012908 0.844459 66 255 182 0.427782
0.105746 -0.013441 0.829665 69 255 179 0.432008
0.105856 -0.011022 0.832963 88 255 160 0.456348
0.101498 -0.010324 0.829607 66 255 182 0.429172
0.101605 -0.013070 0.826831 79 255 169 0.442255
0.101320 -0.008025 0.832843 75 255 172 0.437562
0.097789 -0.010243 0.827473 82 255 166 0.447097
0.097432 -0.007794 0.830401 66 255 182 0.427545
0.094037 -0.008020 0.828734 59 255 189 0.421548
0.098047 -0.013113 0.824912 101 255 147 0.470292
0.094481 -0.010493 0.825908 66 255 182 0.426410
0.094764 -0.013293 0.823453 75 255 172 0.438843
0.097026 -0.005799 0.833611 62 255 185 0.424972
0.093524 -0.005982 0.831764 66 255 182 0.426486
0.101450 -0.006301 0.836657 82 255 166 0.449120
0.106124 -0.007177 0.840075 62 255 185 0.421938
0.106111 -0.008984 0.836592 72 255 176 0.435820
0.127890 -0.004960 0.867152 72 255 176 0.434295
0.131938 -0.005863 0.869956 88 255 160 0.454555
0.131752 -0.006551 0.865980 72 255 176 0.434232
0.135822 -0.007646 0.868898 85 255 163 0.450706
0.135736 -0.008448 0.865127 72 255 176 0.434010
0.139675 -0.010556 0.864102 69 255 179 0.430023
0.135838 -0.009564 0.861494 72 255 176 0.434084
0.131942 -0.007574 0.862621 72 255 176 0.434412
0.132189 -0.008689 0.859106 72 255 176 0.434123
0.128393 -0.006919 0.860277 72 255 176 0.434922
0.128113 -0.005902 0.863726 72 255 176 0.435223
0.128646 -0.008014 0.856867 53 255 195 0.413181
0.145770 -0.019672 0.853045 46 255 202 0.406227
0.143624 -0.017049 0.855378 69 255 179 0.430358
0.142799 -0.018915 0.851407 66 255 182 0.429626
0.140587 -0.016176 0.853645 69 255 179 0.431977
0.141251 -0.014376 0.857528 69 255 179 0.432651
0.138355 -0.013622 0.855878 69 255 179 0.433322
0.139726 -0.018048 0.849676 69 255 179 0.429714
0.137501 -0.015307 0.851873 69 255 179 0.431720
0.136766 -0.017257 0.848065 66 255 182 0.428586
0.139031 -0.012022 0.859893 69 255 179 0.433472
0.133626 -0.016728 0.846329 66 255 182 0.427980
0.134051 -0.014667 0.849743 69 255 179 0.430417
0.130853 -0.014144 0.847902 66 255 182 0.429206
0.130474 -0.016251 0.844659 66 255 182 0.426737
0.131132 -0.012027 0.851349 69 255 179 0.431649
0.127642 -0.013536 0.846194 62 255 185 0.423211
0.127983 -0.011513 0.849589 53 255 195 0.413703
0.127281 -0.015624 0.842909 62 255 185 0.425086
0.128063 -0.009529 0.852951 69 255 179 0.431676
0.131736 -0.010282 0.855204 72 255 176 0.434053
0.135285 -0.011089 0.857314 72 255 176 0.434443
0.134744 -0.012846 0.853587 72 255 176 0.433792
0.083802 -0.144897 0.897659 53 255 195 0.413956
0.082368 -0.143942 0.900737 27 255 221 0.379014
0.080459 -0.142921 0.899195 20 254 228 0.374962
0.079014 -0.141978 0.902257 11 242 237 0.360885
0.080908 -0.143014 0.903781 53 255 195 0.411736
0.077053 -0.140946 0.900693 7 238 240 0.356756
0.077559 -0.141023 0.905281 82 255 166 0.446447
0.075632 -0.139993 0.903740 0 214 255 0.333591
0.074191 -0.139022 0.906744 33 255 215 0.388619
0.079442 -0.142071 0.906789 11 242 237 0.362152
0.076108 -0.140068 0.908285 11 242 237 0.362943
0.077965 -0.141136 0.909791 23 255 224 0.378693
0.073593 -0.138970 0.902121 0 226 250 0.347493
0.072188 -0.138000 0.905160 0 198 255 0.318628
0.070055 -0.136993 0.903507 43 255 205 0.399603
0.071488 -0.137802 0.900390 23 255 224 0.376901
0.075060 -0.139783 0.899018 11 242 237 0.359426
0.072933 -0.138589 0.897261 33 255 215 0.387712
0.076541 -0.140587 0.895884 75 255 172 0.440640
0.078542 -0.141752 0.897573 104 255 143 0.472733
0.080059 -0.142580 0.894446 27 255 221 0.379875
0.074394 -0.139347 0.894113 11 242 237 0.363158
0.078046 -0.141378 0.892741 27 255 221 0.381319
0.075878 -0.140096 0.890962 36 255 211 0.393607
0.081981 -0.143754 0.896083 40 255 208 0.397773
0.076431 -0.139975 0.912519 11 242 237 0.361864
0.074550 -0.139013 0.911157 0 198 255 0.316490
0.073043 -0.137849 0.913910 0 178 255 0.298974
0.074951 -0.138836 0.915287 14 246 234 0.363929
0.071108 -0.136876 0.912526 0 130 255 0.253055
0.071567 -0.136680 0.916705 0 130 255 0.250122
0.069615 -0.135687 0.915328 0 214 255 0.333764
0.073457 -0.137688 0.918069 0 202 255 0.320959
0.067603 -0.134737 0.913882 0 138 255 0.260453
0.065493 -0.133699 0.912233 66 255 182 0.428027
0.069137 -0.135840 0.910959 0 78 255 0.202532
0.067031 -0.134812 0.909291 0 166 255 0.285616
0.070672 -0.136938 0.908058 0 146 255 0.268486
0.072654 -0.137960 0.909633 0 174 255 0.294967
0.068546 -0.135908 0.906381 143 255 104 0.522624
0.056112 -0.129646 0.905468 98 255 150 0.466831
0.058547 -0.130950 0.907416 244 250 4 0.643358
0.060146 -0.131845 0.904293 231 255 17 0.626391
0.057737 -0.130453 0.902331 143 255 104 0.523106
0.062502 -0.132963 0.906123 182 255 66 0.567870
0.061743 -0.132722 0.901200 218 255 30 0.609620
0.064098 -0.133910 0.903068 137 255 111 0.511905
0.065663 -0.134849 0.900011 104 255 143 0.473830
0.059331 -0.131258 0.899229 127 255 121 0.501556
0.063308 -0.133597 0.898138 111 255 137 0.480575
0.060908 -0.132076 0.896171 111 255 137 0.480911
0.066342 -0.134988 0.904836 153 255 95 0.531789
0.067917 -0.135990 0.901818 79 255 169 0.445038
0.064838 -0.133920 0.907757 163 255 85 0.544235
0.063310 -0.132804 0.910704 255 228 0 0.664896
0.060976 -0.131910 0.909090 231 255 17 0.627702
0.062380 -0.132526 0.892937 101 255 147 0.470352
0.064712 -0.134266 0.894986 208 255 40 0.600686
0.066186 -0.134768 0.891765 88 255 160 0.453959
0.063837 -0.133028 0.889723 88 255 160 0.455219
0.068491 -0.136285 0.893736 56 255 192 0.414482
0.067643 -0.135292 0.888536 46 255 202 0.403258
0.069981 -0.136831 0.890512 69 255 179 0.431590
0.071487 -0.137380 0.887274 56 255 192 0.415519
0.065288 -0.133545 0.886512 62 255 185 0.425248
0.069110 -0.135856 0.885292 62 255 185 0.424166
0.066732 -0.134087 0.883278 0 214 255 0.335583
0.072207 -0.138215 0.892399 56 255 192 0.414978
0.073746 -0.138774 0.889163 4 234 244 0.354694
0.070764 -0.137488 0.895531 62 255 185 0.422264
0.069337 -0.136756 0.898677 66 255 182 0.429314
0.067080 -0.135576 0.896869 117 255 130 0.490109
0.062882 -0.132268 0.884761 82 255 166 0.445771
0.061440 -0.131719 0.887958 46 255 202 0.402485
0.059104 -0.130344 0.886210 0 158 255 0.280508
0.059985 -0.131293 0.891179 62 255 185 0.422451
0.057650 -0.129915 0.889403 117 255 130 0.489908
0.056165 -0.129466 0.892610 17 250 231 0.370616
0.058502 -0.130903 0.894402 72 255 176 0.434826
0.055360 -0.128352 0.887606 0 34 255 0.157329
0.053867 -0.127976 0.890816 0 46 255 0.170614
0.051569 -0.126447 0.889025 0 74 255 0.198024
0.053211 -0.126745 0.885819 0 186 255 0.308255
0.056936 -0.128779 0.884424 0 154 255 0.275702
0.054789 -0.127207 0.882655 0 226 250 0.346644
0.058479 -0.129311 0.881270 0 206 255 0.326123
0.060657 -0.130808 0.883014 0 86 255 0.210329
0.062198 -0.131313 0.879818 1 230 247 0.348951
0.056320 -0.127740 0.879512 17 250 231 0.369833
0.060015 -0.129776 0.878088 4 234 244 0.355343
0.057855 -0.128242 0.876348 27 255 221 0.379525
0.064432 -0.132742 0.881543 66 255 182 0.427752
0.056845 -0.130206 0.897543 82 255 166 0.446185
0.055238 -0.129438 0.900641 111 255 137 0.482654
0.052789 -0.128154 0.898906 56 255 192 0.415711
0.053593 -0.128725 0.903770 108 255 140 0.479857
0.051113 -0.127476 0.902047 72 255 176 0.434641
0.048676 -0.126201 0.900347 0 226 250 0.345184
0.046330 -0.124666 0.898517 0 86 255 0.208968
0.050449 -0.126779 0.897132 0 194 255 0.315071
0.048121 -0.125222 0.895306 0 118 255 0.241534
0.052184 -0.127284 0.893941 0 102 255 0.222961
0.054503 -0.128749 0.895730 33 255 215 0.389331
0.049868 -0.125725 0.892116 0 0 183 0.047522
0.037413 -0.119491 0.892210 62 255 185 0.421948
0.039508 -0.120909 0.893805 0 226 250 0.345116
0.041369 -0.121393 0.890573 11 242 237 0.360430
0.039247 -0.120017 0.888986 98 255 150 0.467179
0.043524 -0.122737 0.892165 0 166 255 0.288196
0.043190 -0.122089 0.887428 85 255 163 0.449304
0.045348 -0.123349 0.888990 0 186 255 0.306833
0.047154 -0.124000 0.885882 0 206 255 0.325911
0.041059 -0.120683 0.885858 40 255 208 0.397123
0.044968 -0.122759 0.884321 27 255 221 0.379743
0.042789 -0.121550 0.882784 75 255 172 0.438665
0.047576 -0.124571 0.890577 0 0 178 0.045916
0.049352 -0.125255 0.887445 0 150 255 0.269552
0.045806 -0.124047 0.893739 0 6 255 0.131191
0.043995 -0.123610 0.896961 0 1 255 0.124929
0.041731 -0.122275 0.895367 53 255 195 0.413777
0.044504 -0.122081 0.879651 46 255 202 0.403698
0.046604 -0.123222 0.881187 30 255 218 0.386252
0.048285 -0.123816 0.878067 43 255 205 0.399154
0.046160 -0.122800 0.876534 49 255 198 0.406393
0.050396 -0.124913 0.879596 30 255 218 0.383306
0.049923 -0.124567 0.874963 46 255 202 0.403742
0.052045 -0.125493 0.876471 36 255 211 0.390984
0.053640 -0.126235 0.873347 46 255 202 0.402554
0.047819 -0.123634 0.873431 49 255 198 0.409887
0.051530 -0.125301 0.871819 49 255 198 0.407445
0.049419 -0.124496 0.870299 53 255 195 0.413262
0.054129 -0.126653 0.877997 27 255 221 0.380639
0.055732 -0.127297 0.874856 33 255 215 0.387289
0.052591 -0.126053 0.881114 11 242 237 0.359929
0.050994 -0.125616 0.884264 0 222 253 0.342641
0.048797 -0.124423 0.882722 23 255 224 0.376592
0.095807 -0.142979 0.865326 46 255 202 0.405569
0.094331 -0.143600 0.869752 43 255 205 0.402328
0.092243 -0.142497 0.867974 88 255 160 0.455500
0.090832 -0.143079 0.872402 40 255 208 0.396111
0.092842 -0.144222 0.874067 56 255 192 0.416221
0.088746 -0.141956 0.870635 40 255 208 0.398362
0.089350 -0.143715 0.876743 33 255 215 0.389580
0.087332 -0.142523 0.875069 62 255 185 0.422087
0.085908 -0.143221 0.879385 88 255 160 0.456688
0.091298 -0.144899 0.878328 79 255 169 0.442078
0.087874 -0.144441 0.880984 33 255 215 0.390328
0.089772 -0.145638 0.882527 88 255 160 0.454023
0.085199 -0.141319 0.873322 33 255 215 0.389542
0.083814 -0.141966 0.877739 23 255 224 0.378636
0.081581 -0.140641 0.876044 30 255 218 0.384593
0.082996 -0.140135 0.871837 104 255 143 0.473369
0.086611 -0.140876 0.869117 104 255 143 0.474843
0.084373 -0.139674 0.867525 75 255 172 0.437733
0.088008 -0.140434 0.864792 98 255 150 0.467386
0.090192 -0.141537 0.866413 56 255 192 0.415931
0.091607 -0.141011 0.862120 49 255 198 0.408895
0.085736 -0.139072 0.863167 75 255 172 0.438217
0.089351 -0.139770 0.860457 49 255 198 0.409805
0.087078 -0.138284 0.858804 40 255 208 0.395789
0.093781 -0.142031 0.863762 49 255 198 0.406984
0.088256 -0.145349 0.886315 62 255 185 0.423673
0.086351 -0.144185 0.884627 30 255 218 0.384263
0.084914 -0.144001 0.888465 53 255 195 0.411350
0.086778 -0.145145 0.890090 82 255 166 0.446002
0.082936 -0.142794 0.886791 121 255 127 0.493493
0.083449 -0.143852 0.892277 27 255 221 0.380172
0.081504 -0.142672 0.890617 43 255 205 0.400613
0.085303 -0.145000 0.893886 30 255 218 0.385496
0.079435 -0.141410 0.888898 69 255 179 0.432928
0.077324 -0.140095 0.887300 140 255 108 0.516549
0.080914 -0.141508 0.885234 17 250 231 0.370992
0.078761 -0.140161 0.883610 121 255 127 0.493566
0.082379 -0.141680 0.881510 20 254 228 0.373789
0.084424 -0.142958 0.883083 179 255 69 0.564158
0.080194 -0.140357 0.879863 33 255 215 0.388975
0.068172 -0.134001 0.879690 11 242 237 0.359552
0.070459 -0.135823 0.881591 46 255 202 0.406107
0.071879 -0.135822 0.877932 14 246 234 0.365960
0.069604 -0.133979 0.876053 0 206 255 0.325397
0.074180 -0.137413 0.879820 33 255 215 0.387292
0.073327 -0.135836 0.874223 0 218 255 0.337818
0.075641 -0.137556 0.876086 53 255 195 0.411050
0.077085 -0.137782 0.872308 27 255 221 0.380896
0.071078 -0.133978 0.872367 0 170 255 0.291969
0.074791 -0.135949 0.870435 0 226 250 0.344510
0.072549 -0.134028 0.868590 85 255 163 0.450100
0.077932 -0.139009 0.877967 23 255 224 0.378024
0.079377 -0.139294 0.874194 104 255 143 0.475561
0.076542 -0.138838 0.881750 111 255 137 0.482016
0.075169 -0.138763 0.885497 43 255 205 0.401024
0.072826 -0.137366 0.883570 166 255 82 0.547790
0.074031 -0.133393 0.864551 0 38 255 0.161341
0.076184 -0.135125 0.866160 0 186 255 0.305656
0.077709 -0.134506 0.862035 0 198 255 0.317671
0.075538 -0.132747 0.860426 0 162 255 0.281959
0.079847 -0.136216 0.863684 14 246 234 0.363576
0.079184 -0.133856 0.857876 0 218 255 0.339022
0.081309 -0.135623 0.859541 27 255 221 0.380609
0.082781 -0.134965 0.855366 40 255 208 0.395522
0.077038 -0.132192 0.856211 0 190 255 0.311057
0.080695 -0.133236 0.853695 20 254 228 0.374919
0.078535 -0.131551 0.852013 36 255 211 0.391403
0.083483 -0.137328 0.861227 43 255 205 0.398636
0.084922 -0.136700 0.857059 46 255 202 0.404835
0.082111 -0.138113 0.865610 36 255 211 0.391664
0.080767 -0.138746 0.869927 33 255 215 0.386767
0.078474 -0.137022 0.868031 11 242 237 0.362567
0.074759 -0.130751 0.854703 0 194 255 0.314116
0.073260 -0.131315 0.858891 0 186 255 0.304950
0.070985 -0.129951 0.857336 0 210 255 0.330434
0.071779 -0.132004 0.863000 0 186 255 0.307132
0.069505 -0.130559 0.861443 0 218 255 0.337457
0.068068 -0.131236 0.865461 0 218 255 0.339350
0.070302 -0.132702 0.867020 0 198 255 0.317269
0.067252 -0.129209 0.859861 91 255 156 0.459871
0.065819 -0.129863 0.863855 0 206 255 0.327207
0.063631 -0.128549 0.862235 33 255 215 0.389761
0.065143 -0.127950 0.858428 43 255 205 0.400549
0.068808 -0.128615 0.855960 11 242 237 0.359645
0.066674 -0.127383 0.854527 27 255 221 0.382679
0.070429 -0.128131 0.851957 1 230 247 0.350935
0.072588 -0.129436 0.853330 0 202 255 0.321225
0.074202 -0.128954 0.849268 69 255 179 0.429975
0.068274 -0.126858 0.850562 23 255 224 0.377872
0.072068 -0.127673 0.847874 49 255 198 0.407873
0.069931 -0.126334 0.846536 23 255 224 0.378013
0.076353 -0.130230 0.850640 4 234 244 0.351778
0.068754 -0.132582 0.870731 0 194 255 0.314525
0.067304 -0.132585 0.874376 0 218 255 0.337002
0.065035 -0.131158 0.872712 11 242 237 0.359705
0.065856 -0.132646 0.877983 1 230 247 0.348428
0.063623 -0.131237 0.876293 0 210 255 0.331177
0.061411 -0.129737 0.874582 91 255 156 0.457403
0.059343 -0.128285 0.872941 36 255 211 0.392840
0.062901 -0.129775 0.871099 23 255 224 0.377628
0.060798 -0.128316 0.869458 40 255 208 0.396656
0.064359 -0.129802 0.867515 17 250 231 0.368291
0.066537 -0.131199 0.869130 121 255 127 0.493033
0.062222 -0.128412 0.865900 104 255 143 0.473475
0.050976 -0.124742 0.866947 56 255 192 0.414231
0.052986 -0.125574 0.868432 53 255 195 0.410899
0.054551 -0.125791 0.865018 53 255 195 0.412887
0.052572 -0.125048 0.863569 56 255 192 0.416530
0.056519 -0.126609 0.866474 49 255 198 0.408960
0.056081 -0.126004 0.861556 56 255 192 0.414387
0.058032 -0.126772 0.862988 49 255 198 0.408918
0.059541 -0.126947 0.859425 59 255 189 0.419936
0.054110 -0.125315 0.860108 46 255 202 0.404203
0.057575 -0.126209 0.858019 53 255 195 0.412858
0.055645 -0.125541 0.856619 43 255 205 0.400917
0.060054 -0.127601 0.864427 36 255 211 0.393671
0.061561 -0.127731 0.860837 40 255 208 0.395702
0.058651 -0.127476 0.867978 46 255 202 0.403318
0.057213 -0.127335 0.871451 30 255 218 0.386384
0.055098 -0.126414 0.869948 49 255 198 0.408840
0.057183 -0.125004 0.853036 56 255 192 0.415355
0.059009 -0.125645 0.854311 75 255 172 0.439271
0.060573 -0.125054 0.850612 53 255 195 0.411773
0.058733 -0.124336 0.849370 53 255 195 0.413757
0.062454 -0.125796 0.851847 46 255 202 0.404015
0.062198 -0.124405 0.846866 53 255 195 0.410371
0.064101 -0.125189 0.848043 46 255 202 0.403059
0.065872 -0.124689 0.844164 46 255 202 0.403449
0.060364 -0.123685 0.845665 53 255 195 0.413805
0.063914 -0.123855 0.843035 40 255 208 0.395210
0.062043 -0.123042 0.841873 59 255 189 0.421000
0.066106 -0.126000 0.849240 43 255 205 0.398857
0.067868 -0.125494 0.845346 36 255 211 0.392837
0.064536 -0.126544 0.853181 40 255 208 0.396761
0.063016 -0.127134 0.857049 43 255 205 0.400886
0.060968 -0.126348 0.855683 46 255 202 0.406166
0.097653 -0.016942 0.822712 82 255 166 0.446658
0.101068 -0.016834 0.824312 75 255 172 0.440193
0.100474 -0.020823 0.822342 66 255 182 0.428866
0.104955 -0.016877 0.826619 88 255 160 0.456565
0.104150 -0.020702 0.824178 69 255 179 0.431792
0.108403 -0.020847 0.826910 79 255 169 0.443467
0.109393 -0.017381 0.829904 72 255 176 0.436426
0.103281 -0.024839 0.822313 72 255 176 0.434681
0.107323 -0.024733 0.824437 72 255 176 0.436993
0.106192 -0.028873 0.822542 79 255 169 0.442827
0.102718 -0.029034 0.821084 79 255 169 0.443034
0.100096 -0.024906 0.820971 69 255 179 0.430957
0.099616 -0.029217 0.819831 79 255 169 0.444138
0.097068 -0.025012 0.819808 66 255 182 0.426766
0.097409 -0.020946 0.821128 66 255 182 0.427791
0.094458 -0.020997 0.819926 62 255 185 0.425419
0.096648 -0.029303 0.818592 59 255 189 0.418239
0.094138 -0.025043 0.818527 59 255 189 0.421713
0.093744 -0.029264 0.817183 43 255 205 0.399518
0.094679 -0.016984 0.821531 82 255 166 0.446887
0.112852 -0.017687 0.832060 72 255 176 0.437032
0.116382 -0.017846 0.834200 69 255 179 0.433163
0.115464 -0.021313 0.831302 79 255 169 0.443103
0.119856 -0.018027 0.836166 72 255 176 0.434807
0.118980 -0.021453 0.833294 69 255 179 0.432995
0.122410 -0.021585 0.835189 69 255 179 0.430152
0.123327 -0.018267 0.838066 75 255 172 0.439306
0.117928 -0.024955 0.830572 75 255 172 0.439217
0.121412 -0.025059 0.832440 72 255 176 0.436703
0.120324 -0.028621 0.829923 82 255 166 0.445513
0.117073 -0.028697 0.828269 82 255 166 0.449057
0.114686 -0.024905 0.828840 79 255 169 0.443736
0.113737 -0.028698 0.826552 85 255 163 0.452770
0.111080 -0.024825 0.826688 79 255 169 0.442743
0.112110 -0.021167 0.829362 75 255 172 0.441406
0.109939 -0.028808 0.824403 111 255 137 0.482932
0.113566 -0.046222 0.822244 255 150 0 0.747706
0.110388 -0.046517 0.820855 169 255 79 0.552219
0.111713 -0.042327 0.822540 91 255 156 0.460873
0.108524 -0.042533 0.821218 147 255 101 0.526115
0.107454 -0.046635 0.819508 104 255 143 0.473265
0.109834 -0.038114 0.822653 195 255 53 0.583869
0.105583 -0.042594 0.819970 215 255 33 0.607197
0.106691 -0.038194 0.821342 237 255 11 0.635079
0.103756 -0.038223 0.820208 163 255 85 0.543765
0.104740 -0.046621 0.818321 0 198 255 0.319967
0.102883 -0.042527 0.818778 121 255 127 0.495746
0.102216 -0.046519 0.817069 0 226 250 0.344293
0.108037 -0.033591 0.822661 108 255 140 0.476674
0.104884 -0.033639 0.821408 218 255 30 0.611070
0.111898 -0.033367 0.824520 117 255 130 0.491873
0.115555 -0.033204 0.826403 88 255 160 0.455957
0.113733 -0.037767 0.824524 172 255 75 0.557573
0.117302 -0.037434 0.826159 150 255 98 0.529675
0.118877 -0.033151 0.828043 104 255 143 0.476321
0.115450 -0.041889 0.824310 255 168 0 0.729129
0.099671 -0.046448 0.815806 0 110 255 0.232567
0.100024 -0.042606 0.817346 124 255 124 0.498751
0.097469 -0.042507 0.816070 0 146 255 0.268019
0.097134 -0.046395 0.814501 0 42 255 0.165302
0.097879 -0.038431 0.817448 56 255 192 0.417835
0.094922 -0.042475 0.814829 0 0 228 0.088583
0.095315 -0.038320 0.816166 0 214 255 0.332282
0.092763 -0.038234 0.814861 0 58 255 0.182926
0.094590 -0.046307 0.813209 0 50 255 0.175675
0.092398 -0.042304 0.813401 0 0 210 0.072220
0.092064 -0.046213 0.811808 11 242 237 0.359518
0.095791 -0.034046 0.817382 0 198 255 0.317239
0.093197 -0.033891 0.816133 0 198 255 0.317410
0.098675 -0.033998 0.818807 91 255 156 0.460299
0.101649 -0.033826 0.820092 121 255 127 0.494904
0.100753 -0.038374 0.818854 137 255 111 0.514174
0.093831 -0.050609 0.812033 0 194 255 0.313754
0.096367 -0.050659 0.813369 0 146 255 0.266603
0.095589 -0.054873 0.812177 4 234 244 0.354563
0.098901 -0.050729 0.814695 0 10 255 0.135523
0.098143 -0.054924 0.813463 0 198 255 0.319844
0.100678 -0.054975 0.814723 0 158 255 0.279693
0.101439 -0.050837 0.815944 0 146 255 0.267443
0.097396 -0.058995 0.812131 30 255 218 0.382868
0.099964 -0.058987 0.813355 17 250 231 0.368131
0.099228 -0.062971 0.811912 20 254 228 0.373276
0.096827 -0.062825 0.810900 46 255 202 0.406044
0.095031 -0.058783 0.811015 36 255 211 0.393883
0.094417 -0.062648 0.809932 36 255 211 0.394194
0.092604 -0.058639 0.809984 46 255 202 0.402816
0.093236 -0.054654 0.811025 14 246 234 0.366999
0.090825 -0.054485 0.809947 27 255 221 0.380425
0.091963 -0.062534 0.808920 56 255 192 0.414618
0.090163 -0.058459 0.808933 46 255 202 0.406015
0.089474 -0.062436 0.807946 59 255 189 0.419899
0.091469 -0.050423 0.810844 23 255 224 0.375811
0.103736 -0.051060 0.817088 40 255 208 0.397036
0.106267 -0.051122 0.818371 27 255 221 0.380614
0.105284 -0.055454 0.816962 0 198 255 0.319861
0.108963 -0.051080 0.819675 69 255 179 0.433490
0.107799 -0.055473 0.818262 23 255 224 0.376946
0.110477 -0.055384 0.819643 215 255 33 0.607384
0.111901 -0.050922 0.821007 91 255 156 0.457101
0.106833 -0.059666 0.816633 0 146 255 0.268748
0.109380 -0.059619 0.817972 0 150 255 0.269852
0.108431 -0.063740 0.816132 36 255 211 0.393833
0.106144 -0.063596 0.815050 43 255 205 0.399067
0.104556 -0.059427 0.815533 1 230 247 0.350928
0.103865 -0.063385 0.813933 114 255 134 0.488155
0.102255 -0.059249 0.814433 14 246 234 0.365299
0.102977 -0.055226 0.815840 0 170 255 0.290951
0.101544 -0.063192 0.812952 49 255 198 0.408069
0.104199 -0.080839 0.812480 56 255 192 0.417581
0.103017 -0.076456 0.812492 59 255 189 0.419407
0.099826 -0.080286 0.811070 59 255 189 0.421319
0.101740 -0.072027 0.812456 43 255 205 0.400384
0.098600 -0.075869 0.810932 36 255 211 0.393232
0.097301 -0.071400 0.810742 62 255 185 0.424944
0.095352 -0.079724 0.809682 46 255 202 0.406204
0.100500 -0.067535 0.812199 56 255 192 0.414296
0.102830 -0.067716 0.813195 56 255 192 0.414534
0.105126 -0.067892 0.814193 53 255 195 0.410624
0.104063 -0.072192 0.813347 56 255 192 0.416075
0.106378 -0.072331 0.814294 56 255 192 0.415793
0.107415 -0.068033 0.815254 72 255 176 0.434293
0.105301 -0.076599 0.813375 56 255 192 0.417124
0.093890 -0.075495 0.809387 66 255 182 0.428578
0.090743 -0.079320 0.808317 69 255 179 0.430208
0.092364 -0.071218 0.809102 66 255 182 0.429469
0.089223 -0.075101 0.807959 72 255 176 0.435281
0.087716 -0.070782 0.807494 117 255 130 0.491716
0.086047 -0.078914 0.807041 69 255 179 0.433580
0.090909 -0.066853 0.808575 62 255 185 0.424899
0.093383 -0.066938 0.809528 59 255 189 0.421438
0.095866 -0.067030 0.810351 56 255 192 0.417688
0.094867 -0.071273 0.809957 66 255 182 0.426253
0.107869 -0.119629 0.831262 40 255 208 0.394919
0.106234 -0.123218 0.835141 17 250 231 0.368580
0.104268 -0.122417 0.833642 20 254 228 0.372829
0.102642 -0.126014 0.837611 46 255 202 0.403487
0.104624 -0.126872 0.839072 27 255 221 0.381660
0.100674 -0.125060 0.836089 33 255 215 0.390439
0.101059 -0.129612 0.841554 49 255 198 0.409092
0.099049 -0.128650 0.840063 53 255 195 0.411057
0.097469 -0.132198 0.844004 72 255 176 0.436712
0.103077 -0.130488 0.843054 46 255 202 0.404316
0.099509 -0.133143 0.845505 56 255 192 0.414472
0.101551 -0.134029 0.846952 36 255 211 0.390738
0.097005 -0.127685 0.838615 53 255 195 0.410907
0.095389 -0.131161 0.842622 53 255 195 0.410275
0.093288 -0.130074 0.841203 66 255 182 0.427911
0.095015 -0.126921 0.837409 72 255 176 0.433965
0.096712 -0.123624 0.833688 53 255 195 0.412857
0.100396 -0.121105 0.831194 49 255 198 0.408418
0.104016 -0.118468 0.828804 43 255 205 0.401180
0.098441 -0.120372 0.830027 53 255 195 0.412099
0.100089 -0.117090 0.826443 53 255 195 0.411217
0.100173 -0.136446 0.851593 49 255 198 0.409821
0.098027 -0.135354 0.849778 53 255 195 0.411674
0.096637 -0.137782 0.854416 66 255 182 0.428549
0.098784 -0.138897 0.856174 49 255 198 0.408552
0.094427 -0.136500 0.852669 53 255 195 0.412947
0.095206 -0.140060 0.859112 82 255 166 0.447908
0.093034 -0.138864 0.857405 62 255 185 0.422878
0.097296 -0.141077 0.860768 59 255 189 0.420506
0.090785 -0.137516 0.855691 53 255 195 0.411715
0.088564 -0.136250 0.854361 53 255 195 0.410167
0.092260 -0.135398 0.851262 53 255 195 0.412752
0.090142 -0.134279 0.849908 49 255 198 0.409805
0.093846 -0.133322 0.846906 75 255 172 0.438831
0.095901 -0.134324 0.848323 59 255 189 0.421793
0.091712 -0.132172 0.845537 69 255 179 0.432983
0.080205 -0.129981 0.847800 14 246 234 0.363957
0.082250 -0.131437 0.849171 23 255 224 0.376604
0.083880 -0.129733 0.845058 36 255 211 0.393433
0.081850 -0.128344 0.843645 30 255 218 0.384232
0.085928 -0.131126 0.846430 43 255 205 0.402218
0.085565 -0.128063 0.840902 46 255 202 0.405098
0.087593 -0.129416 0.842318 49 255 198 0.407822
0.089315 -0.127578 0.838237 56 255 192 0.416619
0.083568 -0.126557 0.839581 59 255 189 0.418819
0.087312 -0.126261 0.836810 53 255 195 0.411143
0.085272 -0.124814 0.835475 59 255 189 0.421329
0.089631 -0.130653 0.843780 53 255 195 0.410203
0.091305 -0.128857 0.839672 53 255 195 0.413402
0.088021 -0.132718 0.848146 46 255 202 0.406169
0.086454 -0.134634 0.852628 46 255 202 0.405892
0.084335 -0.133070 0.850880 36 255 211 0.393378
0.087095 -0.121970 0.832047 66 255 182 0.427375
0.089099 -0.123162 0.833017 53 255 195 0.413549
0.090864 -0.120267 0.829619 56 255 192 0.415499
0.088885 -0.119220 0.828590 59 255 189 0.420606
0.092848 -0.121305 0.830698 56 255 192 0.415082
0.092650 -0.117385 0.826292 69 255 179 0.431179
0.094601 -0.118359 0.827339 56 255 192 0.415518
0.096315 -0.115435 0.824051 40 255 208 0.394890
0.090676 -0.116383 0.825197 49 255 198 0.408979
0.094393 -0.114483 0.822985 56 255 192 0.416584
0.092409 -0.113536 0.821898 56 255 192 0.417482
0.096500 -0.119232 0.828549 53 255 195 0.413845
0.098239 -0.116244 0.825257 56 255 192 0.414138
0.094807 -0.122515 0.832167 56 255 192 0.414250
0.093038 -0.125685 0.835908 62 255 185 0.422607
0.091069 -0.124476 0.834432 53 255 195 0.413815
0.134714 -0.046753 0.829697 59 255 189 0.418313
0.134127 -0.042658 0.830982 69 255 179 0.432392
0.129904 -0.046360 0.828232 101 255 147 0.469045
0.133487 -0.038416 0.832311 66 255 182 0.429125
0.129345 -0.042161 0.829481 95 255 153 0.463817
0.128609 -0.037868 0.830687 85 255 163 0.450676
0.125073 -0.046025 0.826677 130 255 117 0.504739
0.132736 -0.034114 0.833595 40 255 208 0.396473
0.131914 -0.029696 0.835034 66 255 182 0.425812
0.134455 -0.030064 0.835985 59 255 189 0.420154
0.135295 -0.034440 0.834574 30 255 218 0.384515
0.137083 -0.030552 0.836939 59 255 189 0.421054
0.137857 -0.034841 0.835435 59 255 189 0.418469
0.136005 -0.038735 0.833228 79 255 169 0.444531
0.138542 -0.039043 0.834022 59 255 189 0.419571
0.139574 -0.031014 0.837967 56 255 192 0.415844
0.140400 -0.035190 0.836336 59 255 189 0.420357
0.142156 -0.031399 0.838956 59 255 189 0.419485
0.136615 -0.042920 0.831851 36 255 211 0.393627
0.122347 -0.045962 0.825682 153 255 95 0.534751
0.124047 -0.041944 0.827625 182 255 66 0.567775
0.121263 -0.041845 0.826563 156 255 92 0.536898
0.119621 -0.045888 0.824648 247 246 1 0.646717
0.122942 -0.037627 0.828430 127 255 121 0.501939
0.118413 -0.041768 0.825443 198 255 49 0.586237
0.120160 -0.037521 0.827311 134 255 114 0.509964
0.116704 -0.045994 0.823606 255 142 0 0.754091
0.121700 -0.033197 0.829234 114 255 134 0.486367
0.123226 -0.028897 0.831204 53 255 195 0.413570
0.124540 -0.033376 0.830411 85 255 163 0.452243
0.126150 -0.029198 0.832581 66 255 182 0.427481
0.127454 -0.033592 0.831692 66 255 182 0.427613
0.125768 -0.037746 0.829581 59 255 189 0.418548
0.129038 -0.029454 0.833849 69 255 179 0.430186
0.126278 -0.018639 0.839460 62 255 185 0.424690
0.129440 -0.019101 0.841124 66 255 182 0.425800
0.128288 -0.022287 0.837872 62 255 185 0.424448
0.132459 -0.019483 0.842712 66 255 182 0.427946
0.131407 -0.022656 0.839423 62 255 185 0.425375
0.134526 -0.023141 0.841052 62 255 185 0.424308
0.135667 -0.020122 0.844378 66 255 182 0.427007
0.130170 -0.025991 0.836410 53 255 195 0.410462
0.133272 -0.026334 0.837954 59 255 189 0.421525
0.127236 -0.025682 0.835131 36 255 211 0.392041
0.124318 -0.025350 0.833830 69 255 179 0.431124
0.125360 -0.021948 0.836577 49 255 198 0.410039
0.138425 -0.020692 0.845650 66 255 182 0.427219
0.141325 -0.021346 0.847168 66 255 182 0.428134
0.139770 -0.024181 0.843231 62 255 185 0.425241
0.144109 -0.022049 0.848601 66 255 182 0.429478
0.142635 -0.024851 0.844622 59 255 189 0.419098
0.145533 -0.025562 0.846178 66 255 182 0.426339
0.147046 -0.022859 0.850078 72 255 176 0.433690
0.141058 -0.027847 0.841136 62 255 185 0.421952
0.143913 -0.028429 0.842491 62 255 185 0.422925
0.138397 -0.027349 0.840050 59 255 189 0.421068
0.135842 -0.026788 0.838920 56 255 192 0.415607
0.137126 -0.023679 0.842202 62 255 185 0.424084
0.114696 -0.050821 0.822239 108 255 140 0.479603
0.117692 -0.050532 0.823485 255 157 0 0.738801
0.115801 -0.055241 0.822082 72 255 176 0.435327
0.120557 -0.050452 0.824527 153 255 95 0.534260
0.118656 -0.054976 0.823217 30 255 218 0.384733
0.121411 -0.054889 0.824182 95 255 153 0.461490
0.123117 -0.050554 0.825495 255 232 0 0.661806
0.116959 -0.059510 0.821537 62 255 185 0.423656
0.119622 -0.059303 0.822624 72 255 176 0.437432
0.118047 -0.063677 0.820782 46 255 202 0.405586
0.115510 -0.063913 0.819580 0 194 255 0.315130
0.114291 -0.059695 0.820357 40 255 208 0.397805
0.113071 -0.063950 0.818433 30 255 218 0.385486
0.111753 -0.059780 0.819082 14 246 234 0.365163
0.113073 -0.055402 0.820800 69 255 179 0.430051
0.110722 -0.063881 0.817322 59 255 189 0.418240
0.127936 -0.050881 0.827104 137 255 111 0.514221
0.125981 -0.055320 0.825744 117 255 130 0.491369
0.130690 -0.055597 0.827259 121 255 127 0.494788
0.132645 -0.051231 0.828571 108 255 140 0.479074
0.126470 -0.059835 0.824963 147 255 101 0.527211
0.127037 -0.064224 0.824009 75 255 172 0.438363
0.122678 -0.063816 0.822489 62 255 185 0.424800
0.120472 -0.082526 0.819986 43 255 205 0.400968
0.119876 -0.077947 0.820223 30 255 218 0.383760
0.116536 -0.082390 0.818041 46 255 202 0.404167
0.119301 -0.073240 0.820495 43 255 205 0.401281
0.115832 -0.077760 0.818237 30 255 218 0.384663
