ply
format ascii 1.0
comment VCGLIB generated
element vertex 974
property float x
property float y
property float z
property uchar red
property uchar green
property uchar blue
property float quality
end_header
-0.139135 -0.032656 0.953570 0 214 255 0.333955
-0.137072 -0.030930 0.957509 0 186 255 0.307124
-0.137315 -0.028880 0.956993 0 198 255 0.318181
-0.139354 -0.030550 0.953019 0 226 250 0.345130
-0.141324 -0.032157 0.949137 0 190 255 0.312058
-0.136791 -0.024377 0.956259 0 194 255 0.313072
-0.139092 -0.027263 0.952241 0 190 255 0.312310
-0.140802 -0.027696 0.948060 0 190 255 0.311952
-0.142908 -0.030426 0.944432 0 190 255 0.311596
-0.141268 -0.030039 0.948526 0 214 255 0.332394
-0.137184 -0.026636 0.956588 0 194 255 0.312949
-0.144680 -0.030787 0.940288 0 190 255 0.310458
-0.146845 -0.033470 0.936724 0 190 255 0.310452
-0.148544 -0.033782 0.932342 0 190 255 0.310203
-0.151017 -0.036753 0.928020 0 206 255 0.327108
-0.149087 -0.036394 0.932807 0 190 255 0.311242
-0.145076 -0.033091 0.940915 0 190 255 0.311074
-0.132929 -0.040195 0.959701 0 190 255 0.311507
-0.133903 -0.042799 0.956588 0 190 255 0.311290
-0.135861 -0.044548 0.953106 0 190 255 0.311004
-0.136795 -0.047159 0.950177 0 190 255 0.311021
-0.138794 -0.045393 0.949245 0 190 255 0.311177
-0.133930 -0.046402 0.953911 17 250 231 0.368807
-0.134871 -0.049076 0.950979 0 190 255 0.311006
-0.132055 -0.044759 0.957139 0 190 255 0.310979
-0.130193 -0.043118 0.960395 0 178 255 0.298463
-0.140660 -0.047133 0.945933 0 190 255 0.311928
-0.141396 -0.049787 0.943124 0 190 255 0.311968
-0.143055 -0.052149 0.939061 0 190 255 0.311944
-0.143710 -0.055579 0.935170 0 190 255 0.312473
-0.140965 -0.053674 0.940574 0 190 255 0.312249
-0.141514 -0.057339 0.936523 0 194 255 0.312531
-0.139350 -0.051570 0.944275 0 194 255 0.313480
-0.137629 -0.049828 0.947443 0 190 255 0.311425
-0.135933 -0.056549 0.943057 0 190 255 0.311982
-0.134320 -0.054770 0.946271 0 190 255 0.311357
-0.133970 -0.052262 0.948885 0 222 253 0.339958
-0.132260 -0.050581 0.951826 0 190 255 0.310172
-0.137003 -0.053243 0.945293 0 190 255 0.311662
-0.138643 -0.055127 0.941849 0 190 255 0.312088
-0.138762 -0.058292 0.938267 0 190 255 0.312457
-0.129247 -0.049889 0.955147 0 190 255 0.310109
-0.127526 -0.048366 0.958029 0 190 255 0.310251
-0.126976 -0.045917 0.960847 0 190 255 0.310352
-0.129888 -0.046552 0.957728 0 190 255 0.310587
-0.131723 -0.048165 0.954549 0 190 255 0.310175
-0.136607 -0.033053 0.958003 0 194 255 0.312722
-0.138659 -0.034802 0.954074 0 190 255 0.312140
-0.140283 -0.037544 0.950595 0 182 255 0.304324
-0.142204 -0.039187 0.946969 0 190 255 0.311792
-0.141482 -0.041310 0.947691 0 190 255 0.311712
-0.139521 -0.039640 0.951226 0 190 255 0.311866
-0.137886 -0.036902 0.954655 0 190 255 0.312098
-0.135849 -0.035098 0.958484 0 186 255 0.308251
-0.144494 -0.039806 0.943123 0 186 255 0.308216
-0.146411 -0.041553 0.939390 0 186 255 0.305412
-0.148009 -0.044844 0.935404 0 190 255 0.311750
-0.147119 -0.047194 0.936237 0 190 255 0.312283
-0.145632 -0.043769 0.940190 0 190 255 0.311790
-0.143747 -0.041929 0.943845 0 190 255 0.311753
-0.144846 -0.050356 0.937890 0 190 255 0.312006
-0.143122 -0.047918 0.942090 0 190 255 0.312200
-0.142007 -0.045048 0.945142 0 182 255 0.301730
-0.140134 -0.043333 0.948452 0 190 255 0.311720
-0.144521 -0.045886 0.941112 0 190 255 0.311937
-0.137509 -0.042673 0.952378 0 190 255 0.311291
-0.135521 -0.040914 0.955891 11 242 237 0.360711
-0.134171 -0.038137 0.959274 0 190 255 0.311916
-0.136847 -0.038935 0.955255 0 190 255 0.311540
-0.146341 -0.056667 0.931073 0 194 255 0.313544
-0.147618 -0.057973 0.928335 0 190 255 0.312258
-0.147630 -0.060107 0.926342 0 194 255 0.314066
-0.148692 -0.061211 0.923778 0 194 255 0.314378
-0.146400 -0.063310 0.924754 0 194 255 0.314599
-0.145365 -0.062182 0.927311 0 194 255 0.314164
-0.145351 -0.059954 0.929439 0 190 255 0.311338
-0.144053 -0.058467 0.932324 0 206 255 0.326615
-0.150626 -0.061198 0.921140 0 194 255 0.314647
-0.151442 -0.062191 0.918964 0 194 255 0.314656
-0.150984 -0.064340 0.917195 0 194 255 0.314776
-0.148521 -0.066503 0.918165 0 194 255 0.315035
-0.149029 -0.064336 0.919963 0 194 255 0.314694
-0.148282 -0.063266 0.922159 0 194 255 0.314699
-0.144033 -0.068943 0.919532 0 194 255 0.315549
-0.144856 -0.067033 0.921367 0 194 255 0.315009
-0.144210 -0.065924 0.923599 0 194 255 0.315064
-0.143560 -0.064844 0.925811 0 194 255 0.314573
-0.141084 -0.064472 0.928998 0 194 255 0.314179
-0.139935 -0.063123 0.931818 0 194 255 0.313520
-0.140072 -0.060705 0.934350 0 194 255 0.313151
-0.142781 -0.061656 0.930539 0 194 255 0.313819
-0.159478 -0.073363 0.900390 0 202 255 0.322735
-0.162044 -0.073084 0.898072 0 202 255 0.321686
-0.158119 -0.075770 0.900006 0 202 255 0.323123
-0.160641 -0.075437 0.897718 0 202 255 0.322408
-0.159272 -0.077803 0.897398 0 202 255 0.322723
-0.163260 -0.075082 0.895332 0 202 255 0.321290
-0.156742 -0.078190 0.899638 0 202 255 0.323131
-0.155366 -0.080612 0.899292 0 202 255 0.321573
-0.154444 -0.078420 0.901738 0 202 255 0.321672
-0.161672 -0.077490 0.895098 0 202 255 0.322317
-0.164152 -0.077019 0.892713 0 202 255 0.321131
-0.160052 -0.079895 0.894937 0 202 255 0.322063
-0.162489 -0.079403 0.892547 0 182 255 0.303300
-0.160813 -0.081777 0.892413 0 202 255 0.321825
-0.164970 -0.078838 0.890122 0 202 255 0.320879
-0.158428 -0.082278 0.894721 0 202 255 0.321802
-0.156769 -0.084653 0.894502 0 202 255 0.320699
-0.156099 -0.082674 0.896908 0 202 255 0.321175
-0.157723 -0.080258 0.897134 0 202 255 0.322261
-0.149504 -0.086156 0.898770 0 198 255 0.320063
-0.151494 -0.084358 0.898959 0 202 255 0.320787
-0.149003 -0.084119 0.900936 0 202 255 0.320478
-0.150925 -0.082237 0.901174 0 202 255 0.321461
-0.153426 -0.082463 0.899172 0 202 255 0.321564
-0.154122 -0.084503 0.896792 0 202 255 0.321316
-0.152137 -0.086333 0.896646 0 202 255 0.320734
-0.148029 -0.080824 0.904318 0 202 255 0.320611
-0.149759 -0.078923 0.904684 0 202 255 0.321294
-0.152269 -0.079208 0.902648 0 202 255 0.321861
-0.162421 -0.048892 0.911251 0 194 255 0.316101
-0.161058 -0.048076 0.913928 0 198 255 0.316578
-0.160099 -0.045787 0.915857 0 198 255 0.316892
-0.158646 -0.045138 0.918133 1 230 247 0.347698
-0.159335 -0.042085 0.917113 0 198 255 0.316468
-0.160879 -0.042483 0.914673 0 194 255 0.316270
-0.161974 -0.044747 0.912739 0 198 255 0.316708
-0.163470 -0.045332 0.909977 0 198 255 0.316554
-0.164449 -0.047767 0.907707 0 194 255 0.315854
-0.165546 -0.044204 0.906380 0 194 255 0.315982
-0.156611 -0.046116 0.921331 0 194 255 0.316117
-0.154917 -0.045398 0.923791 0 174 255 0.293331
-0.153290 -0.043179 0.926103 4 234 244 0.355063
-0.153687 -0.040443 0.925169 1 230 247 0.349797
-0.155387 -0.042584 0.922892 0 194 255 0.315366
-0.157219 -0.043131 0.920264 0 194 255 0.316133
-0.152992 -0.036501 0.924062 0 194 255 0.315657
-0.155270 -0.038413 0.921617 0 194 255 0.314890
-0.157027 -0.037207 0.918372 0 194 255 0.315550
-0.159076 -0.038997 0.916160 0 194 255 0.316173
-0.157365 -0.040232 0.919363 0 222 253 0.343234
-0.160594 -0.037774 0.913280 0 210 255 0.328740
-0.162317 -0.039762 0.911199 0 194 255 0.316254
-0.163839 -0.038362 0.907738 0 194 255 0.316339
-0.165518 -0.040598 0.905253 0 194 255 0.315942
-0.163951 -0.041909 0.908906 0 194 255 0.316232
-0.176546 -0.040019 0.875387 0 194 255 0.315212
-0.177108 -0.041781 0.877241 0 194 255 0.315791
-0.175572 -0.039458 0.878652 0 194 255 0.315661
-0.174072 -0.037152 0.880038 0 194 255 0.315420
-0.176118 -0.041234 0.880472 0 194 255 0.316154
-0.173406 -0.035426 0.878179 0 194 255 0.314951
-0.171787 -0.033171 0.879635 0 174 255 0.293607
-0.174572 -0.039063 0.881876 0 194 255 0.316024
-0.174777 -0.040679 0.883834 0 194 255 0.316322
-0.172964 -0.036910 0.883343 0 194 255 0.315566
-0.173227 -0.038489 0.885323 0 194 255 0.315870
-0.171668 -0.036277 0.886833 0 194 255 0.315296
-0.173395 -0.040071 0.887285 0 194 255 0.316381
-0.171374 -0.034742 0.884807 0 194 255 0.314909
-0.169789 -0.032535 0.886280 0 194 255 0.315761
-0.170804 -0.032894 0.882927 0 194 255 0.314819
-0.172418 -0.035052 0.881469 0 194 255 0.315153
-0.165809 -0.028034 0.885319 0 194 255 0.313710
-0.167784 -0.029736 0.883429 0 194 255 0.314346
-0.166825 -0.028227 0.880622 0 194 255 0.314010
-0.170699 -0.031804 0.876926 0 194 255 0.314552
-0.168766 -0.030015 0.878735 0 182 255 0.302222
-0.163197 -0.053764 0.907734 0 194 255 0.315190
-0.165216 -0.052755 0.905091 0 194 255 0.315632
-0.163153 -0.056200 0.906419 0 194 255 0.315755
-0.165163 -0.055236 0.903690 0 194 255 0.315648
-0.165196 -0.057691 0.902401 43 255 205 0.400862
-0.167342 -0.054350 0.900894 0 202 255 0.322634
-0.163067 -0.058666 0.905117 0 194 255 0.316264
-0.163118 -0.061123 0.903860 0 198 255 0.317029
-0.161115 -0.059412 0.907704 0 194 255 0.316156
-0.161165 -0.056961 0.909011 0 194 255 0.315248
-0.167076 -0.056773 0.900044 0 198 255 0.317276
-0.168973 -0.055772 0.897677 0 198 255 0.316941
-0.166852 -0.059249 0.899207 0 198 255 0.318402
-0.168794 -0.058246 0.896857 0 198 255 0.317964
-0.168643 -0.060704 0.896056 0 198 255 0.319106
-0.170786 -0.057209 0.894467 0 198 255 0.317516
-0.166725 -0.061769 0.898424 0 198 255 0.319669
-0.166612 -0.064397 0.897627 0 198 255 0.319724
-0.164768 -0.062677 0.900782 0 198 255 0.318751
-0.164944 -0.060139 0.901583 0 198 255 0.318477
-0.161381 -0.068348 0.901515 0 202 255 0.321617
-0.161886 -0.065790 0.902344 0 202 255 0.321632
-0.160380 -0.064028 0.905292 0 198 255 0.320270
-0.162451 -0.063401 0.903076 0 198 255 0.319425
-0.164188 -0.065066 0.900000 0 202 255 0.320544
-0.163656 -0.067551 0.899267 0 202 255 0.321810
-0.157214 -0.063693 0.909588 0 198 255 0.317579
-0.158887 -0.060003 0.910223 0 194 255 0.316155
-0.160713 -0.061691 0.906484 0 198 255 0.318213
-0.168096 -0.087357 0.868651 0 190 255 0.311415
-0.166426 -0.089470 0.869879 0 194 255 0.313227
-0.169793 -0.085209 0.867521 0 190 255 0.309347
-0.169972 -0.083819 0.870633 0 190 255 0.311843
-0.168254 -0.085899 0.871921 0 114 255 0.236011
-0.166623 -0.088027 0.873134 0 194 255 0.315928
-0.171593 -0.082461 0.867873 0 94 255 0.216728
-0.173468 -0.079722 0.868156 0 190 255 0.310400
-0.173348 -0.080994 0.865116 0 190 255 0.309185
-0.171515 -0.083720 0.864782 0 186 255 0.307753
-0.168221 -0.084537 0.874727 0 194 255 0.315443
-0.166612 -0.086603 0.875961 0 198 255 0.317051
-0.169944 -0.082455 0.873482 0 194 255 0.313950
-0.169890 -0.081164 0.876324 0 198 255 0.316425
-0.168205 -0.083157 0.877637 0 198 255 0.316929
-0.166541 -0.085228 0.878913 0 198 255 0.318045
-0.171687 -0.079792 0.873613 0 194 255 0.314206
-0.173491 -0.077203 0.873765 0 194 255 0.315578
-0.173511 -0.078405 0.870901 0 194 255 0.312771
-0.171691 -0.081065 0.870780 0 190 255 0.311637
-0.179087 -0.067855 0.869102 0 194 255 0.314715
-0.177663 -0.070738 0.868813 0 194 255 0.313961
-0.179083 -0.068847 0.866244 0 194 255 0.313316
-0.176218 -0.073660 0.868590 0 194 255 0.313041
-0.177565 -0.071795 0.866075 0 126 255 0.247201
-0.176107 -0.074751 0.865930 0 190 255 0.310805
-0.178956 -0.069858 0.863655 0 190 255 0.311382
-0.174801 -0.076650 0.868414 0 190 255 0.311487
-0.174808 -0.075414 0.871160 0 194 255 0.313665
-0.176197 -0.072452 0.871422 0 194 255 0.315298
-0.177475 -0.072821 0.863316 0 190 255 0.311317
-0.178617 -0.070897 0.860774 0 190 255 0.310649
-0.175968 -0.075945 0.862961 0 190 255 0.309457
-0.177187 -0.073970 0.860434 0 190 255 0.310169
-0.174640 -0.079041 0.862561 0 186 255 0.307935
-0.174623 -0.077850 0.865541 0 190 255 0.309214
-0.176643 -0.062804 0.881731 0 198 255 0.318496
-0.176773 -0.059830 0.882274 0 198 255 0.318521
-0.175416 -0.061459 0.884938 0 198 255 0.318385
-0.176902 -0.056807 0.882793 0 198 255 0.318127
-0.175431 -0.058472 0.885528 0 198 255 0.318762
-0.175450 -0.055443 0.886096 0 198 255 0.317862
-0.174085 -0.060077 0.888159 0 198 255 0.318687
-0.176847 -0.053816 0.883376 0 198 255 0.317753
-0.176762 -0.050799 0.883917 0 198 255 0.317314
-0.178171 -0.051792 0.880537 0 198 255 0.317438
-0.178214 -0.054786 0.880029 0 198 255 0.317635
-0.178136 -0.057798 0.879556 0 198 255 0.317532
-0.179428 -0.052746 0.877289 0 198 255 0.316987
-0.173984 -0.057283 0.888711 0 190 255 0.312145
-0.172423 -0.058642 0.891295 0 198 255 0.317922
-0.173815 -0.054451 0.889313 1 230 247 0.348522
-0.172235 -0.055845 0.891926 23 255 224 0.378767
-0.172136 -0.053043 0.892579 0 206 255 0.324631
-0.173607 -0.051608 0.889981 0 198 255 0.316499
-0.173470 -0.048759 0.890639 0 194 255 0.316034
-0.175090 -0.049802 0.887291 0 198 255 0.316901
-0.175285 -0.052646 0.886665 0 198 255 0.316868
-0.174342 -0.042731 0.886385 0 194 255 0.316372
-0.175208 -0.045411 0.885556 0 182 255 0.302718
-0.175716 -0.043318 0.882999 0 198 255 0.316419
-0.176602 -0.045999 0.882212 0 198 255 0.316733
-0.176019 -0.048109 0.884696 0 198 255 0.316913
-0.174364 -0.047108 0.888125 0 198 255 0.316772
-0.173545 -0.044390 0.889048 0 194 255 0.316220
-0.177052 -0.044101 0.879636 0 194 255 0.316184
-0.177966 -0.046986 0.878766 0 194 255 0.316370
-0.178125 -0.044668 0.876356 0 194 255 0.316015
-0.179069 -0.047530 0.875548 0 194 255 0.315945
-0.178804 -0.049865 0.877974 0 198 255 0.316734
-0.177446 -0.048895 0.881334 0 214 255 0.333160
-0.166164 -0.029199 0.888603 0 194 255 0.313953
-0.168318 -0.032151 0.890086 0 194 255 0.314825
-0.166237 -0.030362 0.892103 0 194 255 0.313991
-0.164412 -0.028799 0.893863 0 194 255 0.313871
-0.164180 -0.027567 0.890527 0 194 255 0.313663
-0.169960 -0.035579 0.890649 0 194 255 0.314873
-0.171657 -0.037838 0.888988 0 194 255 0.315749
-0.171605 -0.039392 0.891097 0 194 255 0.315925
-0.169979 -0.037135 0.892761 11 242 237 0.361343
-0.169946 -0.038680 0.894882 0 202 255 0.321347
-0.167754 -0.033412 0.894036 0 194 255 0.314582
-0.165744 -0.035675 0.901689 0 194 255 0.315009
-0.166151 -0.034292 0.899140 0 194 255 0.314823
-0.164406 -0.032409 0.901106 0 194 255 0.314546
-0.164725 -0.031070 0.898537 0 194 255 0.314395
-0.168035 -0.036474 0.897035 0 194 255 0.315164
-0.167529 -0.037783 0.899707 0 194 255 0.315433
-0.162505 -0.029435 0.900692 0 194 255 0.313975
-0.162304 -0.028286 0.898475 0 194 255 0.313649
-0.160293 -0.026866 0.900417 0 194 255 0.313679
-0.162092 -0.027146 0.896226 0 194 255 0.313597
-0.164575 -0.029953 0.896221 0 194 255 0.313708
-0.166527 -0.039374 0.902624 0 194 255 0.315633
-0.167663 -0.041744 0.901042 0 194 255 0.315816
-0.168774 -0.040210 0.898038 0 194 255 0.315686
-0.170010 -0.042629 0.896333 0 194 255 0.315659
-0.168798 -0.044140 0.899411 0 190 255 0.309600
-0.169957 -0.046569 0.897706 0 194 255 0.315889
-0.167667 -0.045374 0.902132 0 194 255 0.315932
-0.166610 -0.042974 0.903735 0 194 255 0.316047
-0.170869 -0.041180 0.893809 0 194 255 0.315647
-0.171749 -0.043682 0.892763 0 194 255 0.315646
-0.172605 -0.041890 0.890053 0 194 255 0.315963
-0.172603 -0.046229 0.891712 0 194 255 0.315699
-0.171609 -0.047672 0.894244 0 194 255 0.316048
-0.170823 -0.045137 0.895253 0 194 255 0.316136
-0.170567 -0.054603 0.895162 0 198 255 0.317038
-0.170377 -0.051942 0.896002 0 186 255 0.308226
-0.168808 -0.053151 0.898478 0 198 255 0.316448
-0.168698 -0.050540 0.899289 0 194 255 0.315878
-0.170165 -0.049276 0.896854 11 242 237 0.360138
-0.171895 -0.050373 0.893375 0 198 255 0.316676
-0.166858 -0.051779 0.902346 0 194 255 0.315883
-0.166465 -0.049257 0.903708 0 194 255 0.315494
-0.164791 -0.050254 0.906420 0 194 255 0.315294
-0.166017 -0.046744 0.905038 0 194 255 0.316247
-0.168191 -0.047941 0.900758 0 194 255 0.315684
-0.175377 -0.064860 0.882742 0 198 255 0.319125
-0.173564 -0.066204 0.885283 0 198 255 0.320061
-0.172301 -0.068358 0.886320 0 202 255 0.320642
-0.170617 -0.069730 0.888776 0 202 255 0.320753
-0.171609 -0.071371 0.885915 0 198 255 0.319806
-0.171254 -0.066693 0.889230 0 190 255 0.310681
-0.169540 -0.067983 0.891729 0 202 255 0.320711
-0.171769 -0.063935 0.889909 0 150 255 0.269643
-0.173549 -0.062692 0.887438 0 198 255 0.320101
-0.169466 -0.072319 0.888249 0 202 255 0.320789
-0.168199 -0.075006 0.888039 0 202 255 0.321403
-0.167328 -0.073263 0.890680 0 202 255 0.321370
-0.166144 -0.076045 0.890383 0 202 255 0.321579
-0.165250 -0.074208 0.893021 0 202 255 0.321782
-0.166319 -0.071474 0.893549 0 202 255 0.321765
-0.168447 -0.070613 0.891127 17 250 231 0.370910
-0.162884 -0.070307 0.898600 0 202 255 0.322529
-0.165013 -0.069479 0.896372 0 202 255 0.322193
-0.165810 -0.066875 0.896994 0 202 255 0.321349
-0.168069 -0.066172 0.894671 0 202 255 0.320500
-0.167260 -0.068739 0.894042 0 202 255 0.321968
-0.164137 -0.072352 0.895804 0 202 255 0.321939
-0.168385 -0.063290 0.895268 0 202 255 0.320540
-0.170216 -0.062207 0.892921 0 202 255 0.320563
-0.170482 -0.059686 0.893678 0 198 255 0.318770
-0.172086 -0.061146 0.890554 23 255 224 0.375087
-0.169882 -0.065052 0.892324 0 150 255 0.271551
-0.179890 -0.064522 0.869377 0 194 255 0.315206
-0.178804 -0.066659 0.872093 0 198 255 0.316538
-0.180505 -0.061216 0.869725 0 194 255 0.315386
-0.179459 -0.063390 0.872456 0 198 255 0.316429
-0.179938 -0.060057 0.872900 0 194 255 0.316173
-0.178344 -0.065466 0.875275 0 198 255 0.317330
-0.180964 -0.057896 0.870100 0 194 255 0.315313
-0.181242 -0.054588 0.870589 0 194 255 0.315726
-0.181785 -0.055455 0.867423 0 194 255 0.314660
-0.181422 -0.058773 0.867052 0 194 255 0.314677
-0.180809 -0.062114 0.866724 0 194 255 0.314391
-0.182152 -0.056351 0.864398 0 194 255 0.314048
-0.178802 -0.062288 0.875671 0 198 255 0.316942
-0.177540 -0.064200 0.878423 0 198 255 0.317879
-0.179112 -0.059123 0.876172 0 198 255 0.316999
-0.177914 -0.061009 0.878938 0 214 255 0.334882
-0.179326 -0.055916 0.876728 0 198 255 0.316669
-0.180324 -0.053718 0.873933 0 194 255 0.316320
-0.180177 -0.056855 0.873363 0 194 255 0.315976
-0.179162 -0.045407 0.872998 0 194 255 0.315379
-0.180002 -0.048489 0.872135 0 194 255 0.315413
-0.179904 -0.045970 0.869764 0 194 255 0.314754
-0.180719 -0.049003 0.868996 0 190 255 0.309694
-0.180720 -0.051550 0.871342 0 194 255 0.315360
-0.179764 -0.050637 0.874697 0 194 255 0.316028
-0.180511 -0.046668 0.866596 0 194 255 0.314724
-0.181253 -0.049875 0.865783 0 194 255 0.314527
-0.180822 -0.047242 0.863492 0 194 255 0.314540
-0.181556 -0.050389 0.862701 0 194 255 0.313912
-0.181832 -0.053089 0.865005 0 194 255 0.314240
-0.181350 -0.052237 0.868152 0 194 255 0.314857
-0.163174 -0.081189 0.890003 0 202 255 0.321562
-0.165522 -0.080515 0.887465 0 198 255 0.320243
-0.161376 -0.083584 0.889842 0 202 255 0.321753
-0.163681 -0.082920 0.887318 0 202 255 0.321249
-0.161808 -0.085316 0.887207 0 202 255 0.320505
-0.166016 -0.082190 0.884714 0 198 255 0.319687
-0.159573 -0.085966 0.889668 0 202 255 0.321030
-0.157789 -0.088282 0.889401 0 198 255 0.319963
-0.157298 -0.086520 0.891951 0 202 255 0.320389
-0.159046 -0.084160 0.892227 0 202 255 0.321331
-0.164036 -0.084540 0.884659 0 198 255 0.320133
-0.166303 -0.083705 0.881847 0 198 255 0.319034
-0.162049 -0.086899 0.884544 0 186 255 0.306578
-0.164294 -0.086078 0.881720 0 198 255 0.319662
-0.162288 -0.088449 0.881655 0 198 255 0.319986
-0.160128 -0.089241 0.884351 0 198 255 0.319844
-0.158230 -0.091526 0.884138 0 198 255 0.319225
-0.158010 -0.089937 0.886781 0 198 255 0.319452
-0.159932 -0.087629 0.886986 0 202 255 0.320327
-0.151009 -0.093140 0.889543 0 198 255 0.319809
-0.153206 -0.091573 0.889540 0 198 255 0.320094
-0.150884 -0.091519 0.891869 0 198 255 0.319871
-0.153091 -0.089933 0.891843 0 198 255 0.320060
-0.155477 -0.089955 0.889465 0 198 255 0.319961
-0.155705 -0.091588 0.886834 0 198 255 0.319751
-0.153426 -0.093185 0.886916 0 198 255 0.319837
-0.150539 -0.089846 0.894247 0 198 255 0.319775
-0.152599 -0.088181 0.894335 0 202 255 0.320525
-0.150085 -0.088071 0.896484 46 255 202 0.403024
-0.154692 -0.086430 0.894431 0 202 255 0.320784
-0.155165 -0.088266 0.891927 0 198 255 0.320293
-0.176205 -0.066344 0.879545 0 198 255 0.318774
-0.174831 -0.068577 0.880745 0 198 255 0.319408
-0.175602 -0.069890 0.877503 0 166 255 0.286605
-0.176991 -0.067651 0.876359 0 198 255 0.318139
-0.173934 -0.071509 0.880277 0 198 255 0.319613
-0.172940 -0.074499 0.879865 0 198 255 0.318811
-0.172340 -0.072957 0.882865 0 198 255 0.319548
-0.173227 -0.069970 0.883302 0 202 255 0.320403
-0.177364 -0.068938 0.873241 0 198 255 0.317001
-0.176019 -0.071247 0.874399 0 198 255 0.317200
-0.174745 -0.074220 0.874044 0 194 255 0.316202
-0.173277 -0.075892 0.876708 0 198 255 0.317594
-0.174428 -0.072895 0.877085 0 178 255 0.300123
-0.167979 -0.081692 0.880591 0 198 255 0.318793
-0.169681 -0.079779 0.879391 0 198 255 0.318728
-0.169355 -0.078245 0.882312 0 198 255 0.319600
-0.167674 -0.080192 0.883514 0 198 255 0.320083
-0.171296 -0.077089 0.879597 0 198 255 0.318638
-0.171558 -0.078482 0.876510 0 198 255 0.316666
-0.168798 -0.076702 0.885265 0 202 255 0.320444
-0.166839 -0.077735 0.887759 0 202 255 0.321138
-0.170198 -0.074051 0.885550 0 198 255 0.320271
-0.170830 -0.075583 0.882561 0 198 255 0.319265
-0.164348 -0.087613 0.879010 0 198 255 0.318977
-0.162157 -0.089982 0.879039 0 198 255 0.319320
-0.164416 -0.089007 0.875971 0 198 255 0.318036
-0.162220 -0.091404 0.875997 0 198 255 0.318564
-0.160021 -0.092301 0.879001 0 222 253 0.340456
-0.157886 -0.094593 0.878936 0 198 255 0.318721
-0.158068 -0.093051 0.881551 0 198 255 0.319274
-0.160175 -0.090791 0.881626 0 198 255 0.319556
-0.164137 -0.090562 0.873062 0 198 255 0.316651
-0.161642 -0.093068 0.872972 0 198 255 0.318084
-0.163986 -0.091988 0.869790 0 194 255 0.314878
-0.159203 -0.095516 0.872906 0 198 255 0.318789
-0.157370 -0.096217 0.875800 0 198 255 0.319101
-0.159749 -0.093846 0.875932 0 198 255 0.318583
-0.149431 -0.098659 0.881304 0 202 255 0.321281
-0.151896 -0.097962 0.879661 0 202 255 0.321165
-0.152868 -0.096185 0.882238 0 202 255 0.320318
-0.150363 -0.096911 0.883855 0 198 255 0.319882
-0.154861 -0.096303 0.879346 0 198 255 0.319818
-0.154341 -0.097906 0.876226 0 202 255 0.320546
-0.150630 -0.095417 0.886231 0 198 255 0.319642
-0.155583 -0.093154 0.884480 0 198 255 0.319737
-0.155455 -0.094648 0.881903 0 198 255 0.319735
-0.179545 -0.067811 0.859498 0 190 255 0.310836
-0.180378 -0.064731 0.858271 0 190 255 0.311408
-0.180662 -0.063825 0.861209 0 190 255 0.312171
-0.179839 -0.066840 0.862425 0 190 255 0.311722
-0.181321 -0.061217 0.858461 0 190 255 0.311790
-0.182075 -0.057800 0.858768 0 190 255 0.312341
-0.181633 -0.058644 0.855822 0 206 255 0.326566
-0.180833 -0.062098 0.855643 0 198 255 0.318225
-0.179972 -0.065955 0.865067 0 194 255 0.313162
-0.180867 -0.063043 0.863879 0 194 255 0.313125
-0.181602 -0.059688 0.864068 0 194 255 0.313384
-0.182141 -0.057109 0.861506 0 194 255 0.312863
-0.181488 -0.060448 0.861296 0 186 255 0.307724
-0.181010 -0.047865 0.860372 0 194 255 0.313663
-0.181687 -0.051153 0.859645 0 210 255 0.331291
-0.180877 -0.048393 0.857427 0 194 255 0.313175
-0.181491 -0.051647 0.856885 0 194 255 0.312592
-0.182008 -0.054452 0.859167 0 194 255 0.312835
-0.182012 -0.053750 0.861974 0 194 255 0.313243
-0.180583 -0.049042 0.854445 0 218 255 0.336128
-0.181027 -0.052435 0.853826 0 190 255 0.311850
-0.179871 -0.049775 0.851440 4 234 244 0.351909
-0.181468 -0.055497 0.854781 0 190 255 0.312073
-0.155339 -0.043675 0.823561 0 170 255 0.291253
-0.157056 -0.045800 0.823566 0 174 255 0.296703
-0.158839 -0.046821 0.824916 0 182 255 0.301976
-0.160664 -0.048817 0.824878 0 186 255 0.305673
-0.162478 -0.049777 0.826225 0 190 255 0.308944
-0.162443 -0.051822 0.823400 0 186 255 0.308093
-0.160664 -0.046789 0.827606 0 186 255 0.305500
-0.162433 -0.047748 0.828949 0 190 255 0.310805
-0.158479 -0.044596 0.827631 0 182 255 0.303622
-0.156426 -0.042283 0.827592 0 178 255 0.299295
-0.154747 -0.041194 0.826250 0 174 255 0.292991
-0.153968 -0.038649 0.828940 0 178 255 0.297614
-0.164252 -0.054050 0.823321 0 190 255 0.311299
-0.166355 -0.055440 0.824710 0 194 255 0.314566
-0.168277 -0.057633 0.824609 0 194 255 0.314913
-0.170385 -0.059022 0.826091 0 194 255 0.315100
-0.169933 -0.060696 0.822998 0 194 255 0.314897
-0.168698 -0.056018 0.827657 0 194 255 0.315009
-0.170793 -0.057346 0.829103 0 194 255 0.314779
-0.166576 -0.053636 0.827582 0 194 255 0.314236
-0.164503 -0.051204 0.827578 0 194 255 0.313352
-0.170137 -0.052142 0.833623 0 194 255 0.315036
-0.167621 -0.050758 0.831991 0 194 255 0.314871
-0.165758 -0.047023 0.833315 0 194 255 0.315077
-0.163225 -0.045491 0.831770 0 190 255 0.310150
-0.165017 -0.049281 0.830441 0 194 255 0.314525
-0.169131 -0.054041 0.830555 0 166 255 0.285698
-0.171686 -0.055443 0.832202 0 194 255 0.314302
-0.161227 -0.042148 0.833347 0 186 255 0.306027
-0.158159 -0.039144 0.833560 0 182 255 0.304359
-0.158733 -0.041070 0.831877 0 182 255 0.302929
-0.155209 -0.036119 0.833693 0 182 255 0.301479
-0.155710 -0.037916 0.832129 0 182 255 0.301609
-0.152833 -0.034825 0.832240 0 178 255 0.297503
-0.152258 -0.032970 0.833857 0 182 255 0.301978
-0.156263 -0.039904 0.830451 0 182 255 0.302141
-0.153364 -0.036696 0.830634 0 178 255 0.296940
-0.160617 -0.044466 0.830344 0 186 255 0.306766
-0.171401 -0.062941 0.823035 0 194 255 0.314802
-0.173066 -0.064725 0.824977 0 194 255 0.314980
-0.174284 -0.067153 0.825184 0 190 255 0.312240
-0.175685 -0.069066 0.827312 0 194 255 0.315722
-0.175089 -0.070234 0.823726 0 194 255 0.315298
-0.174881 -0.065954 0.828686 0 194 255 0.315114
-0.176132 -0.067950 0.830817 0 194 255 0.315656
-0.173592 -0.063190 0.828212 0 194 255 0.314907
-0.172135 -0.060669 0.827885 0 194 255 0.315115
-0.175868 -0.072287 0.826217 0 194 255 0.314840
-0.175883 -0.075135 0.824717 0 198 255 0.316532
-0.176349 -0.074407 0.828798 0 198 255 0.316676
-0.176261 -0.077289 0.827386 0 198 255 0.317098
-0.176457 -0.079512 0.829960 0 198 255 0.317327
-0.176057 -0.080139 0.825969 0 198 255 0.317319
-0.176593 -0.076593 0.831317 0 198 255 0.316784
-0.176706 -0.078819 0.833847 0 198 255 0.317083
-0.176679 -0.073325 0.832286 0 194 255 0.315769
-0.176326 -0.071155 0.829799 0 194 255 0.316060
-0.177683 -0.074395 0.839057 0 194 255 0.315925
-0.177708 -0.071422 0.838051 0 194 255 0.315593
-0.177260 -0.069253 0.835322 0 194 255 0.315683
-0.176988 -0.066361 0.834381 0 194 255 0.315059
-0.177117 -0.075483 0.835038 0 194 255 0.316342
-0.177386 -0.077706 0.837827 0 198 255 0.316869
-0.176410 -0.062742 0.835532 0 194 255 0.314420
-0.175131 -0.059822 0.834838 0 194 255 0.314283
-0.173276 -0.058080 0.832723 0 194 255 0.314600
-0.174260 -0.061601 0.831470 0 194 255 0.314813
-0.175494 -0.064336 0.831989 0 194 255 0.315116
-0.177199 -0.079501 0.840525 0 198 255 0.317306
-0.176434 -0.082408 0.839325 0 198 255 0.317815
-0.176629 -0.080603 0.836587 0 198 255 0.317754
-0.175743 -0.083517 0.835416 0 198 255 0.318104
-0.175529 -0.085343 0.838175 0 198 255 0.318479
-0.174565 -0.088180 0.836921 0 198 255 0.318924
-0.174996 -0.087441 0.841268 0 198 255 0.318000
-0.175802 -0.084515 0.842448 0 198 255 0.317643
-0.176206 -0.081381 0.832493 0 198 255 0.317883
-0.175560 -0.083953 0.831093 0 198 255 0.318391
-0.175840 -0.082055 0.828524 0 198 255 0.317684
-0.175139 -0.084559 0.827092 0 198 255 0.318466
-0.174895 -0.086471 0.829627 0 210 255 0.328338
-0.173984 -0.089029 0.828264 0 198 255 0.319928
-0.174443 -0.088611 0.832616 0 198 255 0.319298
-0.175129 -0.086057 0.834014 0 166 255 0.286128
-0.169321 -0.097209 0.828992 0 202 255 0.320550
-0.170873 -0.094964 0.831000 0 198 255 0.319910
-0.169358 -0.097096 0.833470 0 122 255 0.244109
-0.172303 -0.092699 0.832961 0 134 255 0.254014
-0.170790 -0.094824 0.835440 0 198 255 0.319112
-0.172100 -0.092558 0.837338 0 198 255 0.319395
-0.169215 -0.096998 0.837848 0 198 255 0.319330
-0.173539 -0.090435 0.834951 0 198 255 0.319475
-0.173165 -0.090872 0.830642 0 198 255 0.320082
-0.171670 -0.093193 0.828651 0 198 255 0.320152
-0.168913 -0.097096 0.840771 0 198 255 0.318421
-0.171037 -0.094448 0.839795 0 198 255 0.318638
-0.170550 -0.094589 0.842698 0 198 255 0.318113
-0.168440 -0.097270 0.843588 0 198 255 0.317764
-0.172576 -0.091905 0.841759 0 202 255 0.320768
-0.169792 -0.094820 0.845537 0 198 255 0.317602
-0.171845 -0.092070 0.844593 0 198 255 0.317791
-0.167778 -0.097576 0.846425 0 198 255 0.317261
-0.173847 -0.089346 0.843654 0 198 255 0.317806
-0.173631 -0.090007 0.839329 0 198 255 0.318677
-0.166843 -0.099516 0.830490 0 202 255 0.321167
-0.165370 -0.101424 0.827849 0 202 255 0.321196
-0.164407 -0.101785 0.831840 0 202 255 0.322037
-0.162916 -0.103633 0.829207 0 94 255 0.216985
-0.160508 -0.105804 0.830474 0 202 255 0.322652
-0.161360 -0.105498 0.826490 0 170 255 0.289764
-0.161948 -0.104032 0.833172 0 202 255 0.322736
-0.159528 -0.106247 0.834434 46 255 202 0.405018
-0.164572 -0.101684 0.836243 0 202 255 0.320631
-0.167036 -0.099350 0.834863 0 226 250 0.346379
-0.159132 -0.107325 0.825174 0 202 255 0.322648
-0.155786 -0.109501 0.825331 0 206 255 0.325605
-0.153708 -0.111201 0.823805 0 206 255 0.327276
-0.150514 -0.113184 0.823753 0 206 255 0.327660
-0.152868 -0.112529 0.820644 0 206 255 0.325482
-0.151355 -0.111936 0.826950 0 210 255 0.329162
-0.148214 -0.113846 0.826889 0 206 255 0.327016
-0.154201 -0.109996 0.828933 46 255 202 0.404034
-0.157083 -0.108022 0.830763 0 206 255 0.325246
-0.146088 -0.113519 0.834246 0 202 255 0.323735
-0.149395 -0.111787 0.836609 0 202 255 0.323675
-0.150480 -0.111235 0.834586 0 206 255 0.325447
-0.152717 -0.109950 0.838784 0 154 255 0.273726
-0.153812 -0.109346 0.836749 0 202 255 0.323720
-0.157147 -0.107333 0.838744 0 134 255 0.256682
-0.155958 -0.107957 0.840811 0 202 255 0.320893
-0.155015 -0.108808 0.834640 0 206 255 0.324601
-0.158407 -0.106744 0.836602 0 202 255 0.322291
-0.152087 -0.110718 0.832770 0 206 255 0.326005
-0.149276 -0.112522 0.830785 0 198 255 0.318103
-0.147649 -0.112988 0.832559 0 206 255 0.325527
-0.144982 -0.114683 0.830455 0 198 255 0.317761
-0.146606 -0.114270 0.828716 0 206 255 0.325539
-0.143421 -0.115131 0.832110 0 98 255 0.219203
-0.158240 -0.105799 0.841850 0 202 255 0.321447
-0.161658 -0.103122 0.843450 0 198 255 0.319204
-0.161937 -0.102862 0.840648 0 202 255 0.320892
-0.164840 -0.100370 0.844978 0 198 255 0.317620
-0.165314 -0.100093 0.842164 0 198 255 0.318583
-0.165676 -0.099901 0.839273 0 198 255 0.319515
-0.163315 -0.102246 0.838428 0 202 255 0.321021
-0.160878 -0.104543 0.837561 0 202 255 0.321665
-0.159532 -0.105153 0.839753 0 202 255 0.322017
-0.141059 -0.116210 0.829830 20 254 228 0.372068
-0.142653 -0.115865 0.828203 0 206 255 0.326241
-0.140368 -0.117099 0.825854 0 206 255 0.326757
-0.144259 -0.115564 0.826464 0 206 255 0.326556
-0.142027 -0.116803 0.824151 0 210 255 0.328405
-0.143660 -0.116444 0.822381 0 210 255 0.331997
-0.145886 -0.115142 0.824670 0 210 255 0.329248
-0.139869 -0.118088 0.821738 0 210 255 0.329248
-0.141545 -0.117810 0.819978 0 214 255 0.333464
-0.139526 -0.119188 0.817439 0 210 255 0.331789
-0.137498 -0.119542 0.818891 0 210 255 0.330360
-0.137837 -0.118392 0.823150 0 206 255 0.328049
-0.135460 -0.119827 0.820344 0 206 255 0.327787
-0.135818 -0.118622 0.824483 0 206 255 0.326227
-0.138399 -0.117382 0.827214 0 206 255 0.325403
-0.133443 -0.119966 0.821775 0 206 255 0.326520
-0.148664 -0.114380 0.821837 0 210 255 0.330531
-0.146872 -0.115626 0.819822 0 214 255 0.332736
-0.149235 -0.115112 0.816709 0 210 255 0.330830
-0.151002 -0.113850 0.818732 20 254 228 0.373803
-0.146344 -0.116674 0.816158 0 214 255 0.334014
-0.145922 -0.117715 0.812359 0 202 255 0.322595
-0.142698 -0.118428 0.814911 0 218 255 0.337070
-0.140675 -0.121352 0.802115 0 226 250 0.345453
-0.140241 -0.120980 0.805963 0 202 255 0.323419
-0.136978 -0.122438 0.804206 0 214 255 0.332682
-0.139893 -0.120494 0.809864 53 255 195 0.411187
-0.136595 -0.121968 0.808066 0 214 255 0.332886
-0.136306 -0.121443 0.811917 0 210 255 0.331197
-0.133334 -0.123510 0.806298 0 206 255 0.324979
-0.139703 -0.119890 0.813665 0 214 255 0.335486
-0.142881 -0.119091 0.811146 0 218 255 0.337853
-0.143180 -0.119722 0.807259 0 202 255 0.323006
-0.131013 -0.124013 0.807586 0 202 255 0.322862
-0.132731 -0.122883 0.810679 0 206 255 0.324526
-0.130478 -0.123268 0.811929 0 202 255 0.322273
-0.128768 -0.124461 0.808843 0 198 255 0.319532
-0.132208 -0.122055 0.814961 0 206 255 0.325083
-0.128290 -0.123546 0.813198 0 202 255 0.321337
-0.130008 -0.122305 0.816242 0 202 255 0.323937
-0.126624 -0.124833 0.810203 0 198 255 0.317530
-0.131795 -0.121003 0.819256 0 206 255 0.327072
-0.133794 -0.120946 0.817716 0 206 255 0.327153
-0.135845 -0.120670 0.816194 0 210 255 0.329274
-0.134263 -0.121792 0.813463 0 206 255 0.327470
-0.098267 -0.021063 0.787863 0 194 255 0.314549
-0.099108 -0.022665 0.785925 0 198 255 0.317028
-0.100916 -0.021698 0.788869 0 194 255 0.316092
-0.101874 -0.023332 0.786887 0 198 255 0.317329
-0.104656 -0.024006 0.787846 0 198 255 0.317923
-0.102835 -0.024994 0.784877 0 198 255 0.318179
-0.103656 -0.022393 0.789878 0 198 255 0.316971
-0.106421 -0.023117 0.790964 0 198 255 0.317724
-0.102907 -0.020502 0.792597 0 194 255 0.314147
-0.100274 -0.019815 0.791507 0 190 255 0.311839
-0.105325 -0.025726 0.785661 0 198 255 0.318314
-0.107799 -0.026432 0.786451 0 198 255 0.317780
-0.111032 -0.028737 0.785667 0 198 255 0.317544
-0.107864 -0.028296 0.783600 0 198 255 0.317548
-0.112590 -0.028045 0.788194 0 198 255 0.317722
-0.109590 -0.025544 0.789528 0 198 255 0.318496
-0.107142 -0.024766 0.788686 0 198 255 0.318145
-0.116454 -0.027610 0.793128 0 198 255 0.319973
-0.113992 -0.026419 0.792478 0 198 255 0.319906
-0.113585 -0.024895 0.794941 0 202 255 0.320657
-0.111500 -0.025299 0.791897 0 198 255 0.318867
-0.111026 -0.023740 0.794410 0 198 255 0.319549
-0.108513 -0.022615 0.793913 0 198 255 0.317893
-0.110607 -0.022159 0.796914 0 198 255 0.318106
-0.108912 -0.020723 0.798081 0 190 255 0.311691
-0.106159 -0.019593 0.797331 0 190 255 0.309285
-0.104566 -0.018112 0.798422 0 182 255 0.304127
-0.102298 -0.018917 0.794876 0 190 255 0.309255
-0.105697 -0.021558 0.793224 0 198 255 0.316465
-0.121816 -0.039714 0.780368 0 190 255 0.310379
-0.121591 -0.037542 0.782916 0 198 255 0.317344
-0.121375 -0.035524 0.785473 0 194 255 0.312974
-0.124339 -0.038201 0.784639 0 190 255 0.312103
-0.118398 -0.033114 0.786325 0 194 255 0.313815
-0.118548 -0.034913 0.783690 0 186 255 0.305855
-0.118683 -0.036963 0.781035 0 190 255 0.312087
-0.116274 -0.034088 0.782950 0 194 255 0.313551
-0.124590 -0.036613 0.787255 0 194 255 0.312960
-0.124846 -0.035271 0.789824 0 194 255 0.313898
-0.127625 -0.037762 0.788911 0 190 255 0.312393
-0.122004 -0.032858 0.790870 0 194 255 0.314931
-0.121697 -0.034145 0.788126 0 194 255 0.313512
-0.115976 -0.028924 0.790131 0 198 255 0.317798
-0.115490 -0.030423 0.787171 0 194 255 0.315324
-0.118823 -0.031543 0.789067 0 194 255 0.314410
-0.119255 -0.030087 0.791876 0 194 255 0.315827
-0.114120 -0.031035 0.784968 0 194 255 0.315187
-0.112557 -0.031830 0.782444 0 194 255 0.315430
-0.137415 -0.034880 0.808124 0 194 255 0.314248
-0.139591 -0.035768 0.810474 0 170 255 0.291308
-0.141741 -0.036567 0.812797 0 158 255 0.277623
-0.141781 -0.038187 0.809780 0 154 255 0.275798
-0.139438 -0.034141 0.813518 0 178 255 0.299181
-0.136749 -0.031408 0.814182 0 202 255 0.320717
-0.137169 -0.033148 0.811174 0 202 255 0.321322
-0.134492 -0.030458 0.811780 0 206 255 0.324372
-0.144583 -0.040412 0.810700 0 150 255 0.270768
-0.144637 -0.038987 0.813691 0 146 255 0.268615
-0.146657 -0.041395 0.812728 0 150 255 0.272313
-0.148657 -0.043772 0.811734 0 146 255 0.267893
-0.146725 -0.039947 0.815649 0 146 255 0.268485
-0.144611 -0.037554 0.816568 0 150 255 0.272641
-0.141611 -0.035094 0.815695 0 162 255 0.284260
-0.141453 -0.033303 0.818919 0 174 255 0.293801
-0.138236 -0.030182 0.819812 0 186 255 0.305462
-0.139017 -0.032168 0.816653 0 186 255 0.307111
-0.144605 -0.035757 0.819682 0 162 255 0.282886
-0.134169 -0.028124 0.816894 0 194 255 0.316315
-0.130439 -0.025694 0.815711 0 194 255 0.314401
-0.125851 -0.029103 0.802031 0 210 255 0.331991
-0.127471 -0.028727 0.804994 0 214 255 0.332396
-0.128985 -0.028335 0.807873 0 206 255 0.327244
-0.130100 -0.030859 0.804629 0 214 255 0.332910
-0.126329 -0.026391 0.808332 0 206 255 0.327556
-0.123483 -0.024322 0.808730 128 0 0 1.000000
-0.124660 -0.026685 0.805373 0 214 255 0.333431
-0.121813 -0.024640 0.805775 0 214 255 0.334155
-0.132999 -0.032310 0.806128 0 206 255 0.327179
-0.132494 -0.030246 0.809265 0 110 255 0.231806
-0.135026 -0.032559 0.808720 11 242 237 0.362374
-0.131490 -0.028057 0.812351 0 202 255 0.321329
-0.128105 -0.026297 0.811093 0 202 255 0.323439
-0.125780 -0.022440 0.815855 1 230 247 0.350258
-0.127163 -0.024054 0.814493 0 190 255 0.309988
-0.123692 -0.022299 0.813223 0 186 255 0.308105
-0.122348 -0.020714 0.814630 0 170 255 0.292069
-0.125076 -0.023837 0.811834 79 255 169 0.443905
-0.119256 -0.019583 0.813016 0 162 255 0.283081
-0.120718 -0.021188 0.811613 0 178 255 0.298601
-0.117518 -0.019996 0.809954 0 50 255 0.174562
-0.116097 -0.018368 0.811337 0 154 255 0.275955
-0.120604 -0.022188 0.809345 0 198 255 0.319909
-0.116212 -0.026190 0.795411 0 202 255 0.321422
-0.118596 -0.027720 0.795496 0 202 255 0.323389
-0.115925 -0.024865 0.797762 0 202 255 0.323711
-0.118361 -0.026334 0.797807 0 206 255 0.325372
-0.118053 -0.024982 0.800141 0 206 255 0.326784
-0.120838 -0.027879 0.797879 0 206 255 0.327556
-0.115580 -0.023523 0.800157 0 206 255 0.324500
-0.115228 -0.022138 0.802483 0 198 255 0.319280
-0.112961 -0.022128 0.799681 0 198 255 0.318625
-0.113253 -0.023513 0.797331 0 202 255 0.321680
-0.120785 -0.026738 0.800212 0 210 255 0.331121
-0.123301 -0.028478 0.799961 0 210 255 0.331408
-0.120708 -0.025553 0.802487 0 214 255 0.334769
-0.123280 -0.027268 0.802224 4 234 244 0.355055
-0.119186 -0.022919 0.805928 0 210 255 0.328392
-0.117958 -0.023862 0.802519 0 210 255 0.329001
-0.113440 -0.017879 0.808938 0 154 255 0.274739
-0.114938 -0.019495 0.807697 0 178 255 0.297703
-0.112122 -0.019015 0.805100 0 174 255 0.294152
-0.110609 -0.017410 0.806378 0 162 255 0.283543
-0.115085 -0.020880 0.805146 0 186 255 0.304832
-0.117691 -0.021340 0.807413 0 190 255 0.311003
-0.108187 -0.017505 0.803431 0 170 255 0.290301
-0.109811 -0.019039 0.802407 0 162 255 0.281509
-0.111375 -0.020599 0.801047 0 190 255 0.310743
-0.128166 -0.036684 0.791396 0 166 255 0.285735
-0.128738 -0.035760 0.793949 0 194 255 0.313171
-0.130333 -0.038108 0.791908 0 194 255 0.314146
-0.126547 -0.034425 0.793538 0 194 255 0.314498
-0.124069 -0.033105 0.792984 0 194 255 0.314026
-0.132252 -0.038522 0.793763 0 194 255 0.313319
-0.130980 -0.036363 0.795845 0 198 255 0.318426
-0.132977 -0.036948 0.797506 0 186 255 0.305950
-0.134225 -0.039069 0.795442 0 194 255 0.313810
-0.130615 -0.034663 0.798812 0 198 255 0.319004
-0.128409 -0.034004 0.797036 0 194 255 0.315947
-0.126070 -0.031189 0.798582 0 210 255 0.330042
-0.123544 -0.030501 0.796470 0 102 255 0.222701
-0.128337 -0.031852 0.800438 0 90 255 0.212012
-0.121482 -0.030219 0.794274 0 198 255 0.319496
-0.135478 -0.034450 0.805832 0 198 255 0.317723
-0.133563 -0.034054 0.803570 0 202 255 0.322625
-0.136014 -0.036258 0.803311 0 38 255 0.162436
-0.138154 -0.038237 0.802945 0 178 255 0.298490
-0.137813 -0.036534 0.805491 0 182 255 0.302686
-0.139953 -0.038523 0.805107 0 174 255 0.292996
-0.131122 -0.033036 0.802114 0 210 255 0.330536
-0.133074 -0.035675 0.800304 0 190 255 0.311655
-0.136296 -0.039841 0.796904 20 254 228 0.372706
-0.135388 -0.037982 0.798987 0 182 255 0.303946
-0.137525 -0.038922 0.800220 0 0 247 0.105434
-0.138399 -0.040759 0.798149 0 182 255 0.304435
-0.140597 -0.041876 0.799231 0 182 255 0.303112
-0.140116 -0.040447 0.801410 0 174 255 0.296817
-0.142441 -0.041760 0.802414 0 174 255 0.293789
-0.142929 -0.043187 0.800201 0 178 255 0.299551
-0.145383 -0.044784 0.801176 0 170 255 0.289895
-0.147242 -0.045656 0.802888 0 162 255 0.281585
-0.149317 -0.047537 0.802390 0 158 255 0.278336
-0.145671 -0.043788 0.804774 0 154 255 0.274409
-0.143439 -0.041755 0.805157 0 158 255 0.280958
-0.151110 -0.048624 0.803969 0 142 255 0.264251
-0.152922 -0.049698 0.805479 0 130 255 0.251387
-0.154345 -0.051518 0.803485 0 134 255 0.255716
-0.151438 -0.047992 0.807367 0 130 255 0.253314
-0.149586 -0.046839 0.805875 0 50 255 0.174092
-0.147483 -0.044856 0.806435 0 150 255 0.271282
-0.146693 -0.042651 0.810020 0 150 255 0.270953
-0.144728 -0.041478 0.808213 0 150 255 0.272069
-0.149413 -0.045891 0.808203 0 142 255 0.262390
-0.142009 -0.039494 0.807210 0 162 255 0.281562
-0.139735 -0.037212 0.807669 0 174 255 0.296454
-0.158536 -0.052507 0.812561 0 150 255 0.272889
-0.161133 -0.054786 0.813759 0 170 255 0.290370
-0.163786 -0.056966 0.814922 0 182 255 0.303819
-0.162902 -0.057086 0.812247 0 178 255 0.299520
-0.161919 -0.054740 0.816413 0 178 255 0.298834
-0.159918 -0.051961 0.817828 0 174 255 0.294803
-0.159162 -0.052221 0.815273 0 166 255 0.285273
-0.157186 -0.049367 0.816691 0 162 255 0.281714
-0.165992 -0.060352 0.811774 0 190 255 0.309805
-0.167123 -0.060998 0.814380 0 190 255 0.311392
-0.168963 -0.063267 0.812701 0 190 255 0.312229
-0.170725 -0.065528 0.810995 0 194 255 0.312700
-0.170147 -0.063881 0.815408 0 194 255 0.313328
-0.168169 -0.061350 0.817038 0 118 255 0.239119
-0.164765 -0.057407 0.817469 0 190 255 0.309261
-0.168221 -0.059414 0.821627 0 194 255 0.314522
-0.166308 -0.057175 0.821776 0 194 255 0.313485
-0.164581 -0.055838 0.820450 0 190 255 0.310743
-0.162812 -0.053596 0.820598 0 186 255 0.304910
-0.166448 -0.058706 0.818758 0 190 255 0.312266
-0.169953 -0.062003 0.819981 0 194 255 0.314235
-0.159256 -0.049022 0.822111 0 182 255 0.301042
-0.156103 -0.045970 0.820809 0 166 255 0.285652
-0.158180 -0.049268 0.819403 0 142 255 0.262547
-0.162943 -0.059083 0.803434 0 174 255 0.295813
-0.164553 -0.060336 0.805171 0 182 255 0.301985
-0.166980 -0.062111 0.805753 0 190 255 0.308931
-0.163330 -0.058791 0.807515 0 178 255 0.298624
-0.161689 -0.057539 0.805706 0 66 255 0.190208
-0.160455 -0.056075 0.807862 0 154 255 0.276539
-0.167994 -0.062815 0.810249 0 190 255 0.311408
-0.165950 -0.060699 0.808218 0 186 255 0.307852
-0.168921 -0.064134 0.807598 0 190 255 0.311204
-0.171821 -0.066519 0.808217 4 234 244 0.353078
-0.160424 -0.054961 0.811318 0 154 255 0.277057
-0.173227 -0.068872 0.811993 0 194 255 0.313667
-0.175547 -0.072350 0.813442 0 194 255 0.314275
-0.174770 -0.071042 0.810194 0 194 255 0.313659
-0.174042 -0.070134 0.815083 0 194 255 0.314163
-0.172594 -0.067491 0.816646 0 194 255 0.314061
-0.171762 -0.066439 0.813752 0 194 255 0.313390
-0.176358 -0.074748 0.812006 0 194 255 0.314479
-0.177436 -0.078748 0.812229 0 194 255 0.314984
-0.176654 -0.078624 0.815900 0 206 255 0.324380
-0.176101 -0.076106 0.817245 0 194 255 0.315568
-0.176130 -0.077904 0.823622 0 198 255 0.316907
-0.175957 -0.075796 0.821226 0 194 255 0.316060
-0.175631 -0.072978 0.822432 0 194 255 0.316082
-0.175165 -0.070971 0.820264 0 194 255 0.315382
-0.175594 -0.073788 0.818986 0 194 255 0.315639
-0.176345 -0.078216 0.819546 0 194 255 0.316339
-0.176416 -0.080429 0.821993 0 218 255 0.338059
-0.174062 -0.068385 0.821905 0 194 255 0.315353
-0.172610 -0.066009 0.821727 0 194 255 0.314789
-0.171376 -0.064270 0.820006 0 194 255 0.314338
-0.173968 -0.069198 0.818426 0 194 255 0.314914
-0.170402 -0.098824 0.814986 0 194 255 0.315583
-0.168357 -0.100759 0.816397 0 194 255 0.316133
-0.167729 -0.102162 0.814732 0 194 255 0.315013
-0.165950 -0.103931 0.815905 0 194 255 0.315413
-0.167614 -0.103294 0.812692 0 194 255 0.313795
-0.166235 -0.102704 0.817874 0 198 255 0.317059
-0.164129 -0.104576 0.819120 0 198 255 0.317638
-0.167141 -0.101012 0.820014 0 198 255 0.318288
-0.169427 -0.098949 0.818462 0 198 255 0.317297
-0.171669 -0.096944 0.816837 0 198 255 0.316482
-0.170409 -0.097253 0.820559 0 198 255 0.318094
-0.164848 -0.105426 0.813623 0 194 255 0.314900
-0.164617 -0.106330 0.811562 0 194 255 0.314458
-0.162404 -0.107291 0.814215 27 255 221 0.382272
-0.162088 -0.108392 0.812069 0 194 255 0.316107
-0.159817 -0.110198 0.812441 0 198 255 0.317299
-0.161922 -0.109446 0.809962 27 255 221 0.380597
-0.157571 -0.111036 0.814903 0 202 255 0.320857
-0.160728 -0.107779 0.817219 0 198 255 0.318238
-0.163225 -0.105954 0.816679 0 198 255 0.316664
-0.155669 -0.110630 0.820404 0 202 255 0.324122
-0.157706 -0.108905 0.821915 0 202 255 0.323244
-0.160485 -0.106916 0.821507 0 202 255 0.320987
-0.162720 -0.105063 0.822808 0 198 255 0.319636
-0.158000 -0.109819 0.817505 0 202 255 0.320542
-0.155263 -0.111782 0.817766 62 255 185 0.423315
-0.163628 -0.103483 0.825135 36 255 211 0.393105
-0.165930 -0.101447 0.823706 0 202 255 0.320561
-0.167689 -0.099308 0.826362 0 170 255 0.292830
-0.169965 -0.097192 0.824810 0 198 255 0.319224
-0.168175 -0.099375 0.822173 0 198 255 0.319218
-0.165035 -0.102978 0.821384 0 198 255 0.318740
-0.175964 -0.082342 0.824390 0 198 255 0.317745
-0.175731 -0.084645 0.822804 0 198 255 0.318012
-0.176273 -0.082565 0.820350 0 198 255 0.317115
-0.175897 -0.084908 0.818774 0 198 255 0.317133
-0.175301 -0.086928 0.821245 0 198 255 0.318087
-0.174766 -0.089269 0.819736 0 198 255 0.317742
-0.174451 -0.089142 0.824112 0 198 255 0.318702
-0.174876 -0.086873 0.825592 0 198 255 0.318808
-0.176841 -0.082678 0.816303 0 194 255 0.316177
-0.176890 -0.084730 0.814809 0 194 255 0.316268
-0.175807 -0.089084 0.815837 0 198 255 0.316442
-0.175895 -0.086976 0.817342 0 198 255 0.316946
-0.173262 -0.094859 0.814853 0 194 255 0.316025
-0.174033 -0.092851 0.816267 0 154 255 0.275706
-0.172282 -0.095009 0.818467 0 198 255 0.317663
-0.172653 -0.093307 0.820177 0 198 255 0.318134
-0.171508 -0.095206 0.822456 0 198 255 0.318824
-0.172497 -0.093076 0.824391 0 198 255 0.319220
-0.170809 -0.095242 0.826767 0 198 255 0.320038
-0.173279 -0.091048 0.826351 0 198 255 0.319483
-0.173622 -0.091207 0.822134 0 186 255 0.308508
-0.152127 -0.114287 0.814375 0 202 255 0.320608
-0.154849 -0.112697 0.814663 0 198 255 0.320080
-0.154459 -0.113637 0.811558 0 202 255 0.320356
-0.151789 -0.115161 0.811150 0 202 255 0.321324
-0.151610 -0.116031 0.807835 0 202 255 0.321595
-0.148829 -0.116879 0.810073 0 202 255 0.321519
-0.148994 -0.116001 0.813436 0 202 255 0.321755
-0.157259 -0.111882 0.812266 0 198 255 0.318430
-0.156885 -0.112761 0.809606 0 198 255 0.319451
-0.159410 -0.111135 0.809850 0 198 255 0.318685
-0.158944 -0.112098 0.807242 0 198 255 0.319534
-0.156643 -0.113686 0.806828 0 202 255 0.320710
-0.156453 -0.114461 0.803970 0 202 255 0.322181
-0.154093 -0.115338 0.805951 0 202 255 0.321334
-0.154187 -0.114501 0.808735 0 198 255 0.320082
-0.152633 -0.117215 0.795280 0 206 255 0.325184
-0.152191 -0.117280 0.798575 0 202 255 0.324127
-0.149966 -0.118212 0.796897 0 198 255 0.319281
-0.151889 -0.117085 0.801730 0 202 255 0.323541
-0.149525 -0.118216 0.800091 0 202 255 0.324175
-0.149190 -0.117965 0.803209 0 202 255 0.323061
-0.147052 -0.119178 0.798475 0 206 255 0.324538
-0.151729 -0.116673 0.804829 0 202 255 0.322150
-0.154142 -0.115823 0.802915 7 238 240 0.357223
-0.154279 -0.116168 0.799793 0 202 255 0.323048
-0.146624 -0.119193 0.802057 0 202 255 0.323488
-0.143854 -0.120313 0.800295 0 206 255 0.324497
-0.146306 -0.118795 0.805473 0 182 255 0.304494
-0.143472 -0.120155 0.803792 0 202 255 0.323199
-0.146073 -0.118240 0.808907 0 202 255 0.322711
-0.148993 -0.117495 0.806663 0 202 255 0.322388
-0.154673 -0.116342 0.796811 0 206 255 0.324362
-0.156566 -0.114902 0.801212 0 202 255 0.322449
-0.158919 -0.112911 0.804693 0 202 255 0.321166
-0.134593 -0.047471 0.776905 0 190 255 0.311088
-0.133960 -0.045948 0.779161 0 190 255 0.311288
