ply
format ascii 1.0
comment VCGLIB generated
element vertex 959
property float x
property float y
property float z
property uchar red
property uchar green
property uchar blue
property float quality
end_header
-0.088904 -0.013889 0.883992 179 255 69 0.564351
-0.088819 -0.016843 0.885651 179 255 69 0.564664
-0.091392 -0.010586 0.882414 179 255 69 0.565440
-0.086391 -0.019403 0.887575 179 255 69 0.564493
-0.083392 -0.018615 0.888110 179 255 69 0.562795
-0.092151 -0.014173 0.884256 179 255 69 0.565551
-0.094708 -0.010905 0.882890 182 255 66 0.566414
-0.071227 -0.097553 0.917578 182 255 66 0.566608
-0.071421 -0.094267 0.920195 189 255 59 0.575333
-0.072631 -0.091115 0.922040 179 255 69 0.564948
-0.072493 -0.087562 0.923854 179 255 69 0.564947
-0.073090 -0.083956 0.924533 179 255 69 0.564415
-0.070923 -0.083351 0.925536 195 255 53 0.584009
-0.074611 -0.088074 0.922679 179 255 69 0.564547
-0.075330 -0.084611 0.923292 215 255 33 0.607048
-0.074933 -0.091641 0.920763 179 255 69 0.564586
-0.074957 -0.094890 0.918232 179 255 69 0.564960
-0.073676 -0.097946 0.916108 169 255 79 0.550847
-0.076222 -0.098346 0.914709 179 255 69 0.565844
-0.069969 -0.078917 0.925061 179 255 69 0.564455
-0.069519 -0.074490 0.923779 179 255 69 0.562611
-0.068003 -0.069240 0.922652 179 255 69 0.565453
-0.067406 -0.063948 0.921332 182 255 66 0.567762
-0.070890 -0.070059 0.922230 179 255 69 0.566134
-0.072766 -0.075351 0.923033 179 255 69 0.563673
-0.073038 -0.079902 0.923831 192 255 56 0.581427
-0.071854 -0.065512 0.920348 182 255 66 0.568088
-0.074049 -0.070934 0.921468 182 255 66 0.566790
-0.075290 -0.075965 0.922314 134 255 114 0.511447
-0.076850 -0.081036 0.922028 176 255 72 0.561793
-0.078011 -0.085360 0.921717 179 255 69 0.563831
-0.079726 -0.089169 0.919438 205 255 43 0.595008
-0.079045 -0.092419 0.918093 179 255 69 0.564167
-0.079391 -0.095630 0.915607 179 255 69 0.564696
-0.078453 -0.098656 0.913382 179 255 69 0.565831
-0.080775 -0.098951 0.912136 221 255 27 0.614575
-0.077133 -0.095204 0.916991 179 255 69 0.564840
-0.076817 -0.088521 0.921303 179 255 69 0.564334
-0.071518 -0.100275 0.913000 140 255 108 0.518925
-0.071764 -0.103331 0.908531 192 255 56 0.581370
-0.074006 -0.100640 0.911693 185 255 62 0.571159
-0.074363 -0.103565 0.907266 189 255 59 0.576488
-0.072140 -0.106776 0.904287 192 255 56 0.579678
-0.072369 -0.110469 0.900085 172 255 75 0.557216
-0.069644 -0.110418 0.901473 172 255 75 0.557918
-0.069398 -0.106551 0.905592 198 255 49 0.587697
-0.069118 -0.103060 0.909940 192 255 56 0.581324
-0.066909 -0.110313 0.902878 176 255 72 0.561289
-0.076476 -0.100940 0.910259 182 255 66 0.570019
-0.076769 -0.103814 0.905902 189 255 59 0.576871
-0.078711 -0.101283 0.909072 182 255 66 0.569896
-0.079022 -0.104050 0.904694 189 255 59 0.574522
-0.077081 -0.106984 0.901649 137 255 111 0.513071
-0.077269 -0.110545 0.897489 169 255 79 0.554652
-0.074837 -0.110534 0.898819 185 255 62 0.572318
-0.074654 -0.106910 0.903042 189 255 59 0.576929
-0.071316 -0.119269 0.887194 176 255 72 0.562279
-0.071643 -0.116620 0.891222 176 255 72 0.560097
-0.068815 -0.119173 0.888551 179 255 69 0.562562
-0.069191 -0.116640 0.892683 176 255 72 0.560257
-0.072009 -0.113606 0.895512 172 255 75 0.556442
-0.074460 -0.113678 0.894274 172 255 75 0.555879
-0.074049 -0.116696 0.889985 176 255 72 0.559824
-0.066252 -0.119257 0.890035 176 255 72 0.562094
-0.066402 -0.116556 0.894007 176 255 72 0.560393
-0.063499 -0.119160 0.891517 179 255 69 0.562599
-0.063684 -0.116533 0.895562 182 255 66 0.567135
-0.066649 -0.113564 0.898329 172 255 75 0.558386
-0.069368 -0.113578 0.896931 172 255 75 0.556806
-0.082884 -0.120021 0.880548 179 255 69 0.563179
-0.086317 -0.117830 0.882203 176 255 72 0.561197
-0.087907 -0.114941 0.885608 172 255 75 0.555684
-0.091336 -0.112591 0.887484 172 255 75 0.558561
-0.087656 -0.111506 0.890839 172 255 75 0.555324
-0.091669 -0.116209 0.882401 176 255 72 0.559891
-0.095198 -0.113826 0.884228 140 255 108 0.516199
-0.089882 -0.118622 0.879482 179 255 69 0.563150
-0.087996 -0.120876 0.876626 179 255 69 0.564242
-0.088818 -0.108002 0.894721 134 255 114 0.509751
-0.091115 -0.109758 0.891905 185 255 62 0.574160
-0.092299 -0.106534 0.895798 189 255 59 0.574671
-0.090015 -0.105154 0.898774 185 255 62 0.571821
-0.094627 -0.108161 0.892984 172 255 75 0.557707
-0.093564 -0.103891 0.899829 185 255 62 0.570702
-0.095934 -0.105320 0.897007 185 255 62 0.573583
-0.091285 -0.102594 0.902822 114 255 134 0.485388
-0.098339 -0.106780 0.894146 169 255 79 0.552654
-0.098400 -0.109220 0.889523 231 255 17 0.625508
-0.094862 -0.110876 0.888505 185 255 62 0.571781
-0.108067 -0.109921 0.884995 198 255 49 0.589392
-0.106043 -0.111736 0.882551 195 255 53 0.584825
-0.103617 -0.111056 0.884593 195 255 53 0.582742
-0.104150 -0.113674 0.880383 185 255 62 0.571929
-0.101743 -0.113007 0.882354 189 255 59 0.575338
-0.099873 -0.115092 0.880150 179 255 69 0.564508
-0.102231 -0.115720 0.878287 179 255 69 0.565734
-0.099386 -0.112394 0.884332 189 255 59 0.575794
-0.097567 -0.114438 0.882147 179 255 69 0.563667
-0.101010 -0.110076 0.887033 192 255 56 0.579745
-0.102745 -0.108020 0.889910 195 255 53 0.585248
-0.105391 -0.108908 0.887405 198 255 49 0.586512
-0.100423 -0.118394 0.875335 179 255 69 0.565230
-0.098333 -0.120361 0.872820 179 255 69 0.565245
-0.096223 -0.120123 0.874384 179 255 69 0.564907
-0.096212 -0.122082 0.870229 179 255 69 0.565423
-0.094119 -0.121781 0.871774 179 255 69 0.565185
-0.092017 -0.121630 0.873410 179 255 69 0.565002
-0.093843 -0.119452 0.876353 179 255 69 0.564254
-0.095696 -0.117002 0.879214 172 255 75 0.555511
-0.098059 -0.117658 0.877206 179 255 69 0.564218
-0.058422 -0.095476 0.923305 208 255 40 0.600557
-0.058905 -0.098751 0.918883 189 255 59 0.574924
-0.061753 -0.095958 0.921944 182 255 66 0.567815
-0.059389 -0.102277 0.914545 198 255 49 0.589566
-0.062277 -0.099086 0.917509 153 255 95 0.531675
-0.062781 -0.102531 0.913130 198 255 49 0.588982
-0.065092 -0.096452 0.920492 182 255 66 0.567338
-0.059858 -0.106092 0.910240 255 191 0 0.706602
-0.060326 -0.109968 0.906018 179 255 69 0.564159
-0.056876 -0.109823 0.907699 179 255 69 0.565318
-0.056406 -0.105898 0.911859 198 255 49 0.585973
-0.056001 -0.102027 0.916244 195 255 53 0.584861
-0.053420 -0.109722 0.909322 179 255 69 0.563688
-0.065510 -0.099480 0.915946 137 255 111 0.515571
-0.068137 -0.096980 0.919096 182 255 66 0.567096
-0.065909 -0.102773 0.911424 198 255 49 0.587273
-0.068644 -0.099896 0.914505 176 255 72 0.559751
-0.066435 -0.106458 0.907047 205 255 43 0.594359
-0.063623 -0.110193 0.904474 198 255 49 0.587877
-0.063215 -0.106265 0.908738 208 255 40 0.598181
-0.060485 -0.119080 0.893056 179 255 69 0.562891
-0.060345 -0.116391 0.897107 176 255 72 0.561575
-0.057389 -0.119009 0.894890 179 255 69 0.563043
-0.057236 -0.116314 0.898934 176 255 72 0.562126
-0.060292 -0.113276 0.901370 221 255 27 0.615843
-0.063611 -0.113436 0.899877 176 255 72 0.559119
-0.054082 -0.118885 0.896631 179 255 69 0.563332
-0.053741 -0.116189 0.900603 176 255 72 0.562479
-0.050797 -0.118693 0.898486 179 255 69 0.563765
-0.050481 -0.116072 0.902567 179 255 69 0.562881
-0.053517 -0.113126 0.904852 176 255 72 0.561562
-0.056988 -0.113190 0.903157 176 255 72 0.561038
-0.062646 -0.031150 0.914699 69 255 179 0.431317
-0.063391 -0.035140 0.914820 179 255 69 0.564511
-0.065850 -0.031654 0.911899 179 255 69 0.564997
-0.066673 -0.035498 0.912084 179 255 69 0.565109
-0.063828 -0.039149 0.915336 179 255 69 0.565565
-0.064260 -0.043055 0.915993 140 255 108 0.515815
-0.061363 -0.042758 0.918281 179 255 69 0.563873
-0.060873 -0.038529 0.917724 40 255 208 0.395924
-0.060225 -0.034348 0.917499 176 255 72 0.558949
-0.058437 -0.041911 0.920746 163 255 85 0.546604
-0.068646 -0.032257 0.909393 172 255 75 0.556202
-0.069184 -0.035822 0.909923 163 255 85 0.543854
-0.071087 -0.032718 0.907048 179 255 69 0.564590
-0.071262 -0.036162 0.907881 179 255 69 0.564599
-0.069030 -0.039348 0.911085 179 255 69 0.565237
-0.068639 -0.043291 0.912632 179 255 69 0.566267
-0.066551 -0.042995 0.914201 182 255 66 0.566461
-0.066846 -0.039225 0.912959 179 255 69 0.565833
-0.064739 -0.063286 0.921771 108 255 140 0.479608
-0.064229 -0.057985 0.919530 182 255 66 0.568442
-0.063544 -0.052421 0.917977 169 255 79 0.553678
-0.062231 -0.057680 0.920303 30 255 218 0.383822
-0.061568 -0.052062 0.919327 179 255 69 0.565790
-0.062636 -0.062849 0.922302 91 255 156 0.459101
-0.063785 -0.047505 0.916905 182 255 66 0.567082
-0.065872 -0.047443 0.915289 182 255 66 0.567415
-0.065549 -0.052412 0.916758 179 255 69 0.563160
-0.060388 -0.062334 0.923228 215 255 33 0.606105
-0.060034 -0.057314 0.921457 189 255 59 0.577824
-0.059225 -0.051782 0.921020 166 255 82 0.547902
-0.057622 -0.056649 0.922741 176 255 72 0.561189
-0.056927 -0.051196 0.922544 150 255 98 0.527974
-0.057953 -0.061658 0.924260 179 255 69 0.565902
-0.058709 -0.046599 0.920854 140 255 108 0.517994
-0.061276 -0.047101 0.918801 179 255 69 0.564575
-0.086817 -0.040377 0.902752 182 255 66 0.567949
-0.085599 -0.044341 0.905556 182 255 66 0.568138
-0.082778 -0.048812 0.908634 182 255 66 0.569486
-0.083337 -0.044278 0.905539 182 255 66 0.568979
-0.087854 -0.036813 0.900194 182 255 66 0.567264
-0.081544 -0.057613 0.913266 185 255 62 0.571555
-0.082287 -0.061425 0.915150 185 255 62 0.571921
-0.083564 -0.065090 0.916709 185 255 62 0.571522
-0.080934 -0.053336 0.911008 185 255 62 0.571227
-0.078192 -0.066604 0.918524 172 255 75 0.556609
-0.077004 -0.062003 0.916322 179 255 69 0.564229
-0.077193 -0.057516 0.913845 185 255 62 0.571528
-0.077521 -0.052843 0.911266 185 255 62 0.571550
-0.079493 -0.048401 0.908809 182 255 66 0.570217
-0.079789 -0.061865 0.915715 185 255 62 0.571638
-0.081008 -0.066001 0.917591 185 255 62 0.571118
-0.080190 -0.043682 0.905729 182 255 66 0.569036
-0.082864 -0.040009 0.902757 182 255 66 0.568213
-0.084520 -0.036581 0.900204 160 255 88 0.542430
-0.074706 -0.056493 0.913885 185 255 62 0.571585
-0.074420 -0.061420 0.916769 182 255 66 0.569025
-0.075681 -0.066444 0.919308 182 255 66 0.569711
-0.074637 -0.051420 0.911527 185 255 62 0.571062
-0.075424 -0.046600 0.909274 182 255 66 0.569068
-0.077344 -0.047633 0.908985 169 255 79 0.551750
-0.072049 -0.060646 0.917192 182 255 66 0.569972
-0.071778 -0.055189 0.914357 185 255 62 0.570933
-0.072115 -0.049869 0.912053 195 255 53 0.584537
-0.073101 -0.045108 0.909889 182 255 66 0.568445
-0.077976 -0.034790 0.901577 182 255 66 0.567378
-0.077616 -0.038176 0.903753 172 255 75 0.555544
-0.080297 -0.035609 0.900808 182 255 66 0.567589
-0.076766 -0.042093 0.906319 182 255 66 0.568169
-0.074941 -0.041155 0.907043 182 255 66 0.567470
-0.080488 -0.039287 0.902957 182 255 66 0.568032
-0.081618 -0.070746 0.918580 182 255 66 0.569311
-0.085091 -0.074768 0.917985 182 255 66 0.567680
-0.084377 -0.069923 0.917394 182 255 66 0.569929
-0.088524 -0.078660 0.916916 179 255 69 0.565423
-0.091672 -0.082230 0.915726 179 255 69 0.562896
-0.089542 -0.084009 0.916287 176 255 72 0.560281
-0.086613 -0.080318 0.917378 179 255 69 0.563080
-0.083386 -0.076378 0.918573 160 255 88 0.541090
-0.087328 -0.085565 0.916652 163 255 85 0.546620
-0.088150 -0.072238 0.916644 182 255 66 0.569957
-0.093326 -0.080188 0.915396 179 255 69 0.566010
-0.100307 -0.088601 0.911660 179 255 69 0.563725
-0.098237 -0.085549 0.912862 179 255 69 0.564417
-0.096182 -0.088432 0.912593 176 255 72 0.562451
-0.098119 -0.091299 0.911331 179 255 69 0.564206
-0.095014 -0.083922 0.914257 179 255 69 0.563857
-0.094948 -0.093732 0.911049 179 255 69 0.564838
-0.093712 -0.089986 0.913037 166 255 82 0.549124
-0.093280 -0.095463 0.910613 179 255 69 0.564598
-0.091924 -0.091721 0.912639 179 255 69 0.563556
-0.090209 -0.093371 0.912238 179 255 69 0.563551
-0.091510 -0.096855 0.909680 179 255 69 0.565392
-0.090518 -0.087819 0.914670 176 255 72 0.560889
-0.088839 -0.089679 0.914453 176 255 72 0.561710
-0.092946 -0.086250 0.914303 176 255 72 0.559771
-0.065738 -0.068736 0.922837 179 255 69 0.563791
-0.067278 -0.073776 0.924356 179 255 69 0.563186
-0.067155 -0.078042 0.925951 179 255 69 0.564871
-0.068109 -0.082594 0.926606 179 255 69 0.564602
-0.065436 -0.081864 0.927483 179 255 69 0.564694
-0.064632 -0.077397 0.926605 179 255 69 0.565226
-0.064726 -0.073097 0.924991 179 255 69 0.564333
-0.063496 -0.068182 0.923496 179 255 69 0.564419
-0.069917 -0.086913 0.925226 179 255 69 0.565087
-0.070042 -0.090568 0.923413 179 255 69 0.565065
-0.068291 -0.093600 0.921732 179 255 69 0.565627
-0.065431 -0.092996 0.923047 179 255 69 0.565894
-0.067116 -0.089866 0.924707 163 255 85 0.544951
-0.067177 -0.086217 0.926381 179 255 69 0.565288
-0.059006 -0.091858 0.925688 182 255 66 0.566486
-0.060920 -0.088437 0.927072 179 255 69 0.565548
-0.061131 -0.084672 0.928311 179 255 69 0.565493
-0.062506 -0.081019 0.928418 179 255 69 0.564775
-0.059544 -0.080216 0.929209 195 255 53 0.585605
-0.064180 -0.085422 0.927481 179 255 69 0.565406
-0.064083 -0.089137 0.925935 179 255 69 0.565388
-0.062170 -0.092395 0.924493 179 255 69 0.566218
-0.058777 -0.075786 0.928148 179 255 69 0.565213
-0.059190 -0.071528 0.926428 185 255 62 0.573149
-0.058375 -0.066741 0.925186 198 255 49 0.589384
-0.060899 -0.067477 0.924268 182 255 66 0.567602
-0.061980 -0.072385 0.925655 179 255 69 0.565434
-0.061650 -0.076545 0.927394 179 255 69 0.565336
0.002000 0.001162 0.894111 179 255 69 0.565933
0.004798 0.001125 0.895254 198 255 49 0.586667
0.003053 -0.000343 0.898440 185 255 62 0.570738
0.000245 -0.000178 0.897282 185 255 62 0.572443
0.005897 -0.000480 0.899593 192 255 56 0.579850
0.001280 -0.001460 0.901730 192 255 56 0.579182
0.004104 -0.001704 0.902895 179 255 69 0.566040
0.002304 -0.002722 0.906239 198 255 49 0.587491
-0.001595 -0.001232 0.900586 208 255 40 0.598792
-0.000594 -0.002408 0.905148 192 255 56 0.579435
-0.003441 -0.002229 0.903961 185 255 62 0.573872
0.006974 -0.001943 0.904004 185 255 62 0.571547
0.005131 -0.002909 0.907412 195 255 53 0.583385
0.008036 -0.003212 0.908516 189 255 59 0.576122
0.010093 -0.002352 0.905195 182 255 66 0.569686
0.008973 -0.000624 0.900843 182 255 66 0.568629
0.012054 -0.000785 0.902123 228 255 20 0.622274
0.010925 0.001086 0.897887 179 255 69 0.565978
0.007859 0.001062 0.896528 179 255 69 0.563922
0.014017 0.001207 0.899335 176 255 72 0.561300
-0.005257 -0.003787 0.907154 179 255 69 0.565106
-0.002692 -0.003861 0.908331 182 255 66 0.569934
-0.004519 -0.005150 0.911510 179 255 69 0.562845
-0.007081 -0.005094 0.910268 176 255 72 0.560617
-0.001918 -0.005440 0.912585 179 255 69 0.566275
-0.006326 -0.006324 0.914484 176 255 72 0.561427
-0.003827 -0.006560 0.915628 179 255 69 0.562704
-0.005643 -0.007486 0.918657 179 255 69 0.562805
-0.008814 -0.006306 0.913259 176 255 72 0.562060
-0.008116 -0.007568 0.917316 179 255 69 0.562774
-0.010575 -0.007640 0.916087 176 255 72 0.560876
-0.001238 -0.006706 0.916834 179 255 69 0.564428
-0.003107 -0.007720 0.919906 179 255 69 0.564050
-0.000545 -0.007940 0.921143 179 255 69 0.564364
0.001580 -0.007000 0.918128 163 255 85 0.543432
0.000896 -0.005567 0.913899 182 255 66 0.569689
0.003730 -0.005864 0.915050 189 255 59 0.577170
0.003086 -0.004333 0.910672 195 255 53 0.585253
0.000177 -0.004077 0.909510 189 255 59 0.575422
0.005896 -0.004460 0.911846 247 246 1 0.647225
0.009531 -0.007623 0.921948 189 255 59 0.577921
0.012076 -0.006236 0.918812 195 255 53 0.585789
0.009109 -0.006061 0.917553 202 255 46 0.590047
0.014687 -0.005042 0.915460 189 255 59 0.574745
0.011659 -0.004777 0.914241 192 255 56 0.579116
0.014076 -0.003670 0.910892 185 255 62 0.570929
0.017144 -0.003931 0.912006 182 255 66 0.569210
0.008658 -0.004574 0.913029 195 255 53 0.583757
0.011055 -0.003455 0.909708 185 255 62 0.572884
0.006419 -0.006031 0.916259 198 255 49 0.587629
0.004246 -0.007262 0.919373 182 255 66 0.568702
0.006919 -0.007413 0.920678 185 255 62 0.572735
0.004722 -0.008574 0.923749 179 255 69 0.566142
0.002119 -0.008214 0.922450 179 255 69 0.565559
0.007350 -0.008995 0.924964 182 255 66 0.568971
0.019225 -0.002392 0.909018 182 255 66 0.566604
0.021432 -0.000295 0.906492 172 255 75 0.558341
0.018150 -0.000542 0.904916 205 255 43 0.595627
0.023482 0.002061 0.904279 176 255 72 0.560134
0.020270 0.001752 0.902550 130 255 117 0.506337
0.017035 0.001479 0.900848 176 255 72 0.560311
0.015084 -0.000701 0.903497 179 255 69 0.564622
0.013098 -0.002345 0.906492 182 255 66 0.569074
0.016165 -0.002384 0.907738 182 255 66 0.567735
0.029722 0.000234 0.846643 182 255 66 0.568518
0.028396 0.001602 0.849022 182 255 66 0.569287
0.031748 0.001622 0.850596 182 255 66 0.569217
0.030376 0.002805 0.853011 182 255 66 0.569415
0.026968 0.002763 0.851450 182 255 66 0.569480
0.033660 0.002719 0.854585 182 255 66 0.569170
0.028854 0.003710 0.855584 182 255 66 0.569460
0.032205 0.003670 0.857084 185 255 62 0.572119
0.030596 0.004437 0.859708 208 255 40 0.599536
0.025426 0.003657 0.854034 182 255 66 0.569375
0.027233 0.004436 0.858243 182 255 66 0.569247
0.023805 0.004343 0.856742 182 255 66 0.569288
0.035492 0.003572 0.858641 182 255 66 0.569355
0.033958 0.004415 0.861253 182 255 66 0.569368
0.037326 0.004355 0.862852 182 255 66 0.569413
0.038862 0.003472 0.860334 182 255 66 0.569569
0.036934 0.002581 0.856231 182 255 66 0.569283
0.040257 0.002414 0.857946 182 255 66 0.569124
0.038246 0.001428 0.853907 221 255 27 0.616202
0.034999 0.001564 0.852250 182 255 66 0.568662
0.036271 0.000200 0.849995 182 255 66 0.567135
0.041577 0.001207 0.855659 166 255 82 0.549410
0.039527 0.000056 0.851681 182 255 66 0.566697
0.042839 -0.000135 0.853430 179 255 69 0.566014
0.033026 0.000243 0.848304 166 255 82 0.547653
0.022095 0.004605 0.859658 182 255 66 0.569163
0.025404 0.004711 0.861044 182 255 66 0.569124
0.023671 0.004972 0.863989 182 255 66 0.569094
0.020405 0.004899 0.862612 182 255 66 0.569304
0.026974 0.005053 0.865351 182 255 66 0.568912
0.021976 0.005325 0.866913 182 255 66 0.568960
0.025238 0.005378 0.868333 182 255 66 0.568600
0.018797 0.005296 0.865508 182 255 66 0.569302
0.028581 0.005414 0.869779 182 255 66 0.568394
0.031955 0.005411 0.871334 182 255 66 0.568020
0.030383 0.005081 0.866897 182 255 66 0.568771
0.033734 0.005072 0.868491 182 255 66 0.568757
0.032174 0.004778 0.864047 182 255 66 0.569209
0.028782 0.004758 0.862508 182 255 66 0.569147
0.035556 0.004756 0.865637 182 255 66 0.569228
0.042538 0.005442 0.876621 169 255 79 0.552414
0.044506 0.005078 0.873752 182 255 66 0.569411
0.040811 0.005138 0.871852 182 255 66 0.569144
0.046457 0.004626 0.870929 182 255 66 0.569832
0.042725 0.004748 0.869082 182 255 66 0.569567
0.044628 0.004219 0.866388 156 255 92 0.538880
0.048286 0.004035 0.868269 182 255 66 0.569940
0.039085 0.004786 0.867289 182 255 66 0.569351
0.040956 0.004333 0.864609 182 255 66 0.569590
0.037261 0.005139 0.870142 182 255 66 0.568921
0.035483 0.005464 0.873022 182 255 66 0.568099
0.038988 0.005471 0.874803 182 255 66 0.568263
0.049765 0.002943 0.865841 182 255 66 0.569874
0.051217 0.001690 0.863613 182 255 66 0.570018
0.047554 0.001999 0.861644 182 255 66 0.569844
0.052601 0.000355 0.861443 182 255 66 0.569146
0.048943 0.000684 0.859484 182 255 66 0.568718
0.050255 -0.000606 0.857352 182 255 66 0.566679
0.053964 -0.000972 0.859283 182 255 66 0.568986
0.045241 0.000964 0.857543 182 255 66 0.568239
0.046551 -0.000349 0.855379 179 255 69 0.566300
0.043910 0.002255 0.859784 182 255 66 0.569476
0.042476 0.003392 0.862127 182 255 66 0.569569
0.046134 0.003198 0.863957 153 255 95 0.533754
-0.008128 -0.122860 0.877837 176 255 72 0.562377
-0.009975 -0.121580 0.881164 179 255 69 0.562888
-0.013417 -0.121011 0.884094 179 255 69 0.563168
-0.015294 -0.120956 0.887990 179 255 69 0.563514
-0.018774 -0.121365 0.891365 179 255 69 0.562950
-0.015692 -0.121234 0.892730 179 255 69 0.563147
-0.018409 -0.121036 0.886634 179 255 69 0.563107
-0.021876 -0.121384 0.889913 179 255 69 0.562808
-0.016494 -0.121002 0.882618 179 255 69 0.562790
-0.014588 -0.121668 0.878946 176 255 72 0.562482
-0.011198 -0.122963 0.876283 176 255 72 0.561983
-0.014287 -0.122890 0.874685 176 255 72 0.562002
-0.017515 -0.121323 0.896763 192 255 56 0.581903
-0.020937 -0.121383 0.900200 176 255 72 0.561918
-0.022688 -0.121051 0.904229 176 255 72 0.561460
-0.026052 -0.120273 0.907402 176 255 72 0.561151
-0.023090 -0.120186 0.908922 176 255 72 0.561085
-0.025698 -0.121038 0.902811 182 255 66 0.570252
-0.029033 -0.120229 0.905850 176 255 72 0.561213
-0.023970 -0.121358 0.898759 176 255 72 0.562087
-0.022173 -0.121419 0.894728 176 255 72 0.562376
-0.031882 -0.121089 0.899956 205 255 43 0.594348
-0.030035 -0.121353 0.895930 179 255 69 0.562850
-0.026679 -0.121335 0.892586 179 255 69 0.562912
-0.024906 -0.121409 0.888478 179 255 69 0.563119
-0.026957 -0.121304 0.897340 176 255 72 0.562398
-0.028774 -0.121016 0.901307 176 255 72 0.561964
-0.032051 -0.120284 0.904412 176 255 72 0.561641
-0.024526 -0.120989 0.883724 179 255 69 0.563412
-0.022586 -0.121024 0.879723 179 255 69 0.563140
-0.019143 -0.121538 0.876707 179 255 69 0.562897
-0.017298 -0.122906 0.873143 176 255 72 0.562253
-0.019548 -0.120963 0.881170 179 255 69 0.562791
-0.021449 -0.121007 0.885131 179 255 69 0.562995
0.014330 -0.113507 0.891600 179 255 69 0.562968
0.010661 -0.113925 0.894431 176 255 72 0.562257
0.010425 -0.113767 0.899280 176 255 72 0.562025
0.006688 -0.114918 0.902557 176 255 72 0.560164
0.006963 -0.114873 0.897522 176 255 72 0.560209
0.003241 -0.115994 0.900905 172 255 75 0.557402
0.007198 -0.115343 0.892697 176 255 72 0.560581
0.010830 -0.114875 0.889877 176 255 72 0.562002
0.014387 -0.114839 0.887314 179 255 69 0.562766
0.010923 -0.116661 0.885873 176 255 72 0.561329
0.006233 -0.114723 0.907758 176 255 72 0.561119
0.002482 -0.115206 0.911477 176 255 72 0.560676
0.000426 -0.114779 0.915893 192 255 56 0.580450
-0.001604 -0.113984 0.920183 179 255 69 0.562869
-0.004876 -0.115147 0.918761 198 255 49 0.589139
-0.002861 -0.115876 0.914364 176 255 72 0.560357
-0.000783 -0.116301 0.909819 172 255 75 0.557322
0.002909 -0.115739 0.906132 172 255 75 0.557326
-0.011092 -0.117816 0.915857 176 255 72 0.561430
-0.009096 -0.118490 0.911305 176 255 72 0.561148
-0.005534 -0.118206 0.907617 176 255 72 0.559191
-0.003556 -0.118169 0.903088 169 255 79 0.553828
-0.000014 -0.117401 0.899446 172 255 75 0.555074
-0.003190 -0.118683 0.898137 172 255 75 0.554887
-0.000377 -0.116886 0.904565 169 255 79 0.552644
-0.006010 -0.117272 0.912980 176 255 72 0.560593
-0.007993 -0.116500 0.917356 189 255 59 0.577265
-0.001293 -0.118300 0.894004 176 255 72 0.559005
0.002283 -0.117766 0.890810 176 255 72 0.560309
0.004231 -0.118390 0.887370 176 255 72 0.560946
0.007770 -0.118567 0.884756 176 255 72 0.560481
0.004547 -0.120210 0.883583 176 255 72 0.562100
0.007432 -0.116565 0.888500 176 255 72 0.560640
0.003612 -0.116208 0.895928 189 255 59 0.574464
0.001045 -0.119731 0.886259 176 255 72 0.562375
-0.000887 -0.119095 0.889698 176 255 72 0.562093
-0.004406 -0.119468 0.892903 195 255 53 0.584331
-0.006313 -0.119809 0.896904 176 255 72 0.561549
-0.009450 -0.120448 0.895504 179 255 69 0.563052
-0.007557 -0.120137 0.891494 179 255 69 0.563371
-0.004034 -0.119921 0.888426 179 255 69 0.563316
-0.002139 -0.120555 0.884856 179 255 69 0.563282
0.001368 -0.121377 0.882315 179 255 69 0.563301
-0.001847 -0.122059 0.880884 179 255 69 0.563372
-0.006636 -0.119399 0.901784 176 255 72 0.559334
-0.008624 -0.119382 0.906121 176 255 72 0.561018
-0.012080 -0.119676 0.909791 176 255 72 0.561506
-0.014082 -0.118997 0.914262 176 255 72 0.561254
-0.017118 -0.119597 0.912361 176 255 72 0.561120
-0.015080 -0.120402 0.908098 176 255 72 0.561585
-0.011629 -0.120262 0.904605 176 255 72 0.561794
-0.009738 -0.120273 0.900361 176 255 72 0.561759
-0.019683 -0.120872 0.905766 176 255 72 0.561463
-0.017833 -0.121225 0.901654 176 255 72 0.561937
-0.014385 -0.121039 0.898232 176 255 72 0.562351
-0.012560 -0.120935 0.894150 179 255 69 0.563256
-0.014683 -0.120880 0.903085 176 255 72 0.562008
-0.020069 -0.119976 0.910655 202 255 46 0.590806
-0.012212 -0.120722 0.889434 189 255 59 0.576184
-0.010313 -0.120864 0.885568 179 255 69 0.563563
-0.006858 -0.121285 0.882736 179 255 69 0.563365
-0.004968 -0.122533 0.879397 179 255 69 0.563185
-0.007168 -0.120467 0.887042 179 255 69 0.563542
-0.011428 -0.115349 0.920791 176 255 72 0.561686
-0.011615 -0.112459 0.925373 176 255 72 0.561818
-0.008308 -0.113988 0.922147 176 255 72 0.562170
-0.008494 -0.111015 0.926387 179 255 69 0.562835
-0.011737 -0.109152 0.929305 176 255 72 0.562199
-0.011717 -0.105487 0.932668 195 255 53 0.583418
-0.014838 -0.106712 0.932010 176 255 72 0.561051
-0.014822 -0.110283 0.928166 176 255 72 0.560933
-0.014737 -0.113486 0.923911 176 255 72 0.561006
-0.017976 -0.107582 0.930797 176 255 72 0.560144
-0.005126 -0.112669 0.923263 179 255 69 0.562854
-0.005253 -0.109803 0.927163 179 255 69 0.563762
-0.001829 -0.111473 0.924410 179 255 69 0.563816
-0.005198 -0.106633 0.930490 179 255 69 0.564632
-0.008423 -0.104340 0.933161 179 255 69 0.564130
-0.008519 -0.107820 0.930036 179 255 69 0.563213
-0.011187 -0.092955 0.938470 182 255 66 0.567230
-0.010511 -0.096952 0.936864 169 255 79 0.551908
-0.013758 -0.097731 0.936431 179 255 69 0.562768
-0.014481 -0.093709 0.937990 179 255 69 0.563714
-0.011241 -0.101266 0.934887 198 255 49 0.587137
-0.007882 -0.100194 0.935287 179 255 69 0.565769
-0.017684 -0.094708 0.937716 176 255 72 0.561673
-0.016944 -0.098920 0.936199 176 255 72 0.561298
-0.020026 -0.099625 0.935585 176 255 72 0.560183
-0.020853 -0.095463 0.937179 176 255 72 0.560018
-0.017570 -0.103413 0.933951 176 255 72 0.560655
-0.014433 -0.102296 0.934508 176 255 72 0.561705
-0.047003 -0.025840 0.921408 182 255 66 0.566660
-0.045509 -0.028623 0.923949 179 255 69 0.566101
-0.045059 -0.023682 0.919812 182 255 66 0.568298
-0.043533 -0.026607 0.922438 172 255 75 0.555367
-0.041395 -0.024575 0.920567 182 255 66 0.568352
-0.042072 -0.029363 0.924911 182 255 66 0.567719
-0.042910 -0.021649 0.917780 185 255 62 0.570946
-0.040609 -0.019380 0.915564 189 255 59 0.575669
-0.044798 -0.018213 0.914757 182 255 66 0.569166
-0.046995 -0.020555 0.916790 182 255 66 0.567622
-0.039779 -0.027439 0.923360 185 255 62 0.570976
-0.038495 -0.030166 0.925909 182 255 66 0.569642
-0.037336 -0.025664 0.921229 192 255 56 0.578557
-0.036093 -0.028287 0.924009 189 255 59 0.575124
-0.033470 -0.026392 0.921767 189 255 59 0.575026
-0.034778 -0.030860 0.926656 185 255 62 0.572748
-0.034808 -0.023613 0.919096 185 255 62 0.573877
-0.032335 -0.021035 0.917234 182 255 66 0.566961
-0.036467 -0.020375 0.916333 189 255 59 0.575644
-0.038954 -0.022663 0.918433 189 255 59 0.578121
-0.029409 -0.008953 0.907352 172 255 75 0.555209
-0.031656 -0.008993 0.906505 172 255 75 0.557296
-0.032350 -0.012202 0.909146 172 255 75 0.557867
-0.034553 -0.012032 0.908328 176 255 72 0.559375
-0.033854 -0.008852 0.905589 172 255 75 0.558337
-0.035111 -0.015134 0.910980 179 255 69 0.563933
-0.036770 -0.011765 0.907551 198 255 49 0.587467
-0.037353 -0.014843 0.910263 182 255 66 0.567855
-0.039545 -0.014295 0.909667 185 255 62 0.572667
-0.036094 -0.008687 0.904735 176 255 72 0.559962
-0.038988 -0.011495 0.906721 192 255 56 0.581227
-0.038287 -0.008501 0.903757 176 255 72 0.561591
-0.037890 -0.017520 0.913134 185 255 62 0.573892
-0.040110 -0.017017 0.912586 189 255 59 0.577119
-0.033754 -0.018130 0.914142 182 255 66 0.566662
-0.031035 -0.015281 0.912307 176 255 72 0.559019
-0.040575 -0.008207 0.902846 179 255 69 0.563632
-0.043334 -0.010709 0.905167 185 255 62 0.573944
-0.042828 -0.007825 0.901928 179 255 69 0.566286
-0.043706 -0.013469 0.908470 189 255 59 0.577806
-0.045582 -0.010212 0.904312 185 255 62 0.571594
-0.045992 -0.012896 0.907681 185 255 62 0.573287
-0.045107 -0.007558 0.900950 182 255 66 0.567074
-0.046326 -0.015443 0.911035 185 255 62 0.570587
-0.012216 -0.009846 0.918726 172 255 75 0.558581
-0.010036 -0.009475 0.920106 176 255 72 0.561258
-0.011706 -0.011751 0.922752 176 255 72 0.560068
-0.013895 -0.012319 0.921290 172 255 75 0.557462
-0.009511 -0.011338 0.924211 176 255 72 0.562131
-0.013174 -0.014608 0.925094 172 255 75 0.557308
-0.011090 -0.014009 0.926635 176 255 72 0.560709
-0.012258 -0.017120 0.928543 172 255 75 0.556925
-0.015242 -0.015334 0.923555 169 255 79 0.551812
-0.014272 -0.017851 0.927018 169 255 79 0.551870
-0.016301 -0.018490 0.925429 163 255 85 0.546866
-0.008905 -0.013556 0.928127 179 255 69 0.562748
-0.010171 -0.016643 0.930181 176 255 72 0.559757
-0.008074 -0.016135 0.931749 176 255 72 0.562328
-0.006483 -0.013253 0.929650 179 255 69 0.563672
-0.007108 -0.011054 0.925670 211 255 36 0.603903
-0.004607 -0.011055 0.927034 179 255 69 0.564213
-0.005143 -0.009136 0.922940 179 255 69 0.563531
-0.007615 -0.009202 0.921512 179 255 69 0.562903
-0.002585 -0.009281 0.924178 179 255 69 0.564580
-0.016827 -0.022186 0.926824 163 255 85 0.545356
-0.015395 -0.025157 0.929391 169 255 79 0.552253
-0.015725 -0.028622 0.930493 176 255 72 0.562261
-0.014212 -0.031436 0.932950 166 255 82 0.550767
-0.018298 -0.031907 0.930740 182 255 66 0.569423
-0.011901 -0.027824 0.933165 169 255 79 0.552091
-0.010289 -0.030760 0.935494 172 255 75 0.556623
-0.009919 -0.027244 0.934863 166 255 82 0.549733
-0.011520 -0.024090 0.932427 182 255 66 0.566571
-0.009484 -0.023632 0.934007 169 255 79 0.551352
-0.011050 -0.020260 0.931490 169 255 79 0.554180
-0.013027 -0.020913 0.929850 166 255 82 0.549070
-0.008915 -0.019895 0.933035 172 255 75 0.557931
-0.004275 -0.026308 0.939478 172 255 75 0.556599
-0.003763 -0.022616 0.938949 176 255 72 0.561245
-0.005664 -0.022890 0.937248 172 255 75 0.558469
-0.002792 -0.019018 0.937934 179 255 69 0.564114
-0.004851 -0.019195 0.936335 176 255 72 0.562255
-0.003649 -0.015607 0.934969 179 255 69 0.564998
-0.001335 -0.015661 0.936340 179 255 69 0.565195
-0.005840 -0.015816 0.933401 179 255 69 0.563814
-0.006583 -0.030148 0.938542 166 255 82 0.550322
0.000512 -0.013515 0.933778 179 255 69 0.565315
0.002700 -0.011787 0.931005 179 255 69 0.565332
0.000109 -0.011304 0.929793 179 255 69 0.565230
0.004979 -0.010413 0.927998 179 255 69 0.565431
0.002390 -0.009815 0.926820 179 255 69 0.564734
-0.000197 -0.009526 0.925465 179 255 69 0.564586
-0.002295 -0.010998 0.928524 179 255 69 0.564709
-0.004190 -0.013115 0.931183 179 255 69 0.564387
-0.001841 -0.013204 0.932574 179 255 69 0.564887
-0.019803 -0.029312 0.928161 182 255 66 0.566755
-0.019216 -0.026287 0.926623 179 255 69 0.563471
-0.020790 -0.023249 0.924059 176 255 72 0.558968
-0.020271 -0.019687 0.922719 163 255 85 0.546593
-0.024188 -0.020660 0.920264 176 255 72 0.559799
-0.024658 -0.024026 0.921910 179 255 69 0.564811
-0.023286 -0.026832 0.924575 195 255 53 0.584145
-0.023896 -0.029635 0.926525 182 255 66 0.569298
-0.022547 -0.032083 0.929273 182 255 66 0.570173
-0.026802 -0.031884 0.928166 185 255 62 0.571389
-0.017476 -0.015904 0.922116 166 255 82 0.547652
-0.016159 -0.012734 0.919956 153 255 95 0.531718
-0.018459 -0.013190 0.918607 169 255 79 0.551945
-0.014550 -0.010124 0.917506 172 255 75 0.557484
-0.016967 -0.010296 0.916284 172 255 75 0.556583
-0.015351 -0.008100 0.913584 172 255 75 0.557033
-0.012936 -0.007930 0.914810 176 255 72 0.559233
-0.019330 -0.010741 0.915034 172 255 75 0.556946
-0.017745 -0.008198 0.912437 163 255 85 0.543470
-0.020116 -0.008392 0.911332 172 255 75 0.555517
-0.022594 -0.014358 0.916237 166 255 82 0.547110
-0.021494 -0.017135 0.919522 163 255 85 0.545768
-0.028250 -0.011922 0.910809 169 255 79 0.551937
-0.026998 -0.014936 0.914046 202 255 46 0.592758
-0.029698 -0.018274 0.915443 166 255 82 0.549438
-0.028202 -0.021068 0.918489 179 255 69 0.563158
-0.025649 -0.017797 0.917210 172 255 75 0.556698
-0.024811 -0.014676 0.915113 166 255 82 0.548631
-0.023782 -0.011470 0.912835 169 255 79 0.551182
-0.026022 -0.011685 0.911804 169 255 79 0.552016
-0.024842 -0.008616 0.909335 172 255 75 0.555563
-0.022511 -0.008487 0.910354 172 255 75 0.556195
-0.027160 -0.008833 0.908370 172 255 75 0.556165
-0.030886 -0.024027 0.919787 182 255 66 0.569422
-0.029555 -0.026785 0.922613 185 255 62 0.570428
-0.032191 -0.028916 0.924682 189 255 59 0.575437
-0.030897 -0.031393 0.927439 250 243 0 0.649107
-0.028173 -0.029420 0.925397 185 255 62 0.571036
-0.018778 -0.035030 0.932274 185 255 62 0.570739
-0.017416 -0.037940 0.934665 185 255 62 0.572588
-0.018331 -0.040752 0.936610 153 255 95 0.531590
-0.017190 -0.043642 0.938884 189 255 59 0.574487
-0.021304 -0.043271 0.937930 185 255 62 0.571096
-0.014089 -0.040960 0.937527 189 255 59 0.575859
-0.013001 -0.043873 0.939606 189 255 59 0.577735
-0.013134 -0.037878 0.936063 185 255 62 0.572922
-0.012511 -0.034685 0.934859 182 255 66 0.569382
-0.021601 -0.046617 0.938605 185 255 62 0.572732
-0.020051 -0.050076 0.939846 189 255 59 0.574904
-0.020453 -0.053468 0.940445 189 255 59 0.574704
-0.016817 -0.053456 0.941377 189 255 59 0.578066
-0.016232 -0.050197 0.940830 192 255 56 0.578687
-0.015730 -0.046997 0.940064 189 255 59 0.578110
-0.009323 -0.053570 0.943115 189 255 59 0.574910
-0.008441 -0.050474 0.942572 189 255 59 0.574664
-0.009610 -0.047277 0.941376 189 255 59 0.574951
-0.008844 -0.044073 0.940729 189 255 59 0.576087
-0.012321 -0.050381 0.941582 153 255 95 0.533326
-0.013054 -0.053542 0.942261 234 255 14 0.629069
-0.005883 -0.041030 0.940484 185 255 62 0.573856
-0.005207 -0.037513 0.940105 182 255 66 0.570263
-0.006697 -0.034039 0.938531 176 255 72 0.561699
-0.008991 -0.037774 0.937804 185 255 62 0.572831
-0.009809 -0.041015 0.938760 202 255 46 0.590289
-0.033606 -0.093483 0.934774 172 255 75 0.557831
-0.034206 -0.097564 0.931706 172 255 75 0.555655
-0.036657 -0.093752 0.933385 172 255 75 0.558280
-0.034643 -0.101690 0.928175 169 255 79 0.552104
-0.037176 -0.097759 0.930106 221 255 27 0.616230
-0.037553 -0.101759 0.926369 166 255 82 0.550305
-0.039730 -0.093975 0.931865 176 255 72 0.558915
-0.034973 -0.105706 0.924257 189 255 59 0.576788
-0.035122 -0.109558 0.920127 166 255 82 0.549172
-0.032344 -0.109631 0.921984 169 255 79 0.552575
-0.032132 -0.105628 0.926062 169 255 79 0.551645
-0.031750 -0.101457 0.929854 179 255 69 0.565316
-0.029582 -0.109539 0.923879 172 255 75 0.555377
-0.040151 -0.097881 0.928408 172 255 75 0.556158
-0.042835 -0.094140 0.930372 205 255 43 0.594665
-0.040440 -0.101834 0.924533 166 255 82 0.550774
-0.043186 -0.097919 0.926782 176 255 72 0.559336
-0.043429 -0.101824 0.922776 172 255 75 0.555622
-0.045978 -0.094337 0.928873 179 255 69 0.562738
-0.040682 -0.105637 0.920462 163 255 85 0.545557
-0.040906 -0.109501 0.916534 166 255 82 0.548883
-0.037974 -0.109493 0.918342 166 255 82 0.547983
-0.037794 -0.105673 0.922348 163 255 85 0.545304
-0.035045 -0.118192 0.907009 176 255 72 0.560760
-0.034987 -0.115712 0.911230 172 255 75 0.558023
-0.032077 -0.118197 0.908628 176 255 72 0.560238
-0.032091 -0.115703 0.912957 172 255 75 0.557554
-0.035063 -0.112814 0.915593 169 255 79 0.552556
-0.037937 -0.112755 0.913841 169 255 79 0.553092
-0.037961 -0.115712 0.909580 176 255 72 0.558816
-0.029078 -0.118189 0.910184 176 255 72 0.559727
-0.029199 -0.115715 0.914663 172 255 75 0.557993
-0.026189 -0.118209 0.911906 176 255 72 0.559979
-0.026413 -0.115673 0.916511 195 255 53 0.585695
-0.029391 -0.112832 0.919273 172 255 75 0.555680
-0.032203 -0.112858 0.917391 208 255 40 0.599529
-0.038080 -0.118130 0.905461 211 255 36 0.604515
-0.041018 -0.115714 0.907945 176 255 72 0.560365
-0.040902 -0.112769 0.912088 172 255 75 0.554775
-0.043873 -0.109500 0.914707 169 255 79 0.551254
-0.043944 -0.112779 0.910345 172 255 75 0.557144
-0.046949 -0.109601 0.912869 228 255 20 0.621386
-0.044088 -0.115788 0.906172 176 255 72 0.561680
-0.041161 -0.118176 0.903778 176 255 72 0.562495
-0.043612 -0.105643 0.918719 166 255 82 0.550711
-0.046461 -0.101794 0.921153 176 255 72 0.561402
-0.046269 -0.097989 0.925169 179 255 69 0.564285
-0.049117 -0.094504 0.927474 179 255 69 0.565473
-0.049387 -0.098077 0.923674 182 255 66 0.568734
-0.052181 -0.094754 0.926066 182 255 66 0.567240
-0.049556 -0.101822 0.919434 185 255 62 0.572197
-0.046626 -0.105642 0.916872 172 255 75 0.556409
-0.055677 -0.098422 0.920592 211 255 36 0.602004
-0.052801 -0.101877 0.917928 189 255 59 0.577995
-0.053063 -0.105756 0.913516 156 255 92 0.538023
-0.050181 -0.109671 0.911064 147 255 101 0.525123
-0.049826 -0.105642 0.915264 182 255 66 0.566605
-0.052497 -0.098216 0.922073 185 255 62 0.572455
-0.055312 -0.095094 0.924664 182 255 66 0.568272
-0.050319 -0.112973 0.906803 176 255 72 0.561649
-0.047324 -0.115888 0.904455 179 255 69 0.562534
-0.047528 -0.118465 0.900314 179 255 69 0.563675
-0.044353 -0.118300 0.902114 179 255 69 0.563240
-0.047093 -0.112890 0.908516 176 255 72 0.560179
-0.055551 -0.060908 0.925462 172 255 75 0.557499
-0.055353 -0.056053 0.924276 166 255 82 0.547640
-0.054394 -0.050867 0.924189 140 255 108 0.518100
-0.053115 -0.055440 0.925708 150 255 98 0.527461
-0.052032 -0.050387 0.925606 143 255 104 0.520694
-0.053181 -0.060207 0.926788 163 255 85 0.546638
-0.053666 -0.045946 0.924354 163 255 85 0.543846
-0.052970 -0.041386 0.924560 172 255 75 0.556603
-0.055604 -0.041582 0.922819 169 255 79 0.553608
-0.056194 -0.046188 0.922615 150 255 98 0.530102
-0.050839 -0.059549 0.928165 153 255 95 0.533342
-0.050625 -0.055019 0.927160 143 255 104 0.521191
-0.049387 -0.050166 0.927031 147 255 101 0.526459
-0.048193 -0.054577 0.928462 134 255 114 0.511520
-0.047063 -0.049817 0.928265 153 255 95 0.533415
-0.048377 -0.058991 0.929573 147 255 101 0.527023
-0.048426 -0.045623 0.927154 169 255 79 0.551994
-0.047590 -0.041374 0.927310 176 255 72 0.560148
-0.050248 -0.041336 0.926008 224 255 24 0.619114
-0.051060 -0.045701 0.925831 166 255 82 0.548820
-0.049778 -0.030871 0.923263 179 255 69 0.564381
-0.050839 -0.034158 0.923750 179 255 69 0.564000
-0.052985 -0.030384 0.921829 179 255 69 0.563839
-0.053958 -0.033843 0.922059 176 255 72 0.562254
-0.051853 -0.037673 0.924170 176 255 72 0.561246
-0.049089 -0.037751 0.925556 176 255 72 0.561765
-0.048023 -0.034291 0.925071 237 255 11 0.634363
-0.055979 -0.030427 0.919942 179 255 69 0.562999
-0.056747 -0.034012 0.920224 189 255 59 0.575098
-0.059302 -0.030531 0.917605 176 255 72 0.562193
-0.057504 -0.037866 0.920596 172 255 75 0.555433
-0.054795 -0.037606 0.922451 176 255 72 0.559417
-0.031226 -0.097217 0.933254 172 255 75 0.556821
-0.028844 -0.101102 0.931611 172 255 75 0.556550
-0.029312 -0.105430 0.927904 172 255 75 0.555201
-0.026758 -0.109246 0.925901 172 255 75 0.555250
-0.026474 -0.105012 0.929721 172 255 75 0.557012
-0.023924 -0.108837 0.927701 172 255 75 0.558314
-0.026023 -0.100760 0.933115 172 255 75 0.557815
-0.028294 -0.096905 0.934723 172 255 75 0.558053
-0.030620 -0.093141 0.936146 176 255 72 0.558642
-0.027689 -0.092641 0.937227 176 255 72 0.559461
-0.026602 -0.112667 0.921275 172 255 75 0.557393
-0.023585 -0.115469 0.918535 176 255 72 0.559476
-0.023316 -0.118132 0.913731 176 255 72 0.560260
-0.020382 -0.117789 0.915561 176 255 72 0.560500
-0.020704 -0.115108 0.920377 176 255 72 0.559942
-0.023785 -0.112382 0.923171 172 255 75 0.558560
-0.014460 -0.116443 0.919362 192 255 56 0.580678
-0.017715 -0.114397 0.922351 205 255 43 0.596661
-0.017869 -0.111108 0.926784 176 255 72 0.560184
-0.020984 -0.108317 0.929428 176 255 72 0.559514
-0.020866 -0.111786 0.925139 176 255 72 0.559248
-0.017453 -0.117311 0.917431 176 255 72 0.560719
-0.020601 -0.103924 0.932854 176 255 72 0.559575
-0.023065 -0.100191 0.934556 176 255 72 0.559134
-0.023917 -0.096092 0.936419 176 255 72 0.559688
-0.024653 -0.092092 0.938155 176 255 72 0.560080
-0.023612 -0.104548 0.931411 208 255 40 0.599337
-0.023117 -0.034873 0.931207 202 255 46 0.593466
-0.023795 -0.037526 0.933313 185 255 62 0.572327
-0.028085 -0.037109 0.932146 195 255 53 0.582104
-0.027436 -0.034461 0.930253 185 255 62 0.573276
-0.026548 -0.040043 0.934516 185 255 62 0.571187
-0.028927 -0.042861 0.935090 179 255 69 0.563855
-0.025225 -0.043119 0.936747 182 255 66 0.569812
-0.022553 -0.040399 0.935705 185 255 62 0.572626
-0.031389 -0.034005 0.929448 185 255 62 0.572309
-0.031803 -0.036715 0.931080 185 255 62 0.570565
-0.035451 -0.036270 0.929810 185 255 62 0.570412
-0.035192 -0.033500 0.928454 185 255 62 0.570561
-0.033870 -0.039451 0.931695 182 255 66 0.570147
-0.035725 -0.042385 0.931952 182 255 66 0.567291
-0.032427 -0.042637 0.933532 202 255 46 0.592259
-0.030394 -0.039741 0.933086 182 255 66 0.570147
-0.035769 -0.057464 0.935012 156 255 92 0.535649
-0.033855 -0.053732 0.934355 11 242 237 0.361615
-0.032463 -0.057375 0.936197 163 255 85 0.546689
-0.032103 -0.049998 0.934350 179 255 69 0.563221
-0.030529 -0.053648 0.935799 172 255 75 0.557641
-0.028800 -0.049992 0.935975 182 255 66 0.567556
-0.029128 -0.057269 0.937501 176 255 72 0.559432
-0.030515 -0.046432 0.934684 179 255 69 0.565642
-0.033835 -0.046216 0.932982 182 255 66 0.566691
-0.035458 -0.049950 0.932767 172 255 75 0.555832
-0.027206 -0.053600 0.937500 182 255 66 0.566810
-0.025796 -0.057123 0.939110 179 255 69 0.566048
-0.025430 -0.050071 0.937872 185 255 62 0.570839
-0.023871 -0.053521 0.939120 185 255 62 0.571231
-0.025329 -0.046554 0.937350 182 255 66 0.569513
-0.045854 -0.058491 0.930936 153 255 95 0.531649
-0.045631 -0.054232 0.929781 255 83 0 0.817908
-0.044227 -0.049825 0.929450 234 255 14 0.630073
-0.042997 -0.053879 0.930915 134 255 114 0.510041
-0.041593 -0.049717 0.930547 160 255 88 0.542636
-0.043180 -0.058052 0.932177 150 255 98 0.530258
-0.043109 -0.045733 0.929399 172 255 75 0.558252
-0.041967 -0.041826 0.929464 179 255 69 0.564446
-0.044864 -0.041632 0.928348 176 255 72 0.561758
-0.045824 -0.045552 0.928297 169 255 79 0.554358
-0.040317 -0.057748 0.933307 150 255 98 0.528688
-0.040104 -0.053832 0.932073 140 255 108 0.519099
-0.038497 -0.049905 0.931709 166 255 82 0.550294
-0.037086 -0.053714 0.933168 150 255 98 0.530328
-0.037062 -0.046135 0.931597 179 255 69 0.562798
-0.038840 -0.042092 0.930696 205 255 43 0.597485
-0.040192 -0.045820 0.930482 176 255 72 0.560494
-0.038609 -0.032913 0.927385 182 255 66 0.569442
-0.038623 -0.035889 0.928622 182 255 66 0.568832
-0.041985 -0.035266 0.927440 182 255 66 0.567621
-0.042017 -0.032282 0.926267 182 255 66 0.567832
-0.040328 -0.038817 0.928969 182 255 66 0.567592
-0.037180 -0.039097 0.930264 182 255 66 0.569347
-0.045254 -0.031736 0.925197 134 255 114 0.508676
-0.044948 -0.034962 0.926223 179 255 69 0.565671
-0.046216 -0.038093 0.926763 179 255 69 0.563133
-0.043414 -0.038347 0.927954 179 255 69 0.565804
-0.046663 -0.090219 0.930536 179 255 69 0.563789
-0.048773 -0.086276 0.931308 179 255 69 0.564323
-0.049189 -0.082176 0.932201 179 255 69 0.563909
-0.050819 -0.078208 0.932084 179 255 69 0.563939
-0.047932 -0.077592 0.933240 179 255 69 0.562671
-0.052130 -0.082688 0.931098 179 255 69 0.564847
-0.053653 -0.078843 0.930944 179 255 69 0.564595
-0.051826 -0.086733 0.930168 179 255 69 0.565174
-0.051365 -0.090693 0.928698 179 255 69 0.565654
-0.047628 -0.072976 0.932470 176 255 72 0.561913
-0.048721 -0.068527 0.930923 176 255 72 0.560927
-0.048523 -0.063725 0.930182 163 255 85 0.545976
-0.050941 -0.064372 0.928733 255 146 0 0.750183
-0.051303 -0.069223 0.929625 179 255 69 0.563582
-0.051827 -0.073935 0.930631 179 255 69 0.564312
-0.055792 -0.065934 0.926137 182 255 66 0.567340
-0.056517 -0.070747 0.927345 179 255 69 0.566273
-0.055909 -0.075021 0.929033 153 255 95 0.533680
-0.056655 -0.079495 0.930092 192 255 56 0.581503
-0.053886 -0.069994 0.928423 179 255 69 0.564824
-0.053353 -0.065178 0.927327 179 255 69 0.563988
-0.058069 -0.083962 0.929152 179 255 69 0.565508
-0.057909 -0.087799 0.928083 179 255 69 0.565618
-0.055926 -0.091320 0.926904 198 255 49 0.589728
-0.054881 -0.087258 0.929116 179 255 69 0.565520
-0.055084 -0.083328 0.930042 179 255 69 0.565370
-0.034163 -0.089055 0.936021 176 255 72 0.559074
-0.036266 -0.084733 0.936445 176 255 72 0.559792
-0.036887 -0.080238 0.937125 202 255 46 0.591342
-0.038958 -0.075992 0.937119 176 255 72 0.560517
-0.035830 -0.075439 0.938077 176 255 72 0.560380
-0.040012 -0.080674 0.935950 176 255 72 0.561190
-0.042048 -0.076474 0.935857 176 255 72 0.561071
-0.039374 -0.085127 0.935165 176 255 72 0.560591
-0.038790 -0.089519 0.934037 215 255 33 0.609254
-0.035810 -0.070763 0.937307 172 255 75 0.558292
-0.037362 -0.066322 0.935875 166 255 82 0.550480
-0.037254 -0.061856 0.935010 156 255 92 0.535823
-0.040384 -0.062142 0.933878 156 255 92 0.535567
-0.040415 -0.066730 0.934805 169 255 79 0.552034
-0.040487 -0.071447 0.935756 221 255 27 0.616163
-0.045912 -0.063071 0.931437 156 255 92 0.537484
-0.046071 -0.067860 0.932335 172 255 75 0.556664
-0.044862 -0.072257 0.933825 176 255 72 0.560696
-0.045004 -0.077029 0.934600 205 255 43 0.596368
-0.043294 -0.067235 0.933619 169 255 79 0.553084
-0.043231 -0.062589 0.932759 156 255 92 0.537593
-0.046178 -0.081634 0.933411 179 255 69 0.562950
-0.045655 -0.085864 0.932487 179 255 69 0.563173
-0.043464 -0.089917 0.931876 176 255 72 0.561661
-0.042518 -0.085488 0.933792 176 255 72 0.561811
-0.043095 -0.081168 0.934684 218 255 30 0.611631
-0.024049 -0.061013 0.939835 182 255 66 0.568316
-0.025734 -0.065259 0.939526 179 255 69 0.564340
-0.027358 -0.061235 0.938530 176 255 72 0.561357
-0.029113 -0.065503 0.938374 172 255 75 0.557957
-0.027536 -0.069734 0.939464 176 255 72 0.562044
-0.029291 -0.074471 0.939601 176 255 72 0.561505
-0.025967 -0.073944 0.940336 179 255 69 0.563471
-0.024231 -0.069208 0.940311 179 255 69 0.565979
-0.030709 -0.061525 0.937319 166 255 82 0.550330
-0.032430 -0.065953 0.937401 169 255 79 0.552817
-0.034027 -0.061678 0.936154 160 255 88 0.540838
-0.032522 -0.070454 0.938216 176 255 72 0.558816
-0.032585 -0.075005 0.938935 176 255 72 0.560677
-0.031144 -0.088678 0.937129 176 255 72 0.559242
-0.031631 -0.084186 0.937955 176 255 72 0.560316
-0.028513 -0.083516 0.938598 176 255 72 0.561123
-0.028117 -0.088059 0.937923 176 255 72 0.559966
-0.030509 -0.079343 0.938874 176 255 72 0.561150
-0.033720 -0.079806 0.938116 176 255 72 0.560419
-0.024994 -0.087524 0.938646 176 255 72 0.560862
-0.025328 -0.083057 0.939339 176 255 72 0.562028
-0.024042 -0.078157 0.940147 179 255 69 0.564606
-0.027264 -0.078739 0.939519 176 255 72 0.562340
-0.018582 0.003536 0.882050 179 255 69 0.562799
-0.021272 0.003764 0.880913 179 255 69 0.562760
-0.022468 0.002574 0.884371 176 255 72 0.559972
-0.025096 0.002807 0.883118 176 255 72 0.559418
-0.023972 0.003999 0.879711 179 255 69 0.562664
-0.026283 0.001483 0.886484 172 255 75 0.555259
-0.027780 0.003018 0.881804 176 255 72 0.559350
-0.028955 0.001713 0.885119 172 255 75 0.555814
-0.031621 0.001916 0.883687 172 255 75 0.555717
-0.026674 0.004209 0.878449 179 255 69 0.562518
-0.030459 0.003155 0.880456 176 255 72 0.558769
-0.029402 0.004391 0.877176 176 255 72 0.562387
-0.030166 0.000385 0.888365 169 255 79 0.554639
-0.032790 0.000614 0.886951 169 255 79 0.554614
-0.034108 -0.000559 0.890357 172 255 75 0.558116
-0.031540 -0.000727 0.891597 172 255 75 0.557236
-0.027574 0.000231 0.889587 169 255 79 0.554339
-0.028977 -0.000841 0.892805 172 255 75 0.557855
-0.025019 0.000064 0.890779 169 255 79 0.554129
-0.023716 0.001272 0.887641 172 255 75 0.554727
-0.021176 0.001066 0.888729 169 255 79 0.554565
-0.026434 -0.001093 0.893922 172 255 75 0.556943
-0.022523 -0.000126 0.891887 169 255 79 0.554501
-0.023916 -0.001292 0.894997 172 255 75 0.555484
-0.019906 0.002332 0.885433 176 255 72 0.559658
-0.032251 0.004599 0.875976 176 255 72 0.558642
