ply
format ascii 1.0
comment VCGLIB generated
element vertex 959
property float x
property float y
property float z
property uchar red
property uchar green
property uchar blue
property float quality
end_header
-0.181035 -0.052464 0.853858 208 255 40 0.601344
-0.179880 -0.049807 0.851472 208 255 40 0.601537
-0.181473 -0.055520 0.854813 208 255 40 0.600992
-0.155380 -0.043718 0.823633 185 255 62 0.570505
-0.157095 -0.045845 0.823639 255 217 0 0.676672
-0.158874 -0.046868 0.824986 198 255 49 0.586073
-0.160696 -0.048865 0.824943 202 255 46 0.591545
-0.162507 -0.049825 0.826289 205 255 43 0.596634
-0.162471 -0.051870 0.823465 205 255 43 0.595503
-0.160696 -0.046837 0.827670 202 255 46 0.591679
-0.162462 -0.047796 0.829010 211 255 36 0.601700
-0.158515 -0.044642 0.827697 198 255 49 0.588392
-0.156466 -0.042328 0.827661 195 255 53 0.582251
-0.154790 -0.041237 0.826323 185 255 62 0.573259
-0.154009 -0.038690 0.829010 11 242 237 0.360811
-0.164279 -0.054097 0.823385 208 255 40 0.600105
-0.166379 -0.055484 0.824771 211 255 36 0.604994
-0.168298 -0.057675 0.824667 211 255 36 0.605437
-0.170405 -0.059059 0.826145 215 255 33 0.605785
-0.169955 -0.060735 0.823053 215 255 33 0.605738
-0.168719 -0.056059 0.827713 215 255 33 0.605679
-0.170811 -0.057382 0.829157 215 255 33 0.605626
-0.166598 -0.053682 0.827641 211 255 36 0.604575
-0.164528 -0.051251 0.827640 211 255 36 0.603437
-0.170154 -0.052183 0.833672 211 255 36 0.605278
-0.167642 -0.050804 0.832043 215 255 33 0.605483
-0.165781 -0.047072 0.833369 215 255 33 0.605624
-0.163253 -0.045540 0.831828 205 255 43 0.597567
-0.165042 -0.049330 0.830497 211 255 36 0.604752
-0.169149 -0.054083 0.830608 211 255 36 0.605434
-0.171702 -0.055478 0.832251 211 255 36 0.604620
-0.161257 -0.042194 0.833406 202 255 46 0.591400
-0.158193 -0.039187 0.833621 198 255 49 0.588920
-0.158766 -0.041116 0.831938 53 255 195 0.412070
-0.155243 -0.036158 0.833757 195 255 53 0.585317
-0.155745 -0.037958 0.832196 195 255 53 0.585379
-0.152869 -0.034864 0.832308 192 255 56 0.580102
-0.152294 -0.033007 0.833922 198 255 49 0.587092
-0.156299 -0.039948 0.830518 198 255 49 0.586287
-0.153402 -0.036736 0.830703 192 255 56 0.579375
-0.160649 -0.044515 0.830404 202 255 46 0.593117
-0.171422 -0.062977 0.823087 211 255 36 0.605376
-0.173087 -0.064755 0.825028 215 255 33 0.605877
-0.174304 -0.067178 0.825232 215 255 33 0.605978
-0.175708 -0.069084 0.827358 215 255 33 0.606918
-0.175112 -0.070255 0.823772 215 255 33 0.606993
-0.174902 -0.065975 0.828732 215 255 33 0.606225
-0.176152 -0.067965 0.830865 215 255 33 0.606595
-0.173611 -0.063217 0.828261 215 255 33 0.605984
-0.172154 -0.060700 0.827937 215 255 33 0.605834
-0.175891 -0.072302 0.826263 215 255 33 0.607566
-0.175908 -0.075148 0.824763 215 255 33 0.607946
-0.176375 -0.074416 0.828846 215 255 33 0.608130
-0.176287 -0.077296 0.827435 215 255 33 0.608762
-0.176483 -0.079517 0.830013 218 255 30 0.609430
-0.176081 -0.080147 0.826022 218 255 30 0.609404
-0.176619 -0.076599 0.831367 215 255 33 0.608867
-0.176732 -0.078822 0.833897 218 255 30 0.609391
-0.176703 -0.073334 0.832333 215 255 33 0.607286
-0.176349 -0.071167 0.829846 215 255 33 0.607200
-0.177704 -0.074397 0.839103 215 255 33 0.607220
-0.177727 -0.071426 0.838095 215 255 33 0.606411
-0.177279 -0.069262 0.835365 215 255 33 0.606493
-0.177006 -0.066372 0.834424 215 255 33 0.605878
-0.177141 -0.075488 0.835085 215 255 33 0.607847
-0.177410 -0.077709 0.837876 215 255 33 0.608723
-0.176425 -0.062756 0.835575 255 206 0 0.689919
-0.175146 -0.059843 0.834883 211 255 36 0.604792
-0.173292 -0.058110 0.832771 224 255 24 0.617247
-0.174276 -0.061626 0.831515 211 255 36 0.605303
-0.175512 -0.064355 0.832036 215 255 33 0.605663
-0.177222 -0.079502 0.840576 218 255 30 0.609392
-0.176460 -0.082409 0.839378 218 255 30 0.610584
-0.176655 -0.080605 0.836638 218 255 30 0.610133
-0.175771 -0.083519 0.835472 218 255 30 0.611022
-0.175555 -0.085345 0.838234 218 255 30 0.611192
-0.174592 -0.088182 0.836985 218 255 30 0.612246
-0.175022 -0.087443 0.841328 218 255 30 0.611161
-0.175825 -0.084516 0.842504 147 255 101 0.524336
-0.176233 -0.081384 0.832547 218 255 30 0.609985
-0.175586 -0.083956 0.831149 218 255 30 0.610754
-0.175867 -0.082060 0.828579 218 255 30 0.610253
-0.175165 -0.084564 0.827149 218 255 30 0.612595
-0.174922 -0.086475 0.829688 218 255 30 0.612098
-0.174009 -0.089034 0.828329 192 255 56 0.581472
-0.174470 -0.088614 0.832681 218 255 30 0.612773
-0.175157 -0.086059 0.834074 218 255 30 0.611973
-0.169338 -0.097217 0.829075 221 255 27 0.614149
-0.170893 -0.094969 0.831078 218 255 30 0.613161
-0.169378 -0.097102 0.833553 218 255 30 0.613091
-0.172327 -0.092703 0.833033 218 255 30 0.613011
-0.170811 -0.094828 0.835518 218 255 30 0.612095
-0.172124 -0.092562 0.837409 218 255 30 0.612444
-0.169236 -0.097003 0.837930 218 255 30 0.612332
-0.173565 -0.090438 0.835019 218 255 30 0.613008
-0.173191 -0.090876 0.830711 221 255 27 0.613606
-0.171690 -0.093201 0.828724 221 255 27 0.613608
-0.168934 -0.097101 0.840854 218 255 30 0.610916
-0.171060 -0.094452 0.839870 218 255 30 0.611517
-0.170573 -0.094595 0.842772 218 255 30 0.610885
-0.168460 -0.097277 0.843669 218 255 30 0.609953
-0.172600 -0.091910 0.841829 218 255 30 0.609883
-0.169812 -0.094828 0.845610 218 255 30 0.609551
-0.171868 -0.092076 0.844660 218 255 30 0.610189
-0.167796 -0.097586 0.846505 215 255 33 0.609112
-0.173870 -0.089350 0.843716 218 255 30 0.610101
-0.173656 -0.090010 0.839394 218 255 30 0.611814
-0.166857 -0.099524 0.830579 221 255 27 0.615190
-0.165378 -0.101436 0.827942 221 255 27 0.615762
-0.164419 -0.101794 0.831935 221 255 27 0.617113
-0.162921 -0.103645 0.829306 224 255 24 0.617393
-0.160510 -0.105815 0.830578 224 255 24 0.618390
-0.161359 -0.105512 0.826592 221 255 27 0.616919
-0.161955 -0.104041 0.833272 224 255 24 0.617900
-0.159531 -0.106257 0.834537 221 255 27 0.616964
-0.164588 -0.101690 0.836337 228 255 20 0.623443
-0.167054 -0.099356 0.834952 221 255 27 0.614157
-0.159126 -0.107341 0.825280 224 255 24 0.618701
-0.155774 -0.109517 0.825438 228 255 20 0.622924
-0.153693 -0.111218 0.823910 231 255 17 0.625428
-0.150494 -0.113200 0.823860 195 255 53 0.583873
-0.152850 -0.112549 0.820752 228 255 20 0.622587
-0.151339 -0.111950 0.827056 231 255 17 0.627954
-0.148193 -0.113858 0.826995 228 255 20 0.624294
-0.154191 -0.110009 0.829040 231 255 17 0.625144
-0.157080 -0.108034 0.830869 228 255 20 0.622119
-0.146073 -0.113529 0.834352 224 255 24 0.619400
-0.149388 -0.111797 0.836716 224 255 24 0.619461
-0.150472 -0.111245 0.834694 228 255 20 0.622755
-0.152718 -0.109961 0.838891 224 255 24 0.617844
-0.153811 -0.109355 0.836857 224 255 24 0.620231
-0.157153 -0.107342 0.838849 221 255 27 0.616823
-0.155965 -0.107967 0.840915 163 255 85 0.543096
-0.155013 -0.108818 0.834747 255 105 0 0.794135
-0.158412 -0.106752 0.836707 224 255 24 0.617532
-0.152079 -0.110729 0.832878 234 255 14 0.630676
-0.149260 -0.112533 0.830893 228 255 20 0.623082
-0.147633 -0.112999 0.832666 228 255 20 0.622131
-0.144962 -0.114693 0.830560 140 255 108 0.516406
-0.146586 -0.114280 0.828824 228 255 20 0.622493
-0.143400 -0.115141 0.832214 224 255 24 0.618349
-0.158250 -0.105808 0.841952 221 255 27 0.616531
-0.161673 -0.103130 0.843547 218 255 30 0.612528
-0.161951 -0.102869 0.840746 221 255 27 0.615582
-0.164857 -0.100380 0.845066 218 255 30 0.609924
-0.165332 -0.100100 0.842253 218 255 30 0.611744
-0.165694 -0.099907 0.839365 255 180 0 0.717481
-0.163330 -0.102253 0.838524 221 255 27 0.615667
-0.160889 -0.104552 0.837663 221 255 27 0.616959
-0.159542 -0.105162 0.839855 224 255 24 0.617406
-0.141035 -0.116219 0.829933 224 255 24 0.620241
-0.142628 -0.115875 0.828308 228 255 20 0.623103
-0.140340 -0.117110 0.825957 228 255 20 0.623877
-0.144234 -0.115576 0.826570 228 255 20 0.623953
-0.142000 -0.116814 0.824256 231 255 17 0.626602
-0.143631 -0.116458 0.822485 234 255 14 0.631846
-0.145861 -0.115155 0.824775 231 255 17 0.627765
-0.139838 -0.118101 0.821840 231 255 17 0.627671
-0.141516 -0.117826 0.820082 237 255 11 0.633903
-0.139496 -0.119208 0.817538 234 255 14 0.631536
-0.137467 -0.119560 0.818991 234 255 14 0.629322
-0.137803 -0.118403 0.823252 231 255 17 0.625716
-0.135425 -0.119841 0.820443 231 255 17 0.625239
-0.135783 -0.118632 0.824581 228 255 20 0.622917
-0.138369 -0.117390 0.827315 228 255 20 0.621666
-0.133406 -0.119978 0.821871 228 255 20 0.622195
-0.148643 -0.114396 0.821944 234 255 14 0.630139
-0.146849 -0.115644 0.819928 237 255 11 0.633229
-0.149215 -0.115136 0.816817 234 255 14 0.630090
-0.150982 -0.113871 0.818840 231 255 17 0.626800
-0.146321 -0.116697 0.816263 237 255 11 0.635749
-0.145901 -0.117744 0.812460 224 255 24 0.617670
-0.142672 -0.118451 0.815012 240 254 7 0.639672
-0.140657 -0.121388 0.802197 224 255 24 0.619058
-0.140219 -0.121014 0.806047 224 255 24 0.618621
-0.136955 -0.122471 0.804284 234 255 14 0.632464
-0.139867 -0.120524 0.809954 240 254 7 0.637277
-0.136567 -0.121998 0.808149 237 255 11 0.632877
-0.136276 -0.121469 0.812006 234 255 14 0.630540
-0.133305 -0.123541 0.806376 224 255 24 0.621035
-0.139674 -0.119915 0.813760 240 254 7 0.636889
-0.142856 -0.119120 0.811242 244 250 4 0.640709
-0.143159 -0.119757 0.807350 224 255 24 0.618082
-0.130980 -0.124042 0.807662 224 255 24 0.617781
-0.132698 -0.122909 0.810763 224 255 24 0.620290
-0.130442 -0.123291 0.812012 221 255 27 0.616935
-0.128733 -0.124488 0.808920 231 255 17 0.628669
-0.132174 -0.122076 0.815049 228 255 20 0.621194
-0.128254 -0.123567 0.813280 221 255 27 0.615522
-0.129973 -0.122323 0.816331 224 255 24 0.619414
-0.126589 -0.124859 0.810280 218 255 30 0.609838
-0.131759 -0.121016 0.819350 228 255 20 0.624123
-0.133760 -0.120964 0.817811 228 255 20 0.624324
-0.135813 -0.120690 0.816288 231 255 17 0.627555
-0.134230 -0.121815 0.813551 228 255 20 0.624712
-0.098298 -0.021088 0.787925 211 255 36 0.605468
-0.099139 -0.022690 0.785987 218 255 30 0.609581
-0.100946 -0.021723 0.788930 215 255 33 0.607929
-0.101904 -0.023357 0.786947 108 255 140 0.477163
-0.104686 -0.024029 0.787905 218 255 30 0.610682
-0.102866 -0.025017 0.784936 218 255 30 0.611077
-0.103685 -0.022417 0.789939 215 255 33 0.609366
-0.106451 -0.023139 0.791025 218 255 30 0.610615
-0.102936 -0.020525 0.792661 211 255 36 0.605304
-0.100305 -0.019840 0.791570 208 255 40 0.601305
-0.105355 -0.025747 0.785720 218 255 30 0.611206
-0.107828 -0.026450 0.786509 218 255 30 0.610395
-0.111058 -0.028750 0.785726 255 235 0 0.659456
-0.107893 -0.028313 0.783657 218 255 30 0.610205
-0.112616 -0.028058 0.788253 218 255 30 0.610303
-0.109619 -0.025563 0.789589 218 255 30 0.611392
-0.107172 -0.024787 0.788747 218 255 30 0.611046
-0.116479 -0.027620 0.793193 221 255 27 0.613653
-0.114019 -0.026434 0.792542 221 255 27 0.613727
-0.113614 -0.024913 0.795004 221 255 27 0.614259
-0.111529 -0.025317 0.791959 218 255 30 0.611770
-0.111054 -0.023760 0.794473 218 255 30 0.613033
-0.108542 -0.022637 0.793977 218 255 30 0.610290
-0.110636 -0.022179 0.796981 218 255 30 0.610943
-0.108941 -0.020743 0.798151 208 255 40 0.600815
-0.106189 -0.019614 0.797398 205 255 43 0.597336
-0.104596 -0.018134 0.798491 198 255 49 0.589715
-0.102327 -0.018940 0.794942 205 255 43 0.597420
-0.105725 -0.021580 0.793288 215 255 33 0.608627
-0.121829 -0.039730 0.780424 208 255 40 0.599030
-0.121607 -0.037551 0.782978 208 255 40 0.600797
-0.121394 -0.035529 0.785537 237 255 11 0.635656
-0.124355 -0.038209 0.784704 211 255 36 0.601654
-0.118418 -0.033118 0.786387 211 255 36 0.604297
-0.118566 -0.034918 0.783750 211 255 36 0.602897
-0.118699 -0.036974 0.781091 211 255 36 0.601643
-0.116293 -0.034094 0.783008 247 246 1 0.648085
-0.124609 -0.036617 0.787324 211 255 36 0.602992
-0.124868 -0.035274 0.789896 211 255 36 0.604361
-0.127646 -0.037764 0.788985 211 255 36 0.603627
-0.122027 -0.032860 0.790939 215 255 33 0.605916
-0.121716 -0.034147 0.788192 211 255 36 0.603760
-0.116001 -0.028932 0.790193 218 255 30 0.610524
-0.115513 -0.030430 0.787232 215 255 33 0.606657
-0.118845 -0.031547 0.789131 211 255 36 0.605112
-0.119278 -0.030092 0.791941 215 255 33 0.607300
-0.114143 -0.031043 0.785027 215 255 33 0.606560
-0.112581 -0.031840 0.782501 215 255 33 0.607327
-0.137462 -0.034894 0.808207 211 255 36 0.605028
-0.139640 -0.035786 0.810559 185 255 62 0.571508
-0.141792 -0.036589 0.812882 169 255 79 0.551157
-0.141830 -0.038204 0.809864 166 255 82 0.548120
-0.139490 -0.034164 0.813605 195 255 53 0.583770
-0.136796 -0.031429 0.814270 221 255 27 0.614417
-0.137217 -0.033165 0.811259 221 255 27 0.615095
-0.134536 -0.030476 0.811866 224 255 24 0.619681
-0.144632 -0.040431 0.810783 160 255 88 0.539546
-0.144688 -0.039011 0.813775 156 255 92 0.536265
-0.146707 -0.041420 0.812810 160 255 88 0.541377
-0.148704 -0.043798 0.811815 104 255 143 0.475049
-0.146774 -0.039975 0.815732 114 255 134 0.487184
-0.144663 -0.037583 0.816654 160 255 88 0.542924
-0.141663 -0.035120 0.815780 176 255 72 0.560977
-0.141502 -0.033331 0.819006 189 255 59 0.575296
-0.138277 -0.030206 0.819901 202 255 46 0.591874
-0.139066 -0.032192 0.816740 205 255 43 0.594247
-0.144657 -0.035788 0.819766 176 255 72 0.559510
-0.134206 -0.028144 0.816982 211 255 36 0.605462
-0.130471 -0.025713 0.815800 211 255 36 0.602220
-0.125884 -0.029112 0.802111 234 255 14 0.630522
-0.127506 -0.028738 0.805075 234 255 14 0.630863
-0.129019 -0.028348 0.807956 228 255 20 0.623794
-0.130138 -0.030868 0.804711 234 255 14 0.632358
-0.126361 -0.026407 0.808415 228 255 20 0.621665
-0.123514 -0.024340 0.808813 228 255 20 0.621253
-0.124692 -0.026699 0.805454 234 255 14 0.631648
-0.121844 -0.024657 0.805854 234 255 14 0.631880
-0.133041 -0.032321 0.806211 255 220 0 0.672114
-0.132536 -0.030260 0.809351 228 255 20 0.624052
-0.135071 -0.032574 0.808805 221 255 27 0.616776
-0.131525 -0.028073 0.812439 221 255 27 0.613809
-0.128138 -0.026313 0.811180 221 255 27 0.616479
-0.125811 -0.022458 0.815945 189 255 59 0.574522
-0.127193 -0.024072 0.814581 202 255 46 0.592578
-0.123723 -0.022318 0.813309 202 255 46 0.590583
-0.122379 -0.020733 0.814717 179 255 69 0.563837
-0.125106 -0.023855 0.811920 215 255 33 0.607305
-0.119288 -0.019602 0.813102 166 255 82 0.550381
-0.120748 -0.021207 0.811697 185 255 62 0.572251
-0.117548 -0.020016 0.810036 185 255 62 0.573420
-0.116129 -0.018387 0.811420 160 255 88 0.541220
-0.120634 -0.022207 0.809429 215 255 33 0.609016
-0.116239 -0.026203 0.795477 221 255 27 0.615328
-0.118622 -0.027730 0.795563 224 255 24 0.619069
-0.115954 -0.024881 0.797830 224 255 24 0.618328
-0.118390 -0.026347 0.797877 224 255 24 0.621011
-0.118082 -0.024997 0.800213 228 255 20 0.622806
-0.120866 -0.027887 0.797950 228 255 20 0.624740
-0.115609 -0.023541 0.800228 0 106 255 0.229262
-0.115258 -0.022156 0.802557 218 255 30 0.610581
-0.112990 -0.022147 0.799751 218 255 30 0.611222
-0.113282 -0.023531 0.797398 221 255 27 0.615898
-0.120814 -0.026750 0.800286 234 255 14 0.629331
-0.123330 -0.028487 0.800038 234 255 14 0.629333
-0.120738 -0.025568 0.802563 237 255 11 0.633521
-0.123311 -0.027279 0.802301 234 255 14 0.630839
-0.119215 -0.022937 0.806008 0 0 128 0.000000
-0.117988 -0.023880 0.802595 228 255 20 0.623472
-0.113472 -0.017899 0.809016 160 255 88 0.539781
-0.114969 -0.019515 0.807775 185 255 62 0.573549
-0.112153 -0.019034 0.805176 185 255 62 0.570649
-0.110641 -0.017429 0.806455 172 255 75 0.555124
-0.115116 -0.020900 0.805222 195 255 53 0.585341
-0.117722 -0.021358 0.807493 202 255 46 0.593006
-0.108218 -0.017524 0.803506 182 255 66 0.568735
-0.109841 -0.019059 0.802480 192 255 56 0.580326
-0.111404 -0.020619 0.801118 208 255 40 0.599129
-0.128191 -0.036685 0.791471 218 255 30 0.611930
-0.128767 -0.035761 0.794025 211 255 36 0.603278
-0.130358 -0.038110 0.791986 211 255 36 0.604769
-0.126575 -0.034426 0.793613 211 255 36 0.605319
-0.124096 -0.033107 0.793057 211 255 36 0.604473
-0.132280 -0.038523 0.793842 211 255 36 0.603505
-0.131012 -0.036364 0.795925 211 255 36 0.604759
-0.133012 -0.036951 0.797586 202 255 46 0.592742
-0.134257 -0.039070 0.795520 211 255 36 0.604314
-0.130650 -0.034667 0.798890 218 255 30 0.611538
-0.128441 -0.034006 0.797114 215 255 33 0.606962
-0.126103 -0.031194 0.798659 231 255 17 0.627908
-0.123573 -0.030504 0.796543 224 255 24 0.619154
-0.128372 -0.031858 0.800517 234 255 14 0.628976
-0.121507 -0.030222 0.794345 218 255 30 0.612695
-0.135522 -0.034461 0.805915 218 255 30 0.610049
-0.133605 -0.034063 0.803650 224 255 24 0.617393
-0.136056 -0.036267 0.803389 208 255 40 0.598192
-0.138196 -0.038244 0.803025 192 255 56 0.581153
-0.137857 -0.036544 0.805572 198 255 49 0.587914
-0.139997 -0.038533 0.805188 185 255 62 0.573244
-0.131160 -0.033043 0.802194 231 255 17 0.628735
-0.133112 -0.035680 0.800384 208 255 40 0.601382
-0.136330 -0.039843 0.796984 202 255 46 0.590802
-0.135425 -0.037986 0.799065 153 255 95 0.531912
-0.137563 -0.038927 0.800299 195 255 53 0.583628
-0.138434 -0.040762 0.798228 205 255 43 0.594929
-0.140632 -0.041880 0.799308 198 255 49 0.588218
-0.140156 -0.040453 0.801489 192 255 56 0.578708
-0.142483 -0.041768 0.802491 189 255 59 0.575444
-0.142966 -0.043194 0.800278 195 255 53 0.583476
-0.145421 -0.044795 0.801251 182 255 66 0.569554
-0.147282 -0.045671 0.802962 169 255 79 0.554568
-0.149357 -0.047556 0.802463 169 255 79 0.552885
-0.145715 -0.043802 0.804852 163 255 85 0.544344
-0.143483 -0.041766 0.805236 172 255 75 0.555048
-0.151150 -0.048647 0.804041 150 255 98 0.528719
-0.152962 -0.049726 0.805551 134 255 114 0.510115
-0.154383 -0.051552 0.803553 137 255 111 0.514622
-0.151481 -0.048019 0.807441 134 255 114 0.511610
-0.149628 -0.046861 0.805950 150 255 98 0.529508
-0.147526 -0.044874 0.806513 160 255 88 0.539556
-0.146741 -0.042673 0.810101 156 255 92 0.538887
-0.144775 -0.041494 0.808293 160 255 88 0.541694
-0.149457 -0.045914 0.808279 147 255 101 0.525930
-0.142055 -0.039508 0.807289 172 255 75 0.556586
-0.139781 -0.037226 0.807751 189 255 59 0.578096
-0.158572 -0.052551 0.812630 160 255 88 0.541141
-0.161163 -0.054833 0.813824 182 255 66 0.567713
-0.163813 -0.057015 0.814986 198 255 49 0.588222
-0.162931 -0.057135 0.812308 192 255 56 0.581675
-0.161949 -0.054788 0.816479 192 255 56 0.581184
-0.159951 -0.052008 0.817896 134 255 114 0.511397
-0.159197 -0.052266 0.815342 176 255 72 0.560113
-0.157224 -0.049410 0.816763 172 255 75 0.555724
-0.166017 -0.060404 0.811829 153 255 95 0.532319
-0.167147 -0.061047 0.814434 208 255 40 0.600762
-0.168986 -0.063319 0.812749 211 255 36 0.601882
-0.170745 -0.065580 0.811037 211 255 36 0.602410
-0.170167 -0.063927 0.815456 211 255 36 0.603481
-0.168190 -0.061396 0.817092 211 255 36 0.603244
-0.164791 -0.057455 0.817531 205 255 43 0.596772
-0.168244 -0.059457 0.821684 211 255 36 0.604904
-0.166332 -0.057221 0.821838 211 255 36 0.603308
-0.164606 -0.055885 0.820513 208 255 40 0.599400
-0.162839 -0.053642 0.820665 202 255 46 0.590615
-0.166472 -0.058752 0.818819 208 255 40 0.601544
-0.169973 -0.062045 0.820035 211 255 36 0.604495
-0.159291 -0.049069 0.822180 195 255 53 0.584215
-0.156144 -0.046013 0.820881 176 255 72 0.561813
-0.158217 -0.049313 0.819475 185 255 62 0.573220
-0.162971 -0.059144 0.803484 189 255 59 0.576424
-0.164578 -0.060397 0.805217 198 255 49 0.586149
-0.167004 -0.062172 0.805795 205 255 43 0.596286
-0.163358 -0.058845 0.807568 192 255 56 0.581475
-0.161719 -0.057595 0.805762 114 255 134 0.484545
-0.160485 -0.056124 0.807922 163 255 85 0.546748
-0.168016 -0.062869 0.810295 208 255 40 0.600850
-0.165976 -0.060755 0.808267 205 255 43 0.595137
-0.168943 -0.064195 0.807637 208 255 40 0.600334
-0.171840 -0.066574 0.808249 211 255 36 0.601983
-0.160456 -0.055009 0.811382 0 138 255 0.261658
-0.173246 -0.068917 0.812027 211 255 36 0.604058
-0.175564 -0.072382 0.813473 211 255 36 0.605059
-0.174786 -0.071085 0.810222 211 255 36 0.603778
-0.174061 -0.070169 0.815120 211 255 36 0.604838
-0.172614 -0.067529 0.816688 211 255 36 0.604660
-0.171781 -0.066483 0.813795 185 255 62 0.571591
-0.176374 -0.074777 0.812033 211 255 36 0.605047
-0.177453 -0.078769 0.812256 215 255 33 0.605600
-0.176673 -0.078642 0.815935 215 255 33 0.606913
-0.176122 -0.076125 0.817283 215 255 33 0.606687
-0.176156 -0.077914 0.823669 215 255 33 0.608766
-0.175980 -0.075811 0.821269 215 255 33 0.607656
-0.175653 -0.072997 0.822475 228 255 20 0.621644
-0.175187 -0.070995 0.820306 255 224 0 0.670193
-0.175614 -0.073809 0.819027 215 255 33 0.606604
-0.176367 -0.078230 0.819587 215 255 33 0.607710
-0.176441 -0.080438 0.822041 215 255 33 0.608803
-0.174084 -0.068412 0.821953 215 255 33 0.606084
-0.172631 -0.066043 0.821777 211 255 36 0.605411
-0.171397 -0.064307 0.820056 211 255 36 0.604973
-0.173988 -0.069229 0.818468 215 255 33 0.605621
-0.170394 -0.098849 0.815070 215 255 33 0.606676
-0.168351 -0.100783 0.816486 215 255 33 0.607661
-0.167716 -0.102190 0.814830 215 255 33 0.605665
-0.165938 -0.103958 0.816005 215 255 33 0.606894
-0.167598 -0.103325 0.812791 211 255 36 0.604443
-0.166228 -0.102727 0.817971 218 255 30 0.609384
-0.164122 -0.104598 0.819221 218 255 30 0.610410
-0.167140 -0.101032 0.820106 218 255 30 0.610921
-0.169428 -0.098969 0.818545 218 255 30 0.609566
-0.171671 -0.096964 0.816913 215 255 33 0.608432
-0.170416 -0.097270 0.820638 218 255 30 0.610973
-0.164830 -0.105458 0.813731 215 255 33 0.605739
-0.164593 -0.106368 0.811675 211 255 36 0.605165
-0.162385 -0.107323 0.814326 215 255 33 0.608303
-0.162067 -0.108431 0.812184 215 255 33 0.608084
-0.159799 -0.110235 0.812555 218 255 30 0.609783
-0.161898 -0.109490 0.810080 215 255 33 0.609039
-0.157554 -0.111069 0.815013 221 255 27 0.615425
-0.160713 -0.107806 0.817327 218 255 30 0.611386
-0.163212 -0.105980 0.816783 215 255 33 0.609207
-0.155655 -0.110651 0.820512 224 255 24 0.620342
-0.157693 -0.108926 0.822022 224 255 24 0.618754
-0.160477 -0.106936 0.821612 221 255 27 0.615388
-0.162716 -0.105082 0.822909 218 255 30 0.613121
-0.157984 -0.109845 0.817614 221 255 27 0.615678
-0.155246 -0.111807 0.817875 160 255 88 0.539576
-0.163630 -0.103497 0.825234 221 255 27 0.615880
-0.165933 -0.101463 0.823799 221 255 27 0.614307
-0.167699 -0.099319 0.826450 221 255 27 0.614013
-0.169978 -0.097204 0.824892 218 255 30 0.612644
-0.168181 -0.099392 0.822259 218 255 30 0.612410
-0.165033 -0.102997 0.821481 218 255 30 0.611702
-0.175990 -0.082347 0.824443 218 255 30 0.610302
-0.175756 -0.084651 0.822858 218 255 30 0.610461
-0.176296 -0.082574 0.820398 198 255 49 0.588249
-0.175918 -0.084918 0.818821 234 255 14 0.630598
-0.175323 -0.086936 0.821301 218 255 30 0.610342
-0.174785 -0.089280 0.819791 185 255 62 0.573840
-0.174473 -0.089149 0.824174 218 255 30 0.611494
-0.174900 -0.086878 0.825650 205 255 43 0.596450
-0.176861 -0.082692 0.816342 215 255 33 0.607825
-0.176908 -0.084743 0.814846 215 255 33 0.607730
-0.175821 -0.089097 0.815885 215 255 33 0.608056
-0.175912 -0.086987 0.817390 215 255 33 0.608803
-0.173264 -0.094878 0.814922 215 255 33 0.607545
-0.174042 -0.092868 0.816329 215 255 33 0.608814
-0.172291 -0.095025 0.818539 218 255 30 0.609867
-0.172667 -0.093323 0.820244 218 255 30 0.611021
-0.171520 -0.095220 0.822531 189 255 59 0.576779
-0.172515 -0.093087 0.824462 218 255 30 0.612748
-0.170827 -0.095251 0.826845 221 255 27 0.613683
-0.173300 -0.091055 0.826420 218 255 30 0.612686
-0.173640 -0.091217 0.822198 218 255 30 0.611277
-0.152108 -0.114316 0.814482 221 255 27 0.614909
-0.154831 -0.112728 0.814775 221 255 27 0.613717
-0.154442 -0.113674 0.811669 221 255 27 0.614748
-0.151769 -0.115196 0.811259 221 255 27 0.615742
-0.151591 -0.116074 0.807941 228 255 20 0.624089
-0.148811 -0.116915 0.810175 221 255 27 0.616029
-0.148973 -0.116030 0.813541 198 255 49 0.588564
-0.157241 -0.111919 0.812380 185 255 62 0.570881
-0.156864 -0.112804 0.809720 172 255 75 0.558346
-0.159387 -0.111180 0.809969 218 255 30 0.612066
-0.158920 -0.112151 0.807363 218 255 30 0.612922
-0.156620 -0.113737 0.806944 221 255 27 0.614231
-0.156431 -0.114518 0.804087 221 255 27 0.616583
-0.154074 -0.115389 0.806061 221 255 27 0.615806
-0.154168 -0.114544 0.808845 221 255 27 0.613755
-0.152628 -0.117268 0.795380 228 255 20 0.621505
-0.152182 -0.117336 0.798677 224 255 24 0.619831
-0.149961 -0.118261 0.796991 228 255 20 0.621366
-0.151875 -0.117138 0.801832 224 255 24 0.619030
-0.149514 -0.118267 0.800187 224 255 24 0.619649
-0.149176 -0.118013 0.803305 224 255 24 0.618459
-0.147045 -0.119223 0.798563 255 235 0 0.656719
-0.151713 -0.116721 0.804932 221 255 27 0.616751
-0.154124 -0.115878 0.803025 221 255 27 0.616924
-0.154264 -0.116226 0.799902 224 255 24 0.618151
-0.146611 -0.119238 0.802147 224 255 24 0.618881
-0.143842 -0.120355 0.800379 224 255 24 0.620420
-0.146289 -0.118836 0.805567 224 255 24 0.618225
-0.143455 -0.120194 0.803879 224 255 24 0.618453
-0.146052 -0.118274 0.809003 224 255 24 0.617489
-0.148975 -0.117538 0.806761 221 255 27 0.617145
-0.154662 -0.116402 0.796917 224 255 24 0.620033
-0.156548 -0.114962 0.801326 224 255 24 0.617517
-0.158896 -0.112968 0.804812 221 255 27 0.615112
-0.134591 -0.047506 0.776977 208 255 40 0.599831
-0.133960 -0.045976 0.779233 211 255 36 0.604426
-0.133486 -0.044434 0.781568 211 255 36 0.601811
-0.136399 -0.046328 0.780468 208 255 40 0.600412
-0.130589 -0.042639 0.782728 211 255 36 0.602671
-0.130904 -0.044258 0.780294 208 255 40 0.601145
-0.131468 -0.045779 0.777844 221 255 27 0.617094
-0.128259 -0.044083 0.778819 208 255 40 0.600718
-0.136267 -0.045114 0.782918 211 255 36 0.601798
-0.136169 -0.043996 0.785309 250 243 0 0.649893
-0.138941 -0.045823 0.784059 211 255 36 0.602340
-0.133362 -0.042148 0.786680 211 255 36 0.604426
-0.133461 -0.043327 0.784147 211 255 36 0.603423
-0.127536 -0.039034 0.786346 211 255 36 0.603051
-0.127497 -0.040420 0.783742 211 255 36 0.602273
-0.130541 -0.041232 0.785248 211 255 36 0.603585
-0.130557 -0.039930 0.787743 211 255 36 0.604315
-0.124718 -0.040035 0.782117 208 255 40 0.600425
-0.125127 -0.041909 0.779571 208 255 40 0.600057
-0.127896 -0.042293 0.781220 208 255 40 0.601377
-0.140187 -0.047138 0.781072 208 255 40 0.601153
-0.142597 -0.047602 0.782061 208 255 40 0.598881
-0.138154 -0.048055 0.777784 208 255 40 0.599714
-0.144907 -0.047140 0.790526 211 255 36 0.601855
-0.144377 -0.046167 0.793148 211 255 36 0.601768
-0.147436 -0.048217 0.792065 208 255 40 0.600983
-0.143823 -0.045211 0.795758 211 255 36 0.601868
-0.140950 -0.044072 0.794196 215 255 33 0.605977
-0.149134 -0.048826 0.794107 205 255 43 0.596861
-0.152101 -0.050578 0.794097 59 255 189 0.420051
-0.148010 -0.047805 0.796140 202 255 46 0.593256
-0.143996 -0.044576 0.798215 202 255 46 0.591538
-0.141671 -0.043193 0.797290 208 255 40 0.598261
-0.147038 -0.046599 0.798223 198 255 49 0.588818
-0.138758 -0.041937 0.795566 208 255 40 0.600751
-0.139031 -0.045076 0.786506 211 255 36 0.602584
-0.139189 -0.044339 0.788974 211 255 36 0.604068
-0.141725 -0.046157 0.787548 211 255 36 0.602687
-0.136576 -0.042567 0.790365 215 255 33 0.605595
-0.136359 -0.043247 0.787885 211 255 36 0.605392
-0.141722 -0.045122 0.791290 211 255 36 0.603704
-0.135938 -0.040904 0.793347 215 255 33 0.605491
-0.134013 -0.040338 0.791636 211 255 36 0.604850
-0.133651 -0.041222 0.789142 211 255 36 0.605443
-0.145674 -0.047797 0.787519 208 255 40 0.600364
-0.141538 -0.046583 0.785141 208 255 40 0.601059
-0.144613 -0.047888 0.784466 208 255 40 0.599154
-0.152330 -0.050758 0.796320 198 255 49 0.586433
-0.154593 -0.052335 0.796881 189 255 59 0.577489
-0.152736 -0.050894 0.798788 182 255 66 0.569944
-0.150278 -0.049192 0.798131 192 255 56 0.578451
-0.157341 -0.054493 0.798225 179 255 69 0.563792
-0.153515 -0.051227 0.801131 160 255 88 0.541938
-0.151046 -0.049185 0.800635 176 255 72 0.561644
-0.155929 -0.053105 0.801476 160 255 88 0.541335
-0.150390 -0.049710 0.792081 205 255 43 0.597011
-0.148897 -0.049092 0.789902 208 255 40 0.598779
-0.072507 -0.122083 0.876939 215 255 33 0.605676
-0.074219 -0.120947 0.880529 221 255 27 0.613968
-0.070699 -0.122776 0.873073 215 255 33 0.606321
-0.073149 -0.123075 0.871807 215 255 33 0.606282
-0.074943 -0.122315 0.875639 215 255 33 0.605704
-0.076691 -0.121192 0.879269 211 255 36 0.605170
-0.070067 -0.123252 0.868441 215 255 33 0.606919
-0.069380 -0.123339 0.863740 215 255 33 0.609120
-0.066975 -0.123143 0.865099 215 255 33 0.609050
-0.067663 -0.123054 0.869859 215 255 33 0.606902
-0.077534 -0.122435 0.874015 215 255 33 0.605853
-0.079364 -0.121399 0.877619 211 255 36 0.605315
-0.075657 -0.123154 0.870219 215 255 33 0.606388
-0.075080 -0.123407 0.865424 215 255 33 0.607332
-0.071885 -0.123395 0.862167 218 255 30 0.609475
-0.072551 -0.123373 0.867011 215 255 33 0.607100
-0.067041 -0.123633 0.849374 215 255 33 0.606018
-0.063912 -0.125024 0.846428 211 255 36 0.605078
-0.067796 -0.123058 0.854070 215 255 33 0.606864
-0.064566 -0.123647 0.850891 215 255 33 0.605896
-0.065317 -0.123014 0.855589 205 255 43 0.597575
-0.061402 -0.125080 0.847915 211 255 36 0.605217
-0.068546 -0.122940 0.858863 215 255 33 0.608092
-0.071071 -0.123056 0.857331 215 255 33 0.608108
-0.062104 -0.123538 0.852272 215 255 33 0.605989
-0.058997 -0.125052 0.849303 211 255 36 0.605362
-0.062889 -0.122917 0.856934 215 255 33 0.606460
-0.059707 -0.123482 0.853684 215 255 33 0.606018
-0.064931 -0.122916 0.860995 215 255 33 0.607918
-0.078156 -0.030991 0.898442 215 255 33 0.607556
-0.079050 -0.028400 0.895873 215 255 33 0.607245
-0.079172 -0.025581 0.893868 211 255 36 0.603887
-0.076907 -0.027697 0.897155 211 255 36 0.604016
-0.076107 -0.030364 0.899690 244 250 4 0.643013
-0.079200 -0.022527 0.891958 208 255 40 0.600175
-0.079261 -0.019101 0.890137 215 255 33 0.608187
-0.074257 -0.026902 0.899307 205 255 43 0.596784
-0.075348 -0.021282 0.894455 192 255 56 0.578808
-0.077133 -0.018518 0.891379 198 255 49 0.586304
-0.076621 -0.024811 0.895436 205 255 43 0.596318
-0.078721 -0.010806 0.883937 202 255 46 0.591294
-0.078035 -0.013431 0.886313 198 255 49 0.589676
-0.080711 -0.014223 0.885371 208 255 40 0.598428
-0.081469 -0.011521 0.883234 208 255 40 0.597804
-0.078671 -0.016325 0.888247 202 255 46 0.590014
-0.076532 -0.015655 0.889354 192 255 56 0.581827
-0.083730 -0.012046 0.882935 211 255 36 0.602286
-0.083979 -0.015092 0.884702 211 255 36 0.602860
-0.081922 -0.017374 0.887034 208 255 40 0.600860
-0.079578 -0.075573 0.918924 215 255 33 0.605966
-0.078074 -0.070639 0.918537 215 255 33 0.608262
-0.082100 -0.080612 0.918063 211 255 36 0.601795
-0.084153 -0.085171 0.916932 211 255 36 0.601788
-0.080519 -0.070739 0.917645 198 255 49 0.589526
-0.084863 -0.080334 0.916813 211 255 36 0.602809
-0.082004 -0.075727 0.917901 195 255 53 0.582041
-0.089662 -0.096264 0.909172 215 255 33 0.606776
-0.090070 -0.099588 0.906787 215 255 33 0.608012
-0.087335 -0.092728 0.912214 211 255 36 0.604835
-0.086077 -0.095873 0.910697 215 255 33 0.606449
-0.086503 -0.099160 0.908097 215 255 33 0.607942
-0.086726 -0.089150 0.914245 211 255 36 0.603877
-0.084179 -0.098897 0.909267 215 255 33 0.607846
-0.083654 -0.092202 0.914062 211 255 36 0.605047
-0.082844 -0.095408 0.912488 221 255 27 0.615718
-0.083912 -0.088803 0.915692 215 255 33 0.607712
-0.082177 -0.101432 0.906228 218 255 30 0.610908
-0.082477 -0.104218 0.901929 224 255 24 0.617275
-0.084437 -0.101618 0.905021 218 255 30 0.611049
-0.084745 -0.104449 0.900827 221 255 27 0.616774
-0.082769 -0.107319 0.897825 221 255 27 0.616350
-0.083056 -0.110638 0.893800 208 255 40 0.599639
-0.080629 -0.110535 0.895030 208 255 40 0.598895
-0.080377 -0.107190 0.899182 221 255 27 0.614911
-0.086950 -0.101881 0.903335 218 255 30 0.612361
-0.087493 -0.104757 0.898668 221 255 27 0.615370
-0.086647 -0.107621 0.895059 221 255 27 0.614497
-0.085833 -0.110990 0.891773 205 255 43 0.596079
-0.080933 -0.119092 0.881045 211 255 36 0.603843
-0.082543 -0.116498 0.884560 208 255 40 0.600119
-0.079844 -0.116335 0.886273 208 255 40 0.601289
-0.078227 -0.118887 0.882702 211 255 36 0.603696
-0.082805 -0.113514 0.889077 202 255 46 0.592908
-0.085615 -0.113914 0.887117 202 255 46 0.592096
-0.075750 -0.118794 0.883984 211 255 36 0.603550
-0.077354 -0.116160 0.887439 208 255 40 0.600922
-0.077784 -0.113362 0.891854 205 255 43 0.596168
-0.080237 -0.113445 0.890600 205 255 43 0.595034
-0.071407 -0.059141 0.916050 218 255 30 0.611282
-0.071326 -0.053924 0.913463 221 255 27 0.616724
-0.071472 -0.048738 0.911350 218 255 30 0.610235
-0.072013 -0.043988 0.909406 215 255 33 0.608876
-0.069511 -0.058412 0.916637 218 255 30 0.610394
-0.069565 -0.048120 0.912297 218 255 30 0.609706
-0.069502 -0.053204 0.914256 218 255 30 0.610486
-0.073816 -0.033007 0.903081 189 255 59 0.576060
-0.073697 -0.036344 0.904759 215 255 33 0.607137
-0.072547 -0.039881 0.907261 215 255 33 0.607716
-0.075902 -0.033507 0.901534 215 255 33 0.607234
-0.075540 -0.036867 0.903590 215 255 33 0.606733
-0.101587 0.000548 0.867290 218 255 30 0.611011
-0.103747 0.001197 0.865059 218 255 30 0.610536
-0.099476 -0.000033 0.869544 218 255 30 0.610239
-0.102882 -0.000629 0.869945 218 255 30 0.609860
-0.104977 -0.000120 0.867706 218 255 30 0.610430
-0.107161 0.000393 0.865350 221 255 27 0.615482
-0.100754 -0.001372 0.872019 218 255 30 0.609403
-0.098711 -0.002194 0.874017 215 255 33 0.608603
-0.097536 -0.001133 0.871557 218 255 30 0.609710
-0.095745 -0.002086 0.873550 215 255 33 0.609104
-0.107616 -0.000804 0.868094 218 255 30 0.609692
-0.109892 -0.000417 0.865844 218 255 30 0.609752
-0.105399 -0.001054 0.870221 218 255 30 0.609535
-0.103277 -0.001740 0.872414 215 255 33 0.609102
-0.101243 -0.002417 0.874449 215 255 33 0.608637
-0.095859 -0.008391 0.879420 218 255 30 0.610031
-0.097472 -0.006550 0.877728 218 255 30 0.609827
-0.098054 -0.004378 0.875890 215 255 33 0.609166
-0.092208 -0.008128 0.878942 218 255 30 0.609639
-0.092340 -0.006190 0.877050 218 255 30 0.610413
-0.089770 -0.007993 0.878742 215 255 33 0.609351
-0.092542 -0.004140 0.875219 218 255 30 0.609694
-0.095475 -0.004179 0.875543 218 255 30 0.609429
-0.117148 -0.003818 0.847770 218 255 30 0.611133
-0.121211 -0.006493 0.845755 221 255 27 0.613358
-0.116700 -0.003189 0.850356 205 255 43 0.596207
-0.120744 -0.005956 0.848244 255 224 0 0.671143
-0.120276 -0.005390 0.850827 218 255 30 0.610802
-0.124929 -0.008467 0.846313 218 255 30 0.612489
-0.116309 -0.002620 0.852944 218 255 30 0.609567
-0.115861 -0.002239 0.855545 255 180 0 0.715537
-0.112540 -0.000566 0.855214 218 255 30 0.610581
-0.112922 -0.001049 0.852604 218 255 30 0.610998
-0.123989 -0.007520 0.848887 218 255 30 0.611615
-0.128004 -0.009946 0.847416 218 255 30 0.611255
-0.123095 -0.006567 0.851524 218 255 30 0.610521
-0.127044 -0.009020 0.850017 218 255 30 0.610794
-0.122260 -0.005644 0.854268 215 255 33 0.609369
-0.118659 -0.003391 0.856256 215 255 33 0.608738
-0.119463 -0.004366 0.853556 218 255 30 0.609655
-0.112086 -0.000965 0.863399 218 255 30 0.610258
-0.114268 -0.001551 0.860841 218 255 30 0.609968
-0.111596 -0.000677 0.860482 218 255 30 0.611596
-0.109385 -0.000079 0.862956 255 202 0 0.691568
-0.115088 -0.001807 0.858177 218 255 30 0.609902
-0.117785 -0.003173 0.858924 215 255 33 0.609128
-0.105922 0.001117 0.862667 218 255 30 0.611155
-0.108166 0.000850 0.860120 218 255 30 0.611854
-0.110410 0.000238 0.857659 218 255 30 0.611680
-0.135610 -0.020328 0.833760 211 255 36 0.603041
-0.137394 -0.022434 0.832452 202 255 46 0.590153
-0.133799 -0.018203 0.835128 215 255 33 0.608687
-0.138084 -0.020995 0.835831 255 131 0 0.767989
-0.139546 -0.023824 0.832817 198 255 49 0.586715
-0.141728 -0.025168 0.833180 195 255 53 0.585469
-0.136240 -0.018920 0.837209 211 255 36 0.604663
-0.134341 -0.016807 0.838723 215 255 33 0.609281
-0.132001 -0.016309 0.836592 255 176 0 0.720759
-0.130170 -0.014434 0.838072 221 255 27 0.616122
-0.144186 -0.026721 0.833824 195 255 53 0.584831
-0.141757 -0.023818 0.835118 202 255 46 0.593599
-0.144207 -0.025420 0.835777 202 255 46 0.591079
-0.146693 -0.028310 0.834397 56 255 192 0.417464
-0.141731 -0.022542 0.837136 208 255 40 0.598848
-0.146679 -0.026974 0.836361 202 255 46 0.591112
-0.144167 -0.024197 0.837743 255 109 0 0.791255
-0.149208 -0.029788 0.834988 198 255 49 0.588342
-0.141640 -0.021299 0.839249 211 255 36 0.601959
-0.137925 -0.018414 0.840076 215 255 33 0.605692
-0.130413 -0.011990 0.845396 218 255 30 0.611691
-0.132802 -0.014061 0.843427 218 255 30 0.610081
-0.129656 -0.012711 0.842318 221 255 27 0.613424
-0.127291 -0.010631 0.844255 221 255 27 0.614699
-0.133594 -0.015414 0.841061 218 255 30 0.609584
-0.137138 -0.017143 0.842379 215 255 33 0.606451
-0.123345 -0.008357 0.843728 221 255 27 0.616307
-0.125554 -0.010177 0.841786 224 255 24 0.617251
-0.125824 -0.011082 0.839599 150 255 98 0.529148
-0.129903 -0.013532 0.840203 221 255 27 0.615358
-0.144347 -0.033978 0.822721 0 170 255 0.291055
-0.144347 -0.032273 0.825534 192 255 56 0.578677
-0.146874 -0.035076 0.824445 182 255 66 0.567101
-0.149192 -0.037774 0.823321 179 255 69 0.564255
-0.146883 -0.033307 0.827209 189 255 59 0.574807
-0.144096 -0.030435 0.828197 174 0 0 0.956586
-0.140115 -0.027642 0.827555 192 255 56 0.581147
-0.151928 -0.039538 0.824848 185 255 62 0.570486
-0.150816 -0.036832 0.827544 189 255 59 0.577569
-0.148893 -0.031569 0.832000 192 255 56 0.578477
-0.146361 -0.029929 0.831539 192 255 56 0.579881
-0.143885 -0.028345 0.830951 189 255 59 0.574689
-0.149445 -0.033403 0.830420 185 255 62 0.573879
-0.139978 -0.025685 0.830233 0 206 255 0.327976
-0.137788 -0.024312 0.829886 192 255 56 0.579694
-0.150630 -0.044684 0.813580 160 255 88 0.542145
-0.152523 -0.045484 0.815250 156 255 92 0.538861
-0.152340 -0.046851 0.812418 150 255 98 0.528619
-0.150765 -0.043371 0.816378 160 255 88 0.542095
-0.148746 -0.040947 0.817472 163 255 85 0.543997
-0.148768 -0.042416 0.814645 176 255 72 0.560637
-0.154805 -0.049049 0.812604 147 255 101 0.526321
-0.155183 -0.048183 0.815347 166 255 82 0.549121
-0.156822 -0.050343 0.814087 4 234 244 0.354512
-0.155479 -0.047098 0.818012 172 255 75 0.556602
-0.152724 -0.044450 0.817926 62 255 185 0.425047
-0.152821 -0.042116 0.822104 176 255 72 0.560885
-0.150401 -0.040470 0.820554 166 255 82 0.550374
-0.146919 -0.036839 0.821596 176 255 72 0.558766
-0.146895 -0.038512 0.818629 160 255 88 0.542710
-0.156803 -0.053434 0.804938 127 255 121 0.503051
-0.155502 -0.051753 0.806976 121 255 127 0.495991
-0.159655 -0.056232 0.803801 160 255 88 0.539096
-0.158167 -0.054007 0.808019 140 255 108 0.515752
-0.156616 -0.051226 0.811550 0 150 255 0.269569
-0.152532 -0.047963 0.810025 137 255 111 0.512644
-0.154207 -0.049873 0.809066 134 255 114 0.508790
-0.161192 -0.057709 0.801590 182 255 66 0.566751
-0.158023 -0.054940 0.801681 143 255 104 0.523316
0.135540 -0.006129 0.895325 166 255 82 0.549676
0.129038 -0.004677 0.894216 195 255 53 0.582841
0.136921 -0.005525 0.892552 179 255 69 0.563011
0.130439 -0.003970 0.891457 202 255 46 0.591952
0.131782 -0.003419 0.888623 211 255 36 0.601563
0.127519 -0.004863 0.896640 192 255 56 0.579656
0.144754 -0.005804 0.882452 205 255 43 0.594404
0.139238 -0.003852 0.882161 215 255 33 0.605685
0.138343 -0.004398 0.885724 208 255 40 0.598295
0.133623 -0.002629 0.882075 215 255 33 0.609231
0.139914 -0.003322 0.878275 189 255 59 0.574467
0.134330 -0.002309 0.878549 218 255 30 0.609684
0.135271 -0.001900 0.874896 198 255 49 0.588592
0.137535 -0.004873 0.888991 156 255 92 0.537343
0.132715 -0.002949 0.885412 215 255 33 0.608086
0.094032 -0.005152 0.876908 218 255 30 0.611288
0.098879 -0.004774 0.879667 218 255 30 0.611228
0.100179 -0.004824 0.877078 218 255 30 0.611399
0.103364 -0.004383 0.882203 218 255 30 0.610847
0.104790 -0.004178 0.879590 218 255 30 0.611359
0.109394 -0.003712 0.882204 218 255 30 0.610809
0.107913 -0.004030 0.884780 218 255 30 0.610600
0.106316 -0.003808 0.877039 218 255 30 0.611219
0.110961 -0.003085 0.879510 218 255 30 0.611133
0.112525 -0.002227 0.876665 202 255 46 0.590483
0.107822 -0.003020 0.874304 198 255 49 0.587628
0.101606 -0.004431 0.874492 218 255 30 0.611217
0.103008 -0.003683 0.871747 205 255 43 0.595647
0.096605 -0.005137 0.871707 218 255 30 0.611379
0.095378 -0.005348 0.874398 218 255 30 0.611440
0.089351 -0.005950 0.871036 218 255 30 0.611251
0.098015 -0.004504 0.869021 218 255 30 0.610853
0.090511 -0.005821 0.868296 218 255 30 0.611192
0.091691 -0.005318 0.865367 218 255 30 0.610829
0.088126 -0.005642 0.873634 218 255 30 0.611325
0.112473 -0.003797 0.887382 215 255 33 0.609154
0.117146 -0.003839 0.890171 215 255 33 0.606699
0.118798 -0.003530 0.887683 215 255 33 0.607554
0.122214 -0.004075 0.893211 211 255 36 0.601660
0.123795 -0.003744 0.890762 211 255 36 0.603130
0.125145 -0.003104 0.887956 215 255 33 0.607373
0.126637 -0.002479 0.885183 218 255 30 0.609813
0.120283 -0.002764 0.884928 218 255 30 0.609429
0.121873 -0.002127 0.882183 218 255 30 0.610182
0.115589 -0.002783 0.882136 218 255 30 0.610627
0.114043 -0.003501 0.884866 218 255 30 0.609800
0.117116 -0.002068 0.879316 218 255 30 0.610704
0.130570 -0.001115 0.871603 218 255 30 0.610143
0.129572 -0.001418 0.875201 218 255 30 0.610365
0.125036 -0.000891 0.872223 218 255 30 0.610158
0.125924 -0.000472 0.868625 218 255 30 0.610092
0.123835 -0.001230 0.875548 218 255 30 0.610343
0.120393 -0.000572 0.869462 224 255 24 0.620707
0.119369 -0.001030 0.872884 218 255 30 0.610286
0.114826 -0.001023 0.870365 218 255 30 0.610188
0.121536 -0.000178 0.865942 218 255 30 0.610381
0.115950 -0.000427 0.866958 208 255 40 0.600982
0.116979 -0.000004 0.863596 218 255 30 0.610719
0.118191 -0.001516 0.876120 218 255 30 0.610440
0.113622 -0.001669 0.873576 218 255 30 0.610260
0.122880 -0.001543 0.878869 218 255 30 0.610363
0.127612 -0.002127 0.881927 198 255 49 0.586876
0.128610 -0.001729 0.878635 218 255 30 0.610266
0.112308 -0.000089 0.861299 218 255 30 0.610349
0.111164 -0.000758 0.864629 215 255 33 0.609161
0.106211 -0.001193 0.862268 215 255 33 0.606172
0.107406 -0.000314 0.859015 215 255 33 0.609221
0.105078 -0.002201 0.865514 208 255 40 0.600777
0.100575 -0.001986 0.859298 189 255 59 0.575558
0.099775 -0.002956 0.862724 205 255 43 0.595659
0.093302 -0.003996 0.858855 215 255 33 0.605911
0.101256 -0.000886 0.855668 215 255 33 0.606111
0.094171 -0.002792 0.855297 205 255 43 0.596215
0.095123 -0.001666 0.851813 211 255 36 0.605083
0.098904 -0.003865 0.865932 215 255 33 0.607555
0.092436 -0.004827 0.862145 218 255 30 0.609775
0.104048 -0.003041 0.868692 211 255 36 0.603733
0.108871 -0.002335 0.871158 215 255 33 0.607538
0.110002 -0.001562 0.867948 215 255 33 0.606770
0.101171 -0.000192 0.851278 215 255 33 0.608935
0.107794 0.000237 0.855135 218 255 30 0.610337
0.107969 0.000567 0.850982 218 255 30 0.610737
0.112942 0.000121 0.857657 218 255 30 0.611179
0.113485 0.000344 0.853837 218 255 30 0.611565
0.118227 -0.000136 0.856229 218 255 30 0.611358
0.117575 0.000022 0.859967 218 255 30 0.611068
0.113937 0.000216 0.849938 218 255 30 0.609756
0.118841 -0.000330 0.852509 218 255 30 0.611594
0.119316 -0.000742 0.848747 218 255 30 0.611764
0.114464 -0.000231 0.846070 218 255 30 0.612085
0.108173 0.000576 0.846672 218 255 30 0.610962
0.108406 0.000207 0.842349 218 255 30 0.611016
0.101774 0.000374 0.842812 218 255 30 0.609619
0.101466 0.000230 0.847045 215 255 33 0.608348
0.096400 -0.000534 0.844083 215 255 33 0.608831
0.102302 0.000122 0.838784 218 255 30 0.609538
0.097210 -0.000337 0.840216 205 255 43 0.595466
0.098042 -0.000625 0.836581 215 255 33 0.609067
0.095688 -0.001063 0.847917 215 255 33 0.607884
0.121955 -0.000207 0.862267 218 255 30 0.610597
0.126430 -0.000673 0.864856 218 255 30 0.609600
0.126835 -0.000735 0.860983 215 255 33 0.608991
0.130804 -0.001044 0.867659 218 255 30 0.609604
0.131260 -0.001304 0.863826 215 255 33 0.608919
0.135658 -0.001978 0.866780 215 255 33 0.608926
0.135422 -0.001850 0.870858 218 255 30 0.609550
0.131559 -0.001594 0.859875 215 255 33 0.607940
0.136015 -0.002396 0.862762 215 255 33 0.608167
0.136130 -0.002878 0.858932 215 255 33 0.607179
0.131981 -0.002298 0.856154 215 255 33 0.607144
0.127325 -0.001147 0.857303 215 255 33 0.609084
0.127798 -0.001747 0.853510 215 255 33 0.608752
0.123095 -0.000710 0.854780 218 255 30 0.610453
0.122602 -0.000444 0.858624 218 255 30 0.610587
0.123573 -0.001314 0.851090 211 255 36 0.604474
0.134379 -0.009371 0.843769 215 255 33 0.606602
0.130530 -0.009089 0.841590 215 255 33 0.608146
0.130827 -0.006703 0.844731 205 255 43 0.594730
0.126964 -0.006325 0.842400 195 255 53 0.584440
0.126685 -0.008760 0.839306 218 255 30 0.611498
0.127174 -0.004450 0.845967 218 255 30 0.609692
0.123076 -0.005981 0.840140 218 255 30 0.612984
0.123305 -0.003979 0.843594 192 255 56 0.578874
0.119224 -0.003599 0.841312 185 255 62 0.572136
0.122804 -0.008611 0.837055 221 255 27 0.614006
0.118980 -0.005771 0.837679 221 255 27 0.613820
0.118379 -0.008476 0.834292 221 255 27 0.614346
0.123370 -0.002424 0.847210 224 255 24 0.618433
0.119239 -0.002017 0.844887 218 255 30 0.612201
0.127544 -0.002967 0.849629 215 255 33 0.608991
0.131612 -0.003522 0.852112 215 255 33 0.606695
0.131212 -0.004975 0.848431 218 255 30 0.612109
0.135366 -0.005609 0.850945 211 255 36 0.605231
0.135826 -0.004098 0.854850 215 255 33 0.606025
0.134959 -0.007256 0.847329 215 255 33 0.605539
0.112217 -0.008360 0.830356 218 255 30 0.612446
0.112808 -0.005409 0.833700 218 255 30 0.612256
0.107122 -0.005506 0.830251 218 255 30 0.610361
0.106908 -0.008855 0.827694 218 255 30 0.610394
0.107189 -0.002833 0.833521 218 255 30 0.610543
0.102937 -0.006087 0.828451 215 255 33 0.609303
0.102707 -0.003321 0.831346 224 255 24 0.618916
0.099156 -0.004072 0.830081 215 255 33 0.609063
0.102972 -0.009454 0.826292 218 255 30 0.609723
0.099522 -0.006804 0.827335 218 255 30 0.610839
0.099539 -0.010001 0.825342 215 255 33 0.609237
0.102351 -0.001261 0.834662 218 255 30 0.609551
0.098696 -0.002007 0.833069 215 255 33 0.609025
0.107678 -0.000910 0.837712 218 255 30 0.610673
0.114130 -0.001394 0.841945 218 255 30 0.612265
0.113702 -0.003123 0.837764 218 255 30 0.612591
0.139791 -0.003104 0.874021 215 255 33 0.608331
0.144580 -0.005274 0.878094 211 255 36 0.601658
0.144175 -0.004608 0.872970 215 255 33 0.605746
0.149014 -0.007231 0.877403 205 255 43 0.594777
0.148570 -0.006626 0.872517 208 255 40 0.601559
0.152871 -0.009004 0.871984 205 255 43 0.594584
0.148424 -0.006696 0.868012 198 255 49 0.588838
0.144121 -0.004668 0.868826 192 255 56 0.579153
0.144176 -0.004986 0.864565 215 255 33 0.606940
0.140103 -0.003403 0.865656 215 255 33 0.608340
0.139918 -0.003141 0.869767 189 255 59 0.576023
0.140190 -0.003878 0.861647 215 255 33 0.607551
0.158616 -0.017006 0.859714 211 255 36 0.603314
0.156524 -0.014164 0.861881 202 255 46 0.593371
0.155171 -0.015459 0.857005 208 255 40 0.597682
0.153009 -0.012428 0.859132 208 255 40 0.600556
0.154069 -0.011266 0.863881 224 255 24 0.620492
0.150891 -0.010027 0.861536 211 255 36 0.602379
0.151677 -0.013843 0.854338 211 255 36 0.603443
0.149456 -0.010936 0.856614 211 255 36 0.603233
0.148262 -0.012566 0.852076 211 255 36 0.604715
0.151924 -0.009327 0.866674 208 255 40 0.598852
0.144785 -0.011675 0.849974 211 255 36 0.604753
0.145529 -0.009802 0.853684 211 255 36 0.604834
0.141976 -0.009016 0.851491 221 255 27 0.614029
0.141327 -0.010941 0.847940 211 255 36 0.604257
0.142532 -0.007031 0.855350 198 255 49 0.587633
0.138363 -0.008145 0.849413 211 255 36 0.604317
0.138978 -0.006358 0.853172 211 255 36 0.605127
0.137803 -0.010000 0.845760 211 255 36 0.605171
0.139238 -0.004707 0.857016 215 255 33 0.606321
