ply
format ascii 1.0
comment VCGLIB generated
element vertex 978
property float x
property float y
property float z
property uchar red
property uchar green
property uchar blue
property float quality
end_header
-0.155051 -0.092287 0.875953 0 202 255 0.322328
-0.175649 -0.067357 0.855930 0 202 255 0.322358
-0.175962 -0.064265 0.854896 0 202 255 0.322360
-0.176396 -0.063062 0.858120 0 202 255 0.322340
-0.176065 -0.066123 0.859134 0 202 255 0.322330
-0.176459 -0.060551 0.855465 0 202 255 0.322362
-0.176851 -0.056873 0.856065 0 202 255 0.322389
-0.176237 -0.058050 0.852956 0 202 255 0.322366
-0.175797 -0.061747 0.852390 0 202 255 0.322360
-0.176213 -0.064997 0.861934 0 202 255 0.322353
-0.176633 -0.062030 0.860894 0 202 255 0.322354
-0.176976 -0.058470 0.861285 0 202 255 0.322367
-0.177068 -0.055902 0.858863 0 202 255 0.322363
-0.176774 -0.059479 0.858485 0 202 255 0.322384
-0.175484 -0.046183 0.857921 0 202 255 0.322396
-0.176080 -0.049705 0.857249 0 202 255 0.322376
-0.175108 -0.046900 0.855090 0 202 255 0.322380
-0.175684 -0.050439 0.854454 0 202 255 0.322342
-0.176517 -0.053277 0.856631 0 202 255 0.322375
-0.176716 -0.052303 0.859475 0 202 255 0.322380
-0.174616 -0.047806 0.852105 0 202 255 0.322382
-0.175058 -0.051557 0.851301 0 202 255 0.322376
-0.173762 -0.048844 0.849006 0 202 255 0.322396
-0.175707 -0.054792 0.852104 0 202 255 0.322372
-0.151644 -0.041117 0.817154 0 202 255 0.322719
-0.153273 -0.043186 0.817306 0 202 255 0.322430
-0.154867 -0.044278 0.818953 0 202 255 0.322540
-0.156543 -0.046346 0.819093 0 202 255 0.322676
-0.158121 -0.047449 0.820726 0 202 255 0.322566
-0.158213 -0.049409 0.817766 0 202 255 0.322549
-0.156449 -0.044393 0.822042 0 202 255 0.322650
-0.158034 -0.045497 0.823673 0 202 255 0.322621
-0.154493 -0.042116 0.821835 0 202 255 0.322669
-0.152595 -0.039826 0.821597 0 202 255 0.322646
-0.151013 -0.038727 0.819969 0 202 255 0.322693
-0.150337 -0.036348 0.822796 0 202 255 0.322727
-0.159728 -0.051817 0.817891 0 202 255 0.322561
-0.161414 -0.053537 0.819632 0 202 255 0.322444
-0.162939 -0.056005 0.819807 0 202 255 0.322501
-0.164560 -0.057796 0.821602 0 202 255 0.322424
-0.164246 -0.059241 0.818390 0 202 255 0.322520
-0.163251 -0.054581 0.823022 0 202 255 0.322491
-0.164880 -0.056359 0.824810 0 202 255 0.322466
-0.161540 -0.051830 0.822708 0 202 255 0.322565
-0.159819 -0.049145 0.822457 0 202 255 0.322573
-0.164505 -0.051004 0.829642 0 202 255 0.322509
-0.162397 -0.049132 0.827623 0 202 255 0.322546
-0.160856 -0.045239 0.828877 0 202 255 0.322593
-0.158674 -0.043431 0.826911 0 202 255 0.322624
-0.160223 -0.047295 0.825633 0 202 255 0.322705
-0.163637 -0.052708 0.826205 0 202 255 0.322459
-0.165726 -0.054622 0.828255 0 202 255 0.322451
-0.156968 -0.040127 0.828331 0 202 255 0.322582
-0.154291 -0.037133 0.828291 0 202 255 0.322756
-0.154750 -0.038860 0.826486 0 202 255 0.322708
-0.151636 -0.034175 0.828226 0 202 255 0.322801
-0.152088 -0.035865 0.826440 0 202 255 0.322955
-0.149480 -0.032879 0.826376 0 202 255 0.322719
-0.149011 -0.031192 0.828175 0 202 255 0.322776
-0.152509 -0.037615 0.824650 0 202 255 0.322863
-0.149890 -0.034601 0.824599 0 202 255 0.322659
-0.156398 -0.042179 0.825072 0 202 255 0.322664
-0.165244 -0.061770 0.818601 0 202 255 0.322479
-0.166446 -0.063885 0.820658 0 202 255 0.322448
-0.167330 -0.066475 0.820904 0 202 255 0.322495
-0.168380 -0.068671 0.822995 0 202 255 0.322402
-0.167909 -0.069578 0.819396 0 202 255 0.322432
-0.167807 -0.065578 0.824507 0 202 255 0.322403
-0.168827 -0.067797 0.826596 0 202 255 0.322393
-0.166842 -0.062682 0.824043 0 202 255 0.322419
-0.165829 -0.059859 0.823618 0 202 255 0.322508
-0.168473 -0.071811 0.821697 0 202 255 0.322393
-0.168506 -0.074514 0.819972 0 202 255 0.322390
-0.168952 -0.074053 0.824010 0 202 255 0.322384
-0.168954 -0.076782 0.822297 0 202 255 0.322350
-0.169339 -0.078999 0.824587 0 202 255 0.322342
-0.168911 -0.079458 0.820552 0 202 255 0.322338
-0.169355 -0.076289 0.826307 0 202 255 0.322330
-0.169731 -0.078489 0.828592 0 202 255 0.322375
-0.169369 -0.073153 0.827597 0 202 255 0.322356
-0.168922 -0.070920 0.825302 0 202 255 0.322394
-0.170899 -0.074500 0.834428 0 202 255 0.322376
-0.170719 -0.071620 0.833724 0 202 255 0.322376
-0.170051 -0.069378 0.831115 0 202 255 0.322384
-0.169775 -0.066506 0.830406 0 202 255 0.322387
-0.170043 -0.075365 0.830195 0 202 255 0.322373
-0.170648 -0.077602 0.832807 0 202 255 0.322329
-0.169379 -0.062929 0.831811 0 202 255 0.322407
-0.168365 -0.059790 0.831162 0 202 255 0.322423
-0.166871 -0.057604 0.828820 0 202 255 0.322487
-0.167485 -0.061317 0.827539 0 202 255 0.322446
-0.168430 -0.064201 0.828015 0 202 255 0.322403
-0.170821 -0.079366 0.835379 0 202 255 0.322318
-0.170120 -0.082027 0.833740 0 202 255 0.322307
-0.169942 -0.080254 0.831158 0 202 255 0.322379
-0.169197 -0.082936 0.829535 0 202 255 0.322301
-0.169379 -0.084707 0.832106 0 202 255 0.322382
-0.168602 -0.087324 0.830426 0 202 255 0.322421
-0.169331 -0.086718 0.835075 0 202 255 0.322309
-0.170055 -0.084033 0.836707 0 202 255 0.322375
-0.169336 -0.080846 0.826856 0 202 255 0.322378
-0.168896 -0.083203 0.825116 0 202 255 0.322383
-0.168913 -0.081336 0.822845 0 202 255 0.322385
-0.168451 -0.083651 0.821074 0 202 255 0.322307
-0.168431 -0.085517 0.823350 0 202 255 0.322318
-0.167894 -0.087830 0.821579 0 202 255 0.322256
-0.168292 -0.087605 0.826018 0 202 255 0.322298
-0.168768 -0.085266 0.827777 0 202 255 0.322319
-0.164815 -0.095469 0.820952 0 202 255 0.322397
-0.165848 -0.093467 0.823352 0 202 255 0.322413
-0.164828 -0.095514 0.825453 0 202 255 0.322389
-0.166834 -0.091434 0.825723 0 202 255 0.322389
-0.165800 -0.093488 0.827835 0 202 255 0.322391
-0.166736 -0.091426 0.830183 0 202 255 0.322389
-0.164707 -0.095566 0.829948 0 202 255 0.322403
-0.167760 -0.089377 0.828078 0 202 255 0.322384
-0.167386 -0.089639 0.823662 0 202 255 0.322389
-0.166386 -0.091679 0.821287 0 202 255 0.322330
-0.164538 -0.095700 0.832955 0 202 255 0.322385
-0.166150 -0.093210 0.832395 0 202 255 0.322386
-0.165913 -0.093342 0.835410 0 202 255 0.322409
-0.164307 -0.095818 0.835942 0 202 255 0.322298
-0.167483 -0.090853 0.834845 0 202 255 0.322386
-0.165548 -0.093508 0.838400 0 202 255 0.322393
-0.167143 -0.090997 0.837846 0 202 255 0.322382
-0.163970 -0.095997 0.838937 0 202 255 0.322409
-0.168721 -0.088493 0.837281 0 202 255 0.322374
-0.168070 -0.089077 0.832636 0 202 255 0.322310
-0.162947 -0.097685 0.821998 0 202 255 0.322410
-0.162070 -0.099301 0.819085 0 202 255 0.322413
-0.161061 -0.099897 0.823035 0 202 255 0.322386
-0.160178 -0.101476 0.820097 0 202 255 0.322487
-0.158290 -0.103636 0.821102 0 202 255 0.322429
-0.159265 -0.103050 0.817156 0 202 255 0.322420
-0.159173 -0.102069 0.824041 0 202 255 0.322431
-0.157258 -0.104246 0.825053 0 202 255 0.322422
-0.161061 -0.099957 0.827536 0 202 255 0.322330
-0.162976 -0.097730 0.826502 0 202 255 0.322426
-0.157601 -0.104706 0.815645 0 202 255 0.322570
-0.154839 -0.106884 0.815707 0 202 255 0.322478
-0.153188 -0.108462 0.814149 0 202 255 0.322495
-0.150462 -0.110559 0.814152 0 202 255 0.322515
-0.152626 -0.109512 0.810995 0 202 255 0.322514
-0.151021 -0.109541 0.817308 0 202 255 0.322531
-0.148310 -0.111620 0.817289 0 202 255 0.322499
-0.153277 -0.107710 0.819269 0 202 255 0.322622
-0.155514 -0.105853 0.821191 0 202 255 0.322459
-0.145885 -0.111640 0.824833 0 202 255 0.322566
-0.148563 -0.109817 0.827131 0 202 255 0.322600
-0.149661 -0.109267 0.824979 0 202 255 0.322545
-0.151211 -0.107916 0.829358 0 202 255 0.322472
-0.152349 -0.107349 0.827205 0 202 255 0.322610
-0.155017 -0.105368 0.829392 0 202 255 0.322368
-0.153849 -0.105940 0.831540 0 202 255 0.322366
-0.153474 -0.106797 0.825048 0 202 255 0.322558
-0.156172 -0.104792 0.827221 0 202 255 0.322471
-0.151212 -0.108650 0.823115 0 202 255 0.322623
-0.148979 -0.110455 0.821150 0 202 255 0.322484
-0.147444 -0.111045 0.822998 0 202 255 0.322556
-0.145241 -0.112794 0.821000 0 202 255 0.322538
-0.146791 -0.112210 0.819159 0 202 255 0.322569
-0.143700 -0.113378 0.822818 0 202 255 0.322535
-0.155696 -0.103852 0.832802 0 202 255 0.322536
-0.158562 -0.101270 0.834870 0 202 255 0.322450
-0.158759 -0.101115 0.831886 0 202 255 0.322436
-0.161320 -0.098654 0.836914 0 202 255 0.322289
-0.161587 -0.098486 0.833925 0 202 255 0.322400
-0.161787 -0.098329 0.830917 0 202 255 0.322333
-0.159919 -0.100528 0.829713 0 202 255 0.322466
-0.158055 -0.102687 0.828479 0 202 255 0.322536
-0.156880 -0.103266 0.830654 0 202 255 0.322382
-0.141731 -0.114591 0.820673 0 202 255 0.322607
-0.143276 -0.114039 0.818868 0 202 255 0.322679
-0.141338 -0.115282 0.816712 0 202 255 0.322749
-0.144811 -0.113476 0.817027 0 202 255 0.322683
-0.142868 -0.114732 0.814871 0 202 255 0.322792
-0.144393 -0.114136 0.813024 0 202 255 0.322622
-0.146338 -0.112880 0.815169 0 202 255 0.322562
-0.140952 -0.115982 0.812694 0 202 255 0.322917
-0.142482 -0.115403 0.810841 0 202 255 0.322681
-0.140583 -0.116646 0.808632 0 202 255 0.322739
-0.138730 -0.117298 0.810230 0 202 255 0.322731
-0.139090 -0.116604 0.814278 0 202 255 0.322719
-0.136874 -0.117933 0.811816 0 202 255 0.322832
-0.137224 -0.117187 0.815839 0 202 255 0.322788
-0.139469 -0.115895 0.818274 0 202 255 0.322699
-0.135021 -0.118501 0.813389 0 202 255 0.322850
-0.148850 -0.111720 0.812282 0 202 255 0.322632
-0.147265 -0.112853 0.810387 0 202 255 0.322606
-0.149396 -0.111837 0.807229 0 202 255 0.322779
-0.150985 -0.110689 0.809125 0 202 255 0.322530
-0.146754 -0.113481 0.806888 0 202 255 0.322641
-0.146283 -0.114116 0.803382 0 202 255 0.322715
-0.143440 -0.115395 0.806014 0 202 255 0.322848
-0.140824 -0.117637 0.794594 0 202 255 0.322441
-0.140730 -0.117418 0.798127 0 202 255 0.323244
-0.137613 -0.119104 0.796827 0 202 255 0.323159
-0.140670 -0.117184 0.801657 0 202 255 0.323235
-0.137527 -0.118848 0.800346 0 202 255 0.323176
-0.137464 -0.118613 0.803861 0 202 255 0.322825
-0.134411 -0.120538 0.799035 0 202 255 0.322881
-0.140627 -0.116926 0.805152 0 202 255 0.322825
-0.143455 -0.115648 0.802519 0 202 255 0.322906
-0.143506 -0.115901 0.799003 0 202 255 0.323092
-0.132356 -0.121295 0.800400 0 202 255 0.322862
-0.134072 -0.120244 0.803061 0 202 255 0.322845
-0.132033 -0.120959 0.804420 0 202 255 0.322834
-0.130313 -0.122028 0.801752 0 202 255 0.322857
-0.133754 -0.119878 0.807048 0 202 255 0.322813
-0.129979 -0.121655 0.805761 0 202 255 0.322884
-0.131699 -0.120556 0.808385 0 202 255 0.322927
-0.128271 -0.122733 0.803118 0 202 255 0.322858
-0.133451 -0.119464 0.811035 0 202 255 0.322898
-0.135300 -0.118901 0.809428 0 202 255 0.322815
-0.137161 -0.118284 0.807853 0 202 255 0.322935
-0.135611 -0.119269 0.805457 0 202 255 0.322824
-0.095920 -0.020967 0.782627 0 202 255 0.322381
-0.096872 -0.022777 0.780756 0 202 255 0.322388
-0.098695 -0.021780 0.783636 0 202 255 0.322403
-0.099670 -0.023600 0.781768 0 202 255 0.322520
-0.102461 -0.024436 0.782785 0 202 255 0.322330
-0.100636 -0.025437 0.779913 0 202 255 0.322385
-0.101483 -0.022618 0.784652 0 202 255 0.322313
-0.104258 -0.023468 0.785694 0 202 255 0.322284
-0.100733 -0.020518 0.787144 0 202 255 0.322308
-0.097969 -0.019682 0.786104 0 202 255 0.322443
-0.103100 -0.026315 0.780734 0 202 255 0.322345
-0.105556 -0.027220 0.781567 0 202 255 0.322278
-0.108843 -0.029795 0.780900 0 202 255 0.322187
-0.105614 -0.029229 0.778880 0 202 255 0.322541
-0.110420 -0.029089 0.783268 0 202 255 0.322100
-0.107362 -0.026254 0.784476 0 202 255 0.322278
-0.104915 -0.025328 0.783622 0 202 255 0.322285
-0.114332 -0.028540 0.787758 0 202 255 0.321809
-0.111833 -0.027242 0.787222 0 202 255 0.321865
-0.111450 -0.025443 0.789456 0 202 255 0.321906
-0.109319 -0.025960 0.786690 0 202 255 0.322252
-0.108927 -0.024169 0.788928 0 202 255 0.322098
-0.106409 -0.022919 0.788415 0 202 255 0.322202
-0.108538 -0.022382 0.791160 0 202 255 0.322115
-0.106865 -0.020753 0.792169 0 202 255 0.322145
-0.104049 -0.019532 0.791507 0 202 255 0.322222
-0.102399 -0.017910 0.792503 0 202 255 0.322249
-0.100066 -0.018772 0.789222 0 202 255 0.322427
-0.103575 -0.021717 0.787777 0 202 255 0.322266
-0.119988 -0.039622 0.775509 0 202 255 0.322303
-0.119707 -0.037942 0.777888 0 202 255 0.322292
-0.119432 -0.036300 0.780297 0 202 255 0.322290
-0.122469 -0.038442 0.779268 0 202 255 0.322293
-0.116385 -0.034184 0.781311 0 202 255 0.322288
-0.116591 -0.035810 0.778817 0 202 255 0.322290
-0.116793 -0.037492 0.776341 0 202 255 0.322293
-0.114289 -0.035095 0.778222 0 202 255 0.322294
-0.122604 -0.037165 0.781680 0 202 255 0.322291
-0.122741 -0.035936 0.784105 0 202 255 0.322287
-0.125573 -0.038067 0.782950 0 202 255 0.322293
-0.119866 -0.033817 0.785289 0 202 255 0.322283
-0.119666 -0.035042 0.782775 0 202 255 0.322286
-0.113881 -0.030045 0.785000 0 202 255 0.321951
-0.113411 -0.031604 0.782274 0 202 255 0.322265
-0.116760 -0.032653 0.783897 0 202 255 0.322296
-0.117125 -0.031148 0.786497 0 202 255 0.321982
-0.112019 -0.032197 0.780211 0 202 255 0.322282
-0.110433 -0.032939 0.777853 0 202 255 0.322165
-0.134352 -0.034157 0.801030 0 202 255 0.322109
-0.136388 -0.034655 0.803278 0 202 255 0.322162
-0.138436 -0.035113 0.805490 0 202 255 0.322261
-0.138616 -0.036893 0.802579 0 202 255 0.322250
-0.136183 -0.032890 0.806195 0 202 255 0.321978
-0.133709 -0.030451 0.806797 0 202 255 0.322064
-0.134045 -0.032302 0.803913 0 202 255 0.322037
-0.131583 -0.029840 0.804490 0 202 255 0.322076
-0.141404 -0.038753 0.803476 0 202 255 0.322315
-0.141338 -0.037238 0.806406 0 202 255 0.322366
-0.143421 -0.039428 0.805511 0 202 255 0.322424
-0.145504 -0.041612 0.804606 0 202 255 0.322384
-0.143377 -0.037905 0.808417 0 202 255 0.322350
-0.141178 -0.035642 0.809265 0 202 255 0.322367
-0.138247 -0.033529 0.808368 0 202 255 0.322183
-0.138159 -0.031737 0.811557 0 202 255 0.322596
-0.135475 -0.028977 0.812407 0 202 255 0.323039
-0.135828 -0.030894 0.809238 0 202 255 0.322276
-0.141121 -0.033844 0.812430 0 202 255 0.322726
-0.131707 -0.027324 0.809463 0 202 255 0.322162
-0.128288 -0.025076 0.808286 0 202 255 0.322197
-0.123365 -0.029551 0.795501 0 202 255 0.321741
-0.124968 -0.028907 0.798198 0 202 255 0.321764
-0.126560 -0.028258 0.800874 0 202 255 0.321971
-0.127374 -0.030961 0.797797 0 202 255 0.321901
-0.124125 -0.026253 0.801298 0 202 255 0.321984
-0.121420 -0.024088 0.801690 0 202 255 0.322025
-0.122399 -0.026799 0.798606 0 202 255 0.321774
-0.119698 -0.024628 0.798998 0 202 255 0.321836
-0.130120 -0.032101 0.799164 0 202 255 0.322015
-0.129680 -0.029909 0.802106 0 202 255 0.321979
-0.132019 -0.032035 0.801570 0 202 255 0.321994
-0.129040 -0.027582 0.805049 0 202 255 0.322098
-0.125919 -0.025973 0.803836 0 202 255 0.322077
-0.123877 -0.021779 0.808442 0 202 255 0.322171
-0.125175 -0.023503 0.807094 0 202 255 0.322151
-0.121779 -0.021706 0.805930 0 202 255 0.322255
-0.120485 -0.019992 0.807288 0 202 255 0.322153
-0.123074 -0.023423 0.804578 0 202 255 0.322121
-0.117402 -0.018897 0.805777 0 202 255 0.322082
-0.118835 -0.020648 0.804422 0 202 255 0.322091
-0.115615 -0.019476 0.802889 0 202 255 0.322017
-0.114192 -0.017716 0.804244 0 202 255 0.322056
-0.118650 -0.021837 0.802299 0 202 255 0.322023
-0.114080 -0.026918 0.789822 0 202 255 0.321718
-0.116467 -0.028596 0.789830 0 202 255 0.321644
-0.113806 -0.025336 0.791918 0 202 255 0.321733
-0.116208 -0.026972 0.791894 0 202 255 0.321543
-0.115931 -0.025391 0.793979 0 202 255 0.321588
-0.118606 -0.028652 0.791884 0 202 255 0.321651
-0.113520 -0.023745 0.793996 0 202 255 0.322612
-0.113231 -0.022160 0.796075 0 202 255 0.321956
-0.110895 -0.022266 0.793615 0 202 255 0.322027
-0.111171 -0.023853 0.791532 0 202 255 0.321960
-0.118580 -0.027234 0.793967 0 202 255 0.321500
-0.120983 -0.029103 0.793703 0 202 255 0.321731
-0.118555 -0.025819 0.796029 0 202 255 0.321610
-0.120962 -0.027662 0.795760 0 202 255 0.321621
-0.117167 -0.022802 0.799150 0 202 255 0.321935
-0.115893 -0.023992 0.796062 0 202 255 0.321745
-0.111465 -0.017315 0.802067 0 202 255 0.322200
-0.113003 -0.019053 0.800850 0 202 255 0.321986
-0.110133 -0.018689 0.798519 0 202 255 0.322362
-0.108593 -0.016960 0.799739 0 202 255 0.322068
-0.113114 -0.020627 0.798488 0 202 255 0.321920
-0.115736 -0.021032 0.800516 0 202 255 0.321815
-0.106132 -0.017168 0.797065 0 202 255 0.322127
-0.107781 -0.018806 0.796082 0 202 255 0.322074
-0.109336 -0.020529 0.794854 0 202 255 0.322035
-0.125980 -0.037100 0.785340 0 202 255 0.322291
-0.126392 -0.036180 0.787748 0 202 255 0.322263
-0.128147 -0.038256 0.785621 0 202 255 0.322291
-0.124216 -0.035043 0.787486 0 202 255 0.322258
-0.121824 -0.033933 0.787146 0 202 255 0.322254
-0.129948 -0.038522 0.787293 0 202 255 0.322273
-0.128522 -0.036609 0.789407 0 202 255 0.322268
-0.130413 -0.036995 0.790949 0 202 255 0.322208
-0.131845 -0.038910 0.788839 0 202 255 0.322273
-0.128014 -0.034908 0.792306 0 202 255 0.322163
-0.125886 -0.034484 0.790678 0 202 255 0.322258
-0.123578 -0.031793 0.792261 0 202 255 0.321995
-0.121197 -0.031323 0.790432 0 202 255 0.321940
-0.125706 -0.032227 0.793907 0 202 255 0.322007
-0.119267 -0.031202 0.788554 0 202 255 0.321922
-0.132544 -0.034038 0.798896 0 202 255 0.322075
-0.130739 -0.033908 0.796755 0 202 255 0.322104
-0.133165 -0.035864 0.796487 0 202 255 0.322157
-0.135317 -0.037616 0.796099 0 202 255 0.322213
-0.134841 -0.035878 0.798565 0 202 255 0.322168
-0.137007 -0.037611 0.798160 0 202 255 0.322218
-0.128369 -0.033146 0.795419 0 202 255 0.322068
-0.130383 -0.035677 0.793649 0 202 255 0.322165
-0.133832 -0.039451 0.790204 0 202 255 0.322227
-0.132785 -0.037768 0.792294 0 202 255 0.322211
-0.134870 -0.038428 0.793457 0 202 255 0.322212
-0.135916 -0.040097 0.791362 0 202 255 0.322229
-0.138111 -0.040926 0.792409 0 202 255 0.322228
-0.137429 -0.039596 0.794565 0 202 255 0.322157
-0.139727 -0.040584 0.795515 0 202 255 0.322238
-0.140415 -0.041928 0.793359 0 202 255 0.322245
-0.142852 -0.043147 0.794279 0 202 255 0.322279
-0.144599 -0.043745 0.796023 0 202 255 0.322305
-0.146744 -0.045270 0.795581 0 202 255 0.322321
-0.142879 -0.042107 0.797781 0 202 255 0.322310
-0.140583 -0.040408 0.798166 0 202 255 0.322281
-0.148434 -0.046122 0.797177 0 202 255 0.322362
-0.150154 -0.046942 0.798746 0 202 255 0.322507
-0.151754 -0.048424 0.796966 0 202 255 0.322372
-0.148548 -0.045474 0.800524 0 202 255 0.322428
-0.146777 -0.044568 0.798945 0 202 255 0.322363
-0.144617 -0.042884 0.799460 0 202 255 0.322333
-0.143591 -0.040763 0.802861 0 202 255 0.322354
-0.141693 -0.039881 0.801096 0 202 255 0.322297
-0.146459 -0.043650 0.801207 0 202 255 0.322376
-0.138957 -0.038280 0.800150 0 202 255 0.322248
-0.136660 -0.036228 0.800591 0 202 255 0.322188
-0.155165 -0.049453 0.806270 0 202 255 0.322498
-0.157494 -0.051789 0.807801 0 202 255 0.322516
-0.159807 -0.054148 0.809344 0 202 255 0.322487
-0.159189 -0.054029 0.806586 0 202 255 0.322475
-0.158078 -0.051916 0.810552 0 202 255 0.322612
-0.156176 -0.049156 0.811729 0 202 255 0.322491
-0.155638 -0.049308 0.809017 0 202 255 0.322534
-0.153709 -0.046537 0.810196 0 202 255 0.322531
-0.161850 -0.057395 0.806725 0 202 255 0.322385
-0.162566 -0.058417 0.809480 0 202 255 0.322381
-0.164173 -0.060678 0.808168 0 202 255 0.322436
-0.165731 -0.062952 0.806862 0 202 255 0.322399
-0.164844 -0.061767 0.810976 0 202 255 0.322456
-0.163194 -0.059149 0.812216 0 202 255 0.322460
-0.160436 -0.054869 0.812062 0 202 255 0.322516
-0.162969 -0.057584 0.816774 0 202 255 0.322492
-0.161466 -0.055102 0.816609 0 202 255 0.322521
-0.160172 -0.053492 0.815007 0 202 255 0.322494
-0.158649 -0.051071 0.814873 0 202 255 0.322555
-0.161758 -0.056470 0.813639 0 202 255 0.322457
-0.164411 -0.060287 0.815368 0 202 255 0.322470
-0.155341 -0.046364 0.816041 0 202 255 0.322567
-0.152465 -0.043329 0.814325 0 202 255 0.322555
-0.154490 -0.046528 0.813059 0 202 255 0.322600
-0.159885 -0.054952 0.798250 0 202 255 0.322415
-0.161199 -0.056428 0.800259 0 202 255 0.322392
-0.163208 -0.058389 0.801294 0 202 255 0.322389
-0.159924 -0.055225 0.802148 0 202 255 0.322318
-0.158608 -0.053738 0.800136 0 202 255 0.322401
-0.157320 -0.052549 0.802010 0 202 255 0.322438
-0.163649 -0.059832 0.805656 0 202 255 0.322420
-0.162104 -0.057323 0.803373 0 202 255 0.322354
-0.164652 -0.060795 0.803429 0 202 255 0.322392
-0.166824 -0.063747 0.804600 0 202 255 0.322439
-0.157032 -0.051751 0.805319 0 202 255 0.322551
-0.167465 -0.066853 0.808281 0 202 255 0.322396
-0.169060 -0.070928 0.809808 0 202 255 0.322387
-0.168840 -0.069138 0.806850 0 202 255 0.322352
-0.167736 -0.068613 0.811205 0 202 255 0.322399
-0.166506 -0.065894 0.812467 0 202 255 0.322413
-0.166155 -0.064428 0.809671 0 202 255 0.322458
-0.169823 -0.073299 0.808435 0 202 255 0.322371
-0.170767 -0.077466 0.808398 0 202 255 0.322361
-0.169795 -0.077493 0.811542 0 202 255 0.322362
-0.169111 -0.075103 0.812906 0 202 255 0.322373
-0.168853 -0.077224 0.818599 0 202 255 0.322391
-0.168728 -0.074993 0.816632 0 202 255 0.322348
-0.168350 -0.072287 0.818010 0 202 255 0.322402
-0.168116 -0.070090 0.816063 0 202 255 0.322406
-0.168550 -0.072786 0.814670 0 202 255 0.322359
-0.169225 -0.077316 0.814879 0 202 255 0.322389
-0.169328 -0.079552 0.816849 0 202 255 0.322389
-0.167186 -0.067471 0.817599 0 202 255 0.322428
-0.166244 -0.064842 0.817326 0 202 255 0.322431
-0.165398 -0.062826 0.815580 0 202 255 0.322442
-0.167370 -0.067982 0.814253 0 202 255 0.322414
-0.167316 -0.095838 0.806814 0 202 255 0.322364
-0.165592 -0.097750 0.807856 0 202 255 0.322319
-0.165642 -0.098772 0.805728 0 202 255 0.322365
-0.163992 -0.100618 0.806712 0 202 255 0.322341
-0.165761 -0.099739 0.803550 0 202 255 0.322358
-0.163891 -0.099631 0.808867 0 202 255 0.322378
-0.162185 -0.101489 0.809861 0 202 255 0.322389
-0.164261 -0.098248 0.811315 0 202 255 0.322384
-0.165999 -0.096320 0.810275 0 202 255 0.322375
-0.167725 -0.094396 0.809217 0 202 255 0.322369
-0.166343 -0.094902 0.812705 0 202 255 0.322386
-0.163505 -0.101642 0.804009 0 202 255 0.322365
-0.163559 -0.102270 0.801710 0 202 255 0.322318
-0.161363 -0.103463 0.804383 0 202 255 0.322383
-0.161345 -0.104132 0.802108 0 202 255 0.322363
-0.159227 -0.105925 0.802440 0 202 255 0.322372
-0.161417 -0.104755 0.799781 0 202 255 0.322321
-0.157021 -0.107103 0.805091 0 202 255 0.322411
-0.159603 -0.104319 0.807517 0 202 255 0.322449
-0.161726 -0.102527 0.807155 0 202 255 0.322342
-0.155010 -0.107553 0.810749 0 202 255 0.322435
-0.156665 -0.105939 0.812293 0 202 255 0.322447
-0.159049 -0.103928 0.812003 0 202 255 0.322548
-0.160706 -0.102291 0.813523 0 202 255 0.322399
-0.157207 -0.106339 0.807800 0 202 255 0.322427
-0.154824 -0.108323 0.808047 0 202 255 0.322403
-0.161019 -0.101054 0.816072 0 202 255 0.322415
-0.162827 -0.099015 0.814967 0 202 255 0.322402
-0.163858 -0.097234 0.817964 0 202 255 0.322400
-0.165618 -0.095174 0.816834 0 202 255 0.322388
-0.164598 -0.096972 0.813845 0 202 255 0.322434
-0.162518 -0.100254 0.812407 0 202 255 0.322393
-0.168994 -0.081520 0.818786 0 202 255 0.322367
-0.169009 -0.083591 0.817033 0 202 255 0.322349
-0.169381 -0.081585 0.815060 0 202 255 0.322334
-0.169366 -0.083690 0.813306 0 202 255 0.322345
-0.168980 -0.085634 0.815245 0 202 255 0.322341
-0.168910 -0.087699 0.813466 0 202 255 0.322349
-0.168413 -0.087795 0.817545 0 202 255 0.322385
-0.168453 -0.085731 0.819320 0 202 255 0.322386
-0.170122 -0.081512 0.811491 0 202 255 0.322377
-0.170512 -0.083403 0.809877 0 202 255 0.322368
-0.170077 -0.087389 0.810046 0 202 255 0.322359
-0.169714 -0.085568 0.811696 0 202 255 0.322378
-0.169039 -0.092403 0.807692 0 202 255 0.322366
-0.169050 -0.090793 0.809593 0 202 255 0.322359
-0.167725 -0.092846 0.811157 0 202 255 0.322373
-0.167689 -0.091307 0.813092 0 202 255 0.322380
-0.166794 -0.093164 0.814944 0 202 255 0.322385
-0.167221 -0.091376 0.817154 0 202 255 0.322384
-0.165990 -0.093457 0.819071 0 202 255 0.322393
-0.167597 -0.089600 0.819368 0 202 255 0.322386
-0.168075 -0.089553 0.815326 0 202 255 0.322360
-0.152025 -0.110501 0.804798 0 202 255 0.322516
-0.154533 -0.108814 0.804955 0 202 255 0.322493
-0.154211 -0.109315 0.801867 0 202 255 0.322402
-0.151724 -0.111003 0.801675 0 202 255 0.322412
-0.151478 -0.111470 0.798539 0 202 255 0.322495
-0.148896 -0.112802 0.800961 0 202 255 0.322427
-0.149140 -0.112319 0.804107 0 202 255 0.322597
-0.156838 -0.107590 0.802366 0 202 255 0.322444
-0.156628 -0.108101 0.799656 0 202 255 0.322391
-0.159027 -0.106426 0.799729 0 202 255 0.322377
-0.158793 -0.106929 0.797014 0 202 255 0.322465
-0.156477 -0.108543 0.796872 0 202 255 0.322399
-0.156294 -0.109031 0.794118 0 202 255 0.322406
-0.153911 -0.110261 0.796340 0 202 255 0.322408
-0.154014 -0.109811 0.799113 0 202 255 0.322407
-0.151696 -0.112281 0.786820 0 202 255 0.322442
-0.151596 -0.112110 0.789805 0 202 255 0.322444
-0.149116 -0.113546 0.788697 0 202 255 0.322429
-0.151515 -0.111933 0.792721 0 202 255 0.322430
-0.149006 -0.113376 0.791638 0 202 255 0.322449
-0.148934 -0.113171 0.794576 0 202 255 0.322558
-0.146480 -0.114799 0.790570 0 202 255 0.322449
-0.151493 -0.111715 0.795653 0 202 255 0.322478
-0.153896 -0.110491 0.793450 0 202 255 0.322429
-0.153925 -0.110700 0.790517 0 202 255 0.322499
-0.146397 -0.114680 0.793799 0 202 255 0.322445
-0.143650 -0.116222 0.792581 0 202 255 0.322465
-0.146334 -0.114504 0.796999 0 202 255 0.322440
-0.143565 -0.116089 0.795800 0 202 255 0.322441
-0.146304 -0.114309 0.800194 0 202 255 0.322462
-0.148911 -0.112997 0.797784 0 202 255 0.322428
-0.154072 -0.111005 0.787799 0 202 255 0.322426
-0.156369 -0.109375 0.791446 0 202 255 0.322403
-0.158745 -0.107490 0.794546 0 202 255 0.322459
-0.133178 -0.044717 0.770470 0 202 255 0.322319
-0.132583 -0.043697 0.772810 0 202 255 0.322316
-0.132021 -0.042697 0.775168 0 202 255 0.322313
-0.135116 -0.043753 0.773704 0 202 255 0.322316
-0.128929 -0.041635 0.776639 0 202 255 0.322304
-0.129427 -0.042694 0.774224 0 202 255 0.322310
-0.129944 -0.043728 0.771815 0 202 255 0.322314
-0.126696 -0.042737 0.773173 0 202 255 0.322336
-0.134848 -0.043078 0.776136 0 202 255 0.322311
-0.134583 -0.042413 0.778560 0 202 255 0.322309
-0.137528 -0.043495 0.777022 0 202 255 0.322307
-0.131612 -0.041311 0.780123 0 202 255 0.322329
-0.131829 -0.042016 0.777650 0 202 255 0.322305
-0.125630 -0.039052 0.780453 0 202 255 0.322296
-0.125697 -0.040055 0.777965 0 202 255 0.322298
-0.128763 -0.040657 0.779083 0 202 255 0.322301
-0.128607 -0.039681 0.781523 0 202 255 0.322295
-0.122915 -0.039804 0.776798 0 202 255 0.322298
-0.123361 -0.041178 0.774328 0 202 255 0.322304
-0.126216 -0.041392 0.775553 0 202 255 0.322304
-0.138966 -0.044103 0.773941 0 202 255 0.322316
-0.141376 -0.044304 0.774757 0 202 255 0.322315
-0.136856 -0.044701 0.770788 0 202 255 0.322321
-0.143309 -0.044798 0.783382 0 202 255 0.322267
-0.142491 -0.044191 0.786096 0 202 255 0.322252
-0.145764 -0.045594 0.785051 0 202 255 0.322260
-0.141673 -0.043585 0.788795 0 202 255 0.322237
-0.138933 -0.042757 0.787163 0 202 255 0.322208
-0.147279 -0.046075 0.787277 0 202 255 0.322263
-0.150218 -0.047345 0.787344 0 202 255 0.322203
-0.145959 -0.045425 0.789303 0 202 255 0.322262
-0.141629 -0.043003 0.791304 0 202 255 0.322243
-0.139320 -0.042001 0.790373 0 202 255 0.322216
-0.144712 -0.044563 0.791362 0 202 255 0.322259
-0.136460 -0.041108 0.788689 0 202 255 0.322233
-0.137496 -0.043157 0.779495 0 202 255 0.322298
-0.137478 -0.042792 0.781981 0 202 255 0.322287
-0.140268 -0.043935 0.780385 0 202 255 0.322284
-0.134674 -0.041637 0.783558 0 202 255 0.322297
-0.134626 -0.042019 0.781069 0 202 255 0.322302
-0.139916 -0.043410 0.784240 0 202 255 0.322252
-0.133742 -0.040370 0.786580 0 202 255 0.322275
-0.131849 -0.039973 0.785032 0 202 255 0.322293
-0.131737 -0.040646 0.782571 0 202 255 0.322295
-0.144288 -0.044936 0.780297 0 202 255 0.322292
-0.140180 -0.043986 0.777948 0 202 255 0.322306
-0.143373 -0.044667 0.777205 0 202 255 0.322307
-0.150306 -0.047576 0.789750 0 202 255 0.322281
-0.152419 -0.048684 0.790491 0 202 255 0.322293
-0.150441 -0.047793 0.792162 0 202 255 0.322301
-0.148073 -0.046554 0.791367 0 202 255 0.322277
-0.154949 -0.050394 0.792236 0 202 255 0.322315
-0.151083 -0.048114 0.794569 0 202 255 0.322382
-0.148596 -0.046520 0.793874 0 202 255 0.322188
-0.153415 -0.049549 0.795191 0 202 255 0.322345
-0.148688 -0.046548 0.785253 0 202 255 0.322269
-0.147396 -0.045941 0.782873 0 202 255 0.322278
-0.074280 -0.120947 0.869455 0 202 255 0.322331
-0.076169 -0.119404 0.873107 0 202 255 0.322324
-0.072377 -0.122428 0.865762 0 202 255 0.322352
-0.074916 -0.122699 0.864610 0 202 255 0.322359
-0.076815 -0.121194 0.868284 0 202 255 0.322336
-0.078700 -0.119619 0.871919 0 202 255 0.322325
-0.071750 -0.124037 0.861468 0 202 255 0.322381
-0.071124 -0.125611 0.857170 0 202 255 0.322403
-0.068630 -0.125393 0.858419 0 202 255 0.322393
-0.069259 -0.123841 0.862736 0 202 255 0.322372
-0.079462 -0.121357 0.866804 0 202 255 0.322345
-0.081408 -0.119872 0.870401 0 202 255 0.322329
-0.077507 -0.122830 0.863170 0 202 255 0.322365
-0.076908 -0.124356 0.858754 0 202 255 0.322405
-0.073711 -0.125758 0.855757 0 202 255 0.322411
-0.074313 -0.124217 0.860179 0 202 255 0.322390
-0.068907 -0.129430 0.843827 0 202 255 0.322309
-0.065665 -0.130810 0.840811 0 202 255 0.322207
-0.069637 -0.128037 0.848252 0 202 255 0.322373
-0.066370 -0.129281 0.845208 0 202 255 0.322269
-0.067102 -0.127901 0.849635 0 202 255 0.322366
-0.063122 -0.130666 0.842194 0 202 255 0.322142
-0.070371 -0.126745 0.852702 0 202 255 0.322476
-0.072963 -0.126923 0.851298 0 202 255 0.322480
-0.063854 -0.129081 0.846505 0 202 255 0.322329
-0.060677 -0.130454 0.843490 0 202 255 0.322300
-0.064605 -0.127676 0.850869 0 202 255 0.322346
-0.061410 -0.128886 0.847817 0 202 255 0.322314
-0.066612 -0.126481 0.854643 0 202 255 0.322587
-0.081794 -0.029310 0.892899 0 202 255 0.322343
-0.082404 -0.026020 0.890370 0 202 255 0.322266
-0.082168 -0.022608 0.888076 0 202 255 0.322262
-0.079953 -0.025574 0.890891 0 202 255 0.322219
-0.079380 -0.028887 0.893415 0 202 255 0.322238
-0.081854 -0.019132 0.885809 0 202 255 0.322192
-0.081513 -0.015527 0.883609 0 202 255 0.322139
-0.076879 -0.025312 0.891896 0 202 255 0.322200
-0.077412 -0.018672 0.886956 0 202 255 0.322035
-0.079090 -0.015331 0.884224 0 202 255 0.322085
-0.079304 -0.022228 0.888729 0 202 255 0.322198
-0.080442 -0.007072 0.876643 0 202 255 0.322197
-0.079801 -0.009814 0.879130 0 202 255 0.322165
-0.082824 -0.010197 0.878624 0 202 255 0.322198
-0.083486 -0.007420 0.876228 0 202 255 0.322251
-0.080654 -0.012731 0.881337 0 202 255 0.322044
-0.078241 -0.012494 0.881960 0 202 255 0.322132
-0.085967 -0.007771 0.875983 0 202 255 0.322257
-0.086391 -0.010734 0.878191 0 202 255 0.322245
-0.084346 -0.013227 0.880751 0 202 255 0.322187
-0.084012 -0.071423 0.907053 0 202 255 0.322334
-0.083765 -0.066952 0.907068 0 202 255 0.322338
-0.085650 -0.076175 0.906498 0 202 255 0.322308
-0.087266 -0.080841 0.905821 0 202 255 0.322310
-0.086229 -0.067121 0.906577 0 202 255 0.322321
-0.088360 -0.076162 0.905954 0 202 255 0.322313
-0.086419 -0.071690 0.906496 0 202 255 0.322322
-0.092228 -0.093790 0.899400 0 202 255 0.322259
-0.092617 -0.097822 0.897461 0 202 255 0.322302
-0.090039 -0.089450 0.901798 0 202 255 0.322291
-0.088702 -0.093285 0.900339 0 202 255 0.322262
-0.089074 -0.097370 0.898359 0 202 255 0.322274
-0.089561 -0.085334 0.903607 0 202 255 0.322281
-0.086745 -0.097070 0.899229 0 202 255 0.322321
-0.086380 -0.088929 0.902854 0 202 255 0.322280
-0.085441 -0.092854 0.901552 0 202 255 0.322288
-0.086861 -0.084912 0.904387 0 202 255 0.322270
-0.084680 -0.100174 0.896649 0 202 255 0.322288
-0.084932 -0.103528 0.893151 0 202 255 0.322286
-0.087011 -0.100446 0.895762 0 202 255 0.322288
-0.087262 -0.103804 0.892301 0 202 255 0.322273
-0.085168 -0.106868 0.889675 0 202 255 0.322278
-0.085406 -0.110170 0.886191 0 202 255 0.322295
-0.082896 -0.109948 0.887258 0 202 255 0.322295
-0.082677 -0.106650 0.890792 0 202 255 0.322284
-0.089569 -0.100836 0.894437 0 202 255 0.322286
-0.090074 -0.104301 0.890537 0 202 255 0.322276
-0.089151 -0.107452 0.887459 0 202 255 0.322273
-0.088234 -0.110671 0.884471 0 202 255 0.322292
-0.083084 -0.117561 0.873933 0 202 255 0.322346
-0.084768 -0.115242 0.877491 0 202 255 0.322299
-0.082065 -0.115023 0.879046 0 202 255 0.322343
-0.080379 -0.117339 0.875467 0 202 255 0.322307
-0.085090 -0.112734 0.881840 0 202 255 0.322286
-0.087922 -0.113227 0.880146 0 202 255 0.322292
-0.077849 -0.117149 0.876591 0 202 255 0.322325
-0.079540 -0.114768 0.880070 0 202 255 0.322290
-0.079970 -0.112303 0.884218 0 202 255 0.322286
-0.082481 -0.112525 0.883156 0 202 255 0.322285
-0.079112 -0.057030 0.906558 0 202 255 0.322335
-0.079000 -0.052701 0.905073 0 202 255 0.322332
-0.078309 -0.048238 0.903745 0 202 255 0.322324
-0.077710 -0.043854 0.902426 0 202 255 0.322352
-0.077008 -0.056549 0.907138 0 202 255 0.322337
-0.076139 -0.047860 0.904450 0 202 255 0.322334
-0.076914 -0.052247 0.905682 0 202 255 0.322340
-0.077116 -0.032366 0.896261 0 202 255 0.322228
-0.077609 -0.036130 0.898189 0 202 255 0.322348
-0.077227 -0.039909 0.900464 0 202 255 0.322320
-0.079605 -0.032654 0.895437 0 202 255 0.322330
-0.079814 -0.036432 0.897602 0 202 255 0.322324
-0.102887 0.000666 0.858329 0 202 255 0.322298
-0.104751 0.000847 0.856241 0 202 255 0.322292
-0.101059 0.000556 0.860448 0 202 255 0.322308
-0.104439 -0.000164 0.860804 0 202 255 0.322300
-0.106257 -0.000059 0.858710 0 202 255 0.322292
-0.108129 0.000128 0.856623 0 202 255 0.322275
-0.102614 -0.000307 0.862893 0 202 255 0.322306
-0.100809 -0.000501 0.864947 0 202 255 0.322303
-0.099429 0.000214 0.862615 0 202 255 0.322311
-0.097832 -0.000108 0.864783 0 202 255 0.322315
-0.108901 -0.000542 0.859150 0 202 255 0.322290
-0.110888 -0.000447 0.857190 0 202 255 0.322302
-0.106950 -0.000563 0.861113 0 202 255 0.322303
-0.105128 -0.000726 0.863181 0 202 255 0.322322
-0.103325 -0.000872 0.865248 0 202 255 0.322314
-0.098482 -0.005067 0.871438 0 202 255 0.322320
-0.099968 -0.003772 0.869320 0 202 255 0.322296
-0.100374 -0.002138 0.867148 0 202 255 0.322312
-0.094748 -0.004477 0.871197 0 202 255 0.322285
-0.094755 -0.002961 0.869004 0 202 255 0.322311
-0.092230 -0.004149 0.871204 0 202 255 0.322309
-0.094786 -0.001367 0.866833 0 202 255 0.322315
-0.097772 -0.001716 0.866979 0 202 255 0.322315
-0.116723 -0.003870 0.841462 0 202 255 0.322151
-0.120573 -0.006141 0.840005 0 202 255 0.322150
-0.116482 -0.003397 0.843820 0 202 255 0.322160
-0.120329 -0.005678 0.842349 0 202 255 0.322194
-0.120083 -0.005214 0.844693 0 202 255 0.322146
-0.124193 -0.007876 0.840912 0 202 255 0.322196
-0.116266 -0.002898 0.846181 0 202 255 0.322197
-0.116025 -0.002500 0.848526 0 202 255 0.322241
-0.112550 -0.001205 0.847871 0 202 255 0.322206
-0.112768 -0.001672 0.845510 0 202 255 0.322171
-0.123562 -0.006986 0.843285 0 202 255 0.322105
-0.127185 -0.009116 0.842264 0 202 255 0.322222
-0.122940 -0.006090 0.845668 0 202 255 0.322202
-0.126546 -0.008230 0.844645 0 202 255 0.322205
-0.122339 -0.005200 0.848058 0 202 255 0.322223
-0.118905 -0.003365 0.849490 0 202 255 0.322258
-0.119501 -0.004256 0.847104 0 202 255 0.322178
-0.112837 -0.001094 0.855167 0 202 255 0.322264
-0.114819 -0.001706 0.853150 0 202 255 0.322246
-0.112060 -0.001166 0.852573 0 202 255 0.322215
-0.110086 -0.000517 0.854598 0 202 255 0.322250
-0.115431 -0.002067 0.850847 0 202 255 0.322228
-0.118277 -0.003014 0.851790 0 202 255 0.322242
-0.106655 0.000496 0.854091 0 202 255 0.322259
-0.108559 0.000078 0.851929 0 202 255 0.322226
-0.110565 -0.000534 0.849903 0 202 255 0.322201
-0.133324 -0.019180 0.828088 0 202 255 0.322513
-0.134972 -0.021226 0.826486 0 202 255 0.322670
-0.131663 -0.017122 0.829697 0 202 255 0.322383
-0.135726 -0.019704 0.830521 0 202 255 0.322530
-0.137025 -0.022503 0.826889 0 202 255 0.322721
-0.139080 -0.023750 0.827296 0 202 255 0.322700
-0.134039 -0.017705 0.832135 0 202 255 0.322410
-0.132349 -0.015702 0.833758 0 202 255 0.322320
-0.130022 -0.015313 0.831276 0 202 255 0.322294
-0.128379 -0.013504 0.832847 0 202 255 0.322244
-0.141426 -0.025225 0.827979 0 202 255 0.322687
-0.139177 -0.022372 0.829658 0 202 255 0.322546
-0.141488 -0.023863 0.830357 0 202 255 0.322659
-0.143785 -0.026685 0.828664 0 202 255 0.322857
-0.139230 -0.021040 0.832042 0 202 255 0.322542
-0.143847 -0.025318 0.831034 0 202 255 0.322697
-0.141544 -0.022536 0.832729 0 202 255 0.322573
-0.146169 -0.028116 0.829324 0 202 255 0.322579
-0.139255 -0.019733 0.834433 0 202 255 0.322441
-0.135803 -0.017094 0.835303 0 202 255 0.322418
-0.129229 -0.011047 0.840472 0 202 255 0.322226
-0.131270 -0.012984 0.838673 0 202 255 0.322290
-0.128239 -0.011842 0.837327 0 202 255 0.322094
-0.126210 -0.009875 0.839118 0 202 255 0.322205
-0.131809 -0.014340 0.836209 0 202 255 0.322281
-0.135216 -0.015804 0.837743 0 202 255 0.322358
-0.122446 -0.007835 0.838205 0 202 255 0.322001
-0.124347 -0.009493 0.836417 0 202 255 0.322156
-0.124404 -0.010350 0.834163 0 202 255 0.322182
-0.128312 -0.012660 0.835082 0 202 255 0.322242
-0.141022 -0.032133 0.815480 0 202 255 0.322928
-0.141268 -0.030528 0.818448 0 202 255 0.322960
-0.143448 -0.033020 0.817417 0 202 255 0.323231
-0.145600 -0.035487 0.816372 0 202 255 0.322741
-0.143692 -0.031403 0.820377 0 202 255 0.322864
-0.141196 -0.028827 0.821367 0 202 255 0.322937
-0.137507 -0.026322 0.820664 0 202 255 0.323045
-0.148293 -0.037126 0.818181 0 202 255 0.322735
-0.147298 -0.034589 0.820945 0 202 255 0.322781
-0.145809 -0.029800 0.825844 0 202 255 0.322710
-0.143425 -0.028331 0.825193 0 202 255 0.322752
-0.141079 -0.026853 0.824510 0 202 255 0.322824
-0.146259 -0.031489 0.824059 0 202 255 0.322924
-0.137406 -0.024387 0.823801 0 202 255 0.322808
-0.135347 -0.023114 0.823398 0 202 255 0.322738
-0.147339 -0.042262 0.806422 0 202 255 0.322446
-0.149164 -0.042884 0.808222 0 202 255 0.322468
-0.149124 -0.044275 0.805380 0 202 255 0.322459
-0.147365 -0.040879 0.809268 0 202 255 0.322366
-0.145299 -0.038669 0.810265 0 202 255 0.322534
-0.145427 -0.040138 0.807437 0 202 255 0.322434
-0.151552 -0.046231 0.805784 0 202 255 0.322504
-0.151791 -0.045371 0.808571 0 202 255 0.322518
-0.153442 -0.047415 0.807435 0 202 255 0.322530
-0.151940 -0.044335 0.811315 0 202 255 0.322536
-0.149278 -0.041864 0.810984 0 202 255 0.322517
-0.149227 -0.039585 0.815373 0 202 255 0.322661
-0.146833 -0.038048 0.813569 0 202 255 0.322632
-0.143353 -0.034683 0.814416 0 202 255 0.322761
-0.143395 -0.036386 0.811374 0 202 255 0.322572
-0.154024 -0.049983 0.798534 0 202 255 0.322506
-0.152615 -0.048630 0.800353 0 202 255 0.322434
-0.156808 -0.052300 0.797920 0 202 255 0.322386
-0.155118 -0.050626 0.801749 0 202 255 0.322448
-0.153370 -0.048195 0.804923 0 202 255 0.322579
-0.149439 -0.045323 0.803083 0 202 255 0.322460
-0.151183 -0.047013 0.802280 0 202 255 0.322470
-0.158351 -0.053343 0.796086 0 202 255 0.322411
-0.155410 -0.051031 0.795615 0 202 255 0.322352
0.115993 -0.003775 0.878306 0 202 255 0.322414
0.111378 -0.002706 0.878561 0 202 255 0.322428
0.117127 -0.004249 0.875877 0 202 255 0.322427
0.112489 -0.003165 0.876127 0 202 255 0.322409
0.113627 -0.003653 0.873692 0 202 255 0.322393
0.110207 -0.002147 0.880917 0 202 255 0.322442
0.123362 -0.008340 0.867507 0 202 255 0.322421
0.119259 -0.006777 0.868048 0 202 255 0.322394
0.118506 -0.005852 0.870625 0 202 255 0.322396
0.115131 -0.005294 0.868572 0 202 255 0.322392
0.119936 -0.007713 0.865380 0 202 255 0.322414
0.115832 -0.006202 0.865970 0 202 255 0.322383
0.116571 -0.007145 0.863361 0 202 255 0.322402
0.117741 -0.004982 0.873156 0 202 255 0.322425
0.114398 -0.004476 0.871176 0 202 255 0.322405
0.084454 -0.001709 0.866748 0 202 255 0.323657
0.088192 -0.001637 0.868757 0 202 255 0.324056
0.089313 -0.002177 0.866373 0 202 255 0.323243
0.091883 -0.001611 0.870754 0 202 255 0.323348
0.093036 -0.002121 0.868376 0 202 255 0.322852
0.096727 -0.002028 0.870354 0 202 255 0.322530
0.095571 -0.001511 0.872723 0 202 255 0.322737
0.094192 -0.002572 0.865972 0 202 255 0.322561
0.097874 -0.002512 0.867954 0 202 255 0.322500
0.099015 -0.002954 0.865517 0 202 255 0.322403
0.095366 -0.002984 0.863580 0 202 255 0.322490
0.090476 -0.002650 0.864023 0 202 255 0.322696
0.091633 -0.003061 0.861626 0 202 255 0.322482
0.086739 -0.002757 0.862053 0 202 255 0.322982
0.085591 -0.002268 0.864415 0 202 255 0.323629
0.081790 -0.002360 0.862396 0 202 255 0.323236
0.087923 -0.003169 0.859670 0 202 255 0.322579
0.082931 -0.002852 0.860037 0 202 255 0.323237
0.084038 -0.003276 0.857606 0 202 255 0.322716
0.080654 -0.001786 0.864730 0 202 255 0.322804
0.099202 -0.001653 0.874724 0 202 255 0.322603
0.102852 -0.001820 0.876772 0 202 255 0.322535
0.103997 -0.002331 0.874372 0 202 255 0.322489
0.106533 -0.001986 0.878837 0 202 255 0.322464
0.107683 -0.002499 0.876459 0 202 255 0.322449
0.108812 -0.002908 0.874020 0 202 255 0.322451
0.109954 -0.003462 0.871626 0 202 255 0.322416
0.105160 -0.002792 0.872000 0 202 255 0.322446
0.106326 -0.003248 0.869576 0 202 255 0.322414
0.101500 -0.002630 0.869961 0 202 255 0.322476
0.100346 -0.002172 0.872350 0 202 255 0.322540
0.102678 -0.003080 0.867543 0 202 255 0.322394
0.113002 -0.006944 0.861350 0 202 255 0.322422
0.112214 -0.005952 0.863883 0 202 255 0.322442
0.108667 -0.005772 0.861922 0 202 255 0.322397
0.109433 -0.006707 0.859348 0 202 255 0.322385
0.107830 -0.004838 0.864419 0 202 255 0.322403
0.105080 -0.005531 0.859927 0 202 255 0.322412
0.104245 -0.004616 0.862460 0 202 255 0.322409
0.100711 -0.004455 0.860491 0 202 255 0.322404
0.105936 -0.006518 0.857373 0 202 255 0.322390
0.101543 -0.005327 0.857943 0 202 255 0.322395
0.102358 -0.006261 0.855455 0 202 255 0.322388
0.103452 -0.003809 0.864977 0 202 255 0.322432
0.099865 -0.003662 0.863012 0 202 255 0.322399
0.107062 -0.003999 0.867006 0 202 255 0.322414
0.110725 -0.004240 0.869063 0 202 255 0.322401
0.111445 -0.005045 0.866484 0 202 255 0.322395
0.098742 -0.006225 0.853521 0 202 255 0.322397
0.097869 -0.005312 0.856033 0 202 255 0.322409
0.094212 -0.005280 0.854071 0 202 255 0.322412
0.095100 -0.006160 0.851598 0 202 255 0.322399
0.093300 -0.004495 0.856568 0 202 255 0.322432
0.090483 -0.005341 0.852119 0 202 255 0.322423
0.089597 -0.004585 0.854645 0 202 255 0.322456
0.085724 -0.004658 0.852575 0 202 255 0.322537
0.091354 -0.006157 0.849624 0 202 255 0.322425
0.086569 -0.005318 0.849967 0 202 255 0.322439
0.087415 -0.006086 0.847399 0 202 255 0.322395
0.088714 -0.003840 0.857114 0 202 255 0.322500
0.084866 -0.003944 0.855087 0 202 255 0.322549
0.092470 -0.003743 0.859098 0 202 255 0.322480
0.096191 -0.003701 0.861049 0 202 255 0.322431
0.097014 -0.004486 0.858538 0 202 255 0.322416
0.091704 -0.007301 0.846844 0 202 255 0.322391
0.095522 -0.007396 0.848929 0 202 255 0.322392
0.095918 -0.008733 0.846240 0 202 255 0.322383
0.099173 -0.007502 0.850868 0 202 255 0.322390
0.099597 -0.008894 0.848212 0 202 255 0.322421
0.103199 -0.009018 0.850141 0 202 255 0.322378
0.102767 -0.007596 0.852797 0 202 255 0.322424
0.100012 -0.010316 0.845551 0 202 255 0.322369
0.103621 -0.010461 0.847504 0 202 255 0.322369
0.104033 -0.011949 0.844834 0 202 255 0.322302
0.100519 -0.011854 0.842949 0 202 255 0.322383
0.096431 -0.010177 0.843620 0 202 255 0.322374
0.096934 -0.011682 0.840977 0 202 255 0.322358
0.092644 -0.009949 0.841394 0 202 255 0.322354
0.092174 -0.008583 0.844134 0 202 255 0.322382
0.088450 -0.008556 0.842005 0 202 255 0.322369
0.093141 -0.011406 0.838675 0 202 255 0.322360
0.089012 -0.009926 0.839311 0 202 255 0.322370
0.089582 -0.011377 0.836654 0 202 255 0.322361
0.087923 -0.007273 0.844691 0 202 255 0.322388
0.106171 -0.007755 0.854656 0 202 255 0.322385
0.109745 -0.008028 0.856622 0 202 255 0.322390
0.110000 -0.009322 0.853854 0 202 255 0.322378
0.113257 -0.008201 0.858584 0 202 255 0.322407
0.113541 -0.009553 0.855841 0 202 255 0.322381
0.117040 -0.009795 0.857834 0 202 255 0.322425
0.116808 -0.008448 0.860606 0 202 255 0.322415
0.113780 -0.010949 0.853057 0 202 255 0.322352
0.117295 -0.011219 0.855031 0 202 255 0.322373
0.117494 -0.012626 0.852268 0 202 255 0.322360
0.114165 -0.012478 0.850398 0 202 255 0.322355
0.110395 -0.010788 0.851216 0 202 255 0.322371
0.110787 -0.012317 0.848546 0 202 255 0.322354
0.107025 -0.010630 0.849343 0 202 255 0.322366
0.106611 -0.009167 0.851997 0 202 255 0.322381
0.107404 -0.012140 0.846688 0 202 255 0.322322
0.116722 -0.020651 0.840952 0 202 255 0.322297
0.113552 -0.020536 0.839278 0 202 255 0.322279
0.113573 -0.018400 0.841919 0 202 255 0.322286
0.110412 -0.018291 0.840252 0 202 255 0.322278
0.110390 -0.020413 0.837613 0 202 255 0.322275
0.110423 -0.016201 0.842892 0 202 255 0.322352
0.107240 -0.018161 0.838568 0 202 255 0.322287
0.107246 -0.016086 0.841190 0 202 255 0.322308
0.104057 -0.015935 0.839535 0 202 255 0.322313
0.107237 -0.020306 0.835949 0 202 255 0.322278
0.104068 -0.018039 0.836859 0 202 255 0.322291
0.104055 -0.020170 0.834173 0 202 255 0.322286
0.107248 -0.014071 0.843863 0 202 255 0.322336
0.104048 -0.013927 0.842168 0 202 255 0.322314
0.110609 -0.014255 0.845709 0 202 255 0.322335
0.113968 -0.014419 0.847554 0 202 255 0.322339
0.113774 -0.016388 0.844744 0 202 255 0.322306
0.117116 -0.016568 0.846558 0 202 255 0.322335
0.117331 -0.014588 0.849424 0 202 255 0.322379
0.116916 -0.018577 0.843771 0 202 255 0.322312
0.100639 -0.020028 0.832055 0 202 255 0.322298
0.100505 -0.017869 0.834736 0 202 255 0.322307
0.097004 -0.017656 0.832504 0 202 255 0.322320
0.097217 -0.019896 0.829950 0 202 255 0.322372
0.096806 -0.015521 0.835160 0 202 255 0.322352
0.093679 -0.017584 0.830632 0 202 255 0.322386
0.093410 -0.015401 0.833194 0 202 255 0.322380
0.090178 -0.015468 0.831510 0 202 255 0.322355
0.093945 -0.019891 0.828127 0 202 255 0.322392
0.090490 -0.017677 0.828970 0 202 255 0.322392
0.090767 -0.019951 0.826527 0 202 255 0.322327
0.093153 -0.013327 0.835824 0 202 255 0.322349
0.089872 -0.013373 0.834072 0 202 255 0.322354
0.096857 -0.013553 0.838062 0 202 255 0.322349
0.100521 -0.013793 0.840246 0 202 255 0.322402
0.100535 -0.015812 0.837541 0 202 255 0.322324
0.119970 -0.008869 0.862406 0 202 255 0.322407
0.123353 -0.009462 0.864508 0 202 255 0.322384
0.123307 -0.010671 0.861390 0 202 255 0.322395
0.126718 -0.011318 0.863546 0 202 255 0.322379
0.126737 -0.012593 0.860517 0 202 255 0.322424
0.130120 -0.014581 0.859542 0 202 255 0.322421
0.126897 -0.014047 0.857674 0 202 255 0.322368
0.123536 -0.012076 0.858666 0 202 255 0.322415
0.123760 -0.013542 0.855855 0 202 255 0.322372
0.120420 -0.011641 0.856838 0 202 255 0.322408
0.120178 -0.010219 0.859612 0 202 255 0.322381
0.120643 -0.013073 0.854048 0 202 255 0.322337
0.135870 -0.023589 0.850490 0 202 255 0.322341
0.133829 -0.021182 0.852489 0 202 255 0.322347
0.133321 -0.023065 0.849269 0 202 255 0.322346
0.131232 -0.020620 0.851210 0 202 255 0.322350
0.131687 -0.018741 0.854355 0 202 255 0.322378
0.129139 -0.018202 0.853099 0 202 255 0.322413
0.130706 -0.022518 0.848023 0 202 255 0.322346
0.128621 -0.020063 0.849918 0 202 255 0.322386
0.128140 -0.021977 0.846756 0 202 255 0.322344
0.129618 -0.016373 0.856289 0 202 255 0.322366
0.125291 -0.021656 0.845278 0 202 255 0.322337
0.125541 -0.019636 0.848176 0 202 255 0.322367
0.122681 -0.019300 0.846672 0 202 255 0.322342
0.122441 -0.021352 0.843842 0 202 255 0.322325
0.122883 -0.017252 0.849551 0 202 255 0.322356
0.119788 -0.018948 0.845210 0 202 255 0.322330
0.120028 -0.016930 0.848055 0 202 255 0.322343
