ply
format ascii 1.0
comment VCGLIB generated
element vertex 974
property float x
property float y
property float z
property uchar red
property uchar green
property uchar blue
property float quality
end_header
-0.131009 -0.023089 0.818449 95 255 153 0.463811
-0.132314 -0.024738 0.817126 59 255 189 0.421031
-0.133621 -0.026398 0.815808 27 255 221 0.382761
-0.129749 -0.021468 0.819733 255 53 0 0.847835
-0.128492 -0.019875 0.820968 114 255 134 0.486065
-0.126019 -0.019147 0.818639 98 255 150 0.467763
-0.124527 -0.017385 0.820026 98 255 150 0.467812
-0.136040 -0.027352 0.818042 79 255 169 0.442009
-0.138537 -0.028269 0.820208 253 239 0 0.654463
-0.138816 -0.030128 0.817237 7 238 240 0.356630
-0.135787 -0.025574 0.820992 69 255 179 0.431778
-0.134487 -0.023933 0.822284 82 255 166 0.448747
-0.130037 -0.019383 0.824387 104 255 143 0.475698
-0.127781 -0.017947 0.824053 117 255 130 0.491328
-0.125548 -0.016489 0.823675 117 255 130 0.489118
-0.131253 -0.020979 0.823146 104 255 143 0.475711
-0.134035 -0.022083 0.825215 91 255 156 0.459076
-0.132804 -0.020507 0.826478 95 255 153 0.463706
-0.121619 -0.013942 0.822736 20 254 228 0.373155
-0.123075 -0.015671 0.821383 88 255 160 0.455950
-0.157460 -0.026771 0.897792 66 255 182 0.427708
-0.160022 -0.028188 0.895232 62 255 185 0.425578
-0.157092 -0.027793 0.900693 66 255 182 0.427480
-0.159648 -0.029265 0.898227 62 255 185 0.425733
-0.159250 -0.030310 0.901111 66 255 182 0.426060
-0.162218 -0.030788 0.895624 69 255 179 0.430340
-0.156694 -0.028892 0.903488 66 255 182 0.426985
-0.156263 -0.030020 0.906278 66 255 182 0.426568
-0.154214 -0.027437 0.905787 66 255 182 0.427673
-0.154647 -0.026377 0.902986 66 255 182 0.428556
-0.161426 -0.032008 0.898761 66 255 182 0.428722
-0.163615 -0.033874 0.896404 62 255 185 0.423161
-0.160587 -0.033272 0.901837 88 255 160 0.456389
-0.162770 -0.035106 0.899547 88 255 160 0.456266
-0.161907 -0.036391 0.902607 66 255 182 0.429366
-0.164924 -0.037091 0.897131 62 255 185 0.422803
-0.159739 -0.034570 0.904837 66 255 182 0.426163
-0.158887 -0.035912 0.907790 79 255 169 0.444775
-0.157585 -0.032920 0.907026 56 255 192 0.414584
-0.158433 -0.031592 0.904111 69 255 179 0.430798
-0.152689 -0.033103 0.916618 62 255 185 0.422234
-0.153898 -0.032186 0.913032 62 255 185 0.424970
-0.151397 -0.030177 0.916114 62 255 185 0.423005
-0.152646 -0.029298 0.912400 59 255 189 0.420991
-0.155106 -0.031108 0.909589 66 255 182 0.426055
-0.156438 -0.034055 0.910343 88 255 160 0.456093
-0.155263 -0.035130 0.913691 62 255 185 0.424575
-0.149738 -0.027347 0.915809 95 255 153 0.460983
-0.150601 -0.026661 0.912116 59 255 189 0.418431
-0.147842 -0.024527 0.915641 62 255 185 0.422400
-0.151428 -0.025828 0.908630 66 255 182 0.426353
-0.153450 -0.028420 0.909041 66 255 182 0.426492
-0.141121 -0.108702 0.860395 69 255 179 0.431812
-0.139255 -0.110486 0.858342 69 255 179 0.431264
-0.142530 -0.109461 0.856193 69 255 179 0.429787
-0.144379 -0.107681 0.858223 69 255 179 0.430140
-0.140613 -0.111173 0.854090 69 255 179 0.431152
-0.145866 -0.108443 0.854064 66 255 182 0.427970
-0.143902 -0.110134 0.851983 66 255 182 0.429002
-0.147227 -0.109084 0.849902 66 255 182 0.426113
-0.147724 -0.106671 0.856080 49 255 198 0.410105
-0.149218 -0.107377 0.851968 62 255 185 0.423505
-0.151172 -0.105624 0.853972 85 255 163 0.450243
-0.141865 -0.111757 0.849821 66 255 182 0.429232
-0.145166 -0.110676 0.847749 91 255 156 0.459926
-0.143015 -0.112166 0.845540 69 255 179 0.429911
-0.139858 -0.113060 0.847777 69 255 179 0.431401
-0.138684 -0.112619 0.852085 23 255 224 0.376203
-0.136678 -0.113952 0.850016 69 255 179 0.431673
-0.135471 -0.113455 0.854365 69 255 179 0.430910
-0.137390 -0.112013 0.856379 69 255 179 0.431217
-0.133484 -0.114860 0.852309 69 255 179 0.430301
-0.154535 -0.103756 0.851730 56 255 192 0.415540
-0.151905 -0.106394 0.849783 59 255 189 0.421337
-0.155393 -0.104483 0.847522 59 255 189 0.421441
-0.158006 -0.101768 0.849423 56 255 192 0.416752
-0.152596 -0.107063 0.845498 62 255 185 0.423695
-0.159051 -0.102428 0.845182 62 255 185 0.422121
-0.156192 -0.105084 0.843248 121 255 127 0.493478
-0.160033 -0.102883 0.840926 66 255 182 0.426768
-0.161696 -0.099633 0.847022 88 255 160 0.456741
-0.162912 -0.100165 0.842793 72 255 176 0.437305
-0.165557 -0.097416 0.844642 101 255 147 0.471754
-0.153266 -0.107593 0.841201 121 255 127 0.494824
-0.157031 -0.105468 0.838984 66 255 182 0.428614
-0.153874 -0.107969 0.836929 23 255 224 0.375225
-0.150954 -0.109147 0.839093 69 255 179 0.430804
-0.150441 -0.108698 0.843404 98 255 150 0.468099
-0.148204 -0.110213 0.841228 98 255 150 0.467679
-0.147762 -0.109714 0.845584 66 255 182 0.427531
-0.149873 -0.108112 0.847713 82 255 166 0.447038
-0.145566 -0.111198 0.843366 69 255 179 0.430996
-0.142582 -0.114167 0.832285 82 255 166 0.447476
-0.140034 -0.114773 0.834287 85 255 163 0.452796
-0.142771 -0.113537 0.836688 75 255 172 0.440078
-0.137586 -0.115451 0.836319 95 255 153 0.462240
-0.140296 -0.114253 0.838748 75 255 172 0.440143
-0.137847 -0.114984 0.840840 75 255 172 0.439611
-0.135154 -0.116147 0.838397 82 255 166 0.448808
-0.142938 -0.112915 0.841105 72 255 176 0.433663
-0.140477 -0.113658 0.843221 72 255 176 0.433919
-0.145495 -0.111932 0.838991 72 255 176 0.434730
-0.148178 -0.110927 0.836882 72 255 176 0.435229
-0.145371 -0.112582 0.834617 75 255 172 0.440718
-0.148086 -0.111601 0.832571 124 255 124 0.496290
-0.151038 -0.109821 0.834820 98 255 150 0.466134
-0.145211 -0.113257 0.830288 127 255 121 0.500768
-0.132069 -0.117077 0.840624 79 255 169 0.442046
-0.129088 -0.117722 0.842875 75 255 172 0.439638
-0.131589 -0.116844 0.845295 72 255 176 0.434623
-0.126078 -0.118427 0.845156 72 255 176 0.436647
-0.128573 -0.117524 0.847586 69 255 179 0.433029
-0.130988 -0.116420 0.849970 36 255 211 0.393414
-0.134175 -0.115477 0.847677 69 255 179 0.432296
-0.137344 -0.114563 0.845432 72 255 176 0.433740
-0.134725 -0.115893 0.843042 72 255 176 0.436945
-0.166024 -0.089992 0.863726 53 255 195 0.413189
-0.163169 -0.092603 0.863307 53 255 195 0.413266
-0.165940 -0.091560 0.859609 66 255 182 0.426668
-0.160451 -0.095240 0.862916 49 255 198 0.409129
-0.163084 -0.094211 0.859216 53 255 195 0.411688
-0.160282 -0.096819 0.858832 49 255 198 0.409316
-0.165828 -0.093177 0.855585 88 255 160 0.455223
-0.157697 -0.097832 0.862517 53 255 195 0.411673
-0.154922 -0.100303 0.862087 56 255 192 0.415508
-0.155739 -0.098324 0.865752 56 255 192 0.415446
-0.158459 -0.095798 0.866163 53 255 195 0.412493
-0.161206 -0.093191 0.866597 53 255 195 0.410620
-0.156591 -0.096359 0.869530 56 255 192 0.417227
-0.165795 -0.094333 0.852896 59 255 189 0.418282
-0.162214 -0.096431 0.855231 121 255 127 0.494661
-0.162038 -0.097589 0.852546 4 234 244 0.354957
-0.165787 -0.095417 0.850180 69 255 179 0.430938
-0.158520 -0.099595 0.854839 53 255 195 0.412892
-0.161921 -0.098663 0.849829 59 255 189 0.418887
-0.158320 -0.100709 0.852153 53 255 195 0.413910
-0.165715 -0.096445 0.847404 101 255 147 0.471337
-0.154845 -0.102650 0.854449 56 255 192 0.415821
-0.152143 -0.104287 0.856036 59 255 189 0.419693
-0.155787 -0.101318 0.856473 56 255 192 0.414340
-0.153134 -0.102982 0.858059 59 255 189 0.418059
-0.156694 -0.099950 0.858453 53 255 195 0.411976
-0.159419 -0.098223 0.856861 53 255 195 0.410912
-0.154026 -0.101642 0.860054 56 255 192 0.417182
-0.142118 -0.107439 0.862510 69 255 179 0.431381
-0.143339 -0.106034 0.864341 69 255 179 0.430932
-0.146340 -0.105147 0.862387 23 255 224 0.377238
-0.144558 -0.104668 0.866179 7 238 240 0.358061
-0.147515 -0.103710 0.864176 36 255 211 0.392846
-0.148708 -0.102328 0.866008 62 255 185 0.425458
-0.145743 -0.103308 0.868031 69 255 179 0.430078
-0.150631 -0.102805 0.862259 59 255 189 0.420481
-0.151794 -0.101353 0.864045 59 255 189 0.418099
-0.149683 -0.104102 0.860220 56 255 192 0.416131
-0.148699 -0.105367 0.858160 62 255 185 0.422467
-0.145375 -0.106408 0.860297 66 255 182 0.427608
-0.147009 -0.101270 0.871581 66 255 182 0.428411
-0.149662 -0.100504 0.869809 62 255 185 0.424661
-0.151209 -0.098107 0.873096 75 255 172 0.441236
-0.148606 -0.098945 0.874876 66 255 182 0.426226
-0.153117 -0.098488 0.869689 59 255 189 0.419706
-0.160029 -0.029079 0.844929 75 255 172 0.437946
-0.161777 -0.031769 0.842710 79 255 169 0.442457
-0.158262 -0.029884 0.841196 27 255 221 0.379815
-0.159841 -0.032643 0.839144 85 255 163 0.449636
-0.163453 -0.034533 0.840644 82 255 166 0.446178
-0.165058 -0.037454 0.838602 82 255 166 0.447048
-0.166733 -0.036128 0.842260 75 255 172 0.439656
-0.165020 -0.033319 0.844373 75 255 172 0.439634
-0.163193 -0.030629 0.846612 75 255 172 0.438055
-0.168171 -0.034914 0.846061 72 255 176 0.435635
-0.156597 -0.031047 0.837587 85 255 163 0.449477
-0.155375 -0.031529 0.835617 91 255 156 0.457986
-0.158506 -0.034281 0.835508 98 255 150 0.465114
-0.154128 -0.032076 0.833623 95 255 153 0.463751
-0.157126 -0.034897 0.833576 114 255 134 0.487340
-0.155764 -0.035594 0.831590 130 255 117 0.507599
-0.152822 -0.032697 0.831644 111 255 137 0.483158
-0.160197 -0.037752 0.833441 114 255 134 0.485863
-0.158764 -0.038456 0.831507 88 255 160 0.453442
-0.161839 -0.041322 0.831419 117 255 130 0.491509
-0.163545 -0.039283 0.834974 91 255 156 0.460860
-0.161705 -0.035883 0.837049 91 255 156 0.459231
-0.170533 -0.052374 0.832524 82 255 166 0.446627
-0.169269 -0.048530 0.833955 85 255 163 0.453059
-0.172078 -0.050460 0.836199 75 255 172 0.440670
-0.167909 -0.044735 0.835502 91 255 156 0.457159
-0.170815 -0.046644 0.837670 79 255 169 0.443185
-0.169484 -0.042927 0.839130 82 255 166 0.446694
-0.173582 -0.048685 0.839949 72 255 176 0.436556
-0.166550 -0.041015 0.837033 88 255 160 0.456188
-0.164920 -0.042991 0.833409 104 255 143 0.475799
-0.166286 -0.046813 0.831838 98 255 150 0.466714
-0.172504 -0.045056 0.841345 72 255 176 0.436410
-0.175098 -0.047234 0.843518 69 255 179 0.432911
-0.171223 -0.041558 0.842812 75 255 172 0.438129
-0.173883 -0.043650 0.844958 69 255 179 0.433395
-0.172489 -0.040199 0.846485 85 255 163 0.449308
-0.176308 -0.045850 0.847182 69 255 179 0.430780
-0.169825 -0.038152 0.844394 82 255 166 0.448327
-0.168204 -0.039458 0.840665 79 255 169 0.443709
-0.177416 -0.071890 0.855142 33 255 215 0.390360
-0.178062 -0.068694 0.854048 66 255 182 0.426059
-0.178224 -0.066208 0.851145 66 255 182 0.427754
-0.178697 -0.062954 0.849995 79 255 169 0.441765
-0.178556 -0.060413 0.847000 66 255 182 0.428231
-0.179473 -0.059047 0.850704 66 255 182 0.427170
-0.177832 -0.064379 0.846308 66 255 182 0.428876
-0.177552 -0.061748 0.843248 69 255 179 0.429948
-0.177537 -0.067563 0.847349 53 255 195 0.413562
-0.177190 -0.070743 0.848382 66 255 182 0.429037
-0.177039 -0.073219 0.851327 66 255 182 0.425955
-0.176663 -0.074544 0.847426 23 255 224 0.376885
-0.179030 -0.055650 0.849703 66 255 182 0.428312
-0.177781 -0.053035 0.846965 69 255 179 0.430113
-0.176859 -0.049751 0.846123 69 255 179 0.431188
-0.175520 -0.051171 0.842500 69 255 179 0.433385
-0.176591 -0.054379 0.843303 69 255 179 0.431920
-0.177421 -0.057714 0.844205 43 255 205 0.402232
-0.171991 -0.055315 0.833066 79 255 169 0.443560
-0.173978 -0.057544 0.835683 75 255 172 0.438854
-0.175061 -0.060700 0.836426 72 255 176 0.435718
-0.176547 -0.063164 0.839205 79 255 169 0.444022
-0.175357 -0.064771 0.835250 72 255 176 0.434353
-0.176263 -0.059252 0.840422 69 255 179 0.432734
-0.175305 -0.055934 0.839562 72 255 176 0.434635
-0.174177 -0.052689 0.838774 72 255 176 0.436961
-0.175605 -0.067788 0.836101 72 255 176 0.434035
-0.176132 -0.070205 0.839138 82 255 166 0.448719
-0.176095 -0.073256 0.840003 43 255 205 0.399822
-0.176277 -0.075660 0.843044 69 255 179 0.432746
-0.175627 -0.076854 0.838690 72 255 176 0.433914
-0.176650 -0.072117 0.844387 69 255 179 0.431224
-0.176879 -0.068899 0.843348 69 255 179 0.431873
-0.177059 -0.065636 0.842269 69 255 179 0.429945
-0.164743 -0.027674 0.858045 72 255 176 0.433628
-0.166602 -0.029620 0.856206 72 255 176 0.434415
-0.163786 -0.027715 0.854989 72 255 176 0.434687
-0.165572 -0.029670 0.853190 53 255 195 0.413303
-0.168451 -0.031618 0.854414 72 255 176 0.434126
-0.170258 -0.033663 0.852659 69 255 179 0.432643
-0.170881 -0.033397 0.855690 69 255 179 0.432164
-0.169028 -0.031345 0.857465 69 255 179 0.432837
-0.162780 -0.027996 0.851811 66 255 182 0.426773
-0.164589 -0.030276 0.849875 72 255 176 0.436348
-0.161437 -0.028326 0.848525 72 255 176 0.435678
-0.166377 -0.032589 0.847965 72 255 176 0.436555
-0.169283 -0.034287 0.849311 85 255 163 0.452900
-0.167447 -0.031960 0.851250 72 255 176 0.435146
-0.175011 -0.042659 0.848384 69 255 179 0.431935
-0.177049 -0.044980 0.850279 49 255 198 0.408769
-0.173523 -0.039576 0.849740 69 255 179 0.433295
-0.175669 -0.041817 0.851554 69 255 179 0.431402
-0.174106 -0.038763 0.852976 33 255 215 0.387860
-0.177617 -0.044156 0.853446 91 255 156 0.458202
-0.171932 -0.036577 0.851166 59 255 189 0.419735
-0.170888 -0.037216 0.847870 72 255 176 0.435730
-0.176177 -0.041300 0.854715 82 255 166 0.446167
-0.177809 -0.043566 0.856414 66 255 182 0.429517
-0.174684 -0.038521 0.856008 59 255 189 0.420393
-0.176377 -0.040719 0.857678 69 255 179 0.430272
-0.173109 -0.035765 0.857361 53 255 195 0.411762
-0.172543 -0.036061 0.854301 69 255 179 0.432699
-0.176241 -0.075081 0.854203 62 255 185 0.424420
-0.175123 -0.078269 0.853204 62 255 185 0.424467
-0.175885 -0.076450 0.850369 66 255 182 0.426834
-0.174739 -0.079691 0.849343 66 255 182 0.427793
-0.173950 -0.081503 0.852187 62 255 185 0.423158
-0.172795 -0.084778 0.851170 59 255 189 0.421638
-0.172842 -0.083376 0.855235 59 255 189 0.419580
-0.173968 -0.080150 0.856236 59 255 189 0.420637
-0.175083 -0.076972 0.857254 62 255 185 0.423432
-0.172908 -0.081954 0.859239 59 255 189 0.418057
-0.175784 -0.077568 0.846035 69 255 179 0.430689
-0.174983 -0.080570 0.844602 69 255 179 0.431214
-0.175438 -0.078701 0.841632 69 255 179 0.433257
-0.174525 -0.081770 0.840295 36 255 211 0.390846
-0.174164 -0.083599 0.843212 69 255 179 0.432671
-0.173178 -0.086718 0.841877 33 255 215 0.390175
-0.173149 -0.086297 0.844238 66 255 182 0.429332
-0.173992 -0.083222 0.845607 66 255 182 0.429094
-0.173039 -0.085820 0.846571 66 255 182 0.426583
-0.173883 -0.082716 0.847925 66 255 182 0.426399
-0.174867 -0.080137 0.846958 69 255 179 0.432278
-0.172882 -0.085322 0.848889 62 255 185 0.425389
-0.167532 -0.094310 0.846262 62 255 185 0.424601
-0.167518 -0.093333 0.849068 59 255 189 0.421471
-0.169301 -0.091167 0.847877 62 255 185 0.423912
-0.167537 -0.092260 0.851833 75 255 172 0.438793
-0.169259 -0.090099 0.850647 59 255 189 0.420648
-0.169221 -0.088974 0.853401 56 255 192 0.414682
-0.167518 -0.091094 0.854523 75 255 172 0.437653
-0.171041 -0.087981 0.849516 72 255 176 0.434195
-0.171037 -0.086855 0.852291 66 255 182 0.428460
-0.171143 -0.088511 0.847233 62 255 185 0.424984
-0.171212 -0.089023 0.844958 66 255 182 0.428194
-0.169353 -0.091679 0.845615 66 255 182 0.426396
-0.169361 -0.092121 0.843325 85 255 163 0.450232
-0.171303 -0.089415 0.842620 69 255 179 0.431206
-0.167474 -0.094752 0.843963 79 255 169 0.443703
-0.167554 -0.089561 0.858519 82 255 166 0.446335
-0.169349 -0.087524 0.857430 56 255 192 0.416476
-0.169325 -0.085978 0.861483 30 255 218 0.385140
-0.167611 -0.088006 0.862604 53 255 195 0.412839
-0.171091 -0.084733 0.858329 56 255 192 0.417107
-0.127964 -0.039974 0.959849 59 255 189 0.418536
-0.129604 -0.041495 0.956714 49 255 198 0.406393
-0.130209 -0.043962 0.953914 59 255 189 0.418777
-0.132267 -0.042098 0.953308 53 255 195 0.411532
-0.127609 -0.043475 0.957199 91 255 156 0.458481
-0.128173 -0.045913 0.954494 59 255 189 0.418571
-0.126057 -0.041927 0.960151 59 255 189 0.418401
-0.122883 -0.047045 0.957908 59 255 189 0.418190
-0.121499 -0.045604 0.960535 20 254 228 0.372846
-0.123876 -0.043822 0.960384 46 255 202 0.402551
-0.125395 -0.045279 0.957515 59 255 189 0.418087
-0.125636 -0.047584 0.954881 49 255 198 0.409086
-0.153665 -0.062849 0.909519 95 255 153 0.462450
-0.153768 -0.060471 0.911209 72 255 176 0.433873
-0.152818 -0.059421 0.913410 62 255 185 0.422722
-0.152862 -0.057095 0.915020 46 255 202 0.403065
-0.150819 -0.059703 0.916076 14 246 234 0.365416
-0.154925 -0.056827 0.912356 62 255 185 0.422570
-0.154980 -0.054506 0.913961 49 255 198 0.406839
-0.156009 -0.057742 0.910101 49 255 198 0.407424
-0.157109 -0.058687 0.907783 62 255 185 0.421965
-0.157025 -0.061072 0.906052 108 255 140 0.477552
-0.159506 -0.058225 0.904824 59 255 189 0.420135
-0.149645 -0.058556 0.918714 62 255 185 0.423151
-0.149314 -0.056187 0.920914 49 255 198 0.406905
-0.147967 -0.054844 0.923756 62 255 185 0.422833
-0.147421 -0.052165 0.926366 59 255 189 0.421543
-0.145685 -0.054466 0.927385 85 255 163 0.451755
-0.149768 -0.052524 0.922737 62 255 185 0.422323
-0.149183 -0.049890 0.925325 59 255 189 0.421710
-0.151227 -0.053715 0.919871 101 255 147 0.470468
-0.152606 -0.054771 0.917155 62 255 185 0.422979
-0.151405 -0.044709 0.923556 62 255 185 0.421883
-0.153162 -0.045870 0.920285 62 255 185 0.423017
-0.154121 -0.048310 0.917931 62 255 185 0.423470
-0.155703 -0.049146 0.915172 62 255 185 0.424220
-0.156483 -0.051503 0.912950 62 255 185 0.423774
-0.157982 -0.048497 0.911904 62 255 185 0.424204
-0.154251 -0.052161 0.916214 62 255 185 0.423657
-0.152821 -0.051071 0.918889 91 255 156 0.460855
-0.151339 -0.049946 0.921716 62 255 185 0.422429
-0.150295 -0.047273 0.924449 53 255 195 0.411276
-0.159323 -0.049207 0.909634 62 255 185 0.423837
-0.159714 -0.051631 0.907887 62 255 185 0.423111
-0.161028 -0.052377 0.905445 62 255 185 0.422049
-0.161370 -0.054856 0.903587 59 255 189 0.421064
-0.163290 -0.051478 0.902297 59 255 189 0.420959
-0.159176 -0.055757 0.906662 43 255 205 0.399485
-0.158002 -0.054810 0.909011 59 255 189 0.421744
-0.156867 -0.053902 0.911287 62 255 185 0.423090
-0.137144 -0.033738 0.950735 56 255 192 0.414474
-0.135404 -0.032259 0.954128 69 255 179 0.430918
-0.135990 -0.028950 0.953207 59 255 189 0.418852
-0.137539 -0.031516 0.950034 53 255 195 0.411236
-0.137942 -0.029303 0.949381 59 255 189 0.418790
-0.135887 -0.024350 0.951965 72 255 176 0.434816
-0.137704 -0.026938 0.948738 72 255 176 0.434057
-0.136127 -0.026682 0.952566 59 255 189 0.418926
-0.134482 -0.034401 0.954740 59 255 189 0.418893
-0.136198 -0.035849 0.951373 59 255 189 0.418762
-0.135259 -0.038036 0.952017 59 255 189 0.418805
-0.133530 -0.036517 0.955339 46 255 202 0.405530
-0.131795 -0.034934 0.958710 53 255 195 0.413651
-0.131332 -0.039558 0.956244 49 255 198 0.409310
-0.129677 -0.037963 0.959408 40 255 208 0.396550
-0.133755 -0.040039 0.952655 59 255 189 0.418988
-0.149592 -0.043312 0.927156 59 255 189 0.420882
-0.148006 -0.040831 0.930107 59 255 189 0.419730
-0.146227 -0.039540 0.933414 59 255 189 0.419213
-0.144642 -0.037077 0.936285 59 255 189 0.418887
-0.144277 -0.039435 0.937087 59 255 189 0.419393
-0.146619 -0.037177 0.932598 59 255 189 0.418872
-0.145030 -0.034729 0.935499 59 255 189 0.418785
-0.148389 -0.038307 0.929274 59 255 189 0.419567
-0.150173 -0.039461 0.925896 59 255 189 0.419989
-0.151807 -0.042026 0.922724 59 255 189 0.421864
-0.152246 -0.039353 0.921856 59 255 189 0.421425
-0.142524 -0.038068 0.940430 66 255 182 0.428879
-0.140955 -0.035540 0.943454 59 255 189 0.420810
-0.139156 -0.034115 0.946897 59 255 189 0.419134
-0.139579 -0.031882 0.946179 59 255 189 0.419080
-0.141348 -0.033264 0.942716 82 255 166 0.445579
-0.143097 -0.034585 0.939291 75 255 172 0.441349
-0.139426 -0.027180 0.944826 79 255 169 0.441527
-0.141326 -0.029714 0.941650 72 255 176 0.433739
-0.142857 -0.029735 0.937895 69 255 179 0.431957
-0.144703 -0.032217 0.934811 69 255 179 0.431409
-0.143186 -0.032233 0.938557 59 255 189 0.418555
-0.139641 -0.029526 0.945491 59 255 189 0.419004
-0.146336 -0.032118 0.931078 66 255 182 0.429406
-0.148272 -0.034485 0.928079 72 255 176 0.436392
-0.149818 -0.034146 0.924372 59 255 189 0.419609
-0.151842 -0.036544 0.921174 62 255 185 0.424583
-0.150218 -0.036886 0.925095 59 255 189 0.420033
-0.146625 -0.034625 0.931821 59 255 189 0.418764
-0.133983 -0.043638 0.950117 49 255 198 0.407390
-0.134642 -0.046045 0.947398 59 255 189 0.420028
-0.136367 -0.047567 0.944237 59 255 189 0.420414
-0.136980 -0.049977 0.941565 59 255 189 0.420837
-0.139198 -0.048198 0.940536 82 255 166 0.448395
-0.134194 -0.049409 0.945194 59 255 189 0.420763
-0.134790 -0.051837 0.942538 59 255 189 0.421548
-0.132511 -0.047918 0.948197 59 255 189 0.420245
-0.130843 -0.046447 0.951172 49 255 198 0.407052
-0.140868 -0.049697 0.937420 30 255 218 0.385224
-0.141343 -0.052084 0.934915 59 255 189 0.421312
-0.142898 -0.053652 0.931672 59 255 189 0.421282
-0.143320 -0.056256 0.928719 59 255 189 0.421709
-0.140597 -0.055446 0.932952 59 255 189 0.421797
-0.140954 -0.058065 0.930024 46 255 202 0.405422
-0.139072 -0.053901 0.936075 91 255 156 0.459554
-0.137493 -0.052401 0.939081 59 255 189 0.421668
-0.135092 -0.058421 0.935380 62 255 185 0.422428
-0.133611 -0.056960 0.938313 62 255 185 0.422254
-0.133517 -0.054760 0.940693 20 254 228 0.372424
-0.131980 -0.053280 0.943510 59 255 189 0.421554
-0.136482 -0.055511 0.937238 62 255 185 0.422123
-0.138010 -0.057032 0.934109 59 255 189 0.419080
-0.138029 -0.059279 0.931494 85 255 163 0.449680
-0.128971 -0.052624 0.946865 56 255 192 0.415274
-0.127414 -0.051229 0.949609 59 255 189 0.420145
-0.127186 -0.049016 0.952071 43 255 205 0.399779
-0.130078 -0.049610 0.948990 59 255 189 0.420217
-0.131737 -0.051076 0.946008 72 255 176 0.436124
-0.138495 -0.036365 0.947600 59 255 189 0.419000
-0.140282 -0.037795 0.944181 59 255 189 0.419156
-0.141567 -0.040321 0.941232 59 255 189 0.419112
-0.143304 -0.041707 0.937904 91 255 156 0.459128
-0.142352 -0.043976 0.938731 59 255 189 0.420040
-0.140599 -0.042534 0.942007 56 255 192 0.417329
-0.139313 -0.039993 0.944949 59 255 189 0.421416
-0.137533 -0.038485 0.948277 85 255 163 0.449696
-0.145531 -0.041966 0.934296 59 255 189 0.419421
-0.147286 -0.043254 0.931035 59 255 189 0.420115
-0.148523 -0.045857 0.928068 59 255 189 0.420803
-0.147450 -0.048317 0.928989 59 255 189 0.420714
-0.146288 -0.045666 0.931879 59 255 189 0.420673
-0.144561 -0.044249 0.935118 59 255 189 0.420159
-0.144896 -0.051700 0.930572 53 255 195 0.414039
-0.143299 -0.050123 0.933821 59 255 189 0.421058
-0.142453 -0.047558 0.936532 98 255 150 0.467279
-0.140769 -0.046063 0.939631 95 255 153 0.461074
-0.144939 -0.047950 0.932847 59 255 189 0.420881
-0.138250 -0.045677 0.943346 59 255 189 0.420038
-0.136494 -0.044136 0.946552 59 255 189 0.419645
-0.135512 -0.041603 0.949404 59 255 189 0.419313
-0.138043 -0.042105 0.945758 85 255 163 0.452559
-0.145886 -0.056981 0.924888 62 255 185 0.422903
-0.147194 -0.058311 0.921995 59 255 189 0.420419
-0.147205 -0.060531 0.919874 62 255 185 0.423558
-0.148370 -0.061707 0.917211 62 255 185 0.423625
-0.145935 -0.063733 0.918348 62 255 185 0.424204
-0.144779 -0.062494 0.921017 88 255 160 0.455312
-0.144773 -0.060241 0.923203 62 255 185 0.423526
-0.143490 -0.058800 0.926155 59 255 189 0.421155
-0.150470 -0.061789 0.914485 62 255 185 0.423555
-0.151403 -0.062850 0.912297 62 255 185 0.423134
-0.151012 -0.064992 0.910676 62 255 185 0.422300
-0.148473 -0.067087 0.911777 62 255 185 0.424299
-0.148884 -0.064932 0.913433 62 255 185 0.424061
-0.148028 -0.063810 0.915614 62 255 185 0.423855
-0.143829 -0.069337 0.913448 66 255 182 0.425987
-0.144532 -0.067452 0.915113 62 255 185 0.425325
-0.143760 -0.066302 0.917308 62 255 185 0.425311
-0.142933 -0.065168 0.919531 62 255 185 0.424972
-0.140259 -0.064628 0.922921 33 255 215 0.390251
-0.139050 -0.063274 0.925776 62 255 185 0.423846
-0.139287 -0.061050 0.928186 62 255 185 0.423583
-0.142065 -0.061880 0.924453 66 255 182 0.427960
-0.159342 -0.072815 0.895027 62 255 185 0.422245
-0.161739 -0.072360 0.892902 33 255 215 0.387609
-0.157971 -0.075057 0.894718 62 255 185 0.422212
-0.160336 -0.074570 0.892625 59 255 189 0.421044
-0.158957 -0.076794 0.892353 79 255 169 0.441775
-0.162752 -0.074084 0.890479 59 255 189 0.420935
-0.156612 -0.077287 0.894422 62 255 185 0.422922
-0.155267 -0.079571 0.894138 62 255 185 0.424053
-0.154478 -0.077679 0.896385 62 255 185 0.424472
-0.161165 -0.076357 0.890265 66 255 182 0.428139
-0.163468 -0.075830 0.888106 56 255 192 0.416558
-0.159585 -0.078641 0.890065 59 255 189 0.421274
-0.161850 -0.078106 0.887916 59 255 189 0.420383
-0.160242 -0.080385 0.887746 62 255 185 0.423039
-0.164170 -0.077533 0.885762 59 255 189 0.420873
-0.158011 -0.080922 0.889866 121 255 127 0.494557
-0.156439 -0.083223 0.889656 66 255 182 0.429475
-0.155860 -0.081406 0.891894 62 255 185 0.422978
-0.157416 -0.079112 0.892120 62 255 185 0.421895
-0.149644 -0.084864 0.893797 62 255 185 0.425515
-0.151544 -0.083122 0.893909 62 255 185 0.424945
-0.149205 -0.083029 0.895872 66 255 182 0.425782
-0.151057 -0.081261 0.896010 130 255 117 0.505967
-0.153417 -0.081345 0.894024 62 255 185 0.424264
-0.153983 -0.083173 0.891804 62 255 185 0.423464
-0.152092 -0.084931 0.891705 43 255 205 0.399435
-0.148326 -0.080155 0.899055 66 255 182 0.427430
-0.150001 -0.078388 0.899281 66 255 182 0.427527
-0.152381 -0.078502 0.897324 62 255 185 0.425707
-0.162387 -0.049098 0.904266 85 255 163 0.451118
-0.161044 -0.048333 0.906746 62 255 185 0.423723
-0.160099 -0.046014 0.908565 69 255 179 0.429836
-0.158708 -0.045349 0.910836 62 255 185 0.424959
-0.159403 -0.042218 0.909743 62 255 185 0.424996
-0.160859 -0.042648 0.907335 62 255 185 0.425292
-0.161887 -0.044940 0.905518 62 255 185 0.424408
-0.163319 -0.045485 0.902939 62 255 185 0.423407
-0.164294 -0.047866 0.900967 79 255 169 0.444692
-0.165255 -0.044252 0.899572 62 255 185 0.422016
-0.156723 -0.046303 0.914226 56 255 192 0.414125
-0.155084 -0.045466 0.916966 62 255 185 0.424029
-0.153606 -0.043153 0.919471 66 255 182 0.429263
-0.154121 -0.040269 0.918463 62 255 185 0.422885
-0.155635 -0.042530 0.916006 62 255 185 0.424347
-0.157365 -0.043183 0.913130 82 255 166 0.448878
-0.153582 -0.036101 0.917366 62 255 185 0.422796
-0.155631 -0.038176 0.914691 62 255 185 0.425066
-0.157257 -0.037082 0.911221 66 255 182 0.425884
-0.159170 -0.039049 0.908783 62 255 185 0.425700
-0.157566 -0.040190 0.912188 62 255 185 0.425319
-0.160547 -0.037860 0.905871 62 255 185 0.425526
-0.162158 -0.039927 0.903881 91 255 156 0.457578
-0.163533 -0.038492 0.900544 62 255 185 0.423839
-0.165142 -0.040646 0.898371 62 255 185 0.422205
-0.163710 -0.042046 0.901785 62 255 185 0.423879
-0.174600 -0.038679 0.872400 66 255 182 0.426549
-0.175205 -0.040482 0.874144 82 255 166 0.448956
-0.173770 -0.038252 0.875217 56 255 192 0.414235
-0.172344 -0.036038 0.876276 62 255 185 0.424129
-0.174345 -0.040051 0.876966 62 255 185 0.425211
-0.171630 -0.034293 0.874541 62 255 185 0.424127
-0.170113 -0.032168 0.875642 62 255 185 0.424100
-0.172901 -0.037976 0.878007 85 255 163 0.451644
-0.173185 -0.039647 0.879824 75 255 172 0.439597
-0.171406 -0.035953 0.879090 40 255 208 0.398188
-0.171752 -0.037573 0.880904 62 255 185 0.422727
-0.170316 -0.035514 0.881999 49 255 198 0.408724
-0.172028 -0.039219 0.882712 62 255 185 0.422277
-0.169928 -0.033930 0.880161 62 255 185 0.422639
-0.168448 -0.031899 0.881246 62 255 185 0.422281
-0.169290 -0.032064 0.878415 62 255 185 0.422986
-0.170794 -0.034066 0.877348 49 255 198 0.406662
-0.164530 -0.027662 0.879927 53 255 195 0.412078
-0.166362 -0.029137 0.878509 75 255 172 0.438063
-0.165322 -0.027581 0.875934 62 255 185 0.425038
-0.168952 -0.030747 0.873098 43 255 205 0.401582
-0.167143 -0.029153 0.874508 72 255 176 0.436963
-0.163240 -0.053926 0.901221 59 255 189 0.420217
-0.165157 -0.052808 0.898800 72 255 176 0.433659
-0.163226 -0.056384 0.900110 59 255 189 0.420240
-0.165122 -0.055269 0.897673 69 255 179 0.431652
-0.165143 -0.057732 0.896573 75 255 172 0.438544
-0.167136 -0.054184 0.895221 59 255 189 0.420210
-0.163182 -0.058847 0.899006 59 255 189 0.420502
-0.163196 -0.061314 0.897935 150 255 98 0.530871
-0.161301 -0.059750 0.901382 59 255 189 0.420853
-0.161319 -0.057286 0.902499 46 255 202 0.404973
-0.166865 -0.056639 0.894506 59 255 189 0.421464
-0.168577 -0.055432 0.892450 69 255 179 0.431886
-0.166617 -0.059108 0.893826 62 255 185 0.422931
-0.168367 -0.057906 0.891766 62 255 185 0.421945
-0.168118 -0.060373 0.891097 108 255 140 0.478320
-0.170131 -0.056681 0.889697 23 255 224 0.377586
-0.166413 -0.061607 0.893136 62 255 185 0.421900
-0.166202 -0.064126 0.892492 59 255 189 0.421128
-0.164654 -0.062684 0.895230 62 255 185 0.421919
-0.164876 -0.060193 0.895889 62 255 185 0.422259
-0.161315 -0.068202 0.895949 62 255 185 0.421960
-0.161894 -0.065841 0.896625 59 255 189 0.421778
-0.160535 -0.064333 0.899274 62 255 185 0.423059
-0.162530 -0.063555 0.897265 59 255 189 0.421484
-0.164010 -0.064975 0.894557 62 255 185 0.422289
-0.163406 -0.067320 0.893922 59 255 189 0.421819
-0.157460 -0.064193 0.903292 0 218 255 0.337195
-0.159112 -0.060476 0.903727 59 255 189 0.421694
-0.160897 -0.062027 0.900330 72 255 176 0.435988
-0.167682 -0.086503 0.865769 53 255 195 0.412238
-0.166042 -0.088470 0.866866 53 255 195 0.413165
-0.169353 -0.084546 0.864667 56 255 192 0.414605
-0.169383 -0.083074 0.867798 56 255 192 0.414632
-0.167694 -0.085006 0.868936 53 255 195 0.413047
-0.166077 -0.086975 0.870038 30 255 218 0.384008
-0.171056 -0.081888 0.865109 56 255 192 0.416696
-0.172842 -0.079219 0.865551 59 255 189 0.419542
-0.172845 -0.080595 0.862368 56 255 192 0.417942
-0.171088 -0.083246 0.861930 56 255 192 0.417273
-0.167526 -0.083560 0.871659 53 255 195 0.413905
-0.165933 -0.085477 0.872710 36 255 211 0.390968
-0.169208 -0.081656 0.870566 88 255 160 0.455860
-0.169000 -0.080202 0.873266 56 255 192 0.416535
-0.167373 -0.082071 0.874381 56 255 192 0.415237
-0.165776 -0.084001 0.875454 56 255 192 0.416327
-0.170835 -0.079022 0.870813 59 255 189 0.419080
-0.172498 -0.076448 0.871075 62 255 185 0.422660
-0.172693 -0.077817 0.868282 59 255 189 0.421568
-0.171008 -0.080434 0.868034 56 255 192 0.417604
-0.177740 -0.067070 0.866902 66 255 182 0.428260
-0.176528 -0.070080 0.866498 49 255 198 0.407212
-0.177909 -0.068241 0.864035 66 255 182 0.426888
-0.175263 -0.073107 0.866164 36 255 211 0.391515
-0.176604 -0.071295 0.863729 66 255 182 0.426265
-0.175338 -0.074332 0.863426 62 255 185 0.424652
-0.177942 -0.069426 0.861297 62 255 185 0.425321
-0.174028 -0.076152 0.865871 36 255 211 0.392555
-0.173847 -0.074780 0.868613 62 255 185 0.424970
-0.175045 -0.071749 0.868961 66 255 182 0.428504
-0.176635 -0.072511 0.860785 53 255 195 0.411653
-0.177690 -0.070661 0.858205 62 255 185 0.424442
-0.175316 -0.075664 0.860290 62 255 185 0.423201
-0.176427 -0.073777 0.857714 62 255 185 0.424723
-0.174094 -0.078779 0.859741 59 255 189 0.420412
-0.174015 -0.077457 0.862920 46 255 202 0.406015
-0.175131 -0.061817 0.878580 66 255 182 0.428993
-0.175229 -0.058779 0.879006 43 255 205 0.402131
-0.174028 -0.060518 0.881371 95 255 153 0.464323
-0.175329 -0.055734 0.879427 66 255 182 0.428747
-0.174070 -0.057501 0.881833 66 255 182 0.427350
-0.174097 -0.054466 0.882288 69 255 179 0.432583
-0.172907 -0.059221 0.884188 62 255 185 0.425684
-0.175270 -0.052719 0.879905 66 255 182 0.426972
-0.175185 -0.049694 0.880344 72 255 176 0.437384
-0.176391 -0.050587 0.877430 66 255 182 0.427671
-0.176452 -0.053611 0.877007 66 255 182 0.427467
-0.176417 -0.056660 0.876604 69 255 179 0.430574
-0.177510 -0.051455 0.874588 53 255 195 0.411096
-0.172856 -0.056425 0.884621 62 255 185 0.425053
-0.171504 -0.057949 0.886931 62 255 185 0.423586
-0.172736 -0.053598 0.885097 62 255 185 0.424914
-0.171376 -0.055151 0.887428 62 255 185 0.422487
-0.171292 -0.052342 0.887913 69 255 179 0.430685
-0.172562 -0.050781 0.885581 36 255 211 0.393126
-0.172431 -0.047974 0.886060 91 255 156 0.457328
-0.173790 -0.048848 0.883200 62 255 185 0.424114
-0.173955 -0.051665 0.882739 66 255 182 0.425995
-0.172915 -0.041803 0.882101 62 255 185 0.423176
-0.173738 -0.044413 0.881512 62 255 185 0.423692
-0.174075 -0.042228 0.879239 69 255 179 0.433171
-0.174910 -0.044844 0.878677 62 255 185 0.425763
-0.174499 -0.047046 0.880916 62 255 185 0.425223
-0.173105 -0.046207 0.883811 62 255 185 0.422767
-0.172340 -0.043573 0.884442 59 255 189 0.421764
-0.175244 -0.042854 0.876355 66 255 182 0.426146
-0.176089 -0.045695 0.875744 66 255 182 0.427401
-0.176158 -0.043303 0.873521 56 255 192 0.415646
-0.177061 -0.046146 0.872916 66 255 182 0.428638
-0.176889 -0.048572 0.875136 66 255 182 0.429146
-0.175709 -0.047698 0.878042 66 255 182 0.427295
-0.165015 -0.028905 0.882858 62 255 185 0.422498
-0.167194 -0.031730 0.884397 59 255 189 0.421704
-0.165241 -0.030153 0.885966 62 255 185 0.421970
-0.163526 -0.028767 0.887341 66 255 182 0.429573
-0.163156 -0.027485 0.884328 62 255 185 0.423263
-0.168840 -0.035057 0.885183 59 255 189 0.421339
-0.170419 -0.037133 0.883960 72 255 176 0.436864
-0.170500 -0.038759 0.885897 59 255 189 0.421442
-0.168972 -0.036663 0.887110 59 255 189 0.420666
-0.169063 -0.038274 0.889042 88 255 160 0.455159
-0.166824 -0.033149 0.887905 91 255 156 0.460604
-0.165200 -0.035654 0.894823 101 255 147 0.469856
-0.165496 -0.034224 0.892428 59 255 189 0.421562
-0.163839 -0.032471 0.894084 98 255 150 0.467698
-0.164051 -0.031105 0.891669 62 255 185 0.422598
-0.167260 -0.036235 0.890751 56 255 192 0.416616
-0.166912 -0.037634 0.893179 88 255 160 0.454751
-0.161933 -0.029583 0.893561 62 255 185 0.424038
-0.161634 -0.028436 0.891448 72 255 176 0.434680
-0.159703 -0.027091 0.893174 62 255 185 0.425526
-0.161330 -0.027294 0.889317 62 255 185 0.424430
-0.163788 -0.029942 0.889521 62 255 185 0.422751
-0.166045 -0.039316 0.895912 59 255 189 0.421545
-0.167134 -0.041582 0.894656 59 255 189 0.420663
-0.168083 -0.039924 0.891895 72 255 176 0.435997
-0.169265 -0.042218 0.890555 59 255 189 0.419649
-0.168225 -0.043865 0.893361 85 255 163 0.453041
-0.169339 -0.046195 0.892006 85 255 163 0.451359
-0.167241 -0.045211 0.895847 59 255 189 0.421310
-0.166198 -0.042922 0.897127 59 255 189 0.421340
-0.169953 -0.040666 0.888298 59 255 189 0.420385
-0.170804 -0.043075 0.887581 59 255 189 0.420712
-0.171444 -0.041160 0.885154 59 255 189 0.421052
-0.171615 -0.045520 0.886830 69 255 179 0.432554
-0.170822 -0.047089 0.889055 59 255 189 0.421333
-0.170059 -0.044640 0.889806 59 255 189 0.420232
-0.169961 -0.054075 0.890224 111 255 137 0.482889
-0.169778 -0.051445 0.890821 59 255 189 0.421106
-0.168417 -0.052814 0.893029 59 255 189 0.420514
-0.168286 -0.050220 0.893609 59 255 189 0.420166
-0.169576 -0.048816 0.891442 59 255 189 0.421181
-0.171085 -0.049721 0.888477 62 255 185 0.422071
-0.166660 -0.051679 0.896347 59 255 189 0.419875
-0.166231 -0.049196 0.897436 59 255 189 0.419731
-0.164703 -0.050320 0.899910 59 255 189 0.419816
-0.165749 -0.046721 0.898521 59 255 189 0.420953
-0.167767 -0.047708 0.894754 91 255 156 0.457322
-0.173948 -0.063930 0.879454 66 255 182 0.429377
-0.172264 -0.065295 0.881655 66 255 182 0.428631
-0.171071 -0.067436 0.882567 91 255 156 0.457524
-0.169508 -0.068816 0.884748 62 255 185 0.424573
-0.170401 -0.070376 0.882185 62 255 185 0.425352
-0.170164 -0.065883 0.885148 66 255 182 0.425897
-0.168613 -0.067228 0.887348 62 255 185 0.424270
-0.170711 -0.063189 0.885759 72 255 176 0.436381
-0.172310 -0.061854 0.883576 66 255 182 0.427563
-0.168391 -0.071298 0.884255 62 255 185 0.423745
-0.167170 -0.073895 0.883983 62 255 185 0.421917
-0.166439 -0.072219 0.886346 59 255 189 0.421176
-0.165289 -0.074873 0.886043 59 255 189 0.420507
-0.164564 -0.073158 0.888422 59 255 189 0.420873
-0.165611 -0.070626 0.888892 62 255 185 0.421991
-0.167525 -0.069716 0.886810 62 255 185 0.423144
-0.162587 -0.069780 0.893360 59 255 189 0.421047
-0.164521 -0.068910 0.891371 59 255 189 0.420867
-0.165353 -0.066490 0.891923 62 255 185 0.421907
-0.167381 -0.065664 0.889917 62 255 185 0.423161
-0.166536 -0.068056 0.889364 62 255 185 0.422875
-0.163621 -0.071498 0.890927 59 255 189 0.420825
-0.167777 -0.062898 0.890423 62 255 185 0.423210
-0.169412 -0.061679 0.888358 62 255 185 0.424585
-0.169767 -0.059170 0.889027 62 255 185 0.423227
-0.171108 -0.060451 0.886275 62 255 185 0.425193
-0.169014 -0.064431 0.887832 49 255 198 0.408894
-0.178337 -0.063614 0.867243 69 255 179 0.430179
-0.177301 -0.065773 0.869773 69 255 179 0.430299
-0.178797 -0.060169 0.867616 69 255 179 0.430729
-0.177807 -0.062367 0.870180 59 255 189 0.418231
-0.178171 -0.058931 0.870628 69 255 179 0.431129
-0.176769 -0.064480 0.872752 69 255 179 0.429761
-0.179110 -0.056734 0.868042 62 255 185 0.423562
-0.179266 -0.053299 0.868526 69 255 179 0.429890
-0.179843 -0.054235 0.865489 69 255 179 0.433261
-0.179630 -0.057678 0.865086 59 255 189 0.421392
-0.179201 -0.061168 0.864711 66 255 182 0.427316
-0.180284 -0.055188 0.862547 66 255 182 0.428636
-0.177130 -0.061217 0.873136 62 255 185 0.425605
-0.175966 -0.063168 0.875622 69 255 179 0.429780
-0.177348 -0.057960 0.873590 75 255 172 0.438911
-0.176260 -0.059907 0.876086 69 255 179 0.431187
-0.177476 -0.054690 0.874095 69 255 179 0.430543
-0.178348 -0.052396 0.871571 66 255 182 0.429551
-0.178305 -0.055649 0.871082 53 255 195 0.412084
-0.177094 -0.043952 0.870538 66 255 182 0.428108
-0.177925 -0.047043 0.869846 66 255 182 0.429289
-0.177767 -0.044444 0.867564 59 255 189 0.420162
-0.178606 -0.047537 0.866901 62 255 185 0.422127
-0.178658 -0.050155 0.869169 69 255 179 0.429973
-0.177755 -0.049265 0.872226 66 255 182 0.429145
-0.178327 -0.045125 0.864581 66 255 182 0.429304
-0.179139 -0.048432 0.863857 66 255 182 0.429300
-0.178639 -0.045689 0.861606 66 255 182 0.429169
-0.179462 -0.048994 0.860880 79 255 169 0.443455
-0.179825 -0.051779 0.863149 75 255 172 0.438836
-0.179292 -0.050877 0.866181 66 255 182 0.426119
-0.162456 -0.079805 0.885548 59 255 189 0.419481
-0.164659 -0.079176 0.883294 59 255 189 0.419787
-0.160751 -0.082102 0.885336 59 255 189 0.419870
-0.162923 -0.081479 0.883066 59 255 189 0.418578
-0.161175 -0.083772 0.882884 59 255 189 0.418399
-0.165139 -0.080832 0.880802 59 255 189 0.419008
-0.159052 -0.084383 0.885134 59 255 189 0.420784
-0.157370 -0.086665 0.884896 59 255 189 0.421851
-0.156908 -0.084955 0.887277 62 255 185 0.422664
-0.158557 -0.082672 0.887531 62 255 185 0.422073
-0.163283 -0.083098 0.880614 56 255 192 0.417686
-0.165445 -0.082408 0.878143 72 255 176 0.435514
-0.161432 -0.085370 0.880420 56 255 192 0.417045
-0.163570 -0.084687 0.877935 56 255 192 0.415328
-0.161697 -0.086956 0.877765 56 255 192 0.415435
-0.159625 -0.087654 0.880217 59 255 189 0.418415
-0.157821 -0.089911 0.880012 98 255 150 0.465280
-0.157600 -0.088296 0.882450 59 255 189 0.420717
-0.159393 -0.086032 0.882658 59 255 189 0.419407
-0.150907 -0.091584 0.885063 62 255 185 0.423587
-0.153040 -0.089960 0.885031 62 255 185 0.422627
-0.150813 -0.089982 0.887207 62 255 185 0.423802
-0.152926 -0.088353 0.887172 101 255 147 0.470575
-0.155198 -0.088324 0.884951 59 255 189 0.421592
-0.155427 -0.089948 0.882521 59 255 189 0.420585
-0.153254 -0.091572 0.882590 62 255 185 0.421969
-0.150528 -0.088337 0.889437 117 255 130 0.489906
-0.152490 -0.086660 0.889526 56 255 192 0.415704
-0.150111 -0.086646 0.891618 62 255 185 0.424536
-0.154473 -0.084948 0.889595 62 255 185 0.423361
-0.154910 -0.086669 0.887230 62 255 185 0.422133
-0.174716 -0.065384 0.876599 69 255 179 0.430119
-0.173413 -0.067615 0.877615 66 255 182 0.428528
-0.174171 -0.068964 0.874704 69 255 179 0.430386
-0.175488 -0.066723 0.873702 59 255 189 0.420295
-0.172588 -0.070538 0.877150 66 255 182 0.427953
-0.171682 -0.073495 0.876738 62 255 185 0.425115
-0.171073 -0.071938 0.879452 62 255 185 0.425551
-0.171904 -0.069000 0.879886 66 255 182 0.427625
-0.175954 -0.068111 0.870796 59 255 189 0.419585
-0.174696 -0.070424 0.871808 62 255 185 0.422694
-0.173581 -0.073418 0.871430 66 255 182 0.426749
-0.172105 -0.074960 0.873873 59 255 189 0.421660
-0.173131 -0.071963 0.874270 66 255 182 0.427974
-0.167038 -0.080525 0.877116 56 255 192 0.416472
-0.168659 -0.078681 0.876084 59 255 189 0.418707
-0.168272 -0.077097 0.878768 59 255 189 0.420281
-0.166679 -0.078965 0.879787 59 255 189 0.418557
-0.170146 -0.076054 0.876396 36 255 211 0.394494
-0.170522 -0.077544 0.873554 59 255 189 0.421179
-0.167725 -0.075564 0.881455 72 255 176 0.436630
-0.165895 -0.076517 0.883648 59 255 189 0.419805
-0.169059 -0.072973 0.881811 62 255 185 0.423717
-0.169667 -0.074518 0.879095 62 255 185 0.422712
-0.163682 -0.086261 0.875429 20 254 228 0.372933
-0.161599 -0.088518 0.875389 56 255 192 0.414110
-0.163801 -0.087748 0.872656 53 255 195 0.412888
-0.161719 -0.090006 0.872618 14 246 234 0.364267
-0.159570 -0.090767 0.875337 56 255 192 0.416560
-0.157558 -0.093010 0.875275 59 255 189 0.419165
-0.157687 -0.091458 0.877648 59 255 189 0.419224
-0.159692 -0.089226 0.877705 56 255 192 0.416831
-0.163676 -0.089338 0.869905 53 255 195 0.411862
-0.161268 -0.091696 0.869783 53 255 195 0.411189
-0.163630 -0.090833 0.866731 53 255 195 0.410855
-0.158890 -0.094050 0.869676 53 255 195 0.412877
-0.157068 -0.094683 0.872375 75 255 172 0.439245
-0.159365 -0.092358 0.872521 30 255 218 0.384886
-0.149345 -0.097239 0.877498 62 255 185 0.425072
-0.151750 -0.096480 0.875984 62 255 185 0.422736
-0.152678 -0.094664 0.878325 62 255 185 0.422439
-0.150260 -0.095434 0.879856 62 255 185 0.424039
-0.154640 -0.094758 0.875638 46 255 202 0.406233
-0.154113 -0.096400 0.872763 59 255 189 0.419348
-0.150548 -0.093926 0.881985 62 255 185 0.423894
-0.155296 -0.091536 0.880369 43 255 205 0.401801
-0.155173 -0.093075 0.878000 59 255 189 0.420107
-0.178440 -0.067499 0.857061 66 255 182 0.426301
-0.179090 -0.064359 0.855913 62 255 185 0.423772
-0.179317 -0.063241 0.859067 56 255 192 0.415670
-0.178661 -0.066336 0.860177 66 255 182 0.426857
-0.179832 -0.060623 0.856332 66 255 182 0.426650
-0.180361 -0.056967 0.856805 66 255 182 0.427669
-0.179989 -0.057998 0.853734 49 255 198 0.406547
-0.179368 -0.061712 0.853318 66 255 182 0.426575
-0.178646 -0.065273 0.862928 62 255 185 0.425094
-0.179388 -0.062283 0.861821 66 255 182 0.426635
-0.179925 -0.058731 0.862147 66 255 182 0.428566
-0.180365 -0.056094 0.859635 62 255 185 0.422431
-0.179928 -0.059669 0.859310 66 255 182 0.427857
-0.178836 -0.046363 0.858598 69 255 179 0.429762
-0.179621 -0.049828 0.857873 66 255 182 0.428965
-0.178734 -0.046969 0.855644 69 255 179 0.429940
-0.179474 -0.050433 0.855034 66 255 182 0.429349
-0.180102 -0.053364 0.857305 66 255 182 0.428750
-0.180058 -0.052503 0.860193 66 255 182 0.428873
-0.178493 -0.047722 0.852614 79 255 169 0.441729
-0.179069 -0.051411 0.851858 66 255 182 0.429061
-0.177818 -0.048625 0.849461 69 255 179 0.430075
-0.179647 -0.054685 0.852749 66 255 182 0.428267
-0.153352 -0.041622 0.819222 59 255 189 0.419493
-0.155120 -0.043664 0.819302 101 255 147 0.469356
-0.156926 -0.044658 0.820794 108 255 140 0.478058
-0.158814 -0.046657 0.820840 98 255 150 0.468083
-0.160611 -0.047656 0.822339 111 255 137 0.480498
-0.160649 -0.049694 0.819457 46 255 202 0.405685
-0.158744 -0.044648 0.823699 53 255 195 0.411892
-0.160543 -0.045648 0.825197 121 255 127 0.493387
-0.156533 -0.042460 0.823634 114 255 134 0.485169
-0.154445 -0.040221 0.823475 114 255 134 0.486906
-0.152709 -0.039188 0.821993 95 255 153 0.462373
-0.151961 -0.036747 0.824802 114 255 134 0.484693
-0.162463 -0.052003 0.819471 101 255 147 0.471844
-0.164503 -0.053574 0.821041 98 255 150 0.465513
-0.166357 -0.055935 0.821109 91 255 156 0.459401
-0.168359 -0.057596 0.822786 59 255 189 0.419980
-0.167958 -0.059149 0.819646 85 255 163 0.450489
-0.166747 -0.054409 0.824244 91 255 156 0.458901
-0.168748 -0.056038 0.825906 85 255 163 0.450640
-0.164692 -0.051772 0.824018 98 255 150 0.467869
-0.162639 -0.049202 0.823911 104 255 143 0.473891
-0.168151 -0.050639 0.830590 91 255 156 0.457721
-0.165671 -0.048936 0.828737 104 255 143 0.475207
-0.163804 -0.045107 0.830044 114 255 134 0.485979
-0.161285 -0.043459 0.828272 117 255 130 0.490843
-0.163101 -0.047281 0.826954 114 255 134 0.485100
-0.167163 -0.052452 0.827310 95 255 153 0.461701
-0.169645 -0.054203 0.829206 82 255 166 0.448878
-0.159310 -0.040196 0.829769 130 255 117 0.506528
-0.156268 -0.037293 0.829882 95 255 153 0.464165
-0.156810 -0.039073 0.828103 130 255 117 0.506777
-0.153333 -0.034391 0.829931 124 255 124 0.498083
-0.153823 -0.036104 0.828237 124 255 124 0.497688
-0.150972 -0.033158 0.828263 202 255 46 0.591959
-0.150430 -0.031429 0.830010 182 255 66 0.567487
-0.154324 -0.037941 0.826459 117 255 130 0.489935
-0.151449 -0.034915 0.826553 124 255 124 0.496373
-0.158687 -0.042372 0.826640 82 255 166 0.447575
-0.169297 -0.061627 0.819813 82 255 166 0.446890
-0.170806 -0.063690 0.821862 79 255 169 0.443301
-0.171907 -0.066311 0.822131 75 255 172 0.439247
-0.173158 -0.068538 0.824291 75 255 172 0.437951
-0.172610 -0.069546 0.820716 75 255 172 0.437937
-0.172468 -0.065312 0.825686 75 255 172 0.438499
-0.173625 -0.067580 0.827835 72 255 176 0.437053
-0.171296 -0.062356 0.825156 79 255 169 0.442173
-0.169978 -0.059546 0.824734 66 255 182 0.426833
-0.173282 -0.071838 0.823136 72 255 176 0.436839
-0.173283 -0.074706 0.821567 72 255 176 0.436356
-0.173735 -0.074172 0.825593 72 255 176 0.435723
-0.173655 -0.077067 0.824049 91 255 156 0.457992
-0.173898 -0.079395 0.826498 72 255 176 0.436208
-0.173505 -0.079909 0.822479 72 255 176 0.436438
-0.174021 -0.076506 0.828026 72 255 176 0.435101
-0.174236 -0.078809 0.830448 49 255 198 0.408617
-0.174132 -0.073192 0.829143 72 255 176 0.434749
-0.173744 -0.070865 0.826721 72 255 176 0.436337
-0.175367 -0.074538 0.835978 72 255 176 0.433619
-0.175343 -0.071532 0.835138 72 255 176 0.433797
-0.174804 -0.069189 0.832418 69 255 179 0.430954
-0.174552 -0.066181 0.831543 72 255 176 0.436244
-0.174650 -0.075499 0.831856 72 255 176 0.434818
-0.175043 -0.077813 0.834566 72 255 176 0.434741
-0.174091 -0.062431 0.832784 72 255 176 0.437267
-0.172898 -0.059255 0.832070 75 255 172 0.439014
-0.171118 -0.057112 0.829767 79 255 169 0.443766
-0.171984 -0.060870 0.828562 75 255 172 0.440625
-0.173113 -0.063841 0.829093 75 255 172 0.438914
-0.174983 -0.079662 0.837236 62 255 185 0.425550
-0.174196 -0.082491 0.835777 62 255 185 0.424143
-0.174241 -0.080658 0.833117 72 255 176 0.436000
-0.173380 -0.083512 0.831702 72 255 176 0.436595
-0.173313 -0.085348 0.834359 72 255 176 0.436028
-0.172401 -0.088109 0.832857 82 255 166 0.446342
-0.172963 -0.087425 0.837395 72 255 176 0.433964
-0.173767 -0.084586 0.838830 72 255 176 0.433886
-0.173737 -0.081323 0.828886 75 255 172 0.437707
-0.173153 -0.083838 0.827317 72 255 176 0.437099
-0.173356 -0.081885 0.824909 62 255 185 0.422595
-0.172747 -0.084337 0.823285 75 255 172 0.438487
-0.172563 -0.086278 0.825686 75 255 172 0.438541
-0.171790 -0.088756 0.824101 75 255 172 0.438309
-0.172196 -0.088452 0.828486 75 255 172 0.437934
-0.172822 -0.085980 0.830084 72 255 176 0.437251
-0.167788 -0.096741 0.823974 30 255 218 0.386432
-0.169115 -0.094615 0.826225 85 255 163 0.451522
-0.167782 -0.096737 0.828472 59 255 189 0.419880
-0.170314 -0.092471 0.828454 72 255 176 0.437146
-0.169014 -0.094583 0.830677 72 255 176 0.436576
-0.170153 -0.092394 0.832868 75 255 172 0.440072
-0.167596 -0.096723 0.832928 79 255 169 0.443897
-0.171427 -0.090295 0.830664 17 250 231 0.370981
-0.171085 -0.090621 0.826287 75 255 172 0.438098
-0.169821 -0.092801 0.824064 43 255 205 0.400024
-0.167333 -0.096831 0.835880 69 255 179 0.432744
-0.169268 -0.094248 0.835170 72 255 176 0.434352
-0.168884 -0.094356 0.838161 69 255 179 0.433054
-0.166959 -0.096942 0.838806 69 255 179 0.430649
-0.170736 -0.091770 0.837451 69 255 179 0.433429
-0.168280 -0.094525 0.841080 36 255 211 0.393096
-0.170168 -0.091899 0.840382 23 255 224 0.375440
-0.166419 -0.097133 0.841750 66 255 182 0.428351
-0.172032 -0.089273 0.839668 43 255 205 0.401407
-0.171621 -0.089917 0.835145 72 255 176 0.435474
-0.165546 -0.099023 0.825175 75 255 172 0.440278
-0.164374 -0.100753 0.822358 75 255 172 0.438734
-0.163324 -0.101263 0.826327 27 255 221 0.381083
-0.162159 -0.102943 0.823482 75 255 172 0.440353
-0.159969 -0.105106 0.824575 75 255 172 0.438871
-0.160931 -0.104619 0.820623 101 255 147 0.471084
-0.161122 -0.103455 0.827434 75 255 172 0.441287
-0.158906 -0.105650 0.828537 72 255 176 0.436685
-0.163371 -0.101255 0.830792 72 255 176 0.436471
-0.165634 -0.098978 0.829639 36 255 211 0.393578
-0.158977 -0.106333 0.819167 49 255 198 0.406932
-0.155881 -0.108487 0.819265 137 255 111 0.515005
-0.154001 -0.110085 0.817722 85 255 163 0.450195
-0.151002 -0.112100 0.817710 88 255 160 0.453930
