ply
format ascii 1.0
comment VCGLIB generated
element vertex 938
property float x
property float y
property float z
property uchar red
property uchar green
property uchar blue
property float quality
end_header
-0.089587 -0.047498 0.908606 143 255 104 0.520717
-0.089355 -0.051215 0.911020 143 255 104 0.520750
-0.091051 -0.043396 0.905785 130 255 117 0.505288
-0.096162 -0.033219 0.899735 140 255 108 0.519089
-0.095451 -0.035813 0.901489 143 255 104 0.519828
-0.098161 -0.032673 0.901095 140 255 108 0.519056
-0.094534 -0.038609 0.903865 156 255 92 0.536703
-0.092825 -0.042248 0.906466 143 255 104 0.522221
-0.089620 -0.054436 0.913301 143 255 104 0.521051
-0.089931 -0.057548 0.914787 117 255 130 0.491332
-0.090521 -0.060526 0.916037 143 255 104 0.521970
-0.088444 -0.067059 0.915482 143 255 104 0.522948
-0.091239 -0.069837 0.915281 137 255 111 0.515206
-0.094104 -0.072552 0.914812 143 255 104 0.522059
-0.097148 -0.075169 0.914290 143 255 104 0.521668
-0.095679 -0.077165 0.914518 143 255 104 0.521011
-0.092883 -0.074421 0.915094 143 255 104 0.521616
-0.090323 -0.065632 0.915226 143 255 104 0.522754
-0.093041 -0.068066 0.915006 111 255 137 0.483163
-0.095704 -0.070543 0.914689 143 255 104 0.521915
-0.108397 -0.082540 0.911028 143 255 104 0.519877
-0.105883 -0.080655 0.911571 143 255 104 0.520379
-0.103108 -0.078779 0.912267 143 255 104 0.520874
-0.107133 -0.084992 0.910793 140 255 108 0.518715
-0.100155 -0.076979 0.913203 143 255 104 0.521294
-0.104462 -0.083159 0.911413 140 255 108 0.519518
-0.101564 -0.081353 0.912342 143 255 104 0.520023
-0.105330 -0.087708 0.910491 140 255 108 0.518035
-0.102769 -0.085864 0.911153 140 255 108 0.517739
-0.098378 -0.079579 0.913354 124 255 124 0.499470
-0.109642 -0.077888 0.912782 143 255 104 0.520382
-0.107216 -0.076238 0.913029 130 255 117 0.504396
-0.104538 -0.074611 0.913430 143 255 104 0.521141
-0.109215 -0.080148 0.911654 143 255 104 0.520209
-0.101631 -0.073135 0.914084 143 255 104 0.521567
-0.098673 -0.071531 0.914861 143 255 104 0.522057
-0.092004 -0.064019 0.915539 143 255 104 0.522303
-0.094412 -0.065546 0.915874 143 255 104 0.521870
-0.096569 -0.067765 0.915875 143 255 104 0.522090
-0.129708 -0.086310 0.907197 143 255 104 0.520428
-0.127045 -0.086084 0.907558 143 255 104 0.520336
-0.124453 -0.085960 0.907973 143 255 104 0.520021
-0.129410 -0.088845 0.905503 140 255 108 0.519251
-0.126753 -0.088665 0.905902 140 255 108 0.519330
-0.121823 -0.085830 0.908360 143 255 104 0.519905
-0.119173 -0.085763 0.908751 140 255 108 0.519490
-0.119902 -0.082909 0.910193 143 255 104 0.519590
-0.128893 -0.091308 0.903970 140 255 108 0.518629
-0.123750 -0.089121 0.906272 140 255 108 0.519195
-0.126074 -0.091026 0.904662 140 255 108 0.518670
-0.120952 -0.088896 0.906984 140 255 108 0.518947
-0.118119 -0.088632 0.907733 140 255 108 0.518867
-0.111160 -0.083330 0.910279 143 255 104 0.519762
-0.113911 -0.084093 0.909698 143 255 104 0.519590
-0.116596 -0.084890 0.909212 143 255 104 0.519591
-0.112034 -0.080839 0.911144 143 255 104 0.519923
-0.114711 -0.081506 0.910737 143 255 104 0.519754
-0.117317 -0.082180 0.910428 124 255 124 0.498974
-0.112663 -0.086933 0.908793 140 255 108 0.518946
-0.115394 -0.087762 0.908231 124 255 124 0.499063
-0.117016 -0.090824 0.907005 140 255 108 0.518591
-0.109915 -0.085965 0.909656 140 255 108 0.519083
-0.122908 -0.091503 0.904966 140 255 108 0.518611
-0.125091 -0.093316 0.903260 140 255 108 0.518574
-0.127724 -0.094392 0.902000 140 255 108 0.518722
-0.121794 -0.093593 0.903922 134 255 114 0.508896
-0.119614 -0.091869 0.905620 140 255 108 0.518506
-0.124095 -0.099370 0.898183 140 255 108 0.519271
-0.121496 -0.098335 0.900024 140 255 108 0.519054
-0.119629 -0.096411 0.902204 140 255 108 0.518902
-0.117051 -0.095386 0.903856 140 255 108 0.518776
-0.115197 -0.093502 0.905907 140 255 108 0.518539
-0.113776 -0.095321 0.905133 140 255 108 0.518853
-0.123627 -0.095717 0.901874 140 255 108 0.518641
-0.125615 -0.097682 0.899649 140 255 108 0.519218
-0.111431 -0.093601 0.906375 140 255 108 0.518462
-0.109867 -0.091012 0.907862 140 255 108 0.518142
-0.107680 -0.089278 0.909129 140 255 108 0.517851
-0.113533 -0.090828 0.907336 140 255 108 0.518205
-0.154287 -0.063103 0.915108 140 255 108 0.518332
-0.154340 -0.066078 0.912068 143 255 104 0.521028
-0.154503 -0.069385 0.909075 117 255 130 0.491497
-0.156761 -0.065938 0.909560 143 255 104 0.522989
-0.152119 -0.069527 0.911529 143 255 104 0.521945
-0.150143 -0.069571 0.913706 85 255 163 0.452487
-0.152248 -0.066219 0.914450 0 214 255 0.332613
-0.150358 -0.066371 0.916644 140 255 108 0.518251
-0.158375 -0.067966 0.906280 79 255 169 0.442557
-0.155550 -0.071532 0.906412 140 255 108 0.516302
-0.158120 -0.071266 0.904148 147 255 101 0.527214
-0.160817 -0.071061 0.901756 147 255 101 0.525825
-0.155250 -0.074906 0.904347 150 255 98 0.527472
-0.152903 -0.075122 0.906465 147 255 101 0.525459
-0.151884 -0.072966 0.909050 147 255 101 0.523731
-0.145298 -0.079565 0.908142 143 255 104 0.522545
-0.146528 -0.076600 0.909871 143 255 104 0.522837
-0.147824 -0.073587 0.911528 143 255 104 0.522337
-0.144503 -0.076339 0.911504 143 255 104 0.521527
-0.148774 -0.076836 0.907951 147 255 101 0.525363
-0.143891 -0.074122 0.914116 143 255 104 0.520660
-0.146670 -0.071326 0.914826 143 255 104 0.520250
-0.144779 -0.071042 0.916817 137 255 111 0.513873
-0.143015 -0.070862 0.918757 134 255 114 0.508536
-0.147571 -0.068328 0.917509 140 255 108 0.518314
-0.110080 -0.017986 0.888232 140 255 108 0.519069
-0.111979 -0.017250 0.886891 127 255 121 0.501394
-0.114580 -0.016998 0.886086 143 255 104 0.519687
-0.116459 -0.016101 0.884453 143 255 104 0.520077
-0.119063 -0.015513 0.883497 143 255 104 0.520337
-0.118372 -0.017505 0.886300 143 255 104 0.519852
-0.116549 -0.018266 0.887707 147 255 101 0.523654
-0.114000 -0.018522 0.888526 140 255 108 0.519355
-0.112145 -0.018994 0.889826 140 255 108 0.519053
-0.119953 -0.014336 0.880849 143 255 104 0.520812
-0.122652 -0.014982 0.880191 143 255 104 0.521488
-0.124856 -0.014782 0.878751 143 255 104 0.522169
-0.124417 -0.016432 0.882475 143 255 104 0.521275
-0.121721 -0.016153 0.882885 143 255 104 0.520691
-0.125657 -0.017479 0.885296 143 255 104 0.520543
-0.121256 -0.017228 0.886396 147 255 101 0.524001
-0.127310 -0.016923 0.883345 143 255 104 0.521427
-0.120491 -0.018485 0.889194 143 255 104 0.519574
-0.118143 -0.019058 0.889799 140 255 108 0.519352
-0.116348 -0.019515 0.890983 140 255 108 0.519003
-0.114491 -0.019846 0.892079 140 255 108 0.518876
-0.093269 -0.030618 0.895928 140 255 108 0.518728
-0.095427 -0.028286 0.894481 140 255 108 0.518312
-0.096925 -0.025942 0.892747 140 255 108 0.518138
-0.098933 -0.023566 0.891457 140 255 108 0.517833
-0.095518 -0.030789 0.896819 140 255 108 0.518462
-0.099101 -0.021145 0.889015 140 255 108 0.517853
-0.101404 -0.019309 0.887869 127 255 121 0.501282
-0.102799 -0.016918 0.886313 140 255 108 0.518264
-0.104987 -0.014612 0.885236 140 255 108 0.518886
-0.105294 -0.018332 0.887685 130 255 117 0.504377
-0.103774 -0.020429 0.889192 140 255 108 0.518026
-0.101442 -0.021967 0.890271 140 255 108 0.517779
-0.108481 -0.020030 0.889801 140 255 108 0.518604
-0.106056 -0.021464 0.890758 153 255 95 0.532867
-0.104231 -0.023118 0.892125 140 255 108 0.517600
-0.101650 -0.024479 0.893080 140 255 108 0.517370
-0.107615 -0.016416 0.886672 140 255 108 0.518895
-0.101223 -0.026893 0.895198 124 255 124 0.499012
-0.098926 -0.028863 0.896265 153 255 95 0.533411
-0.112162 -0.015110 0.884245 143 255 104 0.519759
-0.109421 -0.015437 0.885241 140 255 108 0.519381
-0.113279 -0.013160 0.882167 143 255 104 0.521025
-0.114500 -0.011175 0.879968 143 255 104 0.519918
-0.116999 -0.013542 0.881677 143 255 104 0.520400
-0.106821 -0.013481 0.883730 140 255 108 0.519421
-0.108679 -0.012177 0.882187 143 255 104 0.519863
-0.109729 -0.010007 0.880148 143 255 104 0.520065
-0.110875 -0.007681 0.878080 143 255 104 0.519873
-0.119858 -0.007223 0.870821 143 255 104 0.519811
-0.118405 -0.008326 0.873163 143 255 104 0.520206
-0.121612 -0.009195 0.872066 143 255 104 0.520320
-0.117074 -0.009347 0.875554 172 255 75 0.557872
-0.120267 -0.010206 0.874354 143 255 104 0.520555
-0.118933 -0.011241 0.876676 143 255 104 0.520535
-0.123456 -0.010940 0.873307 143 255 104 0.521153
-0.115763 -0.010362 0.877761 143 255 104 0.520220
-0.113102 -0.007564 0.876375 143 255 104 0.519934
-0.122733 -0.012732 0.876310 150 255 98 0.529439
-0.125776 -0.013094 0.875698 143 255 104 0.522408
-0.097856 -0.030973 0.898151 140 255 108 0.518065
-0.104012 -0.024968 0.894803 140 255 108 0.517384
-0.101145 -0.028888 0.897703 140 255 108 0.517531
-0.111066 -0.021157 0.891784 140 255 108 0.518537
-0.108568 -0.022442 0.892741 140 255 108 0.518027
-0.106631 -0.023858 0.894037 140 255 108 0.517391
-0.113178 -0.021642 0.893992 130 255 117 0.507717
-0.110732 -0.022925 0.894811 140 255 108 0.518045
-0.108688 -0.024146 0.895963 140 255 108 0.517471
-0.106487 -0.025236 0.897002 140 255 108 0.517272
-0.104860 -0.027040 0.898410 140 255 108 0.517151
-0.100084 -0.030634 0.899838 140 255 108 0.517983
-0.118139 -0.019797 0.898391 156 255 92 0.536744
-0.121948 -0.018891 0.897746 140 255 108 0.518420
-0.125806 -0.017579 0.897162 140 255 108 0.518233
-0.124439 -0.017798 0.899921 140 255 108 0.518057
-0.120558 -0.018848 0.900392 140 255 108 0.517850
-0.118799 -0.018844 0.902103 140 255 108 0.517763
-0.127175 -0.018000 0.894575 140 255 108 0.518726
-0.131171 -0.017760 0.894750 140 255 108 0.519262
-0.132838 -0.017652 0.893232 143 255 104 0.519994
-0.133792 -0.016982 0.897633 143 255 104 0.519915
-0.129841 -0.017419 0.897336 140 255 108 0.518625
-0.133220 -0.015538 0.903795 140 255 108 0.518484
-0.129642 -0.015909 0.903029 140 255 108 0.518304
-0.127623 -0.015166 0.905115 140 255 108 0.517925
-0.128079 -0.016826 0.900367 140 255 108 0.518268
-0.131698 -0.016404 0.901088 140 255 108 0.518960
-0.123872 -0.015132 0.906451 140 255 108 0.517606
-0.120248 -0.016401 0.906228 140 255 108 0.517542
-0.118258 -0.015505 0.908753 140 255 108 0.517133
-0.124176 -0.016702 0.903057 160 255 88 0.542892
-0.121523 -0.013395 0.910781 140 255 108 0.517036
-0.120999 -0.011495 0.914633 140 255 108 0.516587
-0.124549 -0.011330 0.912691 140 255 108 0.516934
-0.123852 -0.009833 0.916642 150 255 98 0.530904
-0.122864 -0.008934 0.919792 140 255 108 0.516240
-0.120171 -0.010282 0.917666 140 255 108 0.516241
-0.119114 -0.009346 0.920333 140 255 108 0.516009
-0.117252 -0.011615 0.915317 140 255 108 0.516254
-0.116299 -0.010515 0.918023 140 255 108 0.516220
-0.115164 -0.009576 0.920390 150 255 98 0.530246
-0.117903 -0.013259 0.912263 130 255 117 0.505837
-0.126939 -0.013495 0.908299 140 255 108 0.517568
-0.130573 -0.014265 0.906957 140 255 108 0.517905
-0.129763 -0.012719 0.910374 140 255 108 0.517357
-0.128876 -0.011098 0.914414 140 255 108 0.516840
-0.127887 -0.009987 0.918306 140 255 108 0.516528
-0.123517 -0.006906 0.929767 137 255 111 0.515357
-0.123378 -0.007485 0.926556 140 255 108 0.515694
-0.120167 -0.006198 0.929914 140 255 108 0.515739
-0.120067 -0.006792 0.926706 140 255 108 0.515901
-0.123201 -0.008172 0.923161 140 255 108 0.516164
-0.126507 -0.008805 0.922407 140 255 108 0.515944
-0.126757 -0.008175 0.925635 160 255 88 0.539315
-0.114556 -0.006236 0.929421 140 255 108 0.515953
-0.116127 -0.007096 0.926842 140 255 108 0.516011
-0.112168 -0.007453 0.926438 140 255 108 0.517476
-0.110569 -0.006703 0.929016 140 255 108 0.516553
-0.113755 -0.008392 0.923441 140 255 108 0.516338
-0.117756 -0.008195 0.923587 153 255 95 0.534734
-0.128267 -0.018238 0.892157 140 255 108 0.519296
-0.124243 -0.018130 0.892284 140 255 108 0.518962
-0.129937 -0.018121 0.890474 143 255 104 0.519949
-0.131638 -0.017733 0.888773 143 255 104 0.520962
-0.123165 -0.018648 0.895126 140 255 108 0.518634
-0.119253 -0.019777 0.895993 140 255 108 0.518601
-0.120463 -0.019375 0.893387 140 255 108 0.518901
-0.123104 -0.018059 0.889630 143 255 104 0.520823
-0.116382 -0.020154 0.894667 124 255 124 0.499905
-0.126832 -0.018129 0.888208 143 255 104 0.520185
-0.128553 -0.017723 0.886306 143 255 104 0.520865
-0.137215 -0.017664 0.894048 143 255 104 0.521881
-0.141453 -0.017524 0.894786 143 255 104 0.521389
-0.139197 -0.017711 0.892640 134 255 114 0.511640
-0.139584 -0.017471 0.896143 143 255 104 0.521288
-0.135343 -0.017451 0.895308 143 255 104 0.520787
-0.143362 -0.017883 0.892314 143 255 104 0.521937
-0.145296 -0.018212 0.894639 143 255 104 0.520237
-0.147358 -0.018570 0.893206 143 255 104 0.519691
-0.149462 -0.019003 0.891621 140 255 108 0.519511
-0.149195 -0.019057 0.895472 140 255 108 0.518710
-0.147242 -0.018570 0.896842 140 255 108 0.518871
-0.143484 -0.017795 0.897042 143 255 104 0.519930
-0.147183 -0.018690 0.903133 140 255 108 0.517180
-0.144127 -0.017769 0.901699 140 255 108 0.518363
-0.141084 -0.016974 0.900152 140 255 108 0.519262
-0.142136 -0.017126 0.903221 140 255 108 0.518046
-0.146309 -0.018367 0.900129 140 255 108 0.518054
-0.138703 -0.016490 0.903325 140 255 108 0.518700
-0.137289 -0.016794 0.900438 140 255 108 0.519507
-0.135266 -0.016188 0.902101 140 255 108 0.518929
-0.146578 -0.018316 0.882641 218 255 30 0.610907
-0.148933 -0.018730 0.883669 143 255 104 0.521650
-0.144608 -0.018052 0.884326 147 255 101 0.525460
-0.147120 -0.018453 0.886772 143 255 104 0.522430
-0.142582 -0.017868 0.885949 147 255 101 0.526299
-0.140584 -0.017644 0.887471 147 255 101 0.526051
-0.145228 -0.018261 0.889579 147 255 101 0.526655
-0.141084 -0.017718 0.891180 143 255 104 0.521766
-0.134688 -0.017865 0.891860 143 255 104 0.521381
-0.136639 -0.017900 0.890407 143 255 104 0.522593
-0.138590 -0.017813 0.888938 147 255 101 0.524416
-0.133573 -0.017801 0.887155 143 255 104 0.521953
-0.135561 -0.017696 0.885597 143 255 104 0.523176
-0.087470 -0.029863 0.921743 140 255 108 0.519380
-0.088433 -0.030274 0.920054 143 255 104 0.519863
-0.086571 -0.034058 0.921325 143 255 104 0.521416
-0.084916 -0.037834 0.923196 143 255 104 0.522642
-0.087509 -0.034618 0.919562 143 255 104 0.521415
-0.085776 -0.038424 0.921415 143 255 104 0.522194
-0.086507 -0.039122 0.919625 143 255 104 0.521806
-0.088503 -0.035180 0.917602 143 255 104 0.521234
-0.089626 -0.030784 0.918153 147 255 101 0.524112
-0.090788 -0.031329 0.916243 143 255 104 0.520739
-0.091888 -0.027024 0.917525 88 255 160 0.454009
-0.090631 -0.026535 0.919315 202 255 46 0.592194
-0.093167 -0.022892 0.919724 137 255 111 0.514705
-0.093181 -0.027475 0.915654 143 255 104 0.519659
-0.094496 -0.023450 0.917880 192 255 56 0.579849
-0.095760 -0.023960 0.916008 140 255 108 0.516660
-0.091925 -0.022533 0.921435 137 255 111 0.515481
-0.084277 -0.046067 0.927332 147 255 101 0.524355
-0.084868 -0.050221 0.929364 147 255 101 0.524547
-0.085937 -0.054089 0.931196 130 255 117 0.507520
-0.086929 -0.055434 0.928109 143 255 104 0.520356
-0.086056 -0.051592 0.926102 147 255 101 0.523814
-0.085441 -0.047409 0.923891 147 255 101 0.523634
-0.085062 -0.042438 0.923483 143 255 104 0.522668
-0.085679 -0.043182 0.921690 143 255 104 0.522482
-0.088716 -0.057316 0.923134 147 255 101 0.523805
-0.088006 -0.054097 0.921159 143 255 104 0.523281
-0.086976 -0.049613 0.920013 143 255 104 0.523293
-0.087304 -0.045254 0.917509 127 255 121 0.502273
-0.087736 -0.040314 0.916691 143 255 104 0.521504
-0.088953 -0.041780 0.914052 143 255 104 0.521749
-0.086833 -0.052926 0.923574 147 255 101 0.523933
-0.087941 -0.056484 0.925631 147 255 101 0.523745
-0.091594 -0.037293 0.911821 160 255 88 0.539558
-0.093448 -0.032610 0.911864 143 255 104 0.521046
-0.096163 -0.028940 0.911266 143 255 104 0.519625
-0.097719 -0.025092 0.912800 140 255 108 0.517361
-0.099484 -0.026758 0.909541 140 255 108 0.518751
-0.089933 -0.036225 0.914676 104 255 143 0.474875
-0.116174 -0.016288 0.909495 140 255 108 0.517042
-0.114084 -0.018253 0.908395 140 255 108 0.516929
-0.111917 -0.019112 0.908699 140 255 108 0.516944
-0.109663 -0.020912 0.907564 160 255 88 0.541546
-0.109629 -0.018792 0.910458 140 255 108 0.516916
-0.112131 -0.021182 0.905968 143 255 104 0.522673
-0.109880 -0.022791 0.905011 140 255 108 0.517031
-0.114362 -0.020253 0.905316 137 255 111 0.515059
-0.116535 -0.019202 0.904540 140 255 108 0.517616
-0.107268 -0.020453 0.910315 140 255 108 0.517465
-0.104706 -0.023217 0.908808 140 255 108 0.517495
-0.102224 -0.025188 0.908613 140 255 108 0.518004
-0.100019 -0.028889 0.906880 140 255 108 0.519217
-0.102703 -0.027531 0.905809 140 255 108 0.518227
-0.105146 -0.025716 0.905668 140 255 108 0.517314
-0.107467 -0.023372 0.906615 163 255 85 0.546053
-0.100056 -0.031150 0.904291 150 255 98 0.531068
-0.104895 -0.027193 0.903360 140 255 108 0.517423
-0.107394 -0.025389 0.903561 140 255 108 0.517099
-0.109508 -0.024122 0.902168 140 255 108 0.517170
-0.111803 -0.023221 0.901432 140 255 108 0.517377
-0.114152 -0.021994 0.901393 140 255 108 0.517575
-0.116286 -0.020814 0.900396 140 255 108 0.517998
-0.108290 -0.007930 0.928272 140 255 108 0.516811
-0.107580 -0.009804 0.925282 140 255 108 0.517319
-0.103906 -0.010174 0.927128 140 255 108 0.517511
-0.103040 -0.012167 0.923956 140 255 108 0.517933
-0.106700 -0.011871 0.922155 140 255 108 0.517839
-0.105731 -0.013995 0.918943 140 255 108 0.518155
-0.108120 -0.012685 0.919581 140 255 108 0.517384
-0.109124 -0.010546 0.922838 140 255 108 0.517293
-0.110619 -0.011520 0.919967 140 255 108 0.516841
-0.111471 -0.009521 0.923130 172 255 75 0.555993
-0.110011 -0.008625 0.925998 140 255 108 0.516724
-0.112904 -0.010539 0.920340 140 255 108 0.516295
-0.099060 -0.014076 0.924926 140 255 108 0.518178
-0.096692 -0.016799 0.923639 163 255 85 0.546752
-0.097867 -0.017489 0.921576 140 255 108 0.518144
-0.094286 -0.019578 0.922352 140 255 108 0.517038
-0.095454 -0.020119 0.920530 140 255 108 0.517089
-0.096801 -0.020848 0.918674 140 255 108 0.517051
-0.098293 -0.021224 0.916741 140 255 108 0.516512
-0.099345 -0.017960 0.919657 140 255 108 0.518704
-0.100754 -0.018608 0.917577 140 255 108 0.518476
-0.101830 -0.015334 0.920572 140 255 108 0.519095
-0.100515 -0.014681 0.922864 140 255 108 0.518756
-0.103216 -0.016275 0.918268 160 255 88 0.539501
-0.101141 -0.023489 0.911532 163 255 85 0.544086
-0.103727 -0.021120 0.912001 140 255 108 0.517251
-0.105331 -0.017970 0.914464 160 255 88 0.540190
-0.107880 -0.015853 0.914929 140 255 108 0.517234
-0.111276 -0.016148 0.913001 140 255 108 0.516807
-0.113586 -0.015048 0.913001 140 255 108 0.516577
-0.112644 -0.013805 0.915480 140 255 108 0.516696
-0.115806 -0.014081 0.912810 140 255 108 0.516589
-0.115012 -0.012727 0.915488 140 255 108 0.516275
-0.108436 -0.024899 0.899620 140 255 108 0.517156
-0.110700 -0.023976 0.898673 140 255 108 0.517429
-0.113140 -0.022728 0.898405 140 255 108 0.517838
-0.115245 -0.021500 0.897286 140 255 108 0.518255
-0.102230 -0.029297 0.903246 140 255 108 0.517997
-0.106536 -0.026366 0.901051 140 255 108 0.517218
-0.103076 -0.028591 0.899737 140 255 108 0.517441
-0.097410 -0.030274 0.908996 143 255 104 0.520095
-0.094745 -0.033744 0.909667 143 255 104 0.521647
-0.092609 -0.038957 0.910011 143 255 104 0.522361
-0.089995 -0.043358 0.912323 143 255 104 0.522057
-0.095723 -0.035340 0.907683 124 255 124 0.499766
-0.098095 -0.032202 0.906679 143 255 104 0.520545
-0.088317 -0.046610 0.915792 143 255 104 0.522530
-0.088102 -0.050756 0.918239 95 255 153 0.462332
-0.089036 -0.054972 0.919201 143 255 104 0.522949
-0.089743 -0.058047 0.921095 147 255 101 0.523680
-0.089308 -0.051929 0.916576 143 255 104 0.522788
-0.089599 -0.048051 0.914239 143 255 104 0.522840
-0.090995 -0.058933 0.918868 127 255 121 0.503480
-0.090448 -0.056129 0.917325 143 255 104 0.522409
-0.090144 -0.053007 0.915477 143 255 104 0.522421
-0.090442 -0.049348 0.913334 150 255 98 0.530471
-0.090982 -0.044921 0.911160 143 255 104 0.522341
-0.093640 -0.040685 0.908382 143 255 104 0.522494
-0.097963 -0.034021 0.904721 143 255 104 0.520473
-0.095881 -0.037000 0.906096 121 255 127 0.494399
-0.091403 -0.046014 0.910002 140 255 108 0.518013
-0.090592 -0.050273 0.912137 143 255 104 0.521933
-0.097030 -0.034996 0.902892 111 255 137 0.482705
-0.106511 -0.064606 0.940764 140 255 108 0.518405
-0.104890 -0.064952 0.938068 185 255 62 0.570319
-0.105611 -0.066036 0.935948 150 255 98 0.529405
-0.103326 -0.066227 0.933115 147 255 101 0.524123
-0.108489 -0.067668 0.933982 143 255 104 0.519930
-0.099917 -0.064745 0.934717 147 255 101 0.524956
-0.097164 -0.064789 0.932241 147 255 101 0.525387
-0.099406 -0.063909 0.936442 143 255 104 0.522669
-0.098837 -0.062866 0.938177 143 255 104 0.521850
-0.105763 -0.067815 0.929549 156 255 92 0.538465
-0.108109 -0.068808 0.929371 143 255 104 0.523220
-0.103153 -0.066992 0.929670 147 255 101 0.526286
-0.103270 -0.067712 0.925768 147 255 101 0.525294
-0.105870 -0.068812 0.925422 147 255 101 0.524301
-0.108348 -0.069945 0.925180 143 255 104 0.523076
-0.100568 -0.066749 0.925983 147 255 101 0.526020
-0.097785 -0.065782 0.926134 147 255 101 0.525855
-0.097459 -0.065411 0.929170 124 255 124 0.497458
-0.090319 -0.059429 0.925443 143 255 104 0.522542
-0.092379 -0.061441 0.927659 147 255 101 0.524991
-0.089555 -0.058768 0.927945 147 255 101 0.524453
-0.091636 -0.060868 0.930191 147 255 101 0.524949
-0.094665 -0.063249 0.929894 147 255 101 0.525643
-0.095194 -0.063736 0.927081 147 255 101 0.525600
-0.093203 -0.061974 0.924977 147 255 101 0.524415
-0.088588 -0.057420 0.930799 147 255 101 0.523774
-0.090666 -0.059304 0.933252 147 255 101 0.523560
-0.088039 -0.056280 0.933639 143 255 104 0.523222
-0.093343 -0.060508 0.936063 143 255 104 0.523044
-0.093511 -0.061583 0.934458 147 255 101 0.523698
-0.093923 -0.062406 0.932814 147 255 101 0.524896
-0.091157 -0.060133 0.931813 147 255 101 0.524807
-0.106093 -0.069471 0.923133 143 255 104 0.523207
-0.108711 -0.070821 0.922692 143 255 104 0.522163
-0.103861 -0.069022 0.921214 143 255 104 0.522955
-0.106610 -0.070355 0.920688 143 255 104 0.522388
-0.109283 -0.071877 0.920179 143 255 104 0.521113
-0.100929 -0.067242 0.922922 147 255 101 0.524120
-0.098251 -0.066188 0.923257 147 255 101 0.524405
-0.104515 -0.070272 0.918350 143 255 104 0.522122
-0.109622 -0.073196 0.917949 121 255 127 0.492457
-0.101649 -0.068772 0.919084 143 255 104 0.522387
-0.098934 -0.067294 0.919689 143 255 104 0.522932
-0.092676 -0.060932 0.919925 143 255 104 0.522876
-0.094558 -0.062753 0.920744 143 255 104 0.523342
-0.096510 -0.064600 0.921499 143 255 104 0.523180
-0.091818 -0.060244 0.922004 147 255 101 0.523687
-0.095773 -0.063976 0.924820 147 255 101 0.525133
-0.093933 -0.062312 0.922614 147 255 101 0.523811
-0.092594 -0.062432 0.916749 124 255 124 0.497727
-0.094974 -0.063974 0.917754 143 255 104 0.522479
-0.097023 -0.066217 0.917684 143 255 104 0.522018
-0.098987 -0.068515 0.917561 127 255 121 0.501393
-0.107356 -0.073259 0.915779 143 255 104 0.521122
-0.109877 -0.075171 0.915327 143 255 104 0.520638
-0.101806 -0.070151 0.916735 147 255 101 0.523460
-0.129366 -0.079529 0.913122 143 255 104 0.520280
-0.133181 -0.078022 0.913783 143 255 104 0.520614
-0.131030 -0.077312 0.915185 143 255 104 0.520133
-0.128893 -0.076561 0.916505 143 255 104 0.519935
-0.136910 -0.076703 0.914619 143 255 104 0.520892
-0.137158 -0.078492 0.912695 143 255 104 0.522191
-0.133442 -0.079944 0.912000 130 255 117 0.507384
-0.137503 -0.080429 0.910791 143 255 104 0.521461
-0.130442 -0.074804 0.918792 143 255 104 0.520096
-0.131892 -0.073126 0.921110 143 255 104 0.519932
-0.128154 -0.074069 0.920525 143 255 104 0.519817
-0.134173 -0.073807 0.919347 143 255 104 0.520200
-0.136368 -0.074766 0.917443 143 255 104 0.520152
-0.132670 -0.075649 0.916896 143 255 104 0.520386
-0.141715 -0.073417 0.916154 121 255 127 0.493401
-0.140586 -0.076041 0.913674 143 255 104 0.521157
-0.139649 -0.072844 0.918058 143 255 104 0.519647
-0.137665 -0.072416 0.919956 140 255 108 0.519435
-0.140931 -0.077883 0.911665 143 255 104 0.521666
-0.143003 -0.078668 0.909899 143 255 104 0.522272
-0.112449 -0.078425 0.912505 143 255 104 0.520011
-0.115123 -0.078981 0.912373 143 255 104 0.519722
-0.117696 -0.079577 0.912283 140 255 108 0.519510
-0.120174 -0.080111 0.912341 140 255 108 0.519390
-0.112636 -0.076131 0.914578 143 255 104 0.520088
-0.115240 -0.075622 0.915899 143 255 104 0.519594
-0.117728 -0.077087 0.914768 140 255 108 0.519219
-0.120158 -0.078235 0.914356 140 255 108 0.519222
-0.124854 -0.079748 0.912643 140 255 108 0.519506
-0.127221 -0.081237 0.911285 143 255 104 0.520152
-0.129547 -0.081993 0.910659 143 255 104 0.520563
-0.122570 -0.078617 0.913852 147 255 101 0.525184
-0.127207 -0.083628 0.909269 143 255 104 0.520354
-0.124783 -0.082793 0.910011 143 255 104 0.519925
-0.122360 -0.082819 0.910099 143 255 104 0.519788
-0.130980 -0.093369 0.901460 140 255 108 0.518818
-0.133204 -0.094707 0.899294 140 255 108 0.519007
-0.135783 -0.095184 0.897715 143 255 104 0.519645
-0.138066 -0.096498 0.895236 143 255 104 0.520276
-0.134751 -0.097350 0.895589 143 255 104 0.519576
-0.132145 -0.096830 0.897497 140 255 108 0.519202
-0.129931 -0.095632 0.899812 140 255 108 0.518785
-0.141206 -0.094964 0.895122 143 255 104 0.521365
-0.143495 -0.095678 0.892493 143 255 104 0.522583
-0.145975 -0.095692 0.890855 143 255 104 0.523394
-0.148209 -0.096403 0.888276 143 255 104 0.522659
-0.147751 -0.097888 0.886120 143 255 104 0.522929
-0.145173 -0.097825 0.888008 143 255 104 0.523240
-0.142574 -0.097784 0.889884 143 255 104 0.522976
-0.140332 -0.097078 0.892568 143 255 104 0.521771
-0.145836 -0.101335 0.880856 147 255 101 0.525276
-0.143097 -0.101227 0.883017 147 255 101 0.526964
-0.141023 -0.100310 0.886156 147 255 101 0.525871
-0.138271 -0.100341 0.888298 143 255 104 0.523342
-0.136154 -0.099617 0.891585 143 255 104 0.520601
-0.134822 -0.101218 0.889480 143 255 104 0.521132
-0.139552 -0.098620 0.890440 143 255 104 0.521820
-0.144228 -0.099478 0.885426 147 255 101 0.525677
-0.146824 -0.099616 0.883501 147 255 101 0.524310
-0.132134 -0.100709 0.891670 143 255 104 0.520218
-0.130119 -0.099415 0.894779 140 255 108 0.519516
-0.127453 -0.099003 0.896873 140 255 108 0.519284
-0.133474 -0.099088 0.893572 143 255 104 0.519729
-0.123474 -0.064230 0.941722 140 255 108 0.516436
-0.122407 -0.065891 0.938995 143 255 104 0.520273
-0.122859 -0.067695 0.935433 121 255 127 0.495180
-0.121395 -0.068939 0.932613 140 255 108 0.517731
-0.125489 -0.069339 0.931644 140 255 108 0.517962
-0.118876 -0.067519 0.936349 153 255 95 0.534863
-0.117093 -0.068826 0.933345 140 255 108 0.517281
-0.118345 -0.066039 0.939338 140 255 108 0.516984
-0.117437 -0.064643 0.942110 153 255 95 0.534975
-0.126130 -0.070384 0.929108 140 255 108 0.518427
-0.126749 -0.071358 0.926628 140 255 108 0.519031
-0.122223 -0.070882 0.927384 140 255 108 0.518414
-0.122826 -0.071848 0.924923 140 255 108 0.518458
-0.123433 -0.072808 0.922559 140 255 108 0.518769
-0.127262 -0.072297 0.924197 140 255 108 0.519481
-0.118684 -0.072472 0.923408 140 255 108 0.517857
-0.118091 -0.071476 0.925718 140 255 108 0.517706
-0.117625 -0.070599 0.928132 140 255 108 0.517504
-0.121768 -0.069943 0.929918 134 255 114 0.508562
-0.117274 -0.069716 0.930684 156 255 92 0.537211
-0.112876 -0.069422 0.928882 140 255 108 0.519428
-0.112934 -0.067991 0.933712 169 255 79 0.550812
-0.113238 -0.070114 0.926484 117 255 130 0.491120
-0.113674 -0.071003 0.924106 140 255 108 0.519515
-0.109783 -0.065591 0.939103 156 255 92 0.537979
-0.114191 -0.065912 0.939414 140 255 108 0.517169
-0.125899 -0.073701 0.920910 140 255 108 0.519261
-0.126421 -0.075290 0.918177 140 255 108 0.519428
-0.124228 -0.074961 0.918615 140 255 108 0.518910
-0.121877 -0.074688 0.919025 137 255 111 0.514748
-0.119183 -0.073821 0.920717 140 255 108 0.518396
-0.124624 -0.076920 0.915657 140 255 108 0.519155
-0.127007 -0.078201 0.914407 143 255 104 0.519719
-0.122349 -0.076646 0.916103 140 255 108 0.518983
-0.119926 -0.076470 0.916566 140 255 108 0.518786
-0.112434 -0.074059 0.917300 143 255 104 0.519968
-0.117398 -0.074888 0.917768 140 255 108 0.518982
-0.114111 -0.072108 0.921608 147 255 101 0.526675
-0.116770 -0.072981 0.921168 140 255 108 0.518534
-0.137426 -0.061902 0.936947 137 255 111 0.515297
-0.136888 -0.064258 0.934246 143 255 104 0.521515
-0.137979 -0.065763 0.931226 140 255 108 0.516502
-0.137177 -0.067562 0.928951 140 255 108 0.516778
-0.140713 -0.066421 0.928020 140 255 108 0.516876
-0.134402 -0.066826 0.932398 140 255 108 0.517192
-0.133577 -0.068685 0.929931 134 255 114 0.510430
-0.133416 -0.065187 0.935561 140 255 108 0.516410
-0.132451 -0.062852 0.939327 137 255 111 0.515258
-0.141377 -0.067489 0.925797 140 255 108 0.519103
-0.141973 -0.068579 0.923487 140 255 108 0.517519
-0.138339 -0.069658 0.924343 140 255 108 0.517730
-0.140662 -0.070201 0.921518 69 255 179 0.431488
-0.137102 -0.071309 0.922366 140 255 108 0.518736
-0.134761 -0.070810 0.925099 140 255 108 0.518173
-0.137811 -0.068631 0.926670 140 255 108 0.517501
-0.134168 -0.069759 0.927479 140 255 108 0.517562
-0.130788 -0.071034 0.925815 140 255 108 0.518841
-0.130247 -0.070039 0.928263 140 255 108 0.518408
-0.129609 -0.069001 0.930734 140 255 108 0.517665
-0.131342 -0.072079 0.923440 140 255 108 0.519493
-0.126798 -0.067703 0.934552 140 255 108 0.517442
-0.126179 -0.065863 0.938045 104 255 143 0.475012
-0.127218 -0.063517 0.941143 150 255 98 0.527415
-0.129835 -0.065647 0.936889 140 255 108 0.516309
-0.130700 -0.067462 0.933430 140 255 108 0.516811
-0.133888 -0.085277 0.907010 143 255 104 0.521896
-0.131741 -0.084040 0.908496 143 255 104 0.521015
-0.138107 -0.084398 0.906998 153 255 95 0.534405
-0.136090 -0.085759 0.906132 143 255 104 0.521796
-0.138432 -0.087262 0.904316 143 255 104 0.521484
-0.131911 -0.086712 0.906282 143 255 104 0.520654
-0.137727 -0.082298 0.908872 143 255 104 0.521842
-0.143766 -0.081865 0.906745 143 255 104 0.523392
-0.142169 -0.084136 0.905391 143 255 104 0.522940
-0.146141 -0.082966 0.904819 143 255 104 0.523025
-0.141533 -0.080925 0.908498 143 255 104 0.522615
-0.146663 -0.085077 0.902621 143 255 104 0.523407
-0.142520 -0.086147 0.903533 143 255 104 0.523018
-0.144944 -0.087167 0.901481 143 255 104 0.523220
-0.147440 -0.088152 0.899364 143 255 104 0.522850
-0.140752 -0.088216 0.902467 143 255 104 0.522127
-0.145521 -0.090001 0.898402 179 255 69 0.565832
-0.147897 -0.090047 0.897127 143 255 104 0.522957
-0.143158 -0.089981 0.899662 143 255 104 0.521971
-0.143638 -0.091830 0.897507 218 255 30 0.610614
-0.146036 -0.091775 0.896178 143 255 104 0.522898
-0.148429 -0.091767 0.894855 143 255 104 0.523033
-0.141353 -0.091824 0.898764 143 255 104 0.521385
-0.138985 -0.091880 0.900157 169 255 79 0.554381
-0.148620 -0.093371 0.892566 143 255 104 0.523054
-0.146141 -0.094153 0.893080 143 255 104 0.522987
-0.143641 -0.094150 0.894675 143 255 104 0.522363
-0.138751 -0.094309 0.897657 143 255 104 0.520110
-0.133728 -0.092250 0.901496 140 255 108 0.519240
-0.131541 -0.090988 0.903269 140 255 108 0.519106
-0.136369 -0.092010 0.900804 143 255 104 0.519944
-0.134019 -0.088953 0.904167 143 255 104 0.519949
-0.136383 -0.089495 0.902995 143 255 104 0.520451
-0.141277 -0.103373 0.879615 153 255 95 0.532816
-0.144228 -0.103431 0.877309 150 255 98 0.529439
-0.138305 -0.103378 0.881967 153 255 95 0.531352
-0.136715 -0.105302 0.878438 163 255 85 0.543614
-0.139781 -0.105343 0.876146 160 255 88 0.541634
-0.142827 -0.105439 0.873932 153 255 95 0.532697
-0.134491 -0.104381 0.882559 150 255 98 0.530784
-0.130736 -0.105438 0.883064 150 255 98 0.530536
-0.132771 -0.103337 0.886288 143 255 104 0.523329
-0.136540 -0.102201 0.885697 147 255 101 0.525056
-0.141631 -0.106703 0.872124 153 255 95 0.533441
-0.138434 -0.106690 0.874440 160 255 88 0.540553
-0.137280 -0.107981 0.872535 160 255 88 0.541481
-0.140552 -0.107985 0.870288 153 255 95 0.534626
-0.133936 -0.108032 0.874886 211 255 36 0.604483
-0.136041 -0.109385 0.870725 156 255 92 0.535946
-0.132674 -0.109446 0.872987 156 255 92 0.537245
-0.139412 -0.109386 0.868548 150 255 98 0.530613
-0.129327 -0.109499 0.875265 156 255 92 0.537377
-0.126262 -0.109501 0.877409 153 255 95 0.534306
-0.130761 -0.108015 0.877051 160 255 88 0.541678
-0.127696 -0.108040 0.879252 156 255 92 0.537666
-0.132291 -0.106544 0.878842 163 255 85 0.545602
-0.135387 -0.106616 0.876615 163 255 85 0.544966
-0.129252 -0.106695 0.881125 156 255 92 0.537386
-0.114450 -0.107471 0.887048 156 255 92 0.537634
-0.117322 -0.107961 0.884624 163 255 85 0.545876
-0.118980 -0.106617 0.886562 156 255 92 0.535254
-0.116097 -0.106213 0.889078 147 255 101 0.525829
-0.121815 -0.107073 0.884094 163 255 85 0.544662
-0.120638 -0.105390 0.888560 147 255 101 0.525642
-0.123415 -0.105758 0.886011 153 255 95 0.532364
-0.125057 -0.104506 0.887975 147 255 101 0.525235
-0.117777 -0.104991 0.891063 143 255 104 0.522720
-0.122213 -0.104164 0.890514 143 255 104 0.521843
-0.119463 -0.103884 0.893045 143 255 104 0.520932
-0.126272 -0.106275 0.883647 153 255 95 0.534843
-0.127878 -0.104938 0.885490 150 255 98 0.527774
-0.124773 -0.107506 0.881637 163 255 85 0.543339
-0.123241 -0.108881 0.879736 160 255 88 0.542090
-0.120235 -0.108392 0.882121 166 255 82 0.548583
-0.124468 -0.102119 0.893525 143 255 104 0.520011
-0.121799 -0.101744 0.895739 143 255 104 0.519765
-0.127183 -0.102548 0.891276 143 255 104 0.520592
-0.129980 -0.102916 0.888777 143 255 104 0.521889
-0.085343 -0.033162 0.897392 137 255 111 0.511728
-0.086821 -0.030365 0.894811 140 255 108 0.519469
-0.089099 -0.027765 0.892760 140 255 108 0.519211
-0.090479 -0.025044 0.890771 140 255 108 0.518837
-0.092509 -0.022353 0.889138 140 255 108 0.518524
-0.093093 -0.025218 0.891331 140 255 108 0.518601
-0.091739 -0.027966 0.893214 117 255 130 0.491955
-0.089437 -0.030512 0.895058 140 255 108 0.519200
-0.087895 -0.033329 0.897474 124 255 124 0.496637
-0.092057 -0.019763 0.886997 140 255 108 0.518318
-0.094348 -0.017261 0.885581 140 255 108 0.518253
-0.095671 -0.014261 0.884097 140 255 108 0.519038
-0.098026 -0.011258 0.882837 140 255 108 0.519354
-0.098507 -0.015012 0.884725 140 255 108 0.518431
-0.097161 -0.017828 0.886236 137 255 111 0.515123
-0.094838 -0.020180 0.887621 121 255 127 0.493514
-0.095920 -0.022873 0.890152 140 255 108 0.518139
-0.101652 -0.012599 0.883780 140 255 108 0.519106
-0.020454 -0.123160 0.871079 140 255 108 0.516231
-0.022328 -0.121840 0.874632 140 255 108 0.516691
-0.025772 -0.121284 0.877710 140 255 108 0.516946
-0.027690 -0.121111 0.881634 140 255 108 0.517148
-0.031193 -0.121513 0.885037 140 255 108 0.518436
-0.028090 -0.121436 0.886533 140 255 108 0.517280
-0.030814 -0.121213 0.880192 140 255 108 0.517672
-0.034362 -0.121736 0.883561 140 255 108 0.519091
-0.028868 -0.121287 0.876146 140 255 108 0.517340
-0.026871 -0.121906 0.872322 140 255 108 0.517169
-0.023445 -0.123184 0.869474 140 255 108 0.516812
-0.026482 -0.123311 0.867827 140 255 108 0.517197
-0.029913 -0.121398 0.890565 140 255 108 0.516852
-0.033261 -0.121287 0.893859 140 255 108 0.516696
-0.035080 -0.120974 0.897850 140 255 108 0.518907
-0.038346 -0.120058 0.900761 140 255 108 0.515986
-0.035262 -0.120109 0.902386 137 255 111 0.515472
-0.038210 -0.120940 0.896303 140 255 108 0.516721
-0.041537 -0.120118 0.899115 140 255 108 0.516550
-0.036409 -0.121265 0.892321 140 255 108 0.517261
-0.034599 -0.121437 0.888345 140 255 108 0.517910
-0.047999 -0.120393 0.895663 140 255 108 0.517265
-0.046294 -0.121204 0.891994 137 255 111 0.515553
-0.042864 -0.121572 0.889075 140 255 108 0.517846
-0.041045 -0.121794 0.885142 140 255 108 0.518481
-0.037566 -0.121816 0.881938 140 255 108 0.519427
-0.040817 -0.122118 0.880325 140 255 108 0.519318
-0.037835 -0.121651 0.886818 140 255 108 0.518197
-0.039626 -0.121397 0.890753 140 255 108 0.517625
-0.041409 -0.121042 0.894624 140 255 108 0.517087
-0.044732 -0.120226 0.897385 140 255 108 0.516952
-0.038783 -0.121766 0.876171 140 255 108 0.517989
-0.035175 -0.121587 0.872956 140 255 108 0.517801
-0.033173 -0.122192 0.869008 140 255 108 0.517776
-0.029606 -0.123456 0.866116 140 255 108 0.517669
-0.032737 -0.123759 0.864440 140 255 108 0.517996
-0.030021 -0.122047 0.870732 140 255 108 0.517471
-0.031989 -0.121467 0.874588 140 255 108 0.517579
-0.033968 -0.121469 0.878623 140 255 108 0.517900
-0.036413 -0.122442 0.867347 140 255 108 0.517924
-0.038437 -0.121847 0.871289 140 255 108 0.517876
-0.042132 -0.122051 0.874503 156 255 92 0.536200
-0.044153 -0.122405 0.878635 160 255 88 0.539499
-0.047475 -0.122611 0.876833 140 255 108 0.517920
-0.045444 -0.122233 0.872729 140 255 108 0.517890
-0.041744 -0.122028 0.869538 140 255 108 0.517875
-0.039697 -0.122594 0.865510 140 255 108 0.517948
-0.036001 -0.123892 0.862628 143 255 104 0.522015
-0.039306 -0.124163 0.860878 140 255 108 0.518039
-0.044411 -0.122125 0.883513 140 255 108 0.518373
-0.046185 -0.121795 0.887364 121 255 127 0.495402
-0.049661 -0.121415 0.890249 143 255 104 0.522993
-0.051325 -0.120534 0.893851 140 255 108 0.517241
-0.054653 -0.120713 0.892004 140 255 108 0.517139
-0.052962 -0.121678 0.888447 140 255 108 0.517497
-0.049539 -0.122038 0.885619 140 255 108 0.517791
-0.047704 -0.122401 0.881757 140 255 108 0.518283
-0.061004 -0.121100 0.888573 140 255 108 0.516707
-0.059242 -0.122054 0.885012 140 255 108 0.517241
-0.055950 -0.122442 0.882182 140 255 108 0.517560
-0.054037 -0.122734 0.878229 140 255 108 0.517975
-0.050608 -0.122755 0.875110 140 255 108 0.517754
-0.053743 -0.122904 0.873328 140 255 108 0.518819
-0.050939 -0.122552 0.880009 140 255 108 0.518142
-0.052765 -0.122304 0.883905 140 255 108 0.517673
-0.056125 -0.121943 0.886777 140 255 108 0.517339
-0.057821 -0.120910 0.890266 140 255 108 0.516797
-0.051772 -0.122617 0.869266 140 255 108 0.517594
-0.048151 -0.122467 0.866081 140 255 108 0.517773
-0.046089 -0.122919 0.862069 140 255 108 0.517791
-0.042471 -0.124366 0.859185 140 255 108 0.517893
-0.045671 -0.124598 0.857440 140 255 108 0.517733
-0.042934 -0.122795 0.863818 137 255 111 0.512355
-0.044974 -0.122290 0.867821 140 255 108 0.517852
-0.048635 -0.122443 0.871037 140 255 108 0.517779
-0.049091 -0.123133 0.860434 140 255 108 0.517732
-0.051097 -0.122596 0.864409 140 255 108 0.517688
-0.054519 -0.122692 0.867730 140 255 108 0.517683
-0.056501 -0.122973 0.871760 140 255 108 0.518705
-0.059259 -0.123125 0.870165 140 255 108 0.518636
-0.057261 -0.122739 0.866090 140 255 108 0.517662
-0.053848 -0.122699 0.862857 140 255 108 0.517653
-0.051844 -0.123263 0.858868 140 255 108 0.517654
-0.048460 -0.124711 0.855882 140 255 108 0.517574
-0.051253 -0.124845 0.854333 140 255 108 0.517392
-0.057010 -0.122874 0.876585 140 255 108 0.517834
-0.058869 -0.122535 0.880557 143 255 104 0.520270
-0.062017 -0.122170 0.883535 140 255 108 0.517131
-0.063731 -0.121193 0.887066 140 255 108 0.516801
-0.066437 -0.121181 0.885520 140 255 108 0.516738
-0.064783 -0.122232 0.881984 140 255 108 0.517124
-0.061634 -0.122641 0.879007 140 255 108 0.517273
-0.059768 -0.122853 0.874978 140 255 108 0.517851
-0.071391 -0.121265 0.882712 140 255 108 0.516736
-0.069729 -0.122323 0.879118 140 255 108 0.517143
-0.066733 -0.123011 0.876074 140 255 108 0.517440
-0.064884 -0.123075 0.872066 140 255 108 0.517776
-0.061761 -0.123183 0.868716 140 255 108 0.518692
-0.064260 -0.123201 0.867268 140 255 108 0.518843
-0.062412 -0.122952 0.873510 140 255 108 0.517821
-0.064249 -0.122773 0.877502 140 255 108 0.517355
-0.067269 -0.122324 0.880615 140 255 108 0.517097
-0.068903 -0.121197 0.884102 140 255 108 0.516648
-0.062260 -0.122812 0.863163 140 255 108 0.518293
-0.059010 -0.122763 0.859864 140 255 108 0.517596
-0.056962 -0.123332 0.855852 140 255 108 0.517574
-0.053797 -0.125001 0.852922 140 255 108 0.517258
-0.056281 -0.125009 0.851448 140 255 108 0.517201
-0.054486 -0.123371 0.857369 140 255 108 0.517611
-0.056475 -0.122761 0.861312 140 255 108 0.517612
-0.059769 -0.122790 0.864652 140 255 108 0.518222
-0.119220 -0.100828 0.897950 140 255 108 0.519496
-0.116636 -0.099894 0.900050 140 255 108 0.519331
-0.114252 -0.102133 0.897618 143 255 104 0.519882
-0.116867 -0.102972 0.895377 143 255 104 0.520263
-0.112798 -0.100133 0.901001 140 255 108 0.519330
-0.109042 -0.100512 0.902107 140 255 108 0.519298
-0.111432 -0.098123 0.903762 140 255 108 0.519164
-0.115196 -0.097640 0.902652 140 255 108 0.518975
-0.115246 -0.104247 0.893557 143 255 104 0.521382
-0.113574 -0.105390 0.891549 147 255 101 0.524195
-0.111040 -0.104630 0.894056 143 255 104 0.521494
-0.111893 -0.106583 0.889544 153 255 95 0.531609
-0.109349 -0.105767 0.892018 147 255 101 0.525793
-0.107635 -0.106987 0.889962 153 255 95 0.533267
-0.110196 -0.107845 0.887456 160 255 88 0.539082
-0.106867 -0.105065 0.894509 143 255 104 0.521973
-0.105100 -0.106217 0.892448 150 255 98 0.528399
-0.102557 -0.105535 0.894960 147 255 101 0.523905
-0.104220 -0.104286 0.896879 143 255 104 0.520843
-0.108447 -0.103790 0.896407 143 255 104 0.520532
-0.105868 -0.103044 0.898730 143 255 104 0.519862
-0.110019 -0.102601 0.898213 143 255 104 0.519894
-0.112659 -0.103364 0.895898 143 255 104 0.521389
-0.107452 -0.101740 0.900494 143 255 104 0.519557
-0.093145 -0.100159 0.906241 140 255 108 0.518931
-0.094943 -0.098739 0.907453 140 255 108 0.518732
-0.097173 -0.100129 0.905145 140 255 108 0.518953
-0.098928 -0.098642 0.906132 140 255 108 0.518850
-0.096759 -0.097112 0.908323 150 255 98 0.530430
-0.101175 -0.100268 0.904048 140 255 108 0.519164
-0.100748 -0.097174 0.907036 143 255 104 0.520479
-0.102930 -0.098718 0.904972 140 255 108 0.518975
-0.104663 -0.097062 0.905791 140 255 108 0.518977
-0.098515 -0.095512 0.909107 137 255 111 0.514623
-0.102430 -0.095376 0.907579 140 255 108 0.518560
-0.100236 -0.093764 0.909655 140 255 108 0.518296
-0.105167 -0.100241 0.903007 140 255 108 0.519289
-0.106868 -0.098769 0.903984 140 255 108 0.519153
-0.103536 -0.101637 0.901413 143 255 104 0.519559
-0.101873 -0.102925 0.899635 143 255 104 0.520031
-0.099533 -0.101515 0.902354 140 255 108 0.519452
-0.097864 -0.102753 0.900474 143 255 104 0.520587
-0.100215 -0.104155 0.897744 143 255 104 0.521508
-0.095505 -0.101437 0.903364 140 255 108 0.519497
-0.104787 -0.092862 0.908478 140 255 108 0.518245
-0.102482 -0.091302 0.909925 140 255 108 0.518056
-0.107035 -0.094388 0.907088 140 255 108 0.518633
-0.109187 -0.096307 0.905378 140 255 108 0.518825
-0.062148 -0.027084 0.913538 137 255 111 0.514802
-0.060818 -0.023903 0.912649 137 255 111 0.515451
-0.058823 -0.026727 0.916134 140 255 108 0.515931
-0.059447 -0.020911 0.911420 140 255 108 0.516835
-0.057586 -0.023671 0.915130 150 255 98 0.529638
-0.056232 -0.020799 0.913742 140 255 108 0.517794
-0.055629 -0.026671 0.918292 140 255 108 0.517191
-0.057992 -0.017977 0.909850 172 255 75 0.554909
-0.056548 -0.015092 0.908158 140 255 108 0.517665
-0.060072 -0.014834 0.905559 140 255 108 0.516017
-0.061565 -0.017904 0.907064 137 255 111 0.515342
-0.063077 -0.020898 0.908592 137 255 111 0.514808
-0.063648 -0.014936 0.902590 137 255 111 0.512837
-0.054052 -0.023976 0.917317 140 255 108 0.517920
-0.052295 -0.026866 0.920217 140 255 108 0.517415
-0.052436 -0.021391 0.916071 134 255 114 0.511685
-0.050717 -0.024454 0.918957 140 255 108 0.518344
-0.049086 -0.022015 0.917464 140 255 108 0.519329
-0.049024 -0.027421 0.921619 137 255 111 0.514023
-0.050770 -0.019141 0.914218 140 255 108 0.519302
-0.048938 -0.016578 0.912248 143 255 104 0.519654
-0.052747 -0.015715 0.910387 140 255 108 0.518735
-0.054562 -0.018196 0.912344 140 255 108 0.518365
-0.047185 -0.006622 0.898865 140 255 108 0.519483
-0.049412 -0.006193 0.897780 140 255 108 0.519013
-0.049655 -0.008905 0.901342 143 255 104 0.520782
-0.051824 -0.008442 0.900188 143 255 104 0.519651
-0.051658 -0.005795 0.896658 140 255 108 0.518497
-0.052014 -0.011062 0.903783 143 255 104 0.520019
-0.053971 -0.007992 0.898947 134 255 114 0.508321
-0.054133 -0.010564 0.902495 176 255 72 0.559972
-0.056305 -0.010160 0.901137 140 255 108 0.517778
-0.053839 -0.005437 0.895488 140 255 108 0.517728
-0.056183 -0.007669 0.897690 140 255 108 0.517293
-0.056054 -0.005193 0.894234 140 255 108 0.516453
-0.054280 -0.013114 0.906028 140 255 108 0.518820
-0.056433 -0.012703 0.904681 140 255 108 0.517886
-0.050507 -0.013812 0.908126 143 255 104 0.520054
-0.048151 -0.011693 0.905660 137 255 111 0.515400
-0.058081 -0.004973 0.893063 140 255 108 0.516033
-0.060026 -0.007416 0.895340 137 255 111 0.514976
-0.060110 -0.004837 0.891852 137 255 111 0.515351
-0.059900 -0.010015 0.898810 121 255 127 0.492345
-0.061966 -0.007490 0.893855 137 255 111 0.513745
-0.061846 -0.010002 0.897277 137 255 111 0.513212
-0.063954 -0.010009 0.895799 160 255 88 0.541234
-0.062083 -0.004935 0.890563 137 255 111 0.513715
-0.064003 -0.007541 0.892555 137 255 111 0.511785
-0.064090 -0.005095 0.889358 182 255 66 0.566432
-0.061744 -0.012533 0.900773 137 255 111 0.514451
-0.063824 -0.012524 0.899211 137 255 111 0.512672
-0.072649 -0.029673 0.903441 140 255 108 0.515701
-0.071759 -0.026451 0.902336 130 255 117 0.504128
-0.070463 -0.028888 0.905771 137 255 111 0.515614
-0.071134 -0.023249 0.900979 111 255 137 0.483350
-0.069494 -0.025627 0.904730 121 255 127 0.494156
-0.068871 -0.022312 0.903193 124 255 124 0.498110
-0.068085 -0.028270 0.908054 140 255 108 0.516048
-0.070425 -0.019892 0.899233 114 255 134 0.488260
-0.069587 -0.016347 0.897504 124 255 124 0.497937
-0.072088 -0.017216 0.895545 114 255 134 0.487835
-0.072918 -0.020729 0.897234 114 255 134 0.484828
-0.073582 -0.024063 0.898725 124 255 124 0.496135
-0.074662 -0.018087 0.893705 121 255 127 0.493487
-0.066904 -0.024941 0.907342 134 255 114 0.507922
-0.065136 -0.027615 0.910818 137 255 111 0.515620
-0.066011 -0.021601 0.905986 134 255 114 0.511191
-0.064059 -0.024186 0.909993 198 255 49 0.587138
-0.064837 -0.018285 0.904367 156 255 92 0.538687
-0.066617 -0.015540 0.900006 134 255 114 0.508654
-0.067871 -0.018944 0.901697 202 255 46 0.592234
-0.067151 -0.008261 0.890531 130 255 117 0.506213
-0.067351 -0.005671 0.887486 134 255 114 0.508307
-0.066859 -0.010851 0.893533 130 255 117 0.504423
-0.070177 -0.011459 0.891403 124 255 124 0.497515
-0.070437 -0.008891 0.888574 127 255 121 0.500606
-0.070733 -0.006163 0.885853 130 255 117 0.505004
-0.068265 -0.013560 0.895591 127 255 121 0.502304
-0.073140 -0.009700 0.887074 124 255 124 0.499390
-0.073611 -0.006928 0.884605 127 255 121 0.503823
-0.072724 -0.012288 0.889719 121 255 127 0.494828
-0.075641 -0.013136 0.888291 124 255 124 0.499315
-0.076050 -0.010407 0.885848 127 255 121 0.502132
-0.076500 -0.007620 0.883461 130 255 117 0.505835
-0.073683 -0.015204 0.891653 117 255 130 0.491783
-0.071131 -0.014301 0.893418 117 255 130 0.492016
-0.086180 -0.027451 0.892604 140 255 108 0.519309
-0.083978 -0.029885 0.895037 143 255 104 0.520989
-0.082652 -0.032597 0.897646 143 255 104 0.519584
-0.086557 -0.024641 0.890543 140 255 108 0.518708
-0.086736 -0.021579 0.888699 150 255 98 0.527373
-0.089692 -0.022026 0.888695 140 255 108 0.518586
-0.081248 -0.029395 0.895651 140 255 108 0.519196
-0.080083 -0.031963 0.898352 143 255 104 0.519622
-0.082376 -0.026862 0.893260 140 255 108 0.518786
-0.082541 -0.023934 0.891285 140 255 108 0.517429
-0.082744 -0.020583 0.889514 134 255 114 0.509504
-0.086914 -0.009909 0.881585 140 255 108 0.517202
-0.086863 -0.013212 0.883356 140 255 108 0.516739
-0.089292 -0.010150 0.881577 140 255 108 0.518118
-0.086840 -0.016281 0.885133 140 255 108 0.516668
-0.089237 -0.013523 0.883316 140 255 108 0.517731
-0.089188 -0.016496 0.884975 140 255 108 0.517783
-0.091709 -0.010250 0.881735 140 255 108 0.518776
-0.086790 -0.019049 0.886888 140 255 108 0.517334
