ply
format ascii 1.0
comment Seamless Cloth Simulation with High Geometric Fidelity 
comment Sat Apr  6 09:39:40 2019
element vertex 1247
property float x
property float y
property float z
property float quality
end_header
0.503502 -0.823761 7.09965 0.0519475 
0.518201 -0.813707 7.11195 0.0495445 
0.513034 -0.781838 7.12955 0.036205 
0.507579 -0.750115 7.1465 0.0360082 
0.533155 -0.803745 7.12539 0.0513992 
0.455041 -0.749307 7.12608 0.0325176 
0.461707 -0.781959 7.10715 0.0325547 
0.438297 -0.759813 7.11198 0.0346424 
0.444846 -0.792271 7.09269 0.0353332 
0.468355 -0.814573 7.08741 0.0388087 
0.474932 -0.847039 7.06704 0.0546381 
0.489302 -0.835292 7.08321 0.0504514 
0.482806 -0.80259 7.10324 0.0374599 
0.54001 -0.89409 7.0317 0.0490262 
0.563076 -0.907291 7.02667 0.0661797 
0.527984 -0.870793 7.05464 0.0448594 
0.551044 -0.883471 7.04958 0.0533894 
0.539126 -0.859737 7.07237 0.0483513 
0.574503 -0.897373 7.04552 0.0718548 
0.51572 -0.847273 7.07731 0.0440708 
0.501678 -0.858374 7.06062 0.0421165 
0.513823 -0.881349 7.03761 0.0421772 
0.564622 -0.873927 7.06607 0.058468 
0.587789 -0.888354 7.06028 0.0727128 
0.55426 -0.850602 7.08615 0.0488857 
0.577545 -0.864555 7.08062 0.0636672 
0.56701 -0.840818 7.10052 0.0540739 
0.543929 -0.8272 7.10603 0.0487274 
0.528824 -0.83672 7.09242 0.0462438 
0.617414 -0.889579 7.05725 0.0669772 
0.633552 -0.900091 7.03873 0.0692089 
0.603734 -0.898091 7.0417 0.0629432 
0.619793 -0.907821 7.02306 0.0589651 
0.649814 -0.910503 7.02022 0.0663517 
0.666022 -0.92106 7.00147 0.0624517 
0.675891 -0.914261 7.01685 0.0720195 
0.592855 -0.906432 7.02512 0.0570948 
0.611358 -0.915806 7.00478 0.0498019 
0.581114 -0.915741 7.0059 0.0500886 
0.629538 -0.925556 6.98428 0.045773 
0.656803 -0.928436 6.98237 0.0517567 
0.638364 -0.917941 7.00279 0.0551015 
0.709946 -0.919279 6.96816 0.0337869 
0.687848 -0.920009 6.98483 0.0460942 
0.678369 -0.927084 6.9656 0.0353957 
0.378328 -0.804475 7.0413 0.0475501 
0.394678 -0.83227 7.02285 0.0416807 
0.401857 -0.827025 7.0337 0.0397856 
0.411447 -0.859485 7.00448 0.0421628 
0.418352 -0.854771 7.01597 0.0421467 
0.434978 -0.882152 6.99769 0.0503666 
0.428183 -0.886766 6.98645 0.0534406 
0.425833 -0.850125 7.02772 0.0419822 
0.442153 -0.87792 7.00969 0.0521116 
0.449122 -0.873743 7.02152 0.0529709 
0.41679 -0.818796 7.0533 0.0390762 
0.393129 -0.795392 7.05945 0.0440532 
0.450137 -0.901635 6.96974 0.0379535 
0.473673 -0.921264 6.94735 0.0357688 
0.478319 -0.913018 6.9649 0.031689 
0.496923 -0.941417 6.92522 0.0420178 
0.501458 -0.933565 6.94283 0.0381055 
0.506137 -0.925803 6.96074 0.0369564 
0.513072 -0.922868 6.97325 0.0399606 
0.485137 -0.909525 6.97697 0.0340155 
0.492 -0.906124 6.98913 0.0351365 
0.463811 -0.893531 6.99326 0.0370214 
0.456678 -0.89746 6.98121 0.0362517 
0.470841 -0.889771 7.00544 0.0399227 
0.527122 -0.904838 7.01119 0.0480722 
0.501515 -0.893457 7.01417 0.0378531 
0.488303 -0.870375 7.04091 0.0409172 
0.462132 -0.860236 7.04431 0.0494805 
0.452895 -0.825267 7.07112 0.040309 
0.4301 -0.804043 7.07499 0.0363459 
0.42248 -0.771182 7.0966 0.0375225 
0.407561 -0.783429 7.07951 0.0411688 
0.439898 -0.83925 7.04898 0.0393284 
0.591933 -0.856003 7.09482 0.0659901 
0.582835 -0.832498 7.11387 0.0618469 
0.6054 -0.846844 7.1089 0.0729253 
0.595802 -0.822741 7.12757 0.0709896 
0.573245 -0.808617 7.13231 0.0574408 
0.56378 -0.785246 7.15029 0.0594113 
0.548333 -0.794348 7.13745 0.0507138 
0.557464 -0.817586 7.11918 0.0538452 
0.620163 -0.838596 7.12297 0.0836479 
0.595141 -0.796232 7.15198 0.0707642 
0.579067 -0.777278 7.16277 0.0609869 
0.551684 -0.696295 7.19744 0.0506314 
0.555718 -0.725952 7.18226 0.0487126 
0.53589 -0.703622 7.1853 0.041236 
0.539764 -0.732892 7.16996 0.0433842 
0.560034 -0.755647 7.1665 0.0521233 
0.575067 -0.747105 7.17895 0.0611061 
0.519982 -0.712223 7.17355 0.0368849 
0.523678 -0.742353 7.15771 0.0398015 
0.502566 -0.720006 7.16179 0.0364623 
0.528521 -0.772917 7.14179 0.0427862 
0.543773 -0.763546 7.15384 0.0422667 
-1.05061 -0.127034 6.26574 0.0120269 
-1.03705 -0.124417 6.27959 0.0100937 
-1.05653 -0.130716 6.28493 0.0106729 
-1.02352 -0.121927 6.29299 0.00957062 
-1.04328 -0.127256 6.29867 0.0096686 
-1.0299 -0.124858 6.31176 0.0090207 
-1.06263 -0.132391 6.30417 0.012018 
-1.01032 -0.119293 6.30586 0.0100684 
-0.998005 -0.116584 6.31858 0.0120604 
-0.987569 -0.109155 6.29302 0.0143716 
-1.00083 -0.112152 6.28026 0.0130963 
-1.04992 -0.131499 6.32631 0.00902625 
-1.03601 -0.128918 6.33852 0.00871349 
-1.06788 -0.135092 6.33287 0.0129925 
-1.02256 -0.126646 6.35075 0.00970976 
-1.00432 -0.122009 6.34416 0.0115625 
-0.945396 -0.117476 6.36768 0.0276128 
-0.957975 -0.117933 6.35552 0.022273 
-0.970754 -0.117809 6.34309 0.0165689 
-0.93674 -0.110515 6.34574 0.0251042 
-0.949987 -0.111086 6.33334 0.0223088 
-0.984265 -0.117393 6.33083 0.0140747 
-0.99123 -0.12252 6.35664 0.0137219 
-0.926411 -0.102286 6.32482 0.0243303 
-0.958874 -0.108074 6.31148 0.0184508 
-0.938451 -0.10202 6.3114 0.0209252 
-0.967416 -0.104303 6.29124 0.0157012 
-0.671013 -0.237595 6.47831 0.261363 
-0.664665 -0.258815 6.49347 0.303775 
-0.658401 -0.282555 6.51116 0.323752 
-0.685654 -0.238563 6.48367 0.27392 
-0.652092 -0.309352 6.53129 0.297946 
-0.647572 -0.338899 6.55171 0.292476 
-0.680992 -0.258575 6.49926 0.301288 
-0.672874 -0.281511 6.51579 0.323903 
-0.666874 -0.439781 6.59938 0.303902 
-0.658408 -0.416222 6.58989 0.313449 
-0.652287 -0.391852 6.57911 0.295828 
-0.649043 -0.365951 6.5666 0.28069 
-0.654776 -0.44877 6.59788 0.279791 
-0.644404 -0.423874 6.58851 0.318443 
-0.636603 -0.397975 6.57728 0.315936 
-0.631598 -0.370853 6.56452 0.313087 
-0.660656 -0.333521 6.55536 0.280479 
-0.662557 -0.358822 6.57098 0.263457 
-0.667987 -0.306961 6.53657 0.295804 
-0.701849 -0.237931 6.49213 0.275447 
-0.695662 -0.256469 6.50654 0.321857 
-0.71495 -0.234096 6.5024 0.269675 
-0.688541 -0.275582 6.52483 0.339976 
-0.678043 -0.299037 6.543 0.30511 
-0.665816 -0.381562 6.58704 0.27158 
-0.668994 -0.405144 6.59756 0.290467 
-0.673797 -0.427827 6.60658 0.305456 
-0.660371 -0.476153 6.59934 0.254343 
-0.678009 -0.497202 6.59882 0.212728 
-0.69631 -0.517687 6.59724 0.177403 
-0.715316 -0.537165 6.59473 0.125849 
-0.704514 -0.550133 6.59427 0.108243 
-0.686879 -0.53017 6.59684 0.156481 
-0.673023 -0.466799 6.5991 0.267792 
-0.691324 -0.484962 6.59976 0.235206 
-0.708241 -0.504041 6.59867 0.19745 
-0.790172 -0.590764 6.57135 0.0444261 
-0.77289 -0.577501 6.57592 0.0619966 
-0.754506 -0.563795 6.58152 0.0871999 
-0.781166 -0.607499 6.56733 0.0330801 
-0.734979 -0.550814 6.58806 0.109034 
-0.762522 -0.594141 6.57269 0.045822 
-0.742769 -0.581029 6.57953 0.0592522 
-0.768822 -0.625478 6.56385 0.0253927 
-0.750612 -0.61208 6.56903 0.0347981 
-0.721914 -0.56762 6.58641 0.0802845 
-0.79891 -0.559632 6.58628 0.0717379 
-0.782622 -0.547798 6.58912 0.096323 
-0.765299 -0.53589 6.59256 0.118257 
-0.796135 -0.574755 6.57718 0.0612307 
-0.74654 -0.524768 6.59708 0.140827 
-0.727514 -0.512749 6.60169 0.164111 
-0.684451 -0.455151 6.6032 0.280991 
-0.6997 -0.467912 6.60718 0.250149 
-0.713923 -0.484887 6.6085 0.217684 
-0.942922 -0.619702 6.53857 0.01298 
-0.923999 -0.618112 6.54144 0.011918 
-0.905339 -0.616961 6.54448 0.0126085 
-0.941046 -0.636708 6.52574 0.0131513 
-0.922153 -0.635295 6.5286 0.0109739 
-0.886445 -0.615868 6.54771 0.0148404 
-0.867193 -0.615238 6.55104 0.0180716 
-0.871657 -0.595756 6.56307 0.0258109 
-0.937353 -0.65336 6.51397 0.0173442 
-0.900457 -0.638137 6.53125 0.011926 
-0.917201 -0.651132 6.51889 0.0142729 
-0.880373 -0.636413 6.53641 0.0130442 
-0.859997 -0.634751 6.54209 0.0135781 
-0.809882 -0.596685 6.5651 0.0397589 
-0.829321 -0.602577 6.55993 0.0326528 
-0.848582 -0.608691 6.55525 0.0246874 
-0.815649 -0.579981 6.57275 0.054156 
-0.834563 -0.585018 6.56876 0.0471692 
-0.853309 -0.590257 6.56573 0.0369949 
-0.820912 -0.621811 6.55174 0.0215433 
-0.840539 -0.628079 6.54658 0.0152497 
-0.852428 -0.64936 6.53596 0.0154311 
-0.801125 -0.614609 6.55893 0.026691 
-0.894525 -0.654427 6.52071 0.0135613 
-0.91022 -0.667035 6.50803 0.0174093 
-0.928927 -0.674411 6.49893 0.02384 
-0.886705 -0.668841 6.51273 0.018833 
-0.870971 -0.656685 6.52544 0.0162591 
-0.903234 -0.709913 6.4712 0.0310266 
-0.88495 -0.702328 6.48389 0.0290244 
-0.87152 -0.688634 6.49985 0.0249025 
-0.853204 -0.681408 6.51208 0.0238933 
-0.83986 -0.667784 6.52753 0.0230758 
-0.830064 -0.68069 6.5212 0.0299309 
-0.900035 -0.68345 6.49743 0.0237849 
-0.913627 -0.697598 6.48157 0.0310214 
-0.813574 -0.668093 6.53093 0.0220905 
-0.801777 -0.649842 6.54276 0.0193486 
-0.785498 -0.637476 6.55285 0.0208631 
-0.827869 -0.648873 6.53875 0.0164084 
-1.11806 -0.460589 6.58402 0.0259403 
-1.11854 -0.481647 6.56417 0.0199472 
-1.11962 -0.503971 6.54434 0.0174191 
-1.13593 -0.479978 6.54674 0.0193959 
-1.1025 -0.50572 6.56142 0.0214828 
-1.08818 -0.506249 6.57693 0.0256505 
-1.10315 -0.483007 6.58048 0.0230012 
-1.0892 -0.484026 6.59588 0.0301711 
-1.14703 -0.492944 6.52479 0.0167931 
-1.12677 -0.517703 6.52647 0.0149671 
-1.14451 -0.514766 6.51097 0.016546 
-1.16304 -0.511862 6.49466 0.0190012 
-1.12415 -0.540004 6.51313 0.0180729 
-1.10782 -0.54227 6.52783 0.020037 
-1.10079 -0.528434 6.5453 0.0221834 
-1.05422 -0.573245 6.54197 0.0243417 
-1.06284 -0.553063 6.55284 0.0234845 
-1.07184 -0.533167 6.56336 0.0251422 
-1.04826 -0.551797 6.56473 0.0262677 
-1.07893 -0.554349 6.53939 0.0218104 
-1.04349 -0.536792 6.58269 0.0293649 
-1.06308 -0.518115 6.58594 0.0297326 
-1.049 -0.515991 6.60008 0.0356809 
-1.03548 -0.51434 6.61443 0.0410611 
-1.0688 -0.497525 6.60329 0.0348497 
-0.806068 -0.123105 6.39355 0.0656566 
-0.819182 -0.117531 6.38317 0.0623188 
-0.837149 -0.114958 6.37728 0.0595843 
-0.849979 -0.108285 6.36581 0.0471131 
-0.867884 -0.103849 6.35923 0.0438459 
-0.863808 -0.117136 6.37981 0.0570048 
-0.851245 -0.122989 6.38988 0.0660604 
-0.833554 -0.125395 6.3958 0.078661 
-0.82043 -0.129389 6.40539 0.0811879 
-0.873568 -0.096744 6.34045 0.0356082 
-0.892166 -0.101024 6.33708 0.033513 
-0.907222 -0.100151 6.32767 0.0282321 
-0.905002 -0.110394 6.35391 0.0374539 
-0.886378 -0.108006 6.35623 0.0421671 
-0.913848 -0.117605 6.37389 0.0389571 
-0.883604 -0.114894 6.38086 0.0489351 
-0.924924 -0.114533 6.36058 0.0336319 
-0.878371 -0.123978 6.40123 0.0622642 
-0.86222 -0.127666 6.40571 0.0725716 
-0.849584 -0.13174 6.41428 0.0822903 
-0.83641 -0.135102 6.4225 0.0888512 
-0.684187 -0.217853 6.46155 0.214784 
-0.700752 -0.200899 6.44892 0.17679 
-0.712026 -0.183303 6.43461 0.144203 
-0.727048 -0.165754 6.4235 0.121901 
-0.699785 -0.219671 6.46848 0.222033 
-0.72843 -0.147983 6.40392 0.0881952 
-0.744847 -0.134783 6.39401 0.0685168 
-0.754509 -0.117383 6.38093 0.0494222 
-0.769585 -0.101127 6.37151 0.0348212 
-0.77257 -0.126994 6.39097 0.0706846 
-0.761764 -0.142236 6.40348 0.0920143 
-0.744983 -0.153924 6.41318 0.107675 
-0.79484 -0.138135 6.40618 0.0963239 
-0.777725 -0.149186 6.4148 0.113993 
-0.764381 -0.161567 6.42655 0.126373 
-0.745915 -0.172277 6.43536 0.132924 
-0.788552 -0.112843 6.3821 0.0543782 
-0.74179 -0.190247 6.45274 0.171631 
-0.7247 -0.205275 6.46258 0.203157 
-0.819659 -0.102839 6.36337 0.0416437 
-0.800961 -0.106022 6.37107 0.0452954 
-0.826992 -0.0899468 6.3481 0.0355911 
-0.834751 -0.0765847 6.33252 0.0336972 
-0.85283 -0.0914569 6.3454 0.0358857 
-0.782142 -0.0930723 6.35994 0.0314204 
-0.794722 -0.0840882 6.34819 0.0311798 
-0.801295 -0.0694344 6.33303 0.0313182 
-0.808507 -0.0540365 6.3177 0.0468399 
-0.869757 -0.0528223 6.26924 0.035463 
-0.860319 -0.0595128 6.28512 0.0301063 
-0.882565 -0.0653126 6.27874 0.028275 
-0.851543 -0.0654224 6.30149 0.0286527 
-0.873672 -0.0711803 6.29462 0.0260723 
-0.864869 -0.077424 6.31057 0.0258739 
-0.895773 -0.0762765 6.28864 0.0238982 
-0.842937 -0.0716004 6.31694 0.0303025 
-0.823739 -0.0538084 6.30581 0.0383768 
-0.891648 -0.0871368 6.3097 0.0257386 
-0.912613 -0.0901144 6.30625 0.0232458 
-0.715561 -0.221157 6.47867 0.241152 
-0.76194 -0.175509 6.44761 0.154599 
-0.739528 -0.205254 6.47324 0.209557 
-0.812711 -0.145122 6.42117 0.115509 
-0.795062 -0.155206 6.42917 0.12461 
-0.78087 -0.166228 6.44009 0.135619 
-0.826976 -0.148159 6.43753 0.113927 
-0.809366 -0.158277 6.44455 0.1259 
-0.794485 -0.167908 6.45404 0.150819 
-0.778227 -0.17684 6.4634 0.159036 
-0.766173 -0.190688 6.47573 0.196803 
-0.730234 -0.218487 6.49064 0.237699 
-0.859446 -0.136615 6.46957 0.0879352 
-0.886364 -0.130645 6.4644 0.0688651 
-0.91289 -0.122252 6.45895 0.0521164 
-0.902414 -0.124951 6.47972 0.0548224 
-0.875403 -0.131505 6.48417 0.0711202 
-0.862429 -0.132039 6.49688 0.0742256 
-0.922932 -0.124438 6.43988 0.0450685 
-0.949902 -0.124833 6.44008 0.0348155 
-0.961348 -0.124549 6.42859 0.0294256 
-0.966905 -0.122649 6.45996 0.0339298 
-0.940146 -0.123277 6.45916 0.0426719 
-0.961533 -0.113833 6.50477 0.0528874 
-0.937097 -0.1149 6.50055 0.0528101 
-0.922336 -0.110231 6.51622 0.0602389 
-0.927138 -0.119699 6.48166 0.0489112 
-0.951637 -0.118611 6.48566 0.0422257 
-0.895657 -0.110024 6.52624 0.0579436 
-0.870595 -0.117776 6.52564 0.0612034 
-0.854881 -0.113091 6.54311 0.0591951 
-0.899262 -0.118813 6.50245 0.0554217 
-0.876908 -0.100469 6.55458 0.0634346 
-0.871391 -0.0899262 6.57719 0.0840759 
-0.898057 -0.0876073 6.56505 0.0906631 
-0.892048 -0.0787933 6.58788 0.117731 
-0.885041 -0.0723947 6.60783 0.116221 
-0.864534 -0.0818493 6.59635 0.0927294 
-0.857039 -0.07508 6.61384 0.0971255 
-0.843254 -0.0909206 6.58336 0.0746574 
-0.835575 -0.0834203 6.601 0.085086 
-0.827479 -0.076596 6.61723 0.0927531 
-0.84967 -0.100485 6.56482 0.065146 
-0.916507 -0.100305 6.53778 0.0705169 
-0.942363 -0.105405 6.52804 0.0683472 
-0.936106 -0.0962662 6.5506 0.0841413 
-0.929623 -0.0864177 6.57541 0.107057 
-0.922778 -0.0795119 6.59787 0.113453 
-0.893933 -0.0563747 6.67215 0.145387 
-0.891239 -0.060979 6.65106 0.132322 
-0.868521 -0.0516033 6.67474 0.147843 
-0.865977 -0.056199 6.65361 0.13916 
-0.888451 -0.0663701 6.62961 0.121139 
-0.913628 -0.0706646 6.6237 0.130651 
-0.916607 -0.0655385 6.6445 0.137269 
-0.826237 -0.0519252 6.67592 0.14489 
-0.83682 -0.0584545 6.65741 0.123248 
-0.807125 -0.0609764 6.65795 0.124055 
-0.796413 -0.0553407 6.6765 0.145135 
-0.817645 -0.0679681 6.63775 0.106139 
-0.84735 -0.0665525 6.63579 0.1042 
-0.93124 -0.125262 6.42237 0.04193 
-0.903631 -0.123196 6.42385 0.0510381 
-0.942541 -0.12489 6.40999 0.036161 
-0.953985 -0.122925 6.39772 0.0285957 
-0.895603 -0.127891 6.44477 0.0641325 
-0.868371 -0.135208 6.45163 0.0813298 
-0.877484 -0.131436 6.43231 0.0728974 
-0.896241 -0.121178 6.40468 0.0542288 
-0.848867 -0.137601 6.44168 0.0885375 
-0.921911 -0.122595 6.39451 0.0412412 
-0.933388 -0.120226 6.38118 0.0322791 
-0.990996 -0.127694 6.43291 0.0219873 
-1.02038 -0.128901 6.4368 0.0216387 
-1.00458 -0.128708 6.42265 0.0187055 
-1.00708 -0.128258 6.44698 0.0254211 
-0.978094 -0.125673 6.44262 0.0275623 
-1.03345 -0.131574 6.41929 0.0171495 
-1.04749 -0.134605 6.43488 0.0253349 
-1.0619 -0.137482 6.42466 0.02374 
-1.07665 -0.140393 6.41385 0.0267801 
-1.07566 -0.141228 6.43981 0.0377824 
-1.06181 -0.137853 6.44985 0.0347423 
-1.03494 -0.131815 6.45219 0.0306507 
-1.06243 -0.138557 6.4947 0.0541987 
-1.04004 -0.132091 6.4852 0.0462918 
-1.01771 -0.126024 6.47513 0.0411662 
-1.0256 -0.127426 6.49684 0.0488434 
-1.05554 -0.136519 6.4733 0.0454274 
-1.00053 -0.122159 6.49914 0.0482882 
-0.99061 -0.123633 6.47886 0.0369814 
-0.97616 -0.119173 6.49156 0.0438249 
-1.05532 -0.133516 6.35426 0.0115229 
-1.07195 -0.137124 6.3608 0.0148664 
-1.04156 -0.131569 6.36556 0.00935284 
-1.05934 -0.135587 6.38142 0.0141149 
-1.02758 -0.129539 6.3766 0.0105972 
-1.01395 -0.127404 6.38687 0.0127874 
-1.04639 -0.133827 6.40063 0.0149603 
-1.01769 -0.128984 6.4122 0.0157018 
-0.974123 -0.126362 6.41848 0.0236235 
-0.987113 -0.12756 6.40807 0.0187906 
-1.00053 -0.127678 6.39762 0.01463 
-0.966861 -0.123922 6.38656 0.0237046 
-0.979966 -0.124253 6.37554 0.0186337 
-0.630354 -0.210385 6.66364 0.16188 
-0.637349 -0.213166 6.65103 0.151067 
-0.626981 -0.239752 6.65961 0.1565 
-0.618603 -0.266613 6.67087 0.170982 
-0.634049 -0.243789 6.64635 0.165086 
-0.625046 -0.270249 6.65775 0.185886 
-0.63118 -0.274576 6.6444 0.197977 
-0.641869 -0.247616 6.63139 0.175631 
-0.646024 -0.216833 6.63629 0.134804 
-0.654694 -0.220952 6.62158 0.149917 
-0.659449 -0.190753 6.63005 0.108298 
-0.650199 -0.186735 6.64418 0.124411 
-0.665399 -0.160592 6.64274 0.100428 
-0.668983 -0.194502 6.61564 0.114596 
-0.674797 -0.164994 6.62815 0.0843878 
-0.684797 -0.169675 6.61385 0.0739635 
-0.656895 -0.158053 6.65697 0.119642 
-0.617818 -0.322561 6.69541 0.161033 
-0.621909 -0.350587 6.70794 0.142054 
-0.627649 -0.377684 6.72007 0.151116 
-0.636166 -0.387118 6.69761 0.157591 
-0.630833 -0.360161 6.68407 0.166057 
-0.627482 -0.331494 6.67001 0.178701 
-0.622442 -0.297862 6.66979 0.169056 
-0.628001 -0.302439 6.65643 0.185901 
-0.65181 -0.401547 6.6615 0.204905 
-0.647072 -0.377386 6.64775 0.232713 
-0.639037 -0.345691 6.64124 0.222579 
-0.640412 -0.316059 6.62583 0.239202 
-0.640985 -0.28254 6.62265 0.228864 
-0.650584 -0.292308 6.60285 0.263066 
-0.637711 -0.369168 6.66549 0.192509 
-0.644154 -0.395466 6.67968 0.175994 
-0.664833 -0.262954 6.58807 0.236751 
-0.673854 -0.231515 6.5883 0.192208 
-0.690815 -0.206857 6.58175 0.153027 
-0.70005 -0.179296 6.58986 0.0950746 
-0.714381 -0.192045 6.56528 0.126234 
-0.652601 -0.254967 6.60959 0.217545 
-0.839362 -0.119153 6.54893 0.0625259 
-0.825 -0.131643 6.54291 0.0704468 
-0.808317 -0.137904 6.54646 0.0704124 
-0.792843 -0.149891 6.53978 0.0925592 
-0.789356 -0.137269 6.5593 0.0623685 
-0.812442 -0.150491 6.52739 0.102989 
-0.79716 -0.161515 6.52167 0.126594 
-0.829223 -0.143372 6.5217 0.0916139 
-0.845338 -0.135646 6.51523 0.0804351 
-0.771563 -0.148677 6.56086 0.0698109 
-0.753815 -0.167165 6.5536 0.100091 
-0.735048 -0.181281 6.55541 0.115516 
-0.720846 -0.207273 6.54572 0.183717 
-0.742236 -0.196829 6.53454 0.168851 
-0.761076 -0.183652 6.53061 0.147275 
-0.777406 -0.166931 6.53506 0.116469 
-0.72464 -0.222843 6.52624 0.226179 
-0.761771 -0.193336 6.5137 0.178223 
-0.780066 -0.179755 6.5129 0.158171 
-0.796609 -0.169745 6.5009 0.150046 
-0.813678 -0.162602 6.4942 0.130978 
-0.830225 -0.153645 6.49319 0.11857 
-0.845839 -0.144769 6.48502 0.102448 
-0.778948 -0.0636932 6.67462 0.118318 
-0.77254 -0.0770807 6.65598 0.0888212 
-0.746029 -0.0788703 6.6724 0.108316 
-0.73864 -0.0922091 6.65336 0.0931965 
-0.765487 -0.0912643 6.63706 0.0664296 
-0.758096 -0.105306 6.61785 0.0595586 
-0.77601 -0.0975332 6.61835 0.0584391 
-0.78352 -0.0827128 6.63835 0.0733241 
-0.794072 -0.0896247 6.61909 0.0664882 
-0.800943 -0.0756502 6.63788 0.0856743 
-0.790774 -0.0689374 6.65801 0.100471 
-0.811069 -0.0832694 6.61881 0.0734448 
-0.709455 -0.104275 6.66625 0.102062 
-0.692038 -0.120888 6.66272 0.106781 
-0.700237 -0.125895 6.64693 0.0785963 
-0.674241 -0.138517 6.65908 0.114665 
-0.682277 -0.142645 6.64406 0.0889234 
-0.69201 -0.147663 6.62981 0.0681832 
-0.702929 -0.151308 6.61433 0.0578064 
-0.710907 -0.129659 6.63164 0.0609629 
-0.721429 -0.134854 6.61561 0.0487227 
-0.729546 -0.113297 6.63341 0.0653082 
-0.719984 -0.108334 6.65053 0.0816376 
-0.739927 -0.119961 6.61664 0.0494919 
-0.725347 -0.16902 6.57656 0.0778937 
-0.744598 -0.153112 6.57585 0.0651593 
-0.755828 -0.131981 6.58974 0.0458778 
-0.77466 -0.118498 6.58933 0.0486278 
-0.800118 -0.120789 6.57436 0.0471521 
-0.817227 -0.113519 6.57235 0.0514475 
-0.809483 -0.105685 6.58863 0.0520639 
-0.833715 -0.106785 6.5692 0.0570928 
-0.826765 -0.0985059 6.58646 0.0604499 
-0.790715 -0.174635 6.48207 0.164036 
-0.807553 -0.166899 6.47409 0.150642 
-0.824718 -0.157571 6.47098 0.128892 
-0.839988 -0.148134 6.46201 0.111805 
-0.742238 -0.208985 6.5159 0.205068 
-0.775852 -0.186167 6.49483 0.180382 
-0.751746 -0.202824 6.48769 0.212148 
-0.70061 -0.216975 6.56442 0.185409 
-0.683623 -0.240231 6.5715 0.23043 
-0.672687 -0.274794 6.57391 0.291515 
-0.658849 -0.303243 6.58912 0.295636 
-0.692117 -0.252204 6.55581 0.280398 
-0.708115 -0.23059 6.5465 0.231211 
-0.648296 -0.324984 6.61244 0.269019 
-0.647313 -0.353332 6.62771 0.244623 
-0.656314 -0.383996 6.63294 0.252458 
-0.661089 -0.407268 6.64652 0.222238 
-0.657321 -0.361626 6.61481 0.268332 
-0.65792 -0.334856 6.59992 0.292154 
-0.672501 -0.415341 6.62912 0.258712 
-0.667988 -0.393628 6.61807 0.285264 
-0.664953 -0.369955 6.60528 0.288672 
-0.664986 -0.343945 6.59147 0.289158 
-0.666355 -0.314198 6.57878 0.317618 
-0.680902 -0.287474 6.55979 0.347803 
-0.709587 -0.243639 6.53158 0.286023 
-0.695514 -0.264208 6.54273 0.333584 
-0.670009 -0.322293 6.56813 0.283734 
-0.667764 -0.3511 6.58084 0.265451 
-0.705292 -0.250854 6.51745 0.305677 
-0.754311 -0.465202 6.78401 0.112293 
-0.744129 -0.466302 6.76617 0.0955 
-0.750693 -0.474106 6.75171 0.0901371 
-0.737785 -0.473907 6.73352 0.0927932 
-0.772298 -0.487831 6.73732 0.0860007 
-0.713422 -0.460274 6.74523 0.106157 
-0.698974 -0.458982 6.72853 0.12061 
-0.707991 -0.454036 6.75721 0.109843 
-0.7025 -0.446715 6.76915 0.113229 
-0.7591 -0.48866 6.70852 0.0810001 
-0.775687 -0.497251 6.70663 0.0788801 
-0.741191 -0.48048 6.70971 0.095608 
-0.747932 -0.48768 6.68218 0.0992692 
-0.765573 -0.497075 6.67966 0.0820366 
-0.782685 -0.506533 6.67715 0.074813 
-0.729519 -0.478561 6.68376 0.116732 
-0.710712 -0.469221 6.68474 0.147088 
-0.704522 -0.46489 6.70704 0.13023 
-0.660997 -0.417476 6.67855 0.174574 
-0.672692 -0.432822 6.6954 0.159387 
-0.653778 -0.411948 6.69675 0.165543 
-0.665468 -0.427228 6.71354 0.146997 
-0.685238 -0.446581 6.71197 0.142072 
-0.692072 -0.451711 6.69149 0.143972 
-0.681295 -0.437826 6.67576 0.182603 
-0.644613 -0.40144 6.71738 0.142153 
-0.655362 -0.414638 6.73563 0.129041 
-0.638172 -0.39218 6.73847 0.134056 
-0.668419 -0.424643 6.7553 0.113978 
-0.672267 -0.432192 6.74412 0.119536 
-0.676823 -0.43875 6.73277 0.12796 
-0.660342 -0.421162 6.7253 0.125812 
-0.769818 -0.502249 6.663 0.0901464 
-0.787541 -0.512812 6.6594 0.0791672 
-0.757148 -0.498003 6.64944 0.111851 
-0.775398 -0.508688 6.64549 0.0910966 
-0.793423 -0.519962 6.64141 0.0766719 
-0.736055 -0.483847 6.66138 0.130431 
-0.717909 -0.474082 6.66344 0.153569 
-0.763536 -0.507056 6.62863 0.121275 
-0.797231 -0.528657 6.62512 0.0765107 
-0.744686 -0.495403 6.6334 0.14185 
-0.726398 -0.483325 6.63747 0.161178 
-0.683757 -0.431379 6.63723 0.241171 
-0.695722 -0.446524 6.64397 0.207397 
-0.708064 -0.461624 6.65016 0.195226 
-0.674757 -0.42519 6.65325 0.208391 
-0.698659 -0.455053 6.6749 0.164222 
-0.689312 -0.441797 6.65804 0.195837 
-0.687483 -0.443249 6.61275 0.283251 
-0.701907 -0.456602 6.6215 0.237321 
-0.715489 -0.474324 6.62187 0.208663 
-0.72854 -0.492067 6.6217 0.166926 
-0.78338 -0.528067 6.61008 0.0946723 
-0.79984 -0.541682 6.60565 0.0778072 
-0.747269 -0.504954 6.61639 0.146309 
-0.938176 -0.574062 6.5812 0.0197499 
-0.965515 -0.563891 6.58468 0.0201028 
-0.949142 -0.558608 6.59514 0.0207104 
-0.932871 -0.553236 6.60548 0.0237612 
-0.992256 -0.554664 6.58908 0.0241258 
-0.994756 -0.567063 6.57556 0.022357 
-0.968093 -0.576685 6.57175 0.0183683 
-0.997683 -0.580091 6.56238 0.0205173 
-0.942982 -0.540837 6.62093 0.0266255 
-0.952737 -0.528744 6.63647 0.0307025 
-0.92507 -0.535773 6.63434 0.0298081 
-0.97013 -0.533779 6.62306 0.0282336 
-0.987358 -0.540821 6.60879 0.027657 
-0.960358 -0.547023 6.60695 0.0252841 
-1.02717 -0.531837 6.59739 0.0311193 
-1.01946 -0.549671 6.58076 0.0229839 
-1.01127 -0.527669 6.61145 0.0307971 
-0.99569 -0.524218 6.62537 0.0341996 
-1.0223 -0.562495 6.56704 0.0213173 
-1.0378 -0.567523 6.5546 0.0213064 
-0.818329 -0.563766 6.58384 0.0657703 
-0.836724 -0.568024 6.58178 0.0544753 
-0.854885 -0.572563 6.58026 0.044133 
-0.872399 -0.576957 6.57922 0.033474 
-0.818826 -0.548388 6.59956 0.063195 
-0.835964 -0.545484 6.60809 0.0565497 
-0.853771 -0.555689 6.59881 0.0471853 
-0.871008 -0.563994 6.59419 0.0342985 
-0.905815 -0.575046 6.57982 0.0239105 
-0.923656 -0.585415 6.56898 0.0184956 
-0.940642 -0.590657 6.56389 0.0159887 
-0.888563 -0.566881 6.58943 0.0297618 
-0.924496 -0.601574 6.55422 0.0152137 
-0.90683 -0.595677 6.56039 0.0191183 
-0.889407 -0.595611 6.5616 0.0225121 
-0.952107 -0.667679 6.49544 0.0206669 
-0.967645 -0.677118 6.47998 0.0227427 
-0.985904 -0.680922 6.46885 0.0247295 
-1.00191 -0.690367 6.45204 0.0300993 
-0.978534 -0.696224 6.45401 0.0249992 
-0.960002 -0.692152 6.46691 0.0246066 
-0.944404 -0.683207 6.48316 0.0238644 
-1.02405 -0.679329 6.45153 0.0283785 
-1.03999 -0.684605 6.43326 0.0270788 
-1.05749 -0.684507 6.42202 0.0305422 
-1.07347 -0.689736 6.40398 0.0348965 
-1.07015 -0.700603 6.38954 0.0331527 
-1.05187 -0.700391 6.40241 0.0283876 
-1.03353 -0.700073 6.4154 0.0255688 
-1.01777 -0.694967 6.43373 0.0260252 
-1.05668 -0.726038 6.35395 0.0254643 
-1.03722 -0.725478 6.36881 0.0195948 
-1.02241 -0.718795 6.39032 0.0181747 
-1.00298 -0.718876 6.40492 0.0191166 
-0.988165 -0.713218 6.42686 0.0251427 
-0.978798 -0.725181 6.41267 0.0209051 
-1.01212 -0.706211 6.41935 0.0220772 
-1.04524 -0.712682 6.38496 0.0224013 
-1.06358 -0.713344 6.37192 0.0287896 
-0.959779 -0.721 6.42726 0.0193587 
-0.945774 -0.711013 6.44781 0.0208847 
-0.926925 -0.707425 6.46219 0.0253588 
-0.969344 -0.708984 6.44015 0.02247 
-0.881546 -0.467746 6.78002 0.0693023 
-0.873654 -0.47786 6.76245 0.0595983 
-0.878621 -0.489248 6.73885 0.0545 
-0.86893 -0.498322 6.72099 0.0494975 
-0.900522 -0.500345 6.71235 0.0540376 
-0.847584 -0.488754 6.74697 0.0672106 
-0.836394 -0.498155 6.72863 0.0655695 
-0.842399 -0.478891 6.76719 0.0732149 
-0.835502 -0.469722 6.78592 0.0753712 
-0.906042 -0.508013 6.69458 0.0434503 
-0.911767 -0.515558 6.67738 0.0384487 
-0.87836 -0.512561 6.68547 0.0393444 
-0.88411 -0.519841 6.66845 0.035256 
-0.88965 -0.526918 6.6516 0.0314533 
-0.916982 -0.52275 6.66035 0.0344953 
-0.855232 -0.524884 6.66034 0.0417231 
-0.849583 -0.518007 6.67685 0.0452804 
-0.844638 -0.511468 6.69372 0.0477629 
-0.873285 -0.505593 6.7029 0.0438465 
-0.840054 -0.504909 6.71092 0.0556035 
-0.809872 -0.5031 6.70129 0.0572947 
-0.804932 -0.492151 6.73321 0.0648244 
-0.814759 -0.508501 6.68462 0.0543591 
-0.819941 -0.514634 6.66813 0.0540268 
-0.778381 -0.473861 6.7707 0.0898329 
-0.811109 -0.477527 6.77034 0.0793576 
-0.908608 -0.533261 6.63845 0.0297787 
-0.913947 -0.544465 6.61887 0.0268956 
-0.897606 -0.542255 6.62302 0.0299181 
-0.880506 -0.540237 6.62746 0.0341701 
-0.860525 -0.534173 6.64092 0.0397883 
-0.902202 -0.555621 6.60174 0.0283634 
-0.920363 -0.564718 6.59149 0.0234878 
-0.885513 -0.553591 6.60607 0.03224 
-0.868317 -0.551909 6.6108 0.0342709 
-0.816129 -0.534634 6.61953 0.0669639 
-0.849908 -0.540883 6.62089 0.0454836 
-0.824872 -0.522187 6.65017 0.0550556 
-0.843208 -0.528196 6.64554 0.048087 
-0.98954 -0.449621 6.74513 0.079427 
-0.985116 -0.465074 6.72611 0.0679996 
-0.993561 -0.475657 6.70398 0.0676294 
-0.988146 -0.488344 6.68759 0.0552652 
-1.01486 -0.48136 6.67974 0.0642391 
-0.966771 -0.482429 6.71336 0.0656926 
-0.961282 -0.495578 6.69602 0.0616921 
-0.958878 -0.471364 6.73594 0.0664917 
-0.951379 -0.45722 6.76141 0.0678125 
-1.02041 -0.489369 6.66331 0.0606765 
-1.02557 -0.497472 6.64688 0.0545694 
-0.998798 -0.504211 6.65479 0.0474594 
-1.01703 -0.509053 6.63416 0.0422798 
-0.99053 -0.515938 6.64193 0.0389046 
-0.97195 -0.511449 6.66201 0.0427774 
-0.993667 -0.49633 6.67124 0.0515154 
-0.966689 -0.503593 6.67868 0.0471777 
-0.941998 -0.512933 6.66968 0.0387767 
-0.936807 -0.505442 6.6865 0.0433127 
-0.931222 -0.497602 6.70388 0.0486504 
-0.947424 -0.520735 6.65286 0.0350647 
-0.9088 -0.488775 6.73113 0.0573956 
-0.902896 -0.476991 6.75465 0.0651647 
-0.910409 -0.462845 6.77429 0.0631705 
-0.931234 -0.474941 6.74568 0.0648325 
-0.938613 -0.48662 6.72181 0.0582994 
-0.972765 -0.612953 6.53702 0.0140162 
-0.957122 -0.604531 6.54772 0.0134088 
-1.00285 -0.606905 6.53619 0.0204738 
-0.988603 -0.616165 6.53045 0.0159294 
-1.00542 -0.626147 6.5174 0.0214377 
-0.958817 -0.622531 6.53174 0.0130585 
-0.999923 -0.592881 6.54918 0.0190256 
-1.04319 -0.588919 6.53302 0.0229395 
-1.03186 -0.604348 6.52435 0.0214387 
-1.06011 -0.595678 6.51942 0.027486 
-1.02706 -0.583025 6.54557 0.0193135 
-1.06365 -0.609849 6.50424 0.0290385 
-1.03429 -0.617935 6.51133 0.0237115 
-1.05131 -0.624353 6.49659 0.0270453 
-1.06876 -0.630731 6.48131 0.0332579 
-1.02172 -0.632186 6.50399 0.0229734 
-1.05514 -0.643781 6.47469 0.0295231 
-1.0718 -0.643757 6.46541 0.0340912 
-1.03855 -0.644085 6.48385 0.0276671 
-1.04159 -0.656738 6.46824 0.0293978 
-1.05824 -0.65616 6.45893 0.0319317 
-1.07515 -0.655964 6.44926 0.0362904 
-1.02531 -0.656901 6.47737 0.0278863 
-1.00886 -0.657548 6.48676 0.0293325 
-1.07613 -0.667484 6.43358 0.0367192 
-1.05876 -0.673377 6.43707 0.0318112 
-1.04113 -0.673427 6.44834 0.0290183 
-1.00703 -0.674487 6.46895 0.0301162 
-0.971588 -0.660177 6.49614 0.0200838 
-0.956032 -0.651238 6.50903 0.0168177 
-0.99022 -0.658519 6.49134 0.023052 
-0.973795 -0.637408 6.51608 0.0165744 
-0.9906 -0.64117 6.50758 0.0196443 
-1.02412 -0.741985 6.34546 0.0142284 
-1.04506 -0.741911 6.32946 0.0180451 
-1.00322 -0.742274 6.36165 0.0127169 
-0.991323 -0.757285 6.337 0.00770249 
-1.0127 -0.757392 6.32099 0.0101245 
-1.03404 -0.757576 6.30549 0.0152693 
-0.976242 -0.750115 6.36549 0.0100198 
-0.949451 -0.758196 6.3689 0.00982747 
-0.964188 -0.7417 6.39085 0.0139719 
-0.990908 -0.733273 6.38704 0.0144304 
-1.02536 -0.767178 6.29205 0.0147699 
-1.00276 -0.76769 6.30866 0.0101709 
-0.994156 -0.777147 6.29486 0.00960659 
-1.01696 -0.776797 6.27863 0.0144521 
-0.971174 -0.777863 6.31135 0.00729589 
-0.985036 -0.78713 6.2814 0.0103086 
-0.962019 -0.787848 6.29754 0.0075923 
-1.00823 -0.786891 6.2655 0.0161902 
-0.938876 -0.788504 6.31383 0.0063081 
-0.9175 -0.788788 6.32908 0.00654949 
-0.949368 -0.777726 6.32673 0.00579941 
-0.928065 -0.77813 6.34214 0.00598141 
-0.960046 -0.767113 6.33952 0.00571274 
-0.981463 -0.767379 6.32403 0.00707606 
-0.93888 -0.767983 6.35541 0.00732489 
-0.835038 -0.774492 6.39555 0.00670149 
-0.855108 -0.777924 6.37912 0.00477978 
-0.866777 -0.767366 6.39217 0.00665731 
-0.8468 -0.764234 6.40907 0.0100497 
-0.886855 -0.770949 6.37568 0.0049577 
-0.878377 -0.757383 6.40554 0.00919021 
-0.898001 -0.760598 6.38867 0.00671418 
-0.909512 -0.75058 6.40184 0.00962559 
-0.858526 -0.754346 6.4224 0.0153645 
-0.889668 -0.747268 6.41863 0.0136906 
-0.870275 -0.744898 6.43566 0.0231084 
-0.918063 -0.764578 6.37258 0.00667922 
-0.929309 -0.75408 6.38519 0.00834134 
-0.907391 -0.774285 6.35882 0.00444533 
-0.896522 -0.784506 6.34542 0.00378832 
-0.875681 -0.780976 6.36207 0.00342092 
-0.905719 -0.731004 6.43902 0.0211828 
-0.886758 -0.727958 6.45392 0.0292991 
-0.924694 -0.73468 6.42397 0.0174501 
-0.944408 -0.737996 6.40734 0.0143183 
-0.627165 -0.233784 6.47162 0.229659 
-0.639048 -0.213099 6.45212 0.21076 
-0.65624 -0.194306 6.436 0.154465 
-0.66598 -0.174309 6.42029 0.122668 
-0.681142 -0.154999 6.40693 0.0924437 
-0.684988 -0.177071 6.42436 0.123545 
-0.674861 -0.196998 6.4395 0.169691 
-0.657051 -0.215397 6.45462 0.206342 
-0.644806 -0.235987 6.47333 0.240077 
-0.677779 -0.13543 6.39012 0.0564251 
-0.69387 -0.118039 6.37809 0.0356325 
-0.702708 -0.0965368 6.36556 0.0155341 
-0.71861 -0.0757164 6.35482 0.0180735 
-0.723266 -0.103071 6.36969 0.0234294 
-0.714195 -0.123299 6.38224 0.0469616 
-0.697924 -0.139777 6.3942 0.06554 
-0.705735 -0.160234 6.41385 0.103504 
-0.744994 -0.0866381 6.36097 0.0233789 
-0.151764 -0.897459 6.27813 0.0325428 
-0.165062 -0.887748 6.30363 0.0346933 
-0.190267 -0.88242 6.32508 0.0269029 
-0.204035 -0.878924 6.35276 0.0167041 
-0.229543 -0.878718 6.37597 0.0125338 
-0.206348 -0.878256 6.3874 0.00775066 
-0.227259 -0.879557 6.34155 0.0167445 
-0.252899 -0.880118 6.36473 0.0121584 
-0.213219 -0.882928 6.31329 0.0285158 
-0.199115 -0.88885 6.28605 0.0364368 
-0.174201 -0.898418 6.26608 0.0332158 
-0.196718 -0.899291 6.25383 0.0340411 
-0.219207 -0.87515 6.41575 0.0151656 
-0.243943 -0.872019 6.43877 0.0315805 
-0.257141 -0.867906 6.4673 0.0548866 
-0.281707 -0.860747 6.48889 0.0726717 
-0.258404 -0.860901 6.50082 0.0815935 
-0.280609 -0.867822 6.45577 0.0514356 
-0.30545 -0.86111 6.47688 0.0643764 
-0.267354 -0.871826 6.42711 0.0257331 
-0.254268 -0.875805 6.39886 0.0124939 
-0.35302 -0.862048 6.45145 0.0544396 
-0.339808 -0.868429 6.42402 0.0387331 
-0.314745 -0.873199 6.40296 0.0240716 
-0.301433 -0.877262 6.37493 0.0170348 
-0.27628 -0.880518 6.35264 0.0115541 
-0.299899 -0.881906 6.34072 0.0118969 
-0.278032 -0.876943 6.38744 0.0123951 
-0.29105 -0.87246 6.41529 0.0246806 
-0.304202 -0.868328 6.44336 0.0444947 
-0.329169 -0.861293 6.46406 0.0572566 
-0.285346 -0.882412 6.3116 0.0156852 
-0.259438 -0.884509 6.28932 0.0286712 
-0.245126 -0.890419 6.26163 0.0381986 
-0.219474 -0.899903 6.24131 0.0360351 
-0.242422 -0.901615 6.2291 0.0344343 
-0.222225 -0.889793 6.2742 0.037107 
-0.236261 -0.883973 6.30148 0.0276031 
-0.250341 -0.881014 6.32968 0.0159779 
-0.268781 -0.891731 6.24935 0.0355237 
-0.283008 -0.885565 6.27698 0.028381 
-0.309579 -0.883471 6.29921 0.0153776 
-0.32412 -0.882941 6.32816 0.0117098 
-0.348224 -0.883689 6.31526 0.011615 
-0.333664 -0.884446 6.28634 0.0143278 
-0.307114 -0.886425 6.26423 0.0279223 
-0.292671 -0.892434 6.23613 0.0356225 
-0.266249 -0.902114 6.21597 0.0347349 
-0.290256 -0.903626 6.2032 0.0340578 
-0.325803 -0.87886 6.36298 0.0182633 
-0.33891 -0.874117 6.39051 0.0229019 
-0.364529 -0.869367 6.41148 0.0389807 
-0.377558 -0.862599 6.4384 0.0527677 
-0.402103 -0.863394 6.42532 0.051957 
-0.388793 -0.870674 6.39868 0.0365087 
-0.363321 -0.875214 6.37782 0.0234591 
-0.349857 -0.879947 6.35012 0.0180272 
-0.448853 -0.865431 6.40106 0.0554767 
-0.435402 -0.872825 6.37437 0.0398957 
-0.410376 -0.87739 6.3533 0.0233724 
-0.396539 -0.881602 6.3251 0.0178994 
-0.371252 -0.884468 6.30291 0.0114738 
-0.394315 -0.885461 6.29044 0.0111738 
-0.373684 -0.880593 6.33771 0.0174751 
-0.387002 -0.876597 6.36557 0.0235449 
-0.412249 -0.872211 6.38685 0.0404208 
-0.425467 -0.864463 6.41316 0.0544859 
-0.379908 -0.886448 6.26159 0.0133195 
-0.353794 -0.888461 6.23926 0.0254585 
-0.33921 -0.894039 6.21119 0.0372909 
-0.313316 -0.904464 6.1908 0.0342927 
-0.336532 -0.905572 6.17817 0.0344699 
-0.316237 -0.893489 6.22385 0.0356481 
-0.330664 -0.887631 6.25177 0.0252085 
-0.356904 -0.885567 6.27425 0.0132885 
-0.361098 -0.895306 6.19951 0.0365582 
-0.375401 -0.889348 6.22745 0.0256965 
-0.400179 -0.88686 6.25076 0.013804 
-0.414588 -0.885718 6.27934 0.0109422 
-0.434845 -0.886708 6.26827 0.0117244 
-0.4203 -0.887197 6.23932 0.0146692 
-0.395637 -0.889952 6.21641 0.0267612 
-0.38124 -0.895957 6.18831 0.0370498 
-0.356797 -0.906125 6.16694 0.0356308 
-0.377109 -0.906894 6.1558 0.0361237 
-0.418317 -0.882539 6.31364 0.0179815 
-0.432019 -0.877939 6.34182 0.021999 
-0.455647 -0.87342 6.36397 0.0393687 
-0.468927 -0.86591 6.39033 0.0545271 
-0.489116 -0.866175 6.37957 0.051094 
-0.475893 -0.874017 6.353 0.0391068 
-0.452331 -0.878545 6.33103 0.0221678 
-0.438599 -0.88238 6.30231 0.0161084 
-0.525548 -0.867019 6.35983 0.0449895 
-0.512556 -0.87469 6.33307 0.034912 
-0.489923 -0.880669 6.31064 0.0239108 
-0.47618 -0.883729 6.28196 0.0101007 
-0.453261 -0.887171 6.25823 0.0114371 
-0.471723 -0.887439 6.24808 0.00530855 
-0.457934 -0.883192 6.29211 0.0103417 
-0.471605 -0.879351 6.3205 0.022013 
-0.494234 -0.874655 6.3434 0.0382949 
-0.507276 -0.86644 6.36963 0.0474185 
-0.457118 -0.887843 6.21899 0.0154921 
-0.433455 -0.890711 6.19548 0.0290928 
-0.418794 -0.896472 6.16715 0.0418582 
-0.3956 -0.907807 6.14563 0.036745 
-0.413836 -0.907952 6.13521 0.0387598 
-0.400605 -0.896698 6.17776 0.0386146 
-0.41495 -0.890389 6.20563 0.0283983 
-0.43881 -0.887611 6.2293 0.0151667 
-0.86868 -0.720809 6.46929 0.0310856 
-0.850555 -0.71389 6.48414 0.0348456 
-0.833728 -0.731304 6.46701 0.029951 
-0.852053 -0.737796 6.45153 0.025912 
-0.823727 -0.716064 6.49092 0.0391944 
-0.797283 -0.719114 6.49877 0.0505002 
-0.813769 -0.70088 6.51072 0.0427803 
-0.840306 -0.697594 6.50311 0.0329346 
-0.840851 -0.748435 6.43922 0.0191023 
-0.829034 -0.757993 6.42578 0.0134183 
-0.811178 -0.752399 6.44283 0.0198603 
-0.817191 -0.768089 6.41243 0.00857763 
-0.799231 -0.761894 6.42928 0.011136 
-0.787477 -0.771875 6.41573 0.00725369 
-0.805346 -0.778177 6.3987 0.00549703 
-0.781988 -0.756638 6.44645 0.0189609 
-0.76983 -0.766475 6.43293 0.0113843 
-0.752295 -0.761164 6.45008 0.017606 
-0.763712 -0.750775 6.46302 0.0251322 
-0.793063 -0.745911 6.45888 0.0248225 
-0.775004 -0.740301 6.47543 0.0349649 
-0.804155 -0.735781 6.47126 0.0328226 
-0.822552 -0.741812 6.45513 0.0250186 
-0.786236 -0.729491 6.48736 0.0428033 
-0.686703 -0.718446 6.52816 0.0464262 
-0.698757 -0.706945 6.53629 0.0556527 
-0.714321 -0.718207 6.52036 0.0474306 
-0.726343 -0.706116 6.52747 0.0469733 
-0.710948 -0.694126 6.54272 0.0507941 
-0.742117 -0.718442 6.51263 0.0448214 
-0.738663 -0.694171 6.53408 0.0450679 
-0.754161 -0.706262 6.51939 0.0433023 
-0.766111 -0.693532 6.52549 0.0369764 
-0.722928 -0.681574 6.54874 0.050404 
-0.750338 -0.680776 6.53888 0.0363651 
-0.734669 -0.668576 6.55367 0.0417617 
-0.769884 -0.718082 6.50535 0.0463933 
-0.781698 -0.706183 6.51208 0.0437993 
-0.758578 -0.729276 6.49419 0.0389669 
-0.747215 -0.739938 6.48199 0.0293245 
-0.730882 -0.728996 6.5009 0.0363231 
-0.719434 -0.739417 6.48824 0.0278078 
-0.735877 -0.750231 6.46917 0.0227885 
-0.70304 -0.728973 6.50828 0.0381392 
-0.766201 -0.661944 6.54658 0.0273175 
-0.749718 -0.650242 6.55776 0.0306419 
-0.782533 -0.673849 6.53564 0.0316868 
-0.797955 -0.687535 6.52303 0.0346188 
-0.458813 -0.19537 6.56532 0.132108 
-0.447328 -0.171914 6.55604 0.0532508 
-0.434812 -0.192378 6.58119 0.0928237 
-0.435298 -0.148286 6.5462 0.0615597 
-0.423321 -0.168685 6.57236 0.0734007 
-0.411093 -0.145273 6.56183 0.0788474 
-0.410834 -0.190503 6.59612 0.0794446 
-0.422885 -0.124957 6.53461 0.0661071 
-0.41033 -0.101567 6.52289 0.0758814 
-0.437036 -0.102197 6.50575 0.0657677 
-0.449561 -0.126215 6.51673 0.0534838 
-0.462155 -0.149507 6.52806 0.0459774 
-0.463633 -0.104476 6.4873 0.0472587 
-0.396659 -0.168637 6.58799 0.0820184 
-0.385218 -0.189629 6.6105 0.0915089 
-0.382309 -0.147008 6.57856 0.0820219 
-0.370883 -0.168725 6.60094 0.0821897 
-0.356443 -0.148062 6.59023 0.0736129 
-0.359563 -0.190856 6.62199 0.083504 
-0.367442 -0.126927 6.56626 0.0699238 
-0.352191 -0.105727 6.55324 0.0625176 
-0.381343 -0.102827 6.53907 0.0715402 
-0.396745 -0.123939 6.55172 0.0793435 
-0.33545 -0.0360489 6.46072 0.0249585 
-0.352332 -0.0342341 6.45295 0.0292642 
-0.354834 -0.0524688 6.47762 0.0293261 
-0.371297 -0.0503507 6.46947 0.0341929 
-0.369355 -0.0323663 6.44494 0.0331747 
-0.373593 -0.0687108 6.49399 0.0406648 
-0.387779 -0.0487444 6.46053 0.0380149 
-0.389945 -0.0668758 6.48486 0.0429763 
-0.406375 -0.0655566 6.4753 0.0433085 
-0.385848 -0.0311316 6.43664 0.0371395 
-0.404385 -0.0477866 6.4518 0.0387586 
-0.402525 -0.0302905 6.42798 0.0385405 
-0.392011 -0.0849033 6.50896 0.0554591 
-0.408354 -0.0836131 6.49932 0.0561126 
-0.363047 -0.0868439 6.52411 0.0506195 
-0.344293 -0.0704095 6.508 0.0347247 
-0.417796 -0.0298684 6.42007 0.0395532 
-0.433424 -0.0480853 6.43619 0.0393784 
-0.433017 -0.02971 6.41203 0.0412348 
-0.433495 -0.0664813 6.46001 0.042431 
-0.448175 -0.0492844 6.42649 0.034367 
-0.448415 -0.0673794 6.45039 0.0374628 
-0.463568 -0.0678962 6.44062 0.0343577 
-0.447916 -0.0306901 6.40342 0.0368541 
-0.46344 -0.0496671 6.41824 0.032735 
-0.463205 -0.0317527 6.39546 0.0324637 
-0.448594 -0.0857166 6.47404 0.0439171 
-0.463685 -0.0863824 6.46414 0.0386065 
-0.534238 -0.210361 6.50511 0.143097 
-0.529107 -0.18773 6.49362 0.0849481 
-0.517645 -0.206755 6.51934 0.141479 
-0.522868 -0.164277 6.4822 0.0340797 
-0.51176 -0.18311 6.50741 0.0904843 
-0.505718 -0.158874 6.49542 0.0161711 
-0.500812 -0.203088 6.53294 0.139346 
-0.51605 -0.140049 6.46894 0.0155823 
-0.50872 -0.114167 6.45603 0.0203916 
-0.527876 -0.119579 6.44414 0.0169077 
-0.535313 -0.144529 6.45702 0.0178858 
-0.541814 -0.168652 6.46881 0.0475094 
-0.547497 -0.124338 6.43312 0.0178194 
-0.492408 -0.179244 6.52295 0.0949573 
-0.47988 -0.199081 6.54942 0.156476 
-0.483591 -0.1546 6.51209 0.0284765 
-0.471255 -0.174356 6.53924 0.0760426 
-0.473686 -0.129951 6.49974 0.0348647 
-0.486179 -0.109165 6.47162 0.0313322 
-0.496385 -0.13415 6.48389 0.0223835 
-0.487521 -0.0544695 6.40545 0.0263281 
-0.488445 -0.0354933 6.38393 0.0275712 
-0.48615 -0.0735281 6.42662 0.0233901 
-0.511685 -0.0773486 6.4139 0.020488 
-0.512899 -0.0584235 6.39348 0.0219796 
-0.514115 -0.0383632 6.37375 0.0255771 
-0.497701 -0.0937145 6.44188 0.0222069 
-0.533523 -0.0633212 6.3845 0.0199528 
-0.536342 -0.0427231 6.36663 0.0233566 
-0.531143 -0.0825779 6.40354 0.0176859 
-0.552995 -0.0877189 6.39467 0.0189145 
-0.555797 -0.0674746 6.37742 0.0194082 
-0.558478 -0.0468785 6.35995 0.020981 
-0.539201 -0.104005 6.41777 0.0175693 
-0.519894 -0.0982984 6.42909 0.0174627 
-0.635375 -0.190811 6.43444 0.155458 
-0.618748 -0.20869 6.45259 0.179649 
-0.608237 -0.228945 6.47235 0.212056 
-0.637593 -0.169957 6.4184 0.11381 
-0.638706 -0.146854 6.40355 0.065238 
-0.660631 -0.151247 6.40385 0.0757414 
-0.599159 -0.204587 6.45574 0.163637 
-0.590208 -0.223897 6.47566 0.186018 
-0.607453 -0.185598 6.43767 0.134606 
-0.608265 -0.163944 6.42222 0.0929518 
-0.608581 -0.139484 6.40794 0.0443388 
-0.637421 -0.061632 6.34844 0.0145871 
-0.637774 -0.0857073 6.36182 0.0161267 
-0.655087 -0.0639842 6.34805 0.0134518 
-0.638385 -0.10784 6.37543 0.0247724 
-0.655416 -0.0882318 6.36138 0.0149887 
-0.655924 -0.110038 6.37429 0.0260256 
-0.672868 -0.0657453 6.34856 0.0141192 
-0.638756 -0.128257 6.38918 0.0420271 
-0.615996 -0.122277 6.39201 0.036584 
-0.67974 -0.092125 6.36265 0.0133302 
-0.696868 -0.0698536 6.35102 0.0152398 
-0.532706 -0.70279 6.59876 0.086712 
-0.53494 -0.675071 6.61453 0.0942732 
-0.54362 -0.648654 6.62522 0.0926939 
-0.544038 -0.619752 6.63669 0.102671 
-0.550317 -0.591228 6.64206 0.0970895 
-0.535139 -0.587661 6.64883 0.102373 
-0.559396 -0.622575 6.62936 0.0937275 
-0.566106 -0.594729 6.63479 0.0834537 
-0.560758 -0.651243 6.61704 0.0876511 
-0.560907 -0.678737 6.60152 0.0818173 
-0.551007 -0.7048 6.58925 0.0804948 
-0.569741 -0.706847 6.58003 0.072325 
-0.529769 -0.554282 6.64681 0.0801704 
-0.530384 -0.521031 6.64075 0.103125 
-0.523889 -0.48501 6.63544 0.131176 
-0.522938 -0.450821 6.62761 0.155789 
-0.542951 -0.491116 6.62982 0.141322 
-0.552161 -0.526892 6.63399 0.118356 
-0.551999 -0.559694 6.63862 0.0874255 
-0.552587 -0.461363 6.61849 0.166399 
-0.563724 -0.497383 6.6237 0.144497 
-0.568458 -0.531359 6.62852 0.116203 
-0.578125 -0.566136 6.62766 0.0825398 
-0.585366 -0.599054 6.62543 0.0752736 
-0.596344 -0.629131 6.61013 0.0689836 
-0.590705 -0.655907 6.6005 0.0747164 
-0.592911 -0.682778 6.58488 0.0665554 
-0.585926 -0.708563 6.57136 0.0682013 
-0.602367 -0.710181 6.56296 0.0591441 
-0.576736 -0.680719 6.59371 0.0769338 
-0.575329 -0.625239 6.62124 0.0849213 
-0.534023 -0.725765 6.56961 0.0505983 
-0.53534 -0.749195 6.54063 0.028512 
-0.552604 -0.727536 6.56079 0.0468485 
-0.554252 -0.750428 6.53199 0.0282337 
-0.536934 -0.773221 6.51215 0.0221343 
-0.538182 -0.797625 6.48391 0.0262176 
-0.518187 -0.797053 6.49367 0.0284755 
-0.516912 -0.77213 6.52176 0.0233474 
-0.515845 -0.747993 6.55089 0.0319283 
-0.498252 -0.796471 6.50375 0.0325188 
-0.570558 -0.729027 6.55112 0.042283 
-0.571688 -0.751426 6.52213 0.0253942 
-0.587003 -0.730522 6.54306 0.0407659 
-0.587963 -0.752535 6.51399 0.0231424 
-0.572822 -0.774357 6.49358 0.017969 
-0.573662 -0.797951 6.46526 0.0200403 
-0.555976 -0.797925 6.47465 0.0228387 
-0.555292 -0.773958 6.50322 0.0214381 
-0.528376 -0.851683 6.38966 0.0372885 
-0.531577 -0.83489 6.4202 0.0303323 
-0.510146 -0.851168 6.39956 0.0408501 
-0.513547 -0.835196 6.4307 0.0364654 
-0.534804 -0.816631 6.45158 0.0256826 
-0.552589 -0.817 6.4426 0.0230591 
-0.549441 -0.835578 6.4115 0.027317 
-0.491003 -0.851249 6.40956 0.0441237 
-0.493148 -0.834202 6.43992 0.0358026 
-0.470833 -0.85088 6.42037 0.0474775 
-0.473207 -0.834203 6.45119 0.0377285 
-0.495675 -0.816288 6.47158 0.0296943 
-0.515694 -0.816511 6.4617 0.0317007 
-0.612923 -0.857069 6.34272 0.0320221 
-0.63809 -0.843934 6.35659 0.0211261 
-0.650217 -0.826061 6.38192 0.0113799 
-0.675332 -0.811457 6.39595 0.00763672 
-0.649539 -0.804438 6.4192 0.00943649 
-0.676493 -0.833957 6.35944 0.0149289 
-0.702009 -0.819569 6.3735 0.00874809 
-0.662907 -0.849112 6.33734 0.0258176 
-0.648922 -0.863065 6.31534 0.0367612 
-0.658564 -0.780649 6.44561 0.0088428 
-0.674546 -0.792795 6.42662 0.00762957 
-0.683797 -0.769984 6.4533 0.0108046 
-0.667683 -0.759274 6.4734 0.0151282 
-0.700058 -0.781564 6.43405 0.00888459 
-0.693198 -0.748997 6.48085 0.0194653 
-0.709581 -0.759963 6.46135 0.0143879 
-0.677149 -0.738425 6.50108 0.025379 
-0.726115 -0.771029 6.44195 0.010774 
-0.726535 -0.788776 6.41079 0.00513196 
-0.700735 -0.800183 6.40344 0.0059775 
-0.792803 -0.792917 6.37981 0.00444039 
-0.778686 -0.805349 6.36319 0.00454292 
-0.762054 -0.801124 6.37724 0.004461 
-0.764863 -0.818298 6.34727 0.0071152 
-0.748352 -0.814059 6.36111 0.00640292 
-0.734598 -0.827271 6.34503 0.0113713 
-0.750975 -0.831357 6.33153 0.0136182 
-0.731872 -0.810156 6.375 0.00571387 
-0.718285 -0.82311 6.35899 0.00897768 
-0.744145 -0.794691 6.39376 0.00426753 
-0.756739 -0.779962 6.41317 0.00624554 
-0.774683 -0.786038 6.39627 0.00471489 
-0.737313 -0.84786 6.30962 0.0268178 
-0.722029 -0.859872 6.29059 0.036345 
-0.707029 -0.858504 6.30138 0.0358196 
-0.706354 -0.870464 6.27099 0.0440808 
-0.69154 -0.868848 6.28176 0.0424371 
-0.676751 -0.86799 6.29292 0.0406218 
-0.690594 -0.854334 6.31527 0.030465 
-0.704529 -0.839055 6.33715 0.0173859 
-0.720889 -0.843246 6.32316 0.0209591 
-0.435955 -0.692423 6.64079 0.0874726 
-0.439479 -0.718578 6.61266 0.055406 
-0.461144 -0.694968 6.63032 0.0910157 
-0.443091 -0.744379 6.58444 0.0363539 
-0.46479 -0.72015 6.60219 0.0565038 
-0.468555 -0.745641 6.57372 0.0363277 
-0.486342 -0.697379 6.61953 0.0932732 
-0.446577 -0.770078 6.55561 0.0311827 
-0.449958 -0.794955 6.5269 0.0328033 
-0.424639 -0.794402 6.53957 0.0368164 
-0.421265 -0.769194 6.56817 0.0341283 
-0.41794 -0.743034 6.59701 0.0392853 
-0.399245 -0.794011 6.5518 0.041501 
-0.489151 -0.722051 6.59059 0.0551927 
-0.509434 -0.700044 6.60945 0.0893878 
-0.492013 -0.746747 6.56141 0.0324594 
-0.51274 -0.723895 6.58019 0.0532319 
-0.495144 -0.771603 6.53221 0.0271101 
-0.474045 -0.795874 6.51535 0.0341559 
-0.471337 -0.770841 6.54416 0.0291231 
-0.448494 -0.850219 6.43114 0.0477344 
-0.448666 -0.833383 6.4621 0.0372341 
-0.425484 -0.849763 6.44393 0.0493405 
-0.425738 -0.833093 6.47525 0.0406127 
-0.449045 -0.814701 6.49371 0.0319219 
-0.473338 -0.815508 6.48266 0.0307645 
-0.40098 -0.849213 6.45607 0.0481566 
-0.399865 -0.832441 6.48702 0.0408329 
-0.376573 -0.848538 6.46949 0.0500859 
-0.37575 -0.83224 6.50108 0.0446442 
-0.399333 -0.814009 6.51901 0.0356666 
-0.424913 -0.814343 6.50678 0.0339822 
-0.465931 -0.223224 6.57181 0.157331 
-0.472907 -0.250953 6.57841 0.200887 
-0.486698 -0.226252 6.55628 0.194299 
-0.493509 -0.253074 6.56319 0.204444 
-0.479333 -0.279551 6.58516 0.216606 
-0.485979 -0.308381 6.5929 0.208461 
-0.467017 -0.305555 6.60609 0.221966 
-0.460095 -0.275836 6.59884 0.212061 
-0.453009 -0.247181 6.59188 0.18567 
-0.447758 -0.302067 6.61889 0.191986 
-0.505053 -0.229646 6.54209 0.183549 
-0.509002 -0.25624 6.5501 0.206816 
-0.521991 -0.232278 6.52808 0.174592 
-0.524742 -0.258039 6.53703 0.205923 
-0.511793 -0.283406 6.55989 0.219474 
-0.513812 -0.312631 6.57196 0.232988 
-0.500066 -0.310383 6.58209 0.225293 
-0.497389 -0.28123 6.57159 0.212328 
-0.50437 -0.44467 6.63343 0.158179 
-0.501879 -0.410927 6.61891 0.17796 
-0.494598 -0.375086 6.60806 0.191837 
-0.487056 -0.407391 6.62526 0.171678 
-0.479777 -0.371665 6.61615 0.179761 
-0.4887 -0.441117 6.63863 0.153387 
-0.489564 -0.341284 6.59952 0.198833 
-0.502963 -0.343167 6.58996 0.216882 
-0.507984 -0.37747 6.5999 0.21584 
-0.470961 -0.437814 6.64588 0.127689 
