ply
format ascii 1.0
comment VCGLIB generated
element vertex 1046
property float x
property float y
property float z
property uchar red
property uchar green
property uchar blue
property float quality
end_header
0.059868 -0.129816 0.878582 0 0 143 0.005366
0.057721 -0.128237 0.876856 0 0 158 0.009409
0.064243 -0.132869 0.881983 0 0 128 0.003783
0.056496 -0.130457 0.898042 0 0 189 0.018126
0.054851 -0.129712 0.901178 0 0 189 0.018042
0.052418 -0.128394 0.899457 0 0 189 0.017371
0.053165 -0.129034 0.904354 0 0 189 0.018834
0.050697 -0.127754 0.902644 0 0 189 0.018474
0.048266 -0.126437 0.900953 0 0 189 0.017165
0.045926 -0.124828 0.899125 0 0 174 0.014782
0.050086 -0.126977 0.897690 0 0 189 0.015629
0.047765 -0.125340 0.895864 0 0 174 0.014371
0.051868 -0.127421 0.894459 0 0 174 0.014570
0.054174 -0.128946 0.896241 0 0 189 0.015921
0.049559 -0.125791 0.892637 0 0 128 0.002992
0.037109 -0.119167 0.892803 0 0 250 0.031695
0.039172 -0.120711 0.894398 0 0 174 0.014770
0.041071 -0.121153 0.891127 0 0 204 0.019979
0.038977 -0.119669 0.889540 0 7 255 0.039306
0.043206 -0.122623 0.892723 0 0 158 0.008319
0.042930 -0.121859 0.887960 0 0 204 0.020704
0.045070 -0.123205 0.889521 0 0 158 0.010361
0.046917 -0.123855 0.886390 0 0 158 0.010562
0.040817 -0.120350 0.886384 0 0 255 0.037473
0.044743 -0.122527 0.884831 0 0 204 0.022502
0.042572 -0.121239 0.883298 0 0 255 0.039019
0.047282 -0.124547 0.891105 0 0 143 0.004911
0.049104 -0.125211 0.887953 0 0 143 0.005645
0.045464 -0.124064 0.894297 0 0 128 0.003131
0.043606 -0.123681 0.897567 0 0 128 0.002987
0.041368 -0.122212 0.895965 0 0 143 0.005760
0.044315 -0.121799 0.880160 0 7 255 0.041299
0.046411 -0.122995 0.881692 0 0 219 0.024788
0.048114 -0.123625 0.878577 0 0 250 0.031703
0.045991 -0.122563 0.877045 0 20 255 0.043012
0.050227 -0.124774 0.880101 0 0 189 0.018127
0.049778 -0.124394 0.875478 0 0 234 0.030949
0.051897 -0.125361 0.876981 0 0 204 0.020995
0.053515 -0.126134 0.873868 0 0 219 0.025156
0.047674 -0.123446 0.873948 0 7 255 0.041911
0.051408 -0.125170 0.872346 0 0 234 0.031115
0.049294 -0.124361 0.870822 0 7 255 0.040602
0.053983 -0.126585 0.878510 0 0 174 0.013724
0.055606 -0.127253 0.875375 0 0 189 0.015782
0.052418 -0.125977 0.881618 0 0 158 0.010760
0.050789 -0.125550 0.884767 0 0 158 0.009271
0.048598 -0.124275 0.883226 0 0 174 0.015198
0.095744 -0.143265 0.865449 0 74 255 0.060089
0.094236 -0.143755 0.869909 0 7 255 0.040367
0.092194 -0.142744 0.868147 0 7 255 0.040820
0.090753 -0.143200 0.872602 0 0 219 0.027124
0.092705 -0.144282 0.874229 0 0 234 0.031126
0.088705 -0.142151 0.870851 0 0 219 0.025836
0.089229 -0.143743 0.876943 0 0 204 0.022428
0.087258 -0.142595 0.875305 0 0 204 0.020161
0.085790 -0.143210 0.879623 0 0 204 0.020170
0.091105 -0.144896 0.878477 0 0 234 0.028513
0.087701 -0.144413 0.881172 0 0 219 0.025477
0.089505 -0.145586 0.882651 0 0 250 0.033442
0.085160 -0.141450 0.873584 0 0 189 0.017830
0.083744 -0.141994 0.878015 0 0 189 0.016919
0.081538 -0.140713 0.876356 0 0 174 0.014535
0.082971 -0.140310 0.872117 0 0 189 0.017238
0.086588 -0.141144 0.869340 0 0 219 0.026524
0.084355 -0.139992 0.867749 0 0 219 0.025575
0.087996 -0.140850 0.864952 0 7 255 0.042316
0.090170 -0.141875 0.866582 0 7 255 0.040988
0.091605 -0.141495 0.862219 0 87 255 0.063205
0.085726 -0.139532 0.863312 0 0 255 0.037709
0.089349 -0.140331 0.860526 0 87 255 0.063178
0.087079 -0.138857 0.858849 0 60 255 0.054846
0.093759 -0.142419 0.863882 0 74 255 0.061659
0.087927 -0.145276 0.886425 0 0 219 0.025070
0.086125 -0.144121 0.884800 0 0 204 0.019669
0.084623 -0.143924 0.888624 0 0 189 0.017393
0.086379 -0.145063 0.890185 0 0 219 0.023890
0.082734 -0.142729 0.887016 0 0 174 0.012731
0.083092 -0.143777 0.892430 0 0 189 0.018087
0.081251 -0.142610 0.890837 0 0 174 0.012322
0.084838 -0.144920 0.893976 0 0 219 0.025731
0.079254 -0.141360 0.889173 0 0 158 0.008470
0.077187 -0.140070 0.887627 0 0 143 0.005945
0.080773 -0.141461 0.885522 0 0 158 0.008479
0.078660 -0.140139 0.883937 0 0 143 0.005553
0.082283 -0.141654 0.881796 0 0 158 0.010300
0.084273 -0.142908 0.883314 0 0 174 0.014546
0.080121 -0.140357 0.880185 0 0 158 0.007817
0.068021 -0.134121 0.880109 0 0 128 0.002377
0.070305 -0.135941 0.881989 0 0 143 0.004230
0.071767 -0.135929 0.878330 0 0 128 0.003203
0.069502 -0.134069 0.876485 0 0 128 0.002213
0.074075 -0.137490 0.880196 0 0 143 0.004595
0.073256 -0.135928 0.874613 0 0 128 0.003388
0.075569 -0.137647 0.876453 0 0 143 0.005834
0.077044 -0.137913 0.872651 0 0 158 0.010679
0.071012 -0.134042 0.872788 0 0 128 0.002871
0.074757 -0.136045 0.870815 0 0 143 0.005762
0.072523 -0.134077 0.869000 0 0 128 0.003815
0.077866 -0.139064 0.878319 0 0 143 0.007086
0.079342 -0.139403 0.874519 0 0 174 0.013059
0.076448 -0.138860 0.882110 0 0 143 0.004840
0.075045 -0.138777 0.885854 0 0 143 0.004877
0.072689 -0.137441 0.883947 0 0 143 0.004982
0.074027 -0.133499 0.864900 0 0 143 0.004876
0.076168 -0.135257 0.866490 0 0 143 0.005405
0.077714 -0.134738 0.862281 0 0 158 0.007908
0.075552 -0.132949 0.860682 0 0 143 0.006277
0.079841 -0.136476 0.863924 0 0 174 0.011926
0.079203 -0.134202 0.858021 0 0 174 0.013569
0.081317 -0.136019 0.859682 0 0 204 0.020261
0.082796 -0.135493 0.855391 0 0 250 0.033232
0.077059 -0.132514 0.856365 0 0 158 0.011301
0.080725 -0.133724 0.853722 0 0 219 0.024973
0.078568 -0.132018 0.852032 0 0 204 0.020689
0.083475 -0.137773 0.861357 0 0 234 0.029821
0.084927 -0.137258 0.857086 0 20 255 0.045332
0.082096 -0.138444 0.865831 0 0 204 0.020951
0.080741 -0.138955 0.870217 0 0 174 0.015549
0.078453 -0.137215 0.868334 0 0 158 0.010454
0.074767 -0.131021 0.854872 0 0 174 0.012421
0.073260 -0.131470 0.859175 0 0 158 0.008433
0.070967 -0.130059 0.857648 0 0 174 0.012474
0.071765 -0.132066 0.863375 0 0 143 0.006556
0.069480 -0.130585 0.861846 0 0 158 0.011278
0.068027 -0.131223 0.865914 0 0 158 0.008645
0.070279 -0.132731 0.867452 0 0 143 0.005271
0.067202 -0.129202 0.860284 0 0 189 0.017074
0.065761 -0.129836 0.864329 0 0 174 0.014331
0.063560 -0.128506 0.862722 0 0 204 0.019705
0.065085 -0.127910 0.858878 0 0 219 0.026821
0.068774 -0.128673 0.856311 0 0 204 0.021054
0.066624 -0.127394 0.854913 0 0 219 0.026714
0.070401 -0.128277 0.852211 0 0 204 0.019667
0.072581 -0.129656 0.853528 0 0 189 0.015942
0.074199 -0.129310 0.849350 0 0 204 0.021391
0.068232 -0.126950 0.850864 0 0 219 0.027317
0.072048 -0.127961 0.848008 0 0 219 0.024575
0.069902 -0.126548 0.846724 0 0 234 0.029148
0.076369 -0.130643 0.850681 0 0 204 0.020528
0.068700 -0.132617 0.871188 0 0 143 0.004435
0.067207 -0.132639 0.874837 0 0 128 0.003653
0.064943 -0.131175 0.873197 0 0 143 0.004829
0.065712 -0.132739 0.878432 0 0 128 0.003201
0.063494 -0.131290 0.876772 0 0 143 0.004454
0.061294 -0.129749 0.875082 0 0 158 0.008472
0.059241 -0.128269 0.873457 0 0 174 0.012386
0.062812 -0.129772 0.871604 0 0 158 0.009297
0.060711 -0.128289 0.869974 0 0 189 0.017745
0.064293 -0.129779 0.868008 0 0 158 0.011447
0.066474 -0.131199 0.869605 0 0 143 0.007310
0.062145 -0.128381 0.866405 0 0 189 0.019208
0.050875 -0.124628 0.867475 0 34 255 0.046987
0.052884 -0.125473 0.868963 0 0 255 0.038339
0.054463 -0.125693 0.865550 0 7 255 0.040128
0.052493 -0.124957 0.864106 0 47 255 0.052880
0.056430 -0.126533 0.867004 0 0 250 0.031869
0.056011 -0.125925 0.862092 0 7 255 0.042217
0.057954 -0.126709 0.863511 0 0 255 0.037125
0.059473 -0.126879 0.859944 0 0 255 0.037222
0.054047 -0.125220 0.860653 0 60 255 0.055716
0.057511 -0.126112 0.858554 0 7 255 0.042755
0.055594 -0.125450 0.857166 0 60 255 0.058541
0.059975 -0.127550 0.864945 0 0 219 0.025708
0.061487 -0.127674 0.861339 0 0 234 0.028966
0.058566 -0.127435 0.868500 0 0 219 0.024252
0.057109 -0.127289 0.871973 0 0 204 0.020215
0.054992 -0.126333 0.870476 0 0 234 0.028651
0.057137 -0.124915 0.853587 0 74 255 0.061689
0.058950 -0.125529 0.854836 0 47 255 0.051707
0.060524 -0.124950 0.851116 0 60 255 0.056276
0.058692 -0.124205 0.849913 0 87 255 0.064177
0.062396 -0.125719 0.852313 0 20 255 0.045037
0.062147 -0.124320 0.847336 0 60 255 0.057313
0.064040 -0.125151 0.848454 0 20 255 0.044749
0.065826 -0.124739 0.844493 0 20 255 0.043378
0.060329 -0.123533 0.846193 0 101 255 0.068318
0.063877 -0.123823 0.843441 0 60 255 0.055801
0.062011 -0.122930 0.842345 0 87 255 0.065116
0.066050 -0.126026 0.849598 0 0 255 0.038107
0.067831 -0.125616 0.845601 0 0 255 0.037136
0.064475 -0.126498 0.853605 0 0 255 0.037699
0.062951 -0.127071 0.857527 0 0 250 0.034197
0.060905 -0.126263 0.856185 0 7 255 0.042927
0.098616 -0.015828 0.822720 133 255 115 0.166558
0.102113 -0.015622 0.824196 138 255 109 0.177389
0.101377 -0.019877 0.822510 4 234 244 0.108570
0.106188 -0.015562 0.826471 138 255 109 0.177202
0.105216 -0.019655 0.824237 36 255 211 0.118633
0.109792 -0.019703 0.827005 15 248 233 0.112773
0.111014 -0.016022 0.829894 90 255 157 0.138897
0.104143 -0.024088 0.822702 0 74 255 0.061384
0.108432 -0.023880 0.824749 0 101 255 0.068435
0.107050 -0.028333 0.823175 0 0 250 0.032722
0.103394 -0.028577 0.821824 0 0 204 0.022163
0.100855 -0.024229 0.821473 0 47 255 0.051006
0.100218 -0.028829 0.820659 0 0 189 0.016545
0.097781 -0.024384 0.820397 0 7 255 0.042765
0.098254 -0.020072 0.821415 0 194 255 0.095831
0.095265 -0.020174 0.820299 0 154 255 0.085167
0.097214 -0.028954 0.819495 0 0 174 0.014052
0.094821 -0.024452 0.819171 0 7 255 0.040501
0.094283 -0.028942 0.818108 0 0 174 0.014413
0.095600 -0.015942 0.821639 123 255 125 0.150867
0.114705 -0.016314 0.832183 58 255 190 0.125572
0.118379 -0.016437 0.834405 36 255 211 0.117727
0.117332 -0.020087 0.831558 0 194 255 0.096229
0.121952 -0.016616 0.836423 36 255 211 0.117287
0.120968 -0.020187 0.833603 0 194 255 0.094569
0.124498 -0.020310 0.835524 0 194 255 0.093861
0.125524 -0.016859 0.838370 36 255 211 0.118525
0.119771 -0.023905 0.830992 0 114 255 0.070716
0.123372 -0.023968 0.832882 0 127 255 0.076536
0.122113 -0.027748 0.830515 0 60 255 0.055818
0.118730 -0.027887 0.828865 0 34 255 0.049962
0.116400 -0.023898 0.829240 0 87 255 0.064434
0.115203 -0.027960 0.827148 0 20 255 0.045971
0.112486 -0.023904 0.827022 0 101 255 0.068237
0.113821 -0.019983 0.829561 0 208 255 0.097947
0.111081 -0.028187 0.825005 0 7 255 0.039339
0.114271 -0.046407 0.823567 0 0 128 0.003018
0.110938 -0.046814 0.822159 0 0 128 0.003009
0.112416 -0.042433 0.823792 0 0 128 0.003555
0.109067 -0.042730 0.822490 0 0 143 0.004526
0.107900 -0.046997 0.820792 0 0 128 0.002506
0.110568 -0.038062 0.823787 0 0 128 0.003700
0.106016 -0.042838 0.821242 0 0 143 0.004766
0.107259 -0.038212 0.822499 0 0 128 0.003450
0.104217 -0.038289 0.821396 0 0 143 0.004522
0.105145 -0.047003 0.819574 0 0 128 0.002412
0.103274 -0.042792 0.820039 0 0 143 0.005056
0.102627 -0.046906 0.818271 0 0 128 0.001571
0.108813 -0.033328 0.823597 0 0 158 0.008433
0.105497 -0.033434 0.822396 0 0 143 0.005577
0.113001 -0.032960 0.825388 0 0 174 0.015230
0.116961 -0.032689 0.827269 0 0 204 0.022220
0.114803 -0.037556 0.825610 0 0 143 0.006191
0.118597 -0.037106 0.827221 0 0 158 0.008906
0.120435 -0.032547 0.828869 0 0 219 0.026827
0.116450 -0.041828 0.825556 0 0 143 0.004216
0.100090 -0.046831 0.816976 0 0 128 0.001262
0.100412 -0.042887 0.818598 0 0 143 0.004000
0.097864 -0.042784 0.817276 0 0 128 0.002878
0.097569 -0.046775 0.815619 0 0 128 0.001300
0.098287 -0.038556 0.818654 0 0 143 0.004641
0.095335 -0.042749 0.815993 0 0 128 0.002209
0.095727 -0.038441 0.817337 0 0 128 0.003565
0.093175 -0.038353 0.815998 0 0 128 0.002785
0.095035 -0.046667 0.814283 0 0 128 0.001809
0.092820 -0.042559 0.814504 0 0 128 0.001396
0.092522 -0.046565 0.812820 0 0 128 0.003357
0.096235 -0.033981 0.818500 0 0 143 0.004821
0.093639 -0.033816 0.817231 0 0 143 0.004782
0.099138 -0.033911 0.819920 0 0 143 0.004933
0.102145 -0.033689 0.821159 0 0 143 0.004680
0.101170 -0.038472 0.820064 0 0 143 0.005077
0.094318 -0.051054 0.812990 0 0 128 0.003906
0.096845 -0.051111 0.814374 0 0 128 0.002248
0.096103 -0.055388 0.813091 0 0 143 0.005171
0.099363 -0.051193 0.815769 0 0 128 0.001707
0.098649 -0.055450 0.814415 0 0 128 0.003615
0.101172 -0.055500 0.815726 0 0 128 0.002412
0.101888 -0.051311 0.817055 0 0 128 0.001723
0.097930 -0.059565 0.812997 0 0 158 0.008751
0.100495 -0.059556 0.814241 0 0 143 0.006951
0.099782 -0.063586 0.812701 0 0 189 0.016350
0.097382 -0.063434 0.811675 0 0 189 0.018664
0.095571 -0.059346 0.811834 0 0 158 0.011274
0.094957 -0.063253 0.810715 0 0 189 0.019269
0.093128 -0.059197 0.810796 0 0 174 0.012193
0.093750 -0.055163 0.811901 0 0 143 0.006464
0.091337 -0.054980 0.810788 0 0 143 0.007574
0.092484 -0.063138 0.809681 0 0 204 0.019765
0.090670 -0.059014 0.809724 0 0 174 0.013374
0.089970 -0.063048 0.808712 0 0 204 0.020359
0.091960 -0.050856 0.811759 0 0 143 0.005651
0.104174 -0.051535 0.818242 0 0 128 0.002154
0.106692 -0.051583 0.819579 0 0 128 0.003223
0.105746 -0.055988 0.818035 0 0 128 0.002231
0.109421 -0.051509 0.820931 0 0 143 0.004445
0.108262 -0.055995 0.819381 0 0 128 0.003103
0.110954 -0.055864 0.820836 0 0 143 0.004989
0.112444 -0.051291 0.822292 0 0 143 0.005239
0.107320 -0.060241 0.817619 0 0 128 0.003183
0.109864 -0.060167 0.819020 0 0 128 0.003092
0.108940 -0.064338 0.817026 0 0 158 0.008348
0.106660 -0.064206 0.815913 0 0 158 0.011197
0.105056 -0.060003 0.816487 0 0 143 0.004150
0.104397 -0.063996 0.814761 0 0 174 0.013197
0.102773 -0.059826 0.815345 0 0 143 0.005179
0.103453 -0.055760 0.816876 0 0 128 0.002134
0.102098 -0.063805 0.813747 0 0 174 0.015139
0.104697 -0.081505 0.812940 0 87 255 0.066403
0.103546 -0.077135 0.813045 0 7 255 0.041582
0.100336 -0.080992 0.811606 0 60 255 0.058322
0.102283 -0.072703 0.813100 0 0 219 0.025202
0.099132 -0.076581 0.811546 0 0 255 0.037945
0.097845 -0.072093 0.811404 0 0 219 0.025741
0.095854 -0.080468 0.810298 0 47 255 0.051185
0.101059 -0.068187 0.812915 0 0 189 0.019163
0.103379 -0.068365 0.813921 0 0 189 0.017928
0.105665 -0.068530 0.814927 0 0 174 0.015156
0.104597 -0.072848 0.814007 0 0 219 0.025278
0.106903 -0.072966 0.814929 0 0 219 0.024643
0.107943 -0.068660 0.816012 0 0 174 0.013685
0.105816 -0.077256 0.813914 0 7 255 0.041529
0.094401 -0.076227 0.810048 0 0 250 0.034198
0.091212 -0.080094 0.809009 0 20 255 0.044187
0.092867 -0.071924 0.809824 0 0 204 0.023123
0.089694 -0.075860 0.808690 0 0 234 0.028334
0.088172 -0.071512 0.808241 0 0 204 0.021160
0.086484 -0.079708 0.807801 0 0 255 0.036731
0.091413 -0.067513 0.809311 0 0 204 0.019771
0.093906 -0.067589 0.810270 0 0 189 0.019043
0.096410 -0.067680 0.811077 0 0 204 0.021105
0.095393 -0.071972 0.810655 0 0 219 0.024493
0.107946 -0.120180 0.830982 0 154 255 0.084998
0.106289 -0.123812 0.834854 0 87 255 0.065233
0.104367 -0.123141 0.833285 0 127 255 0.075424
0.102702 -0.126752 0.837285 0 87 255 0.064237
0.104640 -0.127489 0.838813 0 74 255 0.059436
0.100778 -0.125899 0.835694 0 127 255 0.074828
0.101089 -0.130362 0.841275 0 114 255 0.070887
0.099107 -0.129479 0.839724 0 114 255 0.073911
0.097510 -0.133016 0.843716 0 167 255 0.086707
0.103071 -0.131123 0.842847 0 87 255 0.064980
0.099525 -0.133875 0.845282 0 141 255 0.081569
0.101532 -0.134635 0.846798 0 141 255 0.080667
0.097101 -0.128613 0.838210 0 141 255 0.079047
0.095453 -0.132061 0.842289 0 167 255 0.089086
0.093379 -0.131045 0.840809 0 167 255 0.089753
0.095140 -0.127888 0.836968 0 154 255 0.084773
0.096872 -0.124568 0.833224 0 154 255 0.084080
0.100559 -0.121955 0.830763 0 181 255 0.092170
0.104183 -0.119211 0.828423 4 234 244 0.106663
0.098647 -0.121274 0.829566 0 194 255 0.095843
0.100330 -0.117932 0.826009 47 255 201 0.123503
0.100157 -0.136992 0.851518 0 87 255 0.066396
0.098030 -0.136019 0.849625 0 101 255 0.068759
0.096640 -0.138386 0.854352 0 87 255 0.064930
0.098760 -0.139398 0.856165 0 87 255 0.063479
0.094445 -0.137195 0.852554 0 74 255 0.060340
0.095197 -0.140571 0.859153 0 74 255 0.062337
0.093046 -0.139466 0.857404 0 74 255 0.059710
0.097253 -0.141484 0.860841 0 87 255 0.062862
0.090805 -0.138188 0.855633 0 60 255 0.057873
0.088582 -0.136925 0.854289 0 34 255 0.049674
0.092288 -0.136142 0.851098 0 60 255 0.058088
0.090182 -0.135084 0.849701 0 60 255 0.055146
0.093894 -0.134159 0.846648 0 101 255 0.068516
0.095926 -0.135082 0.848107 0 101 255 0.070088
0.091770 -0.133042 0.845245 0 87 255 0.064115
0.080257 -0.130597 0.847689 0 0 219 0.025671
0.082304 -0.132095 0.849045 0 0 234 0.030126
0.083963 -0.130483 0.844833 0 0 255 0.037257
0.081933 -0.129088 0.843417 0 0 250 0.032234
0.085993 -0.131932 0.846188 0 20 255 0.043969
0.085687 -0.128928 0.840569 0 34 255 0.048555
0.087695 -0.130327 0.841968 0 60 255 0.058226
0.089457 -0.128533 0.837824 0 141 255 0.080406
0.083698 -0.127353 0.839283 0 7 255 0.039901
0.087480 -0.127174 0.836410 0 114 255 0.073498
0.085455 -0.125670 0.835100 0 74 255 0.060443
0.089708 -0.131557 0.843457 0 74 255 0.061168
0.091421 -0.129814 0.839270 0 167 255 0.086887
0.088068 -0.133515 0.847925 0 34 255 0.048164
0.086481 -0.135303 0.852533 0 7 255 0.041022
0.084369 -0.133745 0.850773 0 0 255 0.035880
0.087332 -0.122793 0.831672 0 74 255 0.058774
0.089328 -0.124086 0.832578 0 114 255 0.072986
0.091131 -0.121174 0.829177 0 127 255 0.076179
0.089172 -0.120062 0.828202 0 114 255 0.072727
0.093096 -0.122258 0.830225 0 154 255 0.085230
0.092963 -0.118248 0.825875 0 208 255 0.100138
0.094880 -0.119272 0.826895 0 208 255 0.101175
0.096622 -0.116312 0.823631 80 255 168 0.134033
0.091002 -0.117216 0.824825 0 194 255 0.094429
0.094734 -0.115321 0.822618 80 255 168 0.132957
0.092779 -0.114350 0.821572 58 255 190 0.127584
0.096738 -0.120146 0.828084 0 194 255 0.097281
0.098519 -0.117108 0.824823 58 255 190 0.127064
0.095018 -0.123486 0.831678 0 167 255 0.087157
0.093199 -0.126655 0.835447 0 154 255 0.083568
0.091268 -0.125450 0.833965 0 141 255 0.081568
0.136098 -0.046591 0.830901 0 0 174 0.015502
0.135689 -0.042356 0.832074 0 0 204 0.020690
0.131186 -0.046230 0.829492 0 0 158 0.008825
0.135229 -0.037947 0.833263 0 0 250 0.034548
0.130822 -0.041878 0.830613 0 0 174 0.013694
0.130251 -0.037406 0.831661 0 0 219 0.023920
0.126231 -0.045942 0.827967 0 0 143 0.005625
0.134647 -0.033442 0.834360 0 34 255 0.050603
0.133984 -0.028827 0.835658 0 127 255 0.076566
0.136580 -0.029210 0.836614 0 141 255 0.079262
0.137274 -0.033796 0.835360 0 47 255 0.053175
0.139274 -0.029718 0.837585 0 167 255 0.086512
0.139896 -0.034192 0.836209 0 74 255 0.058869
0.137785 -0.038291 0.834181 0 0 255 0.036596
0.140400 -0.038579 0.834937 0 7 255 0.041908
0.141805 -0.030217 0.838632 0 167 255 0.086312
0.142495 -0.034588 0.837129 0 87 255 0.063931
0.144447 -0.030645 0.839677 0 154 255 0.084828
0.138223 -0.042612 0.832915 0 0 219 0.027078
0.123463 -0.045902 0.826983 0 0 143 0.004417
0.125370 -0.041720 0.828815 0 0 158 0.008599
0.122529 -0.041642 0.827765 0 0 143 0.006769
0.120644 -0.045873 0.825950 0 0 128 0.003633
0.124463 -0.037204 0.829466 0 0 189 0.016762
0.119562 -0.041613 0.826657 0 0 143 0.005066
0.121576 -0.037159 0.828377 0 0 174 0.012699
0.117617 -0.046045 0.824928 0 0 128 0.003242
0.123374 -0.032533 0.830042 0 0 250 0.031835
0.125090 -0.028019 0.831786 0 74 255 0.060357
0.126268 -0.032713 0.831205 0 0 255 0.036784
0.128100 -0.028304 0.833179 0 87 255 0.063741
0.129263 -0.032914 0.832484 0 7 255 0.040521
0.127347 -0.037304 0.830587 0 0 204 0.020156
0.131046 -0.028570 0.834463 0 87 255 0.066029
0.128551 -0.017241 0.839793 47 255 201 0.123488
0.131809 -0.017734 0.841523 69 255 179 0.130849
0.130534 -0.021043 0.838280 0 221 255 0.104306
0.134903 -0.018134 0.843140 80 255 168 0.136217
0.133735 -0.021417 0.839848 36 255 211 0.119805
0.136924 -0.021954 0.841528 26 255 222 0.113515
0.138181 -0.018854 0.844890 69 255 179 0.130172
0.132345 -0.024916 0.836906 0 181 255 0.091762
0.135534 -0.025283 0.838482 0 194 255 0.095366
0.129333 -0.024592 0.835604 0 154 255 0.085464
0.126359 -0.024258 0.834291 0 127 255 0.077859
0.127531 -0.020689 0.836962 0 208 255 0.100030
0.141051 -0.019499 0.846263 58 255 190 0.127526
0.144037 -0.020182 0.847845 58 255 190 0.125065
0.142295 -0.023085 0.843818 36 255 211 0.120186
0.146909 -0.020947 0.849377 58 255 190 0.127185
0.145253 -0.023816 0.845289 26 255 222 0.113849
0.148261 -0.024608 0.846979 26 255 222 0.113300
0.149962 -0.021862 0.851001 58 255 190 0.125862
0.143484 -0.026925 0.841794 4 234 244 0.106121
0.146425 -0.027552 0.843210 0 208 255 0.099574
0.140756 -0.026371 0.840642 0 221 255 0.102661
0.138159 -0.025760 0.839454 0 194 255 0.095196
0.139579 -0.022529 0.842725 15 248 233 0.113195
0.115360 -0.051088 0.823568 0 0 143 0.005966
0.118515 -0.050675 0.824839 0 0 143 0.005239
0.116436 -0.055554 0.823363 0 0 143 0.007760
0.121453 -0.050534 0.825873 0 0 143 0.004728
0.119397 -0.055182 0.824546 0 0 143 0.007289
0.122218 -0.055034 0.825519 0 0 143 0.006102
0.124091 -0.050600 0.826849 0 0 143 0.004938
0.117577 -0.059843 0.822734 0 0 143 0.005401
0.120295 -0.059548 0.823879 0 0 143 0.006238
0.118625 -0.064025 0.821864 0 0 143 0.005370
0.116032 -0.064359 0.820618 0 0 143 0.004898
0.114829 -0.060129 0.821509 0 0 143 0.004687
0.113574 -0.064474 0.819415 0 0 143 0.005652
0.112242 -0.060295 0.820170 0 0 128 0.003658
0.113611 -0.055816 0.822031 0 0 143 0.006181
0.111218 -0.064443 0.818260 0 0 143 0.006488
0.129004 -0.050885 0.828454 0 0 143 0.004666
0.126851 -0.055420 0.827094 0 0 143 0.005863
0.131639 -0.055649 0.828612 0 0 143 0.004902
0.133795 -0.051193 0.829892 0 0 143 0.005439
0.127223 -0.059991 0.826245 0 0 143 0.005762
0.127690 -0.064402 0.825186 0 0 143 0.006953
0.123297 -0.064054 0.823649 0 0 143 0.006204
0.120824 -0.082837 0.820495 0 20 255 0.043170
0.120285 -0.078288 0.820879 0 0 204 0.022751
0.116935 -0.082842 0.818497 0 34 255 0.049284
0.119764 -0.073595 0.821293 0 0 174 0.013249
0.116269 -0.078237 0.818833 0 0 219 0.026497
0.115541 -0.073613 0.819169 0 0 174 0.014587
0.113005 -0.082597 0.816463 0 74 255 0.058939
0.119185 -0.068838 0.821687 0 0 158 0.008640
0.123707 -0.068880 0.823463 0 0 158 0.010059
0.124060 -0.073661 0.823068 0 0 174 0.014314
0.112039 -0.078097 0.816776 0 0 250 0.032333
0.108898 -0.082164 0.814595 0 101 255 0.069350
0.111066 -0.073566 0.816993 0 0 189 0.019258
0.112284 -0.069128 0.818191 0 0 158 0.010087
0.114581 -0.069058 0.819406 0 0 158 0.008319
0.113287 -0.073626 0.818087 0 0 174 0.015574
0.094484 -0.110562 0.819569 26 255 222 0.116443
0.098109 -0.107398 0.818410 36 255 211 0.117995
0.099738 -0.103407 0.816599 58 255 190 0.125930
0.103194 -0.099983 0.815881 80 255 168 0.133209
0.099229 -0.098960 0.814200 80 255 168 0.135125
0.103638 -0.104456 0.818341 47 255 201 0.123029
0.107072 -0.100884 0.817640 58 255 190 0.126029
0.105499 -0.105191 0.819502 26 255 222 0.113586
0.101975 -0.108723 0.820373 26 255 222 0.114693
0.103847 -0.109455 0.821509 4 234 244 0.106221
0.100231 -0.112967 0.822477 26 255 222 0.116682
0.098404 -0.112105 0.821429 47 255 201 0.122291
0.102127 -0.113689 0.823718 4 234 244 0.106044
0.100589 -0.094715 0.813824 0 221 255 0.102571
0.104062 -0.090657 0.814125 0 167 255 0.087570
0.105461 -0.086247 0.813928 0 114 255 0.073792
0.109558 -0.086786 0.815609 0 114 255 0.070568
0.108056 -0.091406 0.815833 0 154 255 0.085164
0.106565 -0.095929 0.816236 0 221 255 0.104595
0.119151 -0.087765 0.820462 0 47 255 0.052792
0.115715 -0.092381 0.819643 0 87 255 0.065370
0.114160 -0.097182 0.819964 0 141 255 0.081733
0.110829 -0.101654 0.819558 26 255 222 0.116449
0.114427 -0.102254 0.821575 0 194 255 0.094026
0.110482 -0.096539 0.817997 0 194 255 0.095940
0.111954 -0.091962 0.817732 0 127 255 0.076616
0.113470 -0.087387 0.817504 0 74 255 0.061389
0.112842 -0.106785 0.823661 0 114 255 0.072223
0.109404 -0.110789 0.824690 0 127 255 0.074514
0.107755 -0.115327 0.827112 0 141 255 0.080558
0.109204 -0.105930 0.821423 0 194 255 0.095152
0.155450 -0.116673 0.851457 0 101 255 0.067720
0.155686 -0.113588 0.849073 0 114 255 0.071962
0.152579 -0.117057 0.850613 0 0 255 0.036594
0.156078 -0.110513 0.846675 0 141 255 0.080312
0.152766 -0.113979 0.848171 0 101 255 0.069662
0.153153 -0.110921 0.845734 0 127 255 0.076268
0.149618 -0.117402 0.849745 0 0 250 0.031431
0.156500 -0.107446 0.844239 0 181 255 0.090168
0.156870 -0.104379 0.841757 4 234 244 0.109191
0.159729 -0.104324 0.842833 15 248 233 0.112215
0.159329 -0.107393 0.845285 0 194 255 0.093778
0.158867 -0.110471 0.847690 0 154 255 0.083292
0.149895 -0.114183 0.847171 0 0 250 0.034951
0.146608 -0.117784 0.848767 0 0 234 0.028975
0.150296 -0.110946 0.844576 0 114 255 0.072599
0.146891 -0.114585 0.846159 0 0 250 0.033114
0.147276 -0.111370 0.843538 0 0 255 0.038403
0.143679 -0.118184 0.847770 0 0 219 0.024598
0.150717 -0.107689 0.841974 0 167 255 0.085991
0.151101 -0.104441 0.839359 0 221 255 0.104838
0.154017 -0.104401 0.840559 4 234 244 0.105691
0.153557 -0.107667 0.843149 0 167 255 0.086574
0.159372 -0.088801 0.835414 101 255 147 0.144457
0.158758 -0.092776 0.836948 69 255 179 0.131527
0.162205 -0.089151 0.836614 112 255 136 0.147545
0.158133 -0.096697 0.838519 47 255 201 0.122284
0.161522 -0.093114 0.838152 80 255 168 0.134241
0.160843 -0.097015 0.839725 58 255 190 0.127028
0.157518 -0.100561 0.840120 15 248 233 0.112042
0.154596 -0.100578 0.838918 15 248 233 0.111524
0.155161 -0.096704 0.837334 36 255 211 0.118684
0.161741 -0.100676 0.841822 47 255 201 0.121755
0.151293 -0.049084 0.834672 0 34 255 0.049591
0.152020 -0.045042 0.836575 0 47 255 0.052997
0.147852 -0.048364 0.833828 0 7 255 0.039439
0.152573 -0.040996 0.838480 0 60 255 0.057062
0.148195 -0.044356 0.835528 0 34 255 0.048609
0.148691 -0.040224 0.837379 0 60 255 0.055050
0.144182 -0.047672 0.832924 0 0 255 0.035215
0.153020 -0.036879 0.840456 0 141 255 0.080109
0.153269 -0.032857 0.842743 0 181 255 0.091196
0.157166 -0.033984 0.844061 0 194 255 0.095877
0.156726 -0.037946 0.841623 0 127 255 0.075653
0.156083 -0.042017 0.839439 0 101 255 0.069975
0.144479 -0.043558 0.834539 0 0 255 0.037203
0.140155 -0.047111 0.831927 0 0 204 0.023267
0.144620 -0.039293 0.836125 0 47 255 0.054487
0.146671 -0.035511 0.838508 0 101 255 0.069683
0.148935 -0.031727 0.841218 0 194 255 0.094668
0.152782 -0.025912 0.848730 26 255 222 0.116171
0.153113 -0.029227 0.845539 4 234 244 0.107999
0.161416 -0.051681 0.837330 0 87 255 0.064806
0.160629 -0.047326 0.838878 0 74 255 0.061041
0.158180 -0.050717 0.836390 0 60 255 0.058426
0.157276 -0.046368 0.837965 0 60 255 0.055895
0.154893 -0.049842 0.835606 0 60 255 0.055794
0.159769 -0.042896 0.840579 0 114 255 0.070325
0.162744 -0.084896 0.836256 90 255 157 0.139274
0.098087 -0.147869 0.907572 0 74 255 0.058612
0.096459 -0.146646 0.910551 0 20 255 0.046540
0.094646 -0.146637 0.909207 0 20 255 0.043685
0.093036 -0.145359 0.912214 0 0 255 0.035714
0.094820 -0.145403 0.913544 0 7 255 0.040612
0.091401 -0.145638 0.911077 0 7 255 0.039824
0.091359 -0.144059 0.915221 0 0 234 0.028567
0.089686 -0.144286 0.914064 0 0 250 0.032862
0.087955 -0.142902 0.917050 0 0 219 0.024901
0.093167 -0.144114 0.916553 0 0 250 0.032666
0.089742 -0.142747 0.918271 0 0 204 0.022460
0.091623 -0.142841 0.919628 0 0 234 0.028266
0.088076 -0.144603 0.912986 0 0 255 0.036424
0.086298 -0.143201 0.915978 0 0 234 0.027518
0.084626 -0.143559 0.914907 0 0 250 0.034952
0.086138 -0.144537 0.911851 0 0 255 0.036285
0.089611 -0.145563 0.909990 0 0 255 0.038956
0.087645 -0.145525 0.908829 0 7 255 0.040510
0.091117 -0.146517 0.906994 0 7 255 0.042225
0.092928 -0.146515 0.908099 0 7 255 0.040645
0.094372 -0.147420 0.905089 0 20 255 0.046503
0.089124 -0.146492 0.905786 0 20 255 0.046666
0.092564 -0.147450 0.903966 0 34 255 0.048057
0.090584 -0.147500 0.902762 0 60 255 0.056580
0.096094 -0.147466 0.906217 0 20 255 0.045253
0.090283 -0.141791 0.922056 0 0 219 0.025232
0.088277 -0.141635 0.920955 0 0 204 0.023401
0.086939 -0.140555 0.923396 0 0 204 0.022529
0.088950 -0.140736 0.924494 0 0 219 0.024443
0.084942 -0.140567 0.922377 0 0 204 0.021190
0.085560 -0.139483 0.925845 0 0 204 0.021058
0.083617 -0.139499 0.924885 0 0 204 0.019874
0.087632 -0.139675 0.926948 0 0 204 0.022637
0.081763 -0.139700 0.924044 0 0 189 0.019343
0.080100 -0.140031 0.923049 0 0 219 0.024363
0.083273 -0.140885 0.921353 0 0 204 0.022129
0.081612 -0.141214 0.920327 0 0 234 0.028312
0.084778 -0.142034 0.918647 0 0 204 0.023221
0.086433 -0.141727 0.919691 0 0 204 0.022152
0.083087 -0.142379 0.917579 0 0 234 0.030458
0.074684 -0.138292 0.919699 0 0 174 0.012604
0.076214 -0.139436 0.916877 0 0 174 0.013678
0.078076 -0.140079 0.918155 0 0 189 0.016873
0.077744 -0.140578 0.914076 0 0 174 0.015224
0.079628 -0.141209 0.915351 0 0 189 0.018126
0.081193 -0.142331 0.912584 0 0 204 0.021480
0.079292 -0.141715 0.911288 0 0 189 0.018317
0.081377 -0.141828 0.916526 0 0 219 0.024459
0.082971 -0.142942 0.913776 0 0 219 0.027053
0.079920 -0.140650 0.919292 0 0 204 0.021433
0.078434 -0.139467 0.922046 0 0 189 0.019196
0.076594 -0.138886 0.920921 0 0 174 0.015345
0.080706 -0.142743 0.908199 0 0 204 0.020607
0.082206 -0.143650 0.905167 0 0 204 0.023311
0.084051 -0.144345 0.906400 0 0 234 0.028796
0.083722 -0.144555 0.902124 0 0 219 0.026946
0.085554 -0.145236 0.903361 0 0 250 0.032603
0.087144 -0.146167 0.900351 0 0 255 0.037713
0.085218 -0.145481 0.899045 0 0 250 0.033885
0.087383 -0.145928 0.904586 0 7 255 0.040096
0.088915 -0.146836 0.901572 0 20 255 0.046318
0.085868 -0.144905 0.907619 0 0 250 0.033152
0.084446 -0.143940 0.910716 0 0 234 0.029850
0.082640 -0.143346 0.909494 0 0 204 0.023434
0.150652 -0.053819 0.833925 0 0 250 0.032982
0.150075 -0.058449 0.832973 0 0 234 0.030655
0.154120 -0.054563 0.834735 0 7 255 0.042264
0.153338 -0.059269 0.833744 0 7 255 0.042089
0.149375 -0.063095 0.831826 0 0 255 0.036858
0.149025 -0.067556 0.830615 0 47 255 0.053720
0.145624 -0.066970 0.829740 0 7 255 0.040029
0.146109 -0.062379 0.831083 0 0 219 0.024857
0.146669 -0.057774 0.832243 0 0 204 0.021046
0.142266 -0.066340 0.828923 0 0 234 0.029326
0.157363 -0.055441 0.835593 0 34 255 0.050270
0.156551 -0.060107 0.834628 0 34 255 0.048043
0.160596 -0.056345 0.836425 0 74 255 0.059781
0.159616 -0.060976 0.835346 0 74 255 0.061756
0.155856 -0.064621 0.833507 0 60 255 0.057332
0.155373 -0.069085 0.832358 0 127 255 0.075198
0.152193 -0.068312 0.831463 0 74 255 0.059872
0.152654 -0.063830 0.832650 0 7 255 0.042028
0.147258 -0.086824 0.830332 0 221 255 0.103527
0.147579 -0.082100 0.830307 0 141 255 0.079746
0.144150 -0.086281 0.829133 0 167 255 0.088622
0.148033 -0.077295 0.830369 0 87 255 0.065572
0.144468 -0.081498 0.829206 0 101 255 0.067647
0.144835 -0.076697 0.829300 0 34 255 0.050341
0.141115 -0.085666 0.827958 0 141 255 0.080428
0.148533 -0.072434 0.830495 0 60 255 0.057427
0.151670 -0.073199 0.831431 0 87 255 0.064619
0.151186 -0.078022 0.831392 0 127 255 0.077427
0.141349 -0.080917 0.828119 0 60 255 0.058436
0.137971 -0.085137 0.826806 0 101 255 0.069350
0.141624 -0.076128 0.828355 0 20 255 0.043354
0.138230 -0.080364 0.827073 0 34 255 0.049859
0.138397 -0.075570 0.827417 0 0 250 0.032847
0.134768 -0.084582 0.825624 0 60 255 0.057153
0.141933 -0.071283 0.828646 0 0 250 0.033412
0.145199 -0.071862 0.829535 0 7 255 0.039974
0.146659 -0.091295 0.831768 0 167 255 0.086994
0.150336 -0.087332 0.831626 0 221 255 0.102927
0.146079 -0.095724 0.833279 0 127 255 0.076211
0.149730 -0.091785 0.833125 0 181 255 0.091947
0.149080 -0.096208 0.834666 0 141 255 0.079984
0.153386 -0.087883 0.832893 15 248 233 0.113024
0.145548 -0.100101 0.834916 0 114 255 0.071020
0.144992 -0.104408 0.836651 0 101 255 0.069766
0.141915 -0.104272 0.835235 0 87 255 0.064239
0.142475 -0.099968 0.833484 0 101 255 0.067810
0.142935 -0.095575 0.831865 0 114 255 0.070664
0.138849 -0.104164 0.833760 0 60 255 0.058566
0.152813 -0.092095 0.834422 69 255 179 0.129524
0.156425 -0.088326 0.834176 101 255 147 0.142561
0.152280 -0.096235 0.836017 26 255 222 0.115269
0.155834 -0.092548 0.835745 58 255 190 0.128215
0.151717 -0.100371 0.837682 4 234 244 0.108142
0.148050 -0.104418 0.838037 0 101 255 0.069439
0.148544 -0.100346 0.836307 0 114 255 0.072163
0.143909 -0.114753 0.845017 0 0 219 0.026183
0.140334 -0.118510 0.846628 0 0 204 0.021303
0.144240 -0.111321 0.842227 0 0 250 0.033043
0.140643 -0.115120 0.843829 0 0 204 0.023395
0.141009 -0.111715 0.841000 0 0 250 0.031638
0.137190 -0.118882 0.845491 0 0 189 0.017635
0.144630 -0.107869 0.839432 0 20 255 0.046790
0.147674 -0.107895 0.840773 0 34 255 0.048723
0.137530 -0.115228 0.842593 0 0 189 0.018555
0.134058 -0.119121 0.844347 0 0 174 0.014243
0.137992 -0.111578 0.839619 0 0 219 0.023796
0.134406 -0.115495 0.841385 0 0 189 0.016482
0.134755 -0.111848 0.838350 0 0 204 0.022033
0.130932 -0.119418 0.843160 0 0 174 0.012817
0.138485 -0.107899 0.836676 0 0 255 0.039026
0.141504 -0.108010 0.838109 0 7 255 0.042818
0.132781 -0.089219 0.826054 0 47 255 0.052294
0.129290 -0.093529 0.825986 0 34 255 0.049554
0.127495 -0.098072 0.826639 0 47 255 0.052976
0.124218 -0.102527 0.826726 0 60 255 0.056012
0.127301 -0.102820 0.828233 0 47 255 0.053505
0.124293 -0.097710 0.825219 0 47 255 0.053012
0.121128 -0.102434 0.825227 0 74 255 0.059990
0.126088 -0.093088 0.824657 0 34 255 0.048414
0.127882 -0.088467 0.824208 0 34 255 0.049824
0.131464 -0.084073 0.824473 0 47 255 0.051148
0.128062 -0.083601 0.823300 0 34 255 0.047757
0.125471 -0.107104 0.830550 0 0 255 0.036019
0.122167 -0.111306 0.832235 0 0 219 0.025251
0.120611 -0.115786 0.834836 0 0 204 0.021644
0.117946 -0.120433 0.836758 0 0 250 0.031474
0.120480 -0.120157 0.838288 0 0 204 0.021404
0.117865 -0.116019 0.833271 0 0 234 0.029438
0.114976 -0.120648 0.835113 0 20 255 0.044341
0.119403 -0.111483 0.830660 0 0 250 0.033670
0.120950 -0.106911 0.828217 0 7 255 0.041343
0.111354 -0.115752 0.829344 0 74 255 0.059424
0.112982 -0.111245 0.826917 0 60 255 0.057354
0.116267 -0.106823 0.825562 0 60 255 0.057022
0.117900 -0.102452 0.823401 0 127 255 0.076288
0.116346 -0.111394 0.828856 0 7 255 0.042958
0.114797 -0.115997 0.831427 0 20 255 0.043174
0.111602 -0.120481 0.833021 0 87 255 0.064240
0.117696 -0.097504 0.821831 0 114 255 0.070756
0.119283 -0.092643 0.821440 0 60 255 0.056798
0.122710 -0.087791 0.822072 0 47 255 0.050904
0.124483 -0.083157 0.821927 0 34 255 0.047077
0.122715 -0.092667 0.823166 0 47 255 0.054028
0.121078 -0.097571 0.823619 0 74 255 0.061044
0.135899 -0.089713 0.827298 0 60 255 0.056491
0.133924 -0.094218 0.827920 0 34 255 0.049564
0.137049 -0.094755 0.829220 0 47 255 0.054467
0.139046 -0.090245 0.828558 0 101 255 0.067680
0.133479 -0.098908 0.829360 0 47 255 0.050820
0.133013 -0.103539 0.831008 0 47 255 0.052966
0.130163 -0.103145 0.829642 0 47 255 0.051325
0.130549 -0.098478 0.828044 0 34 255 0.049923
0.142008 -0.090695 0.829811 0 127 255 0.075162
0.139919 -0.095087 0.830524 0 87 255 0.065436
0.139369 -0.099664 0.832046 0 60 255 0.058150
0.136017 -0.103846 0.832409 0 60 255 0.055066
0.136523 -0.099334 0.830729 0 47 255 0.053277
0.131513 -0.115505 0.840114 0 0 189 0.015803
0.128206 -0.119493 0.842094 0 0 174 0.012305
0.132080 -0.111585 0.837031 0 0 204 0.021969
0.128606 -0.115554 0.838986 0 0 174 0.014225
0.129128 -0.111626 0.835823 0 0 204 0.019557
0.125426 -0.119714 0.840906 0 0 174 0.014034
0.132582 -0.107591 0.833973 0 0 250 0.033253
0.135292 -0.107876 0.835307 0 0 255 0.035473
0.125930 -0.115561 0.837654 0 0 174 0.014821
0.122943 -0.119861 0.839602 0 0 189 0.016245
0.126488 -0.111386 0.834368 0 0 204 0.022513
0.123284 -0.115622 0.836284 0 0 189 0.017340
0.128303 -0.107284 0.831917 0 0 250 0.034174
0.137863 -0.051683 0.830905 0 0 158 0.008174
0.135725 -0.056098 0.829667 0 0 143 0.004893
0.139530 -0.056623 0.830595 0 0 143 0.007423
0.141751 -0.052188 0.831872 0 0 174 0.013624
0.135501 -0.060724 0.828634 0 0 143 0.005937
0.135411 -0.065232 0.827330 0 0 158 0.011460
0.131539 -0.064843 0.826244 0 0 158 0.007991
0.131626 -0.060261 0.827605 0 0 143 0.005427
0.145499 -0.052773 0.832752 0 0 204 0.021854
0.143175 -0.057166 0.831457 0 0 158 0.011328
0.142665 -0.061809 0.830279 0 0 189 0.015700
0.138926 -0.065770 0.828200 0 0 189 0.018763
0.139182 -0.061274 0.829517 0 0 158 0.009214
0.134922 -0.079808 0.826038 0 0 255 0.036241
0.135089 -0.075009 0.826502 0 0 219 0.023839
0.131525 -0.079296 0.825002 0 0 234 0.029752
0.131564 -0.074512 0.825459 0 0 189 0.019052
0.135199 -0.070163 0.826961 0 0 189 0.016348
0.138633 -0.070696 0.827863 0 0 219 0.023718
0.128001 -0.078882 0.823842 0 0 219 0.026532
0.127912 -0.074126 0.824353 0 0 189 0.016380
0.124264 -0.078445 0.822498 0 0 219 0.024115
0.127785 -0.069307 0.824801 0 0 158 0.010707
0.131525 -0.069732 0.825893 0 0 174 0.012869
0.162172 -0.066322 0.835419 0 221 255 0.103690
0.161665 -0.070717 0.834409 36 255 211 0.119151
0.158539 -0.069897 0.833407 0 167 255 0.087149
0.159030 -0.065448 0.834408 0 101 255 0.070075
0.159902 -0.084351 0.835104 80 255 168 0.134037
0.160510 -0.079852 0.834843 58 255 190 0.125745
0.156838 -0.083887 0.833878 69 255 179 0.130024
0.157378 -0.079377 0.833647 58 255 190 0.125269
0.161076 -0.075289 0.834601 47 255 201 0.124748
0.153852 -0.083277 0.832692 0 194 255 0.097461
0.154379 -0.078560 0.832568 0 167 255 0.086818
0.150766 -0.082703 0.831502 0 167 255 0.087035
0.154911 -0.073824 0.832475 0 141 255 0.078362
0.158039 -0.074626 0.833542 47 255 201 0.121622
0.109556 -0.145160 0.870397 0 60 255 0.055319
0.108037 -0.145979 0.874895 0 0 255 0.038183
0.106641 -0.146014 0.874426 0 7 255 0.041430
0.105090 -0.146757 0.878949 0 0 250 0.031734
0.106511 -0.146729 0.879376 0 0 234 0.028642
0.103573 -0.146791 0.878529 0 0 255 0.035707
0.103482 -0.147481 0.883455 0 0 234 0.028623
0.102028 -0.147528 0.883103 0 0 250 0.031432
0.100414 -0.148322 0.887634 0 0 255 0.036922
0.104920 -0.147482 0.883832 0 0 219 0.026405
0.101879 -0.148321 0.887932 0 0 250 0.034671
0.103317 -0.148365 0.888255 0 0 250 0.033177
0.100394 -0.147489 0.882753 0 0 250 0.034235
0.098812 -0.148241 0.887315 0 7 255 0.039367
0.097026 -0.148133 0.886911 0 7 255 0.042546
0.098661 -0.147350 0.882485 0 0 255 0.035786
0.102037 -0.146756 0.878315 0 0 255 0.036305
0.100298 -0.146609 0.878052 0 0 255 0.037320
0.103636 -0.145999 0.873910 0 20 255 0.043574
0.105185 -0.146022 0.874160 0 20 255 0.043916
0.106734 -0.145219 0.869766 0 74 255 0.059245
0.101916 -0.145891 0.873592 0 20 255 0.044803
0.105217 -0.145260 0.869458 0 74 255 0.061131
0.103450 -0.145168 0.869097 0 74 255 0.060994
0.108167 -0.145173 0.870070 0 60 255 0.055203
0.101992 -0.147862 0.893109 0 0 204 0.021401
0.100319 -0.148158 0.891872 0 0 234 0.028872
0.098939 -0.147721 0.896687 0 0 219 0.025053
0.100649 -0.147593 0.897926 0 0 204 0.021112
0.097231 -0.147964 0.895525 0 0 250 0.032224
0.097459 -0.147486 0.901441 0 0 234 0.030374
0.095769 -0.147601 0.900316 0 0 250 0.034125
0.099353 -0.147613 0.902740 0 0 250 0.031887
0.094005 -0.147771 0.899197 0 7 255 0.042478
0.092254 -0.147564 0.898881 0 7 255 0.042187
0.095669 -0.147863 0.895285 0 0 250 0.034826
0.093866 -0.147684 0.894923 0 0 255 0.037399
0.097251 -0.148011 0.891319 0 0 250 0.032873
0.098840 -0.148101 0.891609 0 0 234 0.030136
0.095455 -0.147861 0.890948 0 0 255 0.035739
0.086759 -0.145606 0.894992 0 0 234 0.027630
0.088348 -0.145769 0.891292 0 0 219 0.024836
0.090249 -0.146445 0.892339 0 0 234 0.027694
0.089934 -0.145990 0.887541 0 0 219 0.025603
0.091864 -0.146663 0.888616 0 0 234 0.028167
0.093443 -0.146932 0.884852 0 0 250 0.034877
0.091493 -0.146280 0.883738 0 0 250 0.032845
0.093687 -0.147298 0.889644 0 0 234 0.031029
0.095276 -0.147542 0.885896 0 0 255 0.038293
0.092130 -0.147079 0.893662 0 0 250 0.031338
0.090534 -0.146925 0.897642 0 0 255 0.036655
0.088699 -0.146264 0.896340 0 0 234 0.030577
0.093084 -0.145559 0.879274 0 0 234 0.029684
0.094723 -0.144909 0.875066 0 0 250 0.032072
0.096630 -0.145499 0.875873 0 0 250 0.034288
0.096310 -0.144294 0.870829 0 7 255 0.039529
0.098277 -0.144866 0.871680 0 7 255 0.041939
0.099837 -0.144243 0.867415 0 60 255 0.057257
0.097864 -0.143758 0.866470 0 60 255 0.058370
0.100155 -0.145399 0.872477 0 20 255 0.043910
0.101725 -0.144722 0.868257 0 74 255 0.061284
0.098577 -0.146102 0.877001 0 0 250 0.035058
0.096963 -0.146812 0.881484 0 0 250 0.031966
0.095052 -0.146186 0.880365 0 0 234 0.031166
0.099316 -0.141846 0.861741 0 60 255 0.057678
0.100829 -0.139748 0.857191 0 60 255 0.058465
0.102746 -0.139992 0.858148 0 47 255 0.053774
0.102270 -0.137407 0.852577 0 74 255 0.062002
0.104203 -0.137646 0.853663 0 60 255 0.056969
0.105617 -0.135276 0.849082 0 87 255 0.064083
0.103613 -0.135001 0.847958 0 114 255 0.071273
0.106070 -0.137923 0.854644 0 47 255 0.052366
0.107505 -0.135510 0.850151 0 74 255 0.060211
0.109214 -0.135667 0.851186 0 47 255 0.054142
0.107892 -0.138300 0.855749 0 34 255 0.048504
0.104729 -0.140444 0.859226 0 47 255 0.054366
0.106529 -0.140796 0.860273 0 34 255 0.049884
0.103288 -0.142654 0.863805 0 47 255 0.051768
0.101400 -0.142252 0.862817 0 47 255 0.053643
0.105012 -0.143049 0.864722 0 47 255 0.053107
0.108428 -0.127794 0.840849 0 20 255 0.043322
0.110003 -0.124110 0.836888 0 20 255 0.045869
0.113467 -0.124477 0.839103 0 0 250 0.032330
0.110297 -0.128036 0.841971 0 0 255 0.036975
0.112033 -0.128236 0.843136 0 0 250 0.031567
0.108873 -0.131827 0.846079 0 20 255 0.043324
0.107004 -0.131608 0.844912 0 34 255 0.050139
0.110563 -0.131998 0.847173 0 0 255 0.037178
0.119046 -0.123968 0.842181 0 0 174 0.012529
0.116339 -0.127844 0.845383 0 0 189 0.015872
0.115033 -0.131610 0.849243 0 0 204 0.021610
0.112438 -0.135503 0.852427 0 7 255 0.040900
0.115037 -0.135273 0.853512 0 0 250 0.033996
0.116428 -0.124205 0.840722 0 0 204 0.019531
0.113769 -0.137962 0.857819 0 0 250 0.033537
0.112407 -0.138016 0.857350 0 0 255 0.035594
0.111084 -0.140582 0.861634 0 0 255 0.038978
0.112398 -0.140484 0.862059 0 0 255 0.037132
0.109696 -0.140682 0.861208 0 7 255 0.042755
0.109652 -0.142924 0.865891 0 20 255 0.044554
0.108222 -0.143008 0.865519 0 20 255 0.046859
0.110984 -0.142861 0.866249 0 7 255 0.041064
0.114607 -0.139771 0.862462 0 0 219 0.026682
0.116027 -0.137225 0.858302 0 0 204 0.023337
0.117379 -0.134554 0.854040 0 0 219 0.023759
0.119887 -0.133951 0.854623 0 0 189 0.018463
0.118722 -0.136535 0.858628 0 0 189 0.018851
0.117459 -0.139021 0.862511 0 0 204 0.021926
0.114785 -0.141729 0.866376 0 0 234 0.028626
0.112177 -0.144371 0.870239 0 20 255 0.043008
0.115038 -0.143707 0.870186 0 0 255 0.036109
0.117336 -0.131262 0.850303 0 0 174 0.014870
0.118646 -0.127478 0.846585 0 0 158 0.009812
0.121270 -0.123514 0.843404 0 0 158 0.009603
0.123903 -0.123172 0.844456 0 0 158 0.008493
0.121052 -0.126973 0.847499 0 0 143 0.006982
0.119787 -0.130611 0.850950 0 0 158 0.010179
0.129409 -0.122561 0.846393 0 0 158 0.007852
0.126610 -0.126062 0.849290 0 0 143 0.006022
0.125316 -0.129365 0.852351 0 0 143 0.007034
0.122698 -0.133101 0.855131 0 0 174 0.013844
0.125620 -0.132433 0.855569 0 0 174 0.013954
0.122439 -0.130095 0.851809 0 0 158 0.007973
0.123778 -0.126510 0.848454 0 0 143 0.006260
0.126620 -0.122886 0.845590 0 0 143 0.007399
0.124616 -0.134890 0.859147 0 0 174 0.013669
0.121982 -0.137772 0.862784 0 0 189 0.015630
0.121002 -0.140158 0.866309 0 0 204 0.021782
0.118317 -0.142856 0.869942 0 0 250 0.031753
0.121716 -0.142135 0.869695 0 0 250 0.031857
0.117639 -0.141013 0.866528 0 0 204 0.022980
0.121526 -0.135720 0.859019 0 0 174 0.013764
0.124255 -0.139394 0.866544 0 0 204 0.020924
0.125216 -0.136942 0.863041 0 0 174 0.014655
0.127688 -0.134086 0.859832 0 0 174 0.011962
0.128681 -0.131628 0.856300 0 0 174 0.012618
0.131822 -0.130973 0.856981 0 0 174 0.014119
0.130882 -0.133329 0.860310 0 0 174 0.012580
0.128325 -0.136116 0.863483 0 0 174 0.013646
0.127452 -0.138523 0.866764 0 0 204 0.019782
0.124941 -0.141270 0.869940 0 0 234 0.028462
0.128211 -0.140539 0.870154 0 0 234 0.030368
0.128316 -0.128853 0.853149 0 0 143 0.007455
0.129582 -0.125569 0.850125 0 0 143 0.005887
0.132551 -0.122235 0.847557 0 0 143 0.007656
0.135726 -0.121826 0.848502 0 0 158 0.009188
0.132737 -0.125096 0.851065 0 0 143 0.006716
0.131465 -0.128163 0.853898 0 0 158 0.008096
0.142167 -0.120990 0.850584 0 0 174 0.015576
0.139075 -0.124155 0.852880 0 0 174 0.011900
0.137771 -0.127047 0.855558 0 0 174 0.012393
0.134977 -0.130307 0.857791 0 0 174 0.014849
0.138183 -0.129712 0.858571 0 0 189 0.019306
0.134581 -0.127662 0.854764 0 0 158 0.009585
0.135910 -0.124619 0.851971 0 0 143 0.007655
0.138908 -0.121479 0.849596 0 0 174 0.013252
0.137124 -0.131957 0.861701 0 0 189 0.017151
0.134582 -0.134647 0.864594 0 0 189 0.017340
0.133641 -0.136963 0.867743 0 0 204 0.023062
0.131181 -0.139690 0.870636 0 0 234 0.029831
0.134182 -0.138923 0.871094 0 0 250 0.031531
0.130597 -0.137787 0.867239 0 0 204 0.020719
0.131470 -0.135383 0.863956 0 0 174 0.014725
0.133987 -0.132666 0.861064 0 0 174 0.015198
0.136590 -0.136284 0.868341 0 0 219 0.023980
0.137587 -0.133929 0.865233 0 0 189 0.019171
0.140086 -0.131339 0.862480 0 0 189 0.019129
0.141086 -0.129072 0.859334 0 0 204 0.020280
0.144014 -0.128462 0.860063 0 0 204 0.022828
0.142940 -0.130628 0.863106 0 0 204 0.021864
0.140502 -0.133242 0.865888 0 0 204 0.022650
0.139379 -0.135500 0.868876 0 0 219 0.025699
0.136917 -0.138161 0.871615 0 0 250 0.032185
0.139745 -0.137436 0.872147 0 0 250 0.032481
0.140886 -0.126577 0.856430 0 0 174 0.014859
0.142215 -0.123660 0.853782 0 0 174 0.013593
0.145120 -0.120613 0.851555 0 0 204 0.020037
0.148100 -0.120110 0.852402 0 0 219 0.023661
0.145219 -0.123173 0.854634 0 0 204 0.020112
0.143852 -0.125934 0.857206 0 0 189 0.018422
0.153883 -0.119279 0.853983 0 74 255 0.062204
0.150970 -0.122221 0.856130 0 0 234 0.027652
0.149647 -0.124913 0.858637 0 0 219 0.025267
0.146858 -0.127921 0.860730 0 0 219 0.025671
0.149724 -0.127387 0.861368 0 0 234 0.028543
0.146760 -0.125475 0.857962 0 0 204 0.021484
0.148136 -0.122687 0.855419 0 0 204 0.020996
0.150948 -0.119764 0.853211 0 0 234 0.027846
0.148568 -0.129503 0.864309 0 0 219 0.027170
0.146023 -0.132026 0.866978 0 0 219 0.027320
0.144881 -0.134257 0.869901 0 0 234 0.031109
0.142446 -0.136831 0.872639 0 0 250 0.034641
0.145255 -0.136246 0.873120 0 0 255 0.037649
0.142147 -0.134893 0.869429 0 0 219 0.026534
0.143302 -0.132602 0.866449 0 0 219 0.023846
0.145733 -0.130107 0.863739 0 0 204 0.023109
0.147814 -0.133846 0.870401 0 0 250 0.035043
0.148905 -0.131546 0.867466 0 0 234 0.030838
0.151556 -0.129199 0.864805 0 0 250 0.033343
0.152693 -0.127045 0.861875 0 0 255 0.035683
0.151843 -0.131207 0.867870 0 0 255 0.035946
0.150692 -0.133471 0.870728 0 7 255 0.039992
0.148091 -0.135931 0.873451 0 20 255 0.046093
0.152570 -0.124553 0.859266 0 0 234 0.029433
0.153908 -0.121827 0.856793 0 0 250 0.031452
0.156928 -0.119061 0.854681 0 101 255 0.067232
0.158500 -0.113591 0.849998 0 127 255 0.077906
0.089093 -0.116089 0.823748 0 167 255 0.089171
0.087227 -0.118876 0.827073 0 101 255 0.068330
0.085226 -0.117646 0.826004 0 74 255 0.061848
0.085349 -0.121706 0.830468 0 60 255 0.057672
0.083347 -0.120489 0.829383 0 47 255 0.054523
0.081396 -0.123202 0.832897 0 20 255 0.045687
0.083495 -0.124391 0.834006 0 47 255 0.051299
0.081370 -0.119195 0.828385 0 20 255 0.045271
0.079458 -0.121973 0.831796 0 20 255 0.046674
0.077480 -0.120739 0.830728 0 20 255 0.043153
0.081226 -0.115627 0.824403 0 47 255 0.053923
0.085134 -0.114109 0.822028 0 141 255 0.078276
0.088899 -0.112500 0.819881 15 248 233 0.111772
0.084873 -0.110551 0.818365 0 208 255 0.098878
0.081561 -0.126032 0.837922 0 0 255 0.036471
0.079799 -0.127723 0.842061 0 0 234 0.028033
0.077677 -0.126346 0.840722 0 0 219 0.027202
0.078089 -0.129264 0.846329 0 0 204 0.023338
0.075907 -0.127856 0.845016 0 0 219 0.024889
0.073789 -0.126516 0.843662 0 0 219 0.026147
0.071725 -0.125215 0.842598 0 0 234 0.028767
0.075625 -0.125073 0.839632 0 0 219 0.025502
0.073651 -0.123882 0.838525 0 0 234 0.028929
0.077492 -0.123544 0.835678 0 0 250 0.033173
0.079505 -0.124792 0.836799 0 0 250 0.032915
0.075572 -0.122312 0.834597 0 0 250 0.031896
0.063867 -0.121481 0.838482 0 87 255 0.065667
0.067704 -0.120918 0.835469 0 47 255 0.052542
0.069657 -0.119502 0.831681 0 20 255 0.045954
0.073549 -0.118858 0.828869 0 34 255 0.047752
0.069659 -0.117034 0.827095 0 47 255 0.051568
0.073504 -0.121307 0.833556 0 0 255 0.036215
0.071594 -0.122878 0.837465 0 0 255 0.035270
0.069662 -0.124303 0.841501 0 0 255 0.037734
0.067638 -0.123319 0.840454 0 20 255 0.044197
0.071431 -0.114618 0.824150 0 34 255 0.049421
0.075171 -0.112922 0.821972 0 47 255 0.052657
0.076963 -0.110552 0.819125 0 87 255 0.063655
