ply
format ascii 1.0
comment VCGLIB generated
element vertex 1008
property float x
property float y
property float z
property uchar red
property uchar green
property uchar blue
property float quality
end_header
-0.174356 -0.088601 0.832403 136 255 112 0.076506
-0.175039 -0.086050 0.833814 134 255 113 0.073830
-0.169262 -0.097184 0.828722 129 255 118 0.058907
-0.170805 -0.094944 0.830744 129 255 118 0.061617
-0.169294 -0.097078 0.833198 128 255 120 0.056621
-0.172223 -0.092686 0.832725 133 255 115 0.067671
-0.170716 -0.094811 0.835184 128 255 120 0.055212
-0.172018 -0.092547 0.837102 129 255 118 0.058620
-0.169145 -0.096983 0.837578 128 255 120 0.055157
-0.173453 -0.090426 0.834729 133 255 115 0.067530
-0.173085 -0.090857 0.830415 134 255 113 0.073056
-0.171603 -0.093169 0.828408 131 255 117 0.065082
-0.168841 -0.097081 0.840501 128 255 120 0.055765
-0.170959 -0.094435 0.839544 129 255 118 0.061769
-0.170477 -0.094572 0.842451 128 255 120 0.057516
-0.168374 -0.097248 0.843322 129 255 118 0.058640
-0.172496 -0.091893 0.841531 131 255 117 0.065922
-0.169723 -0.094797 0.845294 128 255 120 0.055530
-0.171771 -0.092054 0.844368 128 255 120 0.057973
-0.167714 -0.097546 0.846168 129 255 118 0.061611
-0.173769 -0.089335 0.843446 133 255 115 0.066525
-0.173546 -0.089998 0.839110 129 255 118 0.061036
-0.166794 -0.099490 0.830197 69 255 179 0.043993
-0.165339 -0.101387 0.827547 36 255 211 0.041662
-0.164369 -0.101759 0.831532 0 194 255 0.032835
-0.162898 -0.103596 0.828886 0 194 255 0.032809
-0.160501 -0.105769 0.830142 0 154 255 0.030238
-0.161360 -0.105452 0.826160 0 194 255 0.033276
-0.161924 -0.104001 0.832848 0 114 255 0.026903
-0.159514 -0.106217 0.834097 0 154 255 0.027683
-0.164524 -0.101662 0.835933 4 234 244 0.035926
-0.166979 -0.099332 0.834572 36 255 211 0.042650
-0.159152 -0.107273 0.824836 0 114 255 0.026840
-0.155821 -0.109450 0.824986 0 74 255 0.020704
-0.153754 -0.111146 0.823459 0 34 255 0.018800
-0.150572 -0.113133 0.823409 0 34 255 0.017703
-0.152923 -0.112464 0.820299 0 74 255 0.021400
-0.151405 -0.111890 0.826603 0 34 255 0.015758
-0.148276 -0.113805 0.826545 0 34 255 0.015956
-0.154234 -0.109953 0.828584 0 34 255 0.019040
-0.157093 -0.107986 0.830420 0 74 255 0.020674
-0.146134 -0.113485 0.833906 0 0 255 0.013914
-0.149416 -0.111754 0.836263 0 0 255 0.015158
-0.150506 -0.111203 0.834238 0 0 255 0.014195
-0.152712 -0.109914 0.838440 0 74 255 0.020933
-0.153817 -0.109313 0.836403 0 34 255 0.017733
-0.157129 -0.107304 0.838403 0 114 255 0.025506
-0.155934 -0.107924 0.840471 0 154 255 0.028037
-0.155019 -0.108775 0.834294 0 34 255 0.017520
-0.158389 -0.106716 0.836263 0 114 255 0.024604
-0.152113 -0.110684 0.832421 0 34 255 0.015653
-0.149322 -0.112487 0.830440 0 0 255 0.015372
-0.147698 -0.112952 0.832214 0 0 255 0.013628
-0.145048 -0.114647 0.830114 0 0 255 0.015476
-0.146668 -0.114234 0.828369 0 0 255 0.015441
-0.143486 -0.115097 0.831773 0 0 255 0.014482
-0.158204 -0.105769 0.841520 0 114 255 0.024287
-0.161608 -0.103094 0.843140 0 194 255 0.032945
-0.161892 -0.102837 0.840332 0 114 255 0.026048
-0.164783 -0.100339 0.844691 69 255 179 0.046279
-0.165254 -0.100071 0.841871 36 255 211 0.039350
-0.165616 -0.099882 0.838980 0 194 255 0.035031
-0.163264 -0.102225 0.838118 0 154 255 0.029705
-0.160844 -0.104517 0.837235 0 114 255 0.026172
-0.159497 -0.105126 0.839423 0 114 255 0.025270
-0.141137 -0.116180 0.829494 0 0 255 0.012585
-0.142731 -0.115832 0.827865 0 0 255 0.013871
-0.140458 -0.117062 0.825521 0 0 219 0.011582
-0.144336 -0.115526 0.826121 0 0 255 0.013662
-0.142114 -0.116765 0.823811 0 0 219 0.011674
-0.143742 -0.116399 0.822041 0 0 219 0.011388
-0.145961 -0.115100 0.824325 0 0 255 0.013547
-0.139967 -0.118044 0.821405 0 0 219 0.010749
-0.141636 -0.117756 0.819643 0 0 219 0.010667
-0.139619 -0.119124 0.817117 0 0 219 0.010779
-0.137595 -0.119484 0.818575 0 0 219 0.010232
-0.137941 -0.118354 0.822823 0 0 219 0.010750
-0.135566 -0.119781 0.820029 0 0 219 0.009773
-0.135924 -0.118589 0.824166 0 0 219 0.010566
-0.138492 -0.117354 0.826886 0 0 219 0.010744
-0.133556 -0.119926 0.821467 0 0 219 0.010103
-0.148729 -0.114327 0.821492 0 0 255 0.014450
-0.146941 -0.115568 0.819478 0 0 255 0.014167
-0.149298 -0.115037 0.816364 0 74 255 0.022713
-0.151061 -0.113780 0.818384 0 114 255 0.023958
-0.146416 -0.116599 0.815820 0 74 255 0.022734
-0.145989 -0.117622 0.812035 0 74 255 0.023419
-0.142778 -0.118351 0.814585 0 34 255 0.019038
-0.140727 -0.121237 0.801855 0 74 255 0.020829
-0.140305 -0.120872 0.805689 0 74 255 0.020030
-0.137048 -0.122334 0.803955 0 34 255 0.019053
-0.139974 -0.120399 0.809571 0 34 255 0.018781
-0.136682 -0.121874 0.807792 0 34 255 0.018948
-0.136402 -0.121361 0.811627 0 34 255 0.018332
-0.133426 -0.123411 0.806046 0 74 255 0.019777
-0.139790 -0.119809 0.813356 0 34 255 0.019401
-0.142955 -0.118997 0.810835 0 74 255 0.020221
-0.143243 -0.119609 0.806965 0 74 255 0.020904
-0.131115 -0.123920 0.807338 0 0 255 0.011753
-0.132831 -0.122798 0.810408 0 0 219 0.010917
-0.130585 -0.123193 0.811663 0 0 219 0.010929
-0.128876 -0.124373 0.808595 0 0 255 0.012877
-0.132314 -0.121987 0.814673 0 0 219 0.010053
-0.128399 -0.123479 0.812931 0 0 219 0.011396
-0.130116 -0.122248 0.815954 0 0 219 0.010039
-0.126733 -0.124753 0.809953 0 0 255 0.013199
-0.131905 -0.120959 0.818952 0 0 219 0.009155
-0.133900 -0.120887 0.817409 0 0 219 0.009849
-0.135945 -0.120605 0.815890 0 0 219 0.009774
-0.134363 -0.121718 0.813177 0 0 219 0.009905
-0.098168 -0.020984 0.787658 0 0 174 0.006605
-0.099015 -0.022592 0.785720 0 0 219 0.008043
-0.100823 -0.021623 0.788665 0 0 174 0.006761
-0.101780 -0.023259 0.786686 0 0 219 0.008703
-0.104565 -0.023937 0.787647 0 0 219 0.009655
-0.102743 -0.024924 0.784681 0 0 219 0.010691
-0.103565 -0.022322 0.789674 0 0 174 0.007162
-0.106329 -0.023048 0.790760 0 0 174 0.007387
-0.102816 -0.020431 0.792387 0 0 174 0.005058
-0.100175 -0.019738 0.791299 0 0 174 0.005396
-0.105233 -0.025661 0.785467 0 0 219 0.011095
-0.107709 -0.026377 0.786255 0 0 255 0.011923
-0.110951 -0.028698 0.785475 0 114 255 0.026687
-0.107775 -0.028246 0.783409 0 0 255 0.014063
-0.112509 -0.028008 0.787996 0 34 255 0.017743
-0.109501 -0.025488 0.789328 0 0 219 0.009810
-0.107051 -0.024705 0.788488 0 0 219 0.009632
-0.116375 -0.027580 0.792917 0 0 255 0.013493
-0.113907 -0.026376 0.792270 0 0 255 0.014581
-0.113498 -0.024843 0.794732 0 0 174 0.005437
-0.111411 -0.025245 0.791694 0 0 174 0.007764
-0.110937 -0.023681 0.794202 0 0 174 0.005425
-0.108424 -0.022551 0.793702 0 0 174 0.005588
-0.110518 -0.022099 0.796693 0 0 174 0.004276
-0.108821 -0.020660 0.797854 0 0 128 0.003146
-0.106066 -0.019528 0.797108 0 0 128 0.003247
-0.104470 -0.018045 0.798198 0 0 128 0.003253
-0.102203 -0.018846 0.794660 0 0 174 0.004167
-0.105609 -0.021490 0.793014 0 0 174 0.005276
-0.121775 -0.039663 0.780185 0 114 255 0.024557
-0.121540 -0.037513 0.782720 0 114 255 0.023527
-0.121318 -0.035511 0.785266 0 74 255 0.023329
-0.124288 -0.038177 0.784427 0 114 255 0.024090
-0.118335 -0.033103 0.786120 0 74 255 0.022139
-0.118491 -0.034896 0.783492 0 114 255 0.023993
-0.118633 -0.036930 0.780849 0 114 255 0.024780
-0.116216 -0.034069 0.782756 0 114 255 0.023651
-0.124529 -0.036603 0.787033 0 74 255 0.022538
-0.124776 -0.035265 0.789594 0 74 255 0.021130
-0.127559 -0.037755 0.788672 0 74 255 0.021975
-0.121930 -0.032851 0.790645 0 74 255 0.019561
-0.121636 -0.034139 0.787910 0 74 255 0.021621
-0.115900 -0.028898 0.789924 0 74 255 0.023365
-0.115421 -0.030402 0.786973 0 114 255 0.024915
-0.118756 -0.031532 0.788859 0 74 255 0.021714
-0.119183 -0.030074 0.791660 0 74 255 0.020816
-0.114050 -0.031013 0.784774 0 114 255 0.026303
-0.112484 -0.031801 0.782256 0 154 255 0.027674
-0.137269 -0.034838 0.807853 0 0 128 0.003473
-0.139434 -0.035710 0.810203 0 0 128 0.002800
-0.141579 -0.036498 0.812523 0 0 128 0.003075
-0.141627 -0.038134 0.809511 0 0 128 0.003546
-0.139278 -0.034072 0.813240 0 0 128 0.002163
-0.136604 -0.031345 0.813900 0 0 128 0.002292
-0.137017 -0.033094 0.810895 0 0 128 0.002768
-0.134356 -0.030406 0.811498 0 0 128 0.003633
-0.144427 -0.040349 0.810433 0 0 174 0.004416
-0.144478 -0.038911 0.813423 0 0 174 0.004523
-0.146502 -0.041316 0.812462 0 0 174 0.005774
-0.148508 -0.043691 0.811475 0 0 174 0.005946
-0.146565 -0.039856 0.815380 0 0 174 0.005176
-0.144445 -0.037463 0.816295 0 0 174 0.004139
-0.141446 -0.035012 0.815419 0 0 128 0.002503
-0.141295 -0.033215 0.818640 0 0 128 0.002418
-0.138107 -0.030107 0.819528 0 0 128 0.001835
-0.138864 -0.032094 0.816370 0 0 128 0.002027
-0.144438 -0.035660 0.819409 0 0 128 0.003553
-0.134054 -0.028062 0.816608 0 0 128 0.001635
-0.130338 -0.025639 0.815423 0 0 128 0.001968
-0.125745 -0.029079 0.801773 0 0 128 0.003205
-0.127362 -0.028696 0.804730 0 0 128 0.003242
-0.128878 -0.028296 0.807604 0 0 128 0.003452
-0.129981 -0.030835 0.804364 0 0 128 0.003331
-0.126229 -0.026342 0.808061 0 0 128 0.002274
-0.123387 -0.024269 0.808458 0 0 128 0.001484
-0.124559 -0.026643 0.805112 0 0 128 0.002445
-0.121717 -0.024588 0.805514 0 0 128 0.001994
-0.132869 -0.032278 0.805858 0 0 128 0.003265
-0.132364 -0.030205 0.808989 0 0 128 0.003242
-0.134885 -0.032518 0.808444 0 0 128 0.003204
-0.131380 -0.028007 0.812069 0 0 128 0.002743
-0.128004 -0.026247 0.810814 0 0 128 0.002105
-0.125685 -0.022383 0.815569 0 0 128 0.000980
-0.127068 -0.023999 0.814208 0 0 128 0.001438
-0.123596 -0.022240 0.812944 0 0 128 0.001109
-0.122251 -0.020655 0.814349 0 0 128 0.000830
-0.124980 -0.023783 0.811554 0 0 128 0.001524
-0.119157 -0.019522 0.812739 0 0 128 0.000827
-0.120624 -0.021130 0.811338 0 0 128 0.000914
-0.117423 -0.019938 0.809684 0 0 128 0.000917
-0.115999 -0.018310 0.811069 0 0 128 0.000897
-0.120510 -0.022133 0.809073 0 0 128 0.001139
-0.116128 -0.026152 0.795193 0 0 174 0.005375
-0.118517 -0.027694 0.795276 0 0 255 0.011822
-0.115836 -0.024815 0.797539 0 0 128 0.003830
-0.118273 -0.026296 0.797578 0 0 128 0.003844
-0.117961 -0.024937 0.799904 0 0 128 0.002819
-0.120751 -0.027856 0.797645 0 0 219 0.011195
-0.115488 -0.023469 0.799920 0 0 128 0.002801
-0.115135 -0.022080 0.802238 0 0 128 0.002043
-0.112870 -0.022070 0.799451 0 0 128 0.003048
-0.113163 -0.023457 0.797110 0 0 128 0.003768
-0.120692 -0.026701 0.799969 0 0 128 0.002809
-0.123207 -0.028455 0.799715 0 0 128 0.003227
-0.120613 -0.025508 0.802239 0 0 128 0.002291
-0.123181 -0.027234 0.801970 0 0 128 0.003030
-0.119092 -0.022864 0.805669 0 0 128 0.001604
-0.117865 -0.023809 0.802274 0 0 128 0.001977
-0.113340 -0.017819 0.808681 0 0 128 0.001243
-0.114843 -0.019436 0.807439 0 0 128 0.001050
-0.112026 -0.018954 0.804852 0 0 128 0.001455
-0.110510 -0.017352 0.806128 0 0 128 0.001542
-0.114988 -0.020819 0.804896 0 0 128 0.001230
-0.117597 -0.021284 0.807151 0 0 128 0.001140
-0.108091 -0.017443 0.803191 0 0 128 0.001970
-0.109718 -0.018979 0.802168 0 0 128 0.001816
-0.111282 -0.020539 0.800810 0 0 128 0.002223
-0.128088 -0.036681 0.791155 0 74 255 0.021182
-0.128647 -0.035757 0.793702 0 74 255 0.019992
-0.130253 -0.038103 0.791659 0 74 255 0.021232
-0.126460 -0.034421 0.793294 0 34 255 0.019364
-0.123986 -0.033099 0.792750 0 34 255 0.018353
-0.132163 -0.038517 0.793509 0 74 255 0.020569
-0.130879 -0.036361 0.795592 0 74 255 0.019703
-0.132866 -0.036941 0.797250 0 0 255 0.012241
-0.134125 -0.039064 0.795185 0 74 255 0.020938
-0.130504 -0.034653 0.798557 0 0 219 0.010938
-0.128307 -0.033999 0.796784 0 34 255 0.018350
-0.125969 -0.031176 0.798332 0 0 219 0.010522
-0.123453 -0.030491 0.796230 0 0 219 0.011036
-0.128226 -0.031835 0.800181 0 0 219 0.010593
-0.121401 -0.030211 0.794046 0 74 255 0.019920
-0.135341 -0.034418 0.805565 0 0 128 0.003471
-0.133433 -0.034028 0.803308 0 0 128 0.003630
-0.135881 -0.036231 0.803051 0 0 128 0.003851
-0.138022 -0.038213 0.802689 0 0 174 0.004032
-0.137674 -0.036503 0.805229 0 0 174 0.003915
-0.139812 -0.038489 0.804849 0 0 174 0.004076
-0.131004 -0.033017 0.801854 0 0 128 0.003276
-0.132953 -0.035660 0.800047 0 0 219 0.011364
-0.136188 -0.039834 0.796648 0 74 255 0.020831
-0.135273 -0.037973 0.798731 0 0 255 0.012056
-0.137405 -0.038907 0.799965 0 0 255 0.012494
-0.138288 -0.040749 0.797894 0 0 255 0.013076
-0.140484 -0.041860 0.798981 0 0 255 0.013386
-0.139989 -0.040428 0.801157 0 0 174 0.004829
-0.142312 -0.041733 0.802163 0 0 174 0.004639
-0.142811 -0.043163 0.799952 0 0 174 0.005700
-0.145264 -0.044749 0.800929 0 0 174 0.005213
-0.147114 -0.045606 0.802644 0 0 174 0.004939
-0.149195 -0.047475 0.802152 0 0 174 0.005502
-0.145534 -0.043742 0.804523 0 0 174 0.004353
-0.143300 -0.041718 0.804901 0 0 174 0.004234
-0.150984 -0.048547 0.803732 0 0 174 0.005137
-0.152798 -0.049606 0.805244 0 0 174 0.005307
-0.154231 -0.051411 0.803262 0 0 174 0.006871
-0.151307 -0.047905 0.807126 0 0 174 0.004946
-0.149452 -0.046770 0.805632 0 0 174 0.004684
-0.147346 -0.044797 0.806186 0 0 174 0.004712
-0.146543 -0.042584 0.809759 0 0 174 0.005131
-0.144581 -0.041426 0.807953 0 0 174 0.004151
-0.149274 -0.045816 0.807953 0 0 174 0.005223
-0.141860 -0.039448 0.806950 0 0 174 0.004023
-0.139586 -0.037168 0.807406 0 0 128 0.003492
-0.158425 -0.052367 0.812335 0 0 219 0.008779
-0.161034 -0.054636 0.813543 0 0 255 0.013627
-0.163699 -0.056812 0.814716 0 114 255 0.024540
-0.162812 -0.056929 0.812044 0 74 255 0.022388
-0.161827 -0.054592 0.816198 0 0 255 0.015250
-0.159815 -0.051815 0.817605 0 0 255 0.011767
-0.159054 -0.052079 0.815045 0 0 219 0.010302
-0.157065 -0.049232 0.816454 0 0 219 0.008881
-0.165914 -0.060188 0.811593 126 255 122 0.051370
-0.167051 -0.060843 0.814204 128 255 120 0.055735
-0.168892 -0.063103 0.812539 143 255 105 0.092638
-0.170659 -0.065364 0.810854 167 255 81 0.144800
-0.170080 -0.063738 0.815246 148 255 100 0.102521
-0.168098 -0.061206 0.816858 129 255 118 0.059031
-0.164683 -0.057256 0.817266 0 114 255 0.026514
-0.168150 -0.059279 0.821440 36 255 211 0.042297
-0.166231 -0.057034 0.821577 0 154 255 0.028947
-0.164499 -0.055693 0.820242 0 74 255 0.022003
-0.162722 -0.053450 0.820382 0 34 255 0.016610
-0.166376 -0.058561 0.818562 0 194 255 0.034704
-0.169885 -0.061871 0.819804 133 255 115 0.068650
-0.159147 -0.048874 0.821882 0 0 255 0.013725
-0.155977 -0.045834 0.820568 0 0 219 0.009095
-0.158064 -0.049126 0.819168 0 0 219 0.011310
-0.162854 -0.058892 0.803269 36 255 211 0.039236
-0.164471 -0.060143 0.805016 126 255 122 0.053762
-0.166905 -0.061918 0.805615 141 255 107 0.086363
-0.163245 -0.058619 0.807335 0 194 255 0.034695
-0.161594 -0.057364 0.805520 0 74 255 0.023403
-0.160358 -0.055917 0.807662 0 0 255 0.014874
-0.167922 -0.062645 0.810094 141 255 107 0.086357
-0.165873 -0.060523 0.808053 131 255 117 0.064516
-0.168852 -0.063943 0.807468 157 255 91 0.122155
-0.171760 -0.066347 0.808101 184 255 64 0.185242
-0.160323 -0.054810 0.811106 0 0 255 0.013638
-0.173167 -0.068731 0.811877 189 255 59 0.195980
-0.175487 -0.072250 0.813331 204 255 43 0.234315
-0.174715 -0.070913 0.810093 215 255 33 0.254487
-0.173982 -0.070022 0.814953 182 255 66 0.181656
-0.172529 -0.067372 0.816497 163 255 84 0.137967
-0.171699 -0.066300 0.813609 169 255 79 0.152292
-0.176300 -0.074657 0.811904 230 255 18 0.290193
-0.177378 -0.078682 0.812130 238 255 9 0.310184
-0.176590 -0.078567 0.815772 209 255 38 0.245775
-0.176033 -0.076046 0.817111 198 255 50 0.215431
-0.176047 -0.077873 0.823459 167 255 81 0.144542
-0.175879 -0.075749 0.821081 174 255 74 0.163670
-0.175553 -0.072921 0.822285 167 255 81 0.147013
-0.175092 -0.070896 0.820121 177 255 71 0.168476
-0.175521 -0.073721 0.818846 187 255 60 0.191625
-0.176271 -0.078169 0.819402 192 255 55 0.203941
-0.176336 -0.080397 0.821832 182 255 66 0.183001
-0.173988 -0.068299 0.821750 157 255 91 0.124825
-0.172544 -0.065905 0.821560 146 255 101 0.099682
-0.171311 -0.064152 0.819837 143 255 105 0.092211
-0.173898 -0.069100 0.818280 174 255 74 0.161489
-0.170420 -0.098744 0.814712 160 255 88 0.129326
-0.168373 -0.100683 0.816106 145 255 103 0.095022
-0.167766 -0.102073 0.814418 146 255 101 0.099723
-0.165986 -0.103846 0.815578 140 255 108 0.083879
-0.167660 -0.103198 0.812367 151 255 96 0.111557
-0.166255 -0.102628 0.817558 134 255 113 0.071678
-0.164148 -0.104507 0.818797 128 255 120 0.054752
-0.167142 -0.100948 0.819715 131 255 117 0.065492
-0.169422 -0.098886 0.818188 150 255 98 0.105708
-0.171659 -0.096879 0.816592 169 255 79 0.148858
-0.170385 -0.097197 0.820300 148 255 100 0.105225
-0.164898 -0.105323 0.813279 134 255 113 0.073578
-0.164683 -0.106212 0.811196 136 255 112 0.074441
-0.162458 -0.107189 0.813860 128 255 120 0.056312
-0.162151 -0.108270 0.811702 128 255 120 0.056633
-0.159876 -0.110077 0.812072 126 255 122 0.053068
-0.161989 -0.109304 0.809583 131 255 117 0.064372
-0.157624 -0.110933 0.814547 36 255 211 0.039400
-0.160771 -0.107693 0.816870 101 255 147 0.047267
-0.163260 -0.105868 0.816341 131 255 117 0.063476
-0.155714 -0.110562 0.820059 0 74 255 0.020721
-0.157743 -0.108838 0.821570 0 114 255 0.025747
-0.160512 -0.106852 0.821169 0 194 255 0.032289
-0.162732 -0.105006 0.822483 36 255 211 0.042350
-0.158048 -0.109735 0.817154 4 234 244 0.037296
-0.155313 -0.111702 0.817415 0 194 255 0.032789
-0.163620 -0.103436 0.824817 4 234 244 0.038149
-0.165913 -0.101397 0.823406 126 255 122 0.053459
-0.167652 -0.099271 0.826075 129 255 118 0.060141
-0.169924 -0.097155 0.824541 140 255 108 0.083007
-0.168155 -0.099322 0.821889 133 255 115 0.069115
-0.165041 -0.102920 0.821071 128 255 120 0.056365
-0.175877 -0.082323 0.824214 165 255 83 0.143873
-0.175652 -0.084623 0.822626 170 255 78 0.154183
-0.176198 -0.082535 0.820188 184 255 64 0.186969
-0.175826 -0.084875 0.818616 192 255 55 0.203662
-0.175229 -0.086900 0.821061 175 255 72 0.167552
-0.174706 -0.089232 0.819549 179 255 69 0.174825
-0.174376 -0.089119 0.823908 158 255 89 0.128453
-0.174794 -0.086855 0.825393 151 255 96 0.109867
-0.176774 -0.082634 0.816170 216 255 32 0.259894
-0.176831 -0.084690 0.814675 221 255 26 0.272677
-0.175757 -0.089040 0.815673 203 255 45 0.229471
-0.175830 -0.086943 0.817179 199 255 49 0.221063
-0.173250 -0.094797 0.814626 189 255 59 0.195908
-0.174000 -0.092798 0.816065 187 255 60 0.193649
-0.172250 -0.094959 0.818234 165 255 83 0.142138
-0.172611 -0.093261 0.819951 158 255 89 0.125179
-0.171465 -0.095163 0.822209 150 255 98 0.106498
-0.172438 -0.093042 0.824159 146 255 101 0.099861
-0.170751 -0.095212 0.826513 136 255 112 0.074768
-0.173205 -0.091025 0.826127 145 255 103 0.094748
-0.173563 -0.091175 0.821919 158 255 89 0.127596
-0.152185 -0.114193 0.814025 0 154 255 0.029906
-0.154902 -0.112597 0.814308 0 194 255 0.032473
-0.154516 -0.113517 0.811203 0 194 255 0.033687
-0.151850 -0.115048 0.810804 0 154 255 0.028317
-0.151664 -0.115896 0.807499 0 194 255 0.031686
-0.148887 -0.116766 0.809744 0 114 255 0.027065
-0.149057 -0.115906 0.813096 0 114 255 0.024971
-0.157317 -0.111763 0.811902 36 255 211 0.039478
-0.156949 -0.112624 0.809238 69 255 179 0.044229
-0.159478 -0.110991 0.809469 126 255 122 0.053392
-0.159016 -0.111933 0.806860 126 255 122 0.051006
-0.156708 -0.113523 0.806456 69 255 179 0.045137
-0.156513 -0.114281 0.803600 69 255 179 0.046537
-0.154149 -0.115178 0.805598 36 255 211 0.041071
-0.154245 -0.114363 0.808384 4 234 244 0.037704
-0.152645 -0.117046 0.794960 36 255 211 0.042367
-0.152217 -0.117101 0.798253 36 255 211 0.040041
-0.149978 -0.118057 0.796600 0 194 255 0.034296
-0.151928 -0.116916 0.801399 4 234 244 0.038373
-0.149558 -0.118053 0.799783 0 194 255 0.032354
-0.149232 -0.117812 0.802902 0 194 255 0.031499
-0.147075 -0.119034 0.798194 0 114 255 0.027237
-0.151775 -0.116517 0.804495 4 234 244 0.035624
-0.154193 -0.115646 0.802566 69 255 179 0.043651
-0.154322 -0.115984 0.799445 69 255 179 0.045043
-0.146661 -0.119050 0.801765 0 154 255 0.027407
-0.143889 -0.120183 0.800024 0 114 255 0.023936
-0.146359 -0.118663 0.805172 0 114 255 0.025990
-0.143522 -0.120028 0.803510 0 74 255 0.023406
-0.146133 -0.118128 0.808595 0 114 255 0.023501
-0.149046 -0.117358 0.806344 0 154 255 0.030252
-0.154702 -0.116153 0.796472 101 255 147 0.049810
-0.156623 -0.114714 0.800839 101 255 147 0.050639
-0.158985 -0.112731 0.804308 128 255 120 0.058192
-0.134595 -0.047360 0.776670 136 255 112 0.077842
-0.133958 -0.045858 0.778925 131 255 117 0.065999
-0.133465 -0.044345 0.781256 128 255 120 0.055658
-0.136398 -0.046205 0.780139 134 255 113 0.073505
-0.130550 -0.042571 0.782432 4 234 244 0.038932
-0.130884 -0.044166 0.780002 69 255 179 0.044348
-0.131456 -0.045659 0.777566 128 255 120 0.057275
-0.128237 -0.043985 0.778554 4 234 244 0.038185
-0.136247 -0.045023 0.782584 131 255 117 0.062802
-0.136127 -0.043936 0.784972 101 255 147 0.050031
-0.138914 -0.045732 0.783711 133 255 115 0.067736
-0.133303 -0.042110 0.786350 0 194 255 0.033803
-0.133420 -0.043264 0.783825 36 255 211 0.042846
-0.127467 -0.039009 0.786045 0 114 255 0.025232
-0.127444 -0.040373 0.783454 0 154 255 0.029269
-0.130485 -0.041191 0.784940 0 194 255 0.032658
-0.130482 -0.039905 0.787429 0 114 255 0.026897
-0.124666 -0.039977 0.781855 0 154 255 0.027839
-0.125084 -0.041824 0.779320 0 154 255 0.030725
-0.127859 -0.042216 0.780949 0 194 255 0.033191
-0.140186 -0.047006 0.780720 146 255 101 0.099689
-0.142595 -0.047469 0.781700 150 255 98 0.106619
-0.138165 -0.047894 0.777447 148 255 100 0.102361
-0.144836 -0.047076 0.790180 69 255 179 0.046080
-0.144280 -0.046117 0.792811 0 114 255 0.026758
-0.147354 -0.048146 0.791731 4 234 244 0.038042
-0.143702 -0.045175 0.795427 0 34 255 0.018811
-0.140844 -0.044048 0.793857 0 114 255 0.026239
-0.149034 -0.048743 0.793792 0 74 255 0.022974
-0.151998 -0.050471 0.793788 0 154 255 0.029260
-0.147896 -0.047738 0.795824 0 0 255 0.015026
-0.143855 -0.044538 0.797891 0 0 174 0.007557
-0.141537 -0.043168 0.796963 0 0 255 0.015454
-0.146899 -0.046543 0.797908 0 0 219 0.010226
-0.138633 -0.041923 0.795231 0 74 255 0.023422
-0.138987 -0.045009 0.786157 101 255 147 0.050624
-0.139126 -0.044291 0.788627 36 255 211 0.040888
-0.141681 -0.046087 0.787192 128 255 120 0.057299
-0.136492 -0.042542 0.790025 0 154 255 0.029456
-0.136298 -0.043204 0.787542 4 234 244 0.036876
-0.141640 -0.045078 0.790945 4 234 244 0.036962
-0.135825 -0.040892 0.793008 0 114 255 0.024154
-0.133907 -0.040325 0.791303 0 114 255 0.024564
-0.133574 -0.041198 0.788810 0 154 255 0.027945
-0.145633 -0.047710 0.787165 136 255 112 0.074743
-0.141511 -0.046489 0.784781 134 255 113 0.073497
-0.144599 -0.047769 0.784107 146 255 101 0.098512
-0.152216 -0.050647 0.796027 0 34 255 0.019279
-0.154469 -0.052191 0.796604 0 34 255 0.019494
-0.152601 -0.050776 0.798493 0 0 219 0.011207
-0.150147 -0.049106 0.797826 0 0 219 0.011498
-0.157213 -0.054306 0.797975 0 34 255 0.019247
-0.153374 -0.051099 0.800843 0 0 219 0.008489
-0.150901 -0.049088 0.800333 0 0 219 0.008447
-0.155791 -0.052942 0.801204 0 0 219 0.011121
-0.150307 -0.049605 0.791768 36 255 211 0.040455
-0.148836 -0.048995 0.789568 128 255 120 0.056367
-0.072659 -0.121920 0.876549 126 255 122 0.054448
-0.074390 -0.120783 0.880155 131 255 117 0.063181
-0.070840 -0.122626 0.872679 4 234 244 0.037246
-0.073296 -0.122921 0.871418 69 255 179 0.043727
-0.075104 -0.122153 0.875253 129 255 118 0.058717
-0.076865 -0.121028 0.878897 133 255 115 0.066894
-0.070202 -0.123135 0.868055 0 74 255 0.019888
-0.069516 -0.123272 0.863365 0 0 219 0.010460
-0.067104 -0.123081 0.864719 0 0 219 0.009158
-0.067793 -0.122939 0.869464 0 34 255 0.018493
-0.077698 -0.122270 0.873631 128 255 120 0.057425
-0.079541 -0.121231 0.877247 131 255 117 0.066056
-0.075809 -0.123004 0.869837 36 255 211 0.041397
-0.075226 -0.123292 0.865053 0 74 255 0.021690
-0.072026 -0.123332 0.861800 0 0 219 0.010745
-0.072692 -0.123252 0.866631 0 74 255 0.020942
-0.067180 -0.123699 0.849030 129 255 118 0.062111
-0.064040 -0.125087 0.846071 129 255 118 0.059037
-0.067936 -0.123092 0.853717 36 255 211 0.039910
-0.064700 -0.123705 0.850538 131 255 117 0.063734
-0.065453 -0.123047 0.855229 69 255 179 0.045283
-0.061531 -0.125134 0.847553 131 255 117 0.062944
-0.068685 -0.122931 0.858500 0 34 255 0.017043
-0.071214 -0.123043 0.856973 0 34 255 0.016789
-0.062234 -0.123594 0.851913 133 255 115 0.066551
-0.059122 -0.125097 0.848939 131 255 117 0.062901
-0.063020 -0.122946 0.856565 69 255 179 0.045502
-0.059834 -0.123533 0.853321 133 255 115 0.066993
-0.065060 -0.122899 0.860626 0 74 255 0.021598
-0.078333 -0.030870 0.898048 196 255 52 0.212270
-0.079239 -0.028275 0.895464 180 255 67 0.175833
-0.079358 -0.025449 0.893436 160 255 88 0.129257
-0.077086 -0.027580 0.896704 169 255 79 0.151264
-0.076271 -0.030256 0.899264 182 255 66 0.183179
-0.079380 -0.022394 0.891515 138 255 110 0.081318
-0.079414 -0.018972 0.889682 4 234 244 0.037566
-0.074432 -0.026810 0.898809 158 255 89 0.125451
-0.075501 -0.021176 0.893952 0 194 255 0.034564
-0.077276 -0.018398 0.890900 0 154 255 0.029760
-0.076804 -0.024696 0.894963 145 255 103 0.095831
-0.078837 -0.010671 0.883471 0 114 255 0.026569
-0.078156 -0.013303 0.885843 0 154 255 0.028488
-0.080851 -0.014081 0.884920 0 194 255 0.033466
-0.081597 -0.011375 0.882781 0 154 255 0.029355
-0.078808 -0.016202 0.887784 0 194 255 0.031736
-0.076658 -0.015548 0.888867 0 114 255 0.026146
-0.083870 -0.011892 0.882487 0 114 255 0.026715
-0.084132 -0.014938 0.884261 4 234 244 0.037698
-0.082081 -0.017230 0.886592 69 255 179 0.044213
-0.079877 -0.075336 0.918374 155 255 93 0.119575
-0.078429 -0.070441 0.917997 175 255 72 0.166893
-0.082365 -0.080350 0.917547 141 255 107 0.087630
-0.084418 -0.084915 0.916442 134 255 113 0.072053
-0.080865 -0.070549 0.917128 179 255 69 0.172482
-0.085112 -0.080094 0.916329 140 255 108 0.085589
-0.082293 -0.075504 0.917373 157 255 91 0.123117
-0.089903 -0.096125 0.908732 129 255 118 0.060888
-0.090306 -0.099496 0.906367 129 255 118 0.058766
-0.087584 -0.092540 0.911748 133 255 115 0.066888
-0.086326 -0.095735 0.910233 131 255 117 0.063343
-0.086747 -0.099077 0.907668 129 255 118 0.060271
-0.086978 -0.088924 0.913777 129 255 118 0.061840
-0.084430 -0.098812 0.908822 129 255 118 0.060771
-0.083913 -0.092027 0.913561 136 255 112 0.077852
-0.083103 -0.095286 0.912009 134 255 113 0.072453
-0.084180 -0.088583 0.915192 134 255 113 0.073450
-0.082416 -0.101394 0.905807 4 234 244 0.036532
-0.082704 -0.104210 0.901544 0 34 255 0.019133
-0.084676 -0.101577 0.904611 0 194 255 0.033160
-0.084975 -0.104435 0.900447 0 34 255 0.018463
-0.082985 -0.107314 0.897464 0 0 219 0.011708
-0.083267 -0.110615 0.893458 0 0 219 0.009269
-0.080835 -0.110512 0.894688 0 0 255 0.011814
-0.080588 -0.107189 0.898812 0 0 255 0.012474
-0.087188 -0.101840 0.902938 0 114 255 0.026954
-0.087723 -0.104744 0.898301 0 0 255 0.014841
-0.086871 -0.107615 0.894711 0 0 219 0.009065
-0.086046 -0.110968 0.891442 0 0 219 0.008174
-0.081124 -0.118944 0.880697 36 255 211 0.042280
-0.082743 -0.116383 0.884229 0 114 255 0.024255
-0.080043 -0.116225 0.885940 0 154 255 0.028931
-0.078418 -0.118744 0.882352 69 255 179 0.044553
-0.083009 -0.113452 0.888749 0 0 255 0.012038
-0.085817 -0.113850 0.886799 0 0 219 0.011016
-0.075938 -0.118651 0.883631 69 255 179 0.045831
-0.077552 -0.116050 0.887104 0 154 255 0.029150
-0.077984 -0.113295 0.891519 0 34 255 0.016643
-0.080438 -0.113376 0.890266 0 0 255 0.014007
-0.071903 -0.059043 0.915593 201 255 47 0.223070
-0.071787 -0.053892 0.913056 223 255 25 0.275664
-0.071831 -0.048728 0.910962 237 255 11 0.308433
-0.072258 -0.043971 0.909028 237 255 11 0.306185
-0.070010 -0.058335 0.916195 194 255 54 0.207348
-0.069931 -0.048125 0.911902 225 255 23 0.280320
-0.069958 -0.053185 0.913841 220 255 28 0.266807
-0.073947 -0.032925 0.902661 192 255 55 0.204908
-0.073829 -0.036286 0.904374 218 255 30 0.265614
-0.072714 -0.039845 0.906875 232 255 16 0.295802
-0.076051 -0.033427 0.901145 201 255 47 0.225951
-0.075678 -0.036797 0.903228 223 255 25 0.277005
-0.101657 0.000555 0.866784 128 255 120 0.055094
-0.103798 0.001176 0.864566 131 255 117 0.064101
-0.099564 0.000003 0.869027 128 255 120 0.055994
-0.102967 -0.000621 0.869421 134 255 113 0.071107
-0.105042 -0.000138 0.867194 134 255 113 0.071562
-0.107205 0.000355 0.864860 133 255 115 0.069707
-0.100857 -0.001333 0.871501 133 255 115 0.067058
-0.098828 -0.002124 0.873503 133 255 115 0.069159
-0.097640 -0.001062 0.871054 101 255 147 0.047187
-0.095865 -0.001991 0.873058 69 255 179 0.045753
-0.107677 -0.000830 0.867585 138 255 110 0.078974
-0.109935 -0.000460 0.865351 136 255 112 0.077451
-0.105482 -0.001067 0.869693 140 255 108 0.082513
-0.103377 -0.001726 0.871882 140 255 108 0.082460
-0.101356 -0.002375 0.873925 140 255 108 0.082137
-0.096011 -0.008286 0.878944 0 74 255 0.020496
-0.097612 -0.006464 0.877235 0 154 255 0.028782
-0.098182 -0.004300 0.875389 69 255 179 0.043764
-0.092358 -0.007992 0.878479 0 34 255 0.015977
-0.092481 -0.006062 0.876582 0 34 255 0.017805
-0.089919 -0.007840 0.878288 0 34 255 0.016035
-0.092672 -0.004014 0.874739 0 114 255 0.023489
-0.095606 -0.004075 0.875056 0 194 255 0.032424
-0.117122 -0.003817 0.847429 0 74 255 0.020219
-0.121167 -0.006480 0.845456 0 34 255 0.018246
-0.116683 -0.003203 0.850000 0 114 255 0.023941
-0.120711 -0.005956 0.847930 0 74 255 0.019629
-0.120255 -0.005405 0.850498 0 34 255 0.019163
-0.124870 -0.008457 0.846037 0 74 255 0.020624
-0.116298 -0.002649 0.852574 0 154 255 0.028949
-0.115860 -0.002281 0.855155 0 194 255 0.032908
-0.112532 -0.000605 0.854807 4 234 244 0.035802
-0.112908 -0.001080 0.852212 0 154 255 0.027590
-0.123947 -0.007524 0.848591 0 74 255 0.023018
-0.127939 -0.009942 0.847152 0 114 255 0.024929
-0.123064 -0.006584 0.851210 0 114 255 0.024698
-0.126991 -0.009027 0.849738 0 114 255 0.024177
-0.122244 -0.005674 0.853935 0 194 255 0.032455
-0.118659 -0.003435 0.855885 4 234 244 0.038236
-0.119454 -0.004397 0.853205 0 154 255 0.028957
-0.112111 -0.001017 0.862935 129 255 118 0.062227
-0.114282 -0.001605 0.860411 126 255 122 0.053035
-0.111610 -0.000729 0.860041 101 255 147 0.047130
-0.109414 -0.000126 0.862485 129 255 118 0.058742
-0.115093 -0.001856 0.857774 36 255 211 0.040661
-0.117793 -0.003222 0.858529 36 255 211 0.042376
-0.105957 0.001083 0.862188 128 255 120 0.057837
-0.108179 0.000808 0.859666 101 255 147 0.050529
-0.110409 0.000191 0.857229 36 255 211 0.040169
-0.135459 -0.020242 0.833486 0 0 174 0.005298
-0.137240 -0.022338 0.832165 0 0 128 0.003759
-0.133655 -0.018129 0.834863 0 0 174 0.007105
-0.137931 -0.020902 0.835576 0 0 174 0.007238
-0.139388 -0.023717 0.832531 0 0 174 0.004097
-0.141566 -0.025052 0.832901 0 0 174 0.005109
-0.136094 -0.018839 0.836969 0 0 219 0.009088
-0.134206 -0.016742 0.838489 0 0 219 0.011367
-0.131865 -0.016245 0.836339 0 0 219 0.008097
-0.130044 -0.014380 0.837817 0 0 219 0.010793
-0.144028 -0.026599 0.833541 0 0 174 0.005283
-0.141598 -0.023706 0.834852 0 0 174 0.007080
-0.144049 -0.025300 0.835516 0 0 219 0.007818
-0.146535 -0.028179 0.834118 0 0 174 0.006327
-0.141578 -0.022434 0.836892 0 0 219 0.011460
-0.146525 -0.026847 0.836104 0 0 174 0.007782
-0.144014 -0.024076 0.837505 0 0 219 0.010076
-0.149056 -0.029653 0.834715 0 74 255 0.019981
-0.141490 -0.021194 0.839021 0 0 255 0.014568
-0.137779 -0.018334 0.839851 0 34 255 0.015807
-0.130322 -0.011970 0.845152 0 74 255 0.020351
-0.132690 -0.014024 0.843195 0 34 255 0.018208
-0.129557 -0.012680 0.842073 0 0 255 0.013626
-0.127212 -0.010611 0.843995 0 34 255 0.017361
-0.133468 -0.015361 0.840831 0 0 255 0.014354
-0.136997 -0.017074 0.842160 0 34 255 0.016626
-0.123282 -0.008336 0.843445 0 34 255 0.016088
-0.125471 -0.010147 0.841520 0 0 255 0.014541
-0.125728 -0.011043 0.839329 0 0 255 0.012156
-0.129795 -0.013492 0.839955 0 0 255 0.012206
-0.144148 -0.033845 0.822371 0 0 128 0.003410
-0.144166 -0.032138 0.825188 0 0 128 0.003315
-0.146676 -0.034933 0.824102 0 0 174 0.004104
-0.148985 -0.037624 0.822986 0 0 174 0.004738
-0.146705 -0.033165 0.826874 0 0 128 0.003748
-0.143931 -0.030305 0.827866 0 0 128 0.003320
-0.139957 -0.027533 0.827215 0 0 128 0.002531
-0.151740 -0.039378 0.824526 0 0 174 0.006169
-0.150639 -0.036675 0.827226 0 0 174 0.005389
-0.148734 -0.031427 0.831701 0 0 174 0.004762
-0.146204 -0.029801 0.831227 0 0 174 0.004212
-0.143723 -0.028221 0.830641 0 0 128 0.003468
-0.149282 -0.033253 0.830111 0 0 174 0.004360
-0.139822 -0.025577 0.829923 0 0 128 0.002857
-0.137637 -0.024215 0.829569 0 0 128 0.002384
-0.150439 -0.044558 0.813242 0 0 174 0.007019
-0.152338 -0.045339 0.814920 0 0 174 0.006494
-0.152158 -0.046719 0.812087 0 0 174 0.006216
-0.150571 -0.043229 0.816040 0 0 174 0.007350
-0.148542 -0.040816 0.817127 0 0 174 0.006444
-0.148568 -0.042293 0.814303 0 0 174 0.006688
-0.154634 -0.048896 0.812287 0 0 174 0.006908
-0.155013 -0.048019 0.815032 0 0 219 0.008140
-0.156660 -0.050173 0.813777 0 0 174 0.007707
-0.155308 -0.046926 0.817696 0 0 219 0.008795
-0.152540 -0.044295 0.817596 0 0 174 0.007626
-0.152637 -0.041951 0.821782 0 0 174 0.007304
-0.150202 -0.040321 0.820220 0 0 174 0.005616
-0.146707 -0.036698 0.821247 0 0 174 0.004576
-0.146682 -0.038382 0.818280 0 0 174 0.004785
-0.156658 -0.053264 0.804656 0 0 219 0.008003
-0.155345 -0.051602 0.806678 0 0 174 0.006170
-0.159522 -0.056017 0.803553 0 34 255 0.016404
-0.158027 -0.053821 0.807741 0 0 219 0.009121
-0.156458 -0.051058 0.811246 0 0 174 0.007232
-0.152354 -0.047837 0.809705 0 0 174 0.005516
-0.154042 -0.049735 0.808757 0 0 174 0.005758
-0.161061 -0.057458 0.801372 0 114 255 0.027244
-0.157887 -0.054745 0.801427 0 0 255 0.014213
0.134423 -0.005550 0.894457 0 114 255 0.026084
0.127991 -0.004279 0.893442 0 34 255 0.016501
0.135799 -0.004940 0.891679 4 234 244 0.036229
0.129385 -0.003604 0.890691 0 74 255 0.020484
0.130711 -0.003067 0.887855 0 194 255 0.033604
0.126470 -0.004430 0.895863 0 34 255 0.017023
0.143630 -0.005343 0.881589 158 255 89 0.126073
0.138121 -0.003559 0.881408 143 255 105 0.090287
0.137231 -0.003999 0.884927 133 255 115 0.070175
0.132544 -0.002420 0.881381 133 255 115 0.070203
0.138795 -0.003115 0.877560 162 255 86 0.133924
0.133261 -0.002167 0.877900 148 255 100 0.102647
0.134198 -0.001838 0.874293 165 255 83 0.141660
0.136419 -0.004378 0.888152 69 255 179 0.044521
0.131636 -0.002670 0.884683 69 255 179 0.046204
0.093283 -0.004980 0.876409 129 255 118 0.062286
0.098095 -0.004596 0.879139 101 255 147 0.050116
0.099384 -0.004647 0.876552 101 255 147 0.047814
0.102565 -0.004208 0.881656 36 255 211 0.039229
0.103976 -0.004016 0.879049 0 194 255 0.032630
0.108556 -0.003559 0.881641 0 114 255 0.024519
0.107091 -0.003852 0.884210 0 154 255 0.030635
0.105488 -0.003673 0.876504 0 114 255 0.024143
0.110096 -0.002960 0.878953 0 34 255 0.016715
0.111642 -0.002150 0.876123 0 34 255 0.015800
0.106975 -0.002921 0.873777 0 0 255 0.015471
0.100804 -0.004269 0.873971 0 194 255 0.034977
0.102197 -0.003553 0.871231 0 74 255 0.020626
0.095841 -0.004962 0.871210 126 255 122 0.052096
0.094619 -0.005168 0.873899 131 255 117 0.063914
0.088699 -0.005781 0.870603 138 255 110 0.080029
0.097254 -0.004347 0.868526 0 194 255 0.033769
0.089864 -0.005657 0.867866 134 255 113 0.070456
0.091044 -0.005163 0.864945 126 255 122 0.051780
0.087469 -0.005490 0.873194 136 255 112 0.077362
0.111620 -0.003616 0.886784 0 114 255 0.024233
0.116257 -0.003637 0.889539 0 74 255 0.020085
0.117885 -0.003341 0.887051 0 34 255 0.016448
0.121265 -0.003809 0.892528 0 34 255 0.017704
0.122825 -0.003496 0.890072 0 0 255 0.015565
0.124161 -0.002893 0.887278 0 34 255 0.017923
0.125628 -0.002301 0.884515 0 114 255 0.026986
0.119354 -0.002618 0.884311 0 34 255 0.016379
0.120921 -0.002009 0.881575 0 74 255 0.022918
0.114694 -0.002669 0.881559 0 0 255 0.015499
0.113173 -0.003346 0.884277 0 34 255 0.019436
0.116194 -0.001986 0.878750 0 34 255 0.018705
0.129527 -0.001138 0.871073 165 255 83 0.143599
0.128534 -0.001383 0.874633 150 255 98 0.108595
0.124036 -0.000931 0.871713 145 255 103 0.095880
0.124914 -0.000559 0.868153 163 255 84 0.140304
0.122840 -0.001223 0.875003 129 255 118 0.059875
0.119422 -0.000642 0.868987 138 255 110 0.081032
0.118416 -0.001049 0.872372 126 255 122 0.052579
0.113906 -0.001051 0.869873 4 234 244 0.037964
0.120556 -0.000297 0.865504 157 255 91 0.123751
0.115017 -0.000510 0.866497 133 255 115 0.068756
0.116043 -0.000141 0.863164 150 255 98 0.107548
0.117250 -0.001487 0.875579 0 154 255 0.031213
0.112722 -0.001634 0.873055 0 74 255 0.021755
0.121899 -0.001481 0.878285 36 255 211 0.039474
0.126595 -0.001988 0.881287 69 255 179 0.043638
0.127578 -0.001640 0.878028 134 255 113 0.070989
0.111417 -0.000222 0.860859 143 255 105 0.091815
0.110278 -0.000829 0.864166 101 255 147 0.048381
0.105386 -0.001234 0.861787 0 194 255 0.034116
0.106572 -0.000425 0.858555 136 255 112 0.075452
0.104253 -0.002168 0.865014 0 0 255 0.014948
0.099855 -0.001996 0.858865 0 74 255 0.021964
0.099039 -0.002905 0.862261 0 0 255 0.012344
0.092669 -0.003902 0.858459 0 34 255 0.017033
0.100557 -0.000966 0.855264 129 255 118 0.059302
0.093549 -0.002751 0.854920 0 34 255 0.017440
0.094501 -0.001675 0.851451 126 255 122 0.054180
0.098150 -0.003751 0.865445 0 74 255 0.020948
0.091796 -0.004697 0.861733 0 194 255 0.035064
0.103229 -0.002948 0.868181 0 0 255 0.013477
0.108010 -0.002280 0.870645 0 0 255 0.014366
0.109127 -0.001574 0.867463 0 114 255 0.024085
0.100501 -0.000323 0.850914 157 255 91 0.122666
0.106991 0.000047 0.854714 160 255 88 0.132342
0.107199 0.000308 0.850618 189 255 59 0.198972
0.112051 -0.000072 0.857232 162 255 86 0.135341
0.112603 0.000076 0.853447 187 255 60 0.193712
0.117295 -0.000376 0.855847 182 255 66 0.181907
0.116639 -0.000167 0.859560 163 255 84 0.139286
0.113082 -0.000112 0.849583 208 255 40 0.241285
0.117920 -0.000628 0.852154 206 255 42 0.237303
0.118404 -0.001096 0.848412 225 255 23 0.280179
0.113614 -0.000609 0.845754 232 255 16 0.294571
0.107435 0.000268 0.846364 216 255 32 0.258885
0.107698 -0.000128 0.842084 255 237 0 0.349786
0.101147 0.000172 0.842512 221 255 26 0.272827
0.100815 0.000058 0.846720 196 255 52 0.211627
0.095797 -0.000626 0.843762 187 255 60 0.192723
0.101688 -0.000101 0.838500 255 229 0 0.363393
0.096612 -0.000462 0.839912 216 255 32 0.258277
0.097448 -0.000775 0.836291 255 235 0 0.353504
0.095077 -0.001115 0.847580 153 255 95 0.115840
0.120981 -0.000376 0.861860 167 255 81 0.147446
0.125425 -0.000815 0.864426 175 255 72 0.167380
0.125847 -0.000931 0.860582 192 255 55 0.205034
0.129772 -0.001137 0.867183 187 255 60 0.193892
0.130242 -0.001453 0.863384 201 255 47 0.224931
0.134611 -0.002071 0.866274 199 255 49 0.220819
0.134359 -0.001869 0.870311 186 255 62 0.187882
0.130556 -0.001804 0.859459 216 255 32 0.257944
0.134987 -0.002555 0.862300 211 255 37 0.249648
0.135122 -0.003096 0.858492 235 255 13 0.300859
0.130999 -0.002555 0.855764 230 255 18 0.291870
0.126348 -0.001392 0.856934 208 255 40 0.240233
0.126839 -0.002047 0.853157 223 255 25 0.274431
0.122145 -0.000978 0.854425 208 255 40 0.240382
0.121637 -0.000663 0.858238 184 255 64 0.184271
0.122633 -0.001628 0.850750 213 255 35 0.251788
0.133449 -0.009770 0.843412 237 255 11 0.307238
0.129612 -0.009491 0.841254 228 255 20 0.288937
0.129894 -0.007090 0.844394 232 255 16 0.294875
0.126040 -0.006736 0.842096 230 255 18 0.291496
0.125768 -0.009176 0.839007 228 255 20 0.287921
0.126250 -0.004819 0.845644 232 255 16 0.296440
0.122163 -0.006396 0.839858 235 255 13 0.304423
0.122392 -0.004377 0.843291 237 255 11 0.305730
0.118328 -0.004008 0.841027 240 254 8 0.315169
0.121902 -0.009018 0.836784 237 255 11 0.304940
0.118111 -0.006187 0.837445 250 243 0 0.337818
0.117549 -0.008862 0.834067 249 244 0 0.335013
0.122447 -0.002800 0.846890 228 255 20 0.288707
0.118341 -0.002410 0.844583 232 255 16 0.294842
0.126597 -0.003312 0.849291 223 255 25 0.275476
0.130653 -0.003830 0.851748 232 255 16 0.293435
0.130274 -0.005328 0.848078 235 255 13 0.301248
0.134403 -0.005927 0.850553 235 255 13 0.304402
0.134841 -0.004373 0.854455 230 255 18 0.292819
0.134010 -0.007619 0.846958 237 255 11 0.307232
0.111547 -0.008649 0.830135 255 215 0 0.391081
0.112092 -0.005759 0.833489 255 209 0 0.405722
0.106509 -0.005740 0.830010 255 196 0 0.432929
0.106336 -0.009026 0.827421 255 215 0 0.392855
0.106551 -0.003104 0.833289 255 192 0 0.437916
0.102370 -0.006242 0.828167 255 213 0 0.396230
0.102114 -0.003511 0.831074 255 196 0 0.433130
0.098571 -0.004220 0.829777 255 217 0 0.390396
0.102430 -0.009573 0.825970 255 231 0 0.360137
0.098957 -0.006924 0.827019 255 235 0 0.355381
0.099002 -0.010094 0.824979 245 248 3 0.325152
0.101746 -0.001466 0.834398 255 217 0 0.389936
0.098101 -0.002163 0.832783 255 229 0 0.364028
0.107008 -0.001230 0.837472 255 213 0 0.396740
0.113321 -0.001802 0.841689 250 243 0 0.336192
0.112922 -0.003521 0.837551 255 231 0 0.361003
0.138699 -0.003006 0.873363 174 255 74 0.163538
0.143460 -0.004973 0.877293 172 255 76 0.157960
0.143060 -0.004472 0.872254 187 255 60 0.191809
0.147895 -0.006864 0.876529 186 255 62 0.190778
0.147466 -0.006454 0.871733 196 255 52 0.212980
0.151782 -0.008780 0.871119 215 255 33 0.255718
0.147339 -0.006663 0.867301 211 255 37 0.246141
0.143033 -0.004660 0.868185 203 255 45 0.227212
0.143119 -0.005077 0.863977 216 255 32 0.261006
0.139039 -0.003494 0.865115 211 255 37 0.247896
0.138840 -0.003156 0.869188 194 255 54 0.207718
0.139143 -0.004028 0.861143 223 255 25 0.275838
0.157579 -0.016924 0.858844 218 255 30 0.265538
0.155464 -0.014121 0.861060 221 255 26 0.271297
0.154138 -0.015523 0.856267 230 255 18 0.290722
0.151968 -0.012524 0.858447 225 255 23 0.280733
0.152999 -0.011229 0.863092 221 255 26 0.273145
0.149824 -0.010084 0.860858 220 255 28 0.269209
0.150666 -0.014014 0.853724 228 255 20 0.285275
0.148443 -0.011128 0.856026 228 255 20 0.285390
0.147272 -0.012810 0.851551 230 255 18 0.292465
0.150838 -0.009252 0.865893 218 255 30 0.264073
0.143816 -0.011976 0.849490 238 255 9 0.310990
0.144543 -0.010062 0.853186 228 255 20 0.288217
0.141004 -0.009306 0.851038 237 255 11 0.306758
0.140376 -0.011275 0.847499 235 255 13 0.304677
0.141535 -0.007290 0.854869 240 254 8 0.314237
0.137413 -0.008467 0.848993 238 255 9 0.311405
0.138004 -0.006643 0.852747 242 252 6 0.318486
0.136860 -0.010371 0.845369 244 250 4 0.320846
0.138236 -0.004945 0.856553 242 252 6 0.318892
0.142405 -0.006047 0.859386 226 255 21 0.284636
0.146452 -0.007330 0.862036 216 255 32 0.261315
0.145658 -0.008626 0.857795 228 255 20 0.288798
0.081398 -0.143780 0.897409 0 34 255 0.018500
0.079885 -0.142850 0.900578 0 0 255 0.012896
0.078357 -0.141760 0.899206 0 0 219 0.008058
0.076801 -0.140844 0.902360 0 0 174 0.006040
0.078325 -0.141964 0.903704 0 0 219 0.010242
0.075136 -0.139837 0.900955 0 0 174 0.004065
0.075248 -0.139910 0.905455 0 0 174 0.004613
0.073618 -0.138888 0.904073 0 0 128 0.003245
0.072066 -0.137899 0.907141 0 0 128 0.003484
0.076745 -0.141054 0.906787 0 0 219 0.008825
0.073696 -0.138965 0.908540 0 0 174 0.004153
0.075169 -0.140147 0.909878 0 0 174 0.007211
0.071755 -0.137986 0.902566 0 0 128 0.003198
0.070230 -0.136980 0.905681 0 0 128 0.003364
0.068186 -0.136178 0.904142 0 0 128 0.003422
0.069724 -0.136990 0.900920 0 0 128 0.003400
0.073323 -0.138782 0.899401 0 0 128 0.003366
0.071278 -0.137741 0.897744 0 0 128 0.003469
0.074917 -0.139535 0.896219 0 0 128 0.003578
0.076722 -0.140607 0.897766 0 0 174 0.004637
0.078347 -0.141392 0.894593 0 0 174 0.006096
0.072849 -0.138431 0.894581 0 0 128 0.003735
0.076547 -0.140236 0.893052 0 0 174 0.004502
0.074494 -0.139075 0.891422 0 0 174 0.004244
0.079959 -0.142571 0.896025 0 0 219 0.010706
0.073577 -0.138986 0.912767 0 0 174 0.005978
0.072061 -0.137908 0.911555 0 0 174 0.003992
0.070489 -0.136745 0.914527 0 0 174 0.004150
0.072028 -0.137845 0.915735 0 0 174 0.005402
0.068814 -0.135726 0.913257 0 0 174 0.005120
0.068911 -0.135532 0.917559 0 0 174 0.005905
0.067223 -0.134495 0.916302 0 0 174 0.007043
0.070403 -0.136662 0.918748 0 0 174 0.005507
0.065370 -0.133613 0.914963 0 0 174 0.007708
0.063310 -0.132788 0.913403 0 0 219 0.008106
0.067008 -0.134780 0.911808 0 0 174 0.005619
0.064944 -0.133951 0.910228 0 0 174 0.005694
0.068635 -0.135904 0.908721 0 0 174 0.004223
0.070440 -0.136821 0.910172 0 0 174 0.003946
0.066561 -0.135077 0.907144 0 0 174 0.003906
0.053594 -0.130186 0.907025 0 114 255 0.026553
0.056032 -0.131247 0.908810 0 114 255 0.023946
0.057746 -0.132075 0.905470 0 114 255 0.023752
0.055366 -0.130867 0.903690 0 114 255 0.025200
0.060196 -0.132805 0.907195 0 34 255 0.018801
0.059486 -0.132912 0.902210 0 114 255 0.024159
0.061915 -0.133744 0.903965 0 0 174 0.006777
0.063593 -0.134632 0.900766 0 0 174 0.007422
0.057095 -0.131604 0.900414 0 114 255 0.025170
0.061177 -0.133745 0.899031 0 0 255 0.012664
0.058810 -0.132373 0.897235 0 114 255 0.025444
0.064287 -0.134421 0.905654 0 0 174 0.004200
0.065994 -0.135444 0.902507 0 0 174 0.004391
0.062685 -0.133361 0.908774 0 0 174 0.004806
0.061035 -0.132224 0.911938 0 34 255 0.017542
0.058562 -0.131752 0.910375 0 34 255 0.018280
0.060439 -0.132783 0.893941 0 0 219 0.010106
0.062690 -0.134351 0.895803 0 0 255 0.013136
0.064291 -0.134783 0.892553 0 0 219 0.011222
0.062016 -0.133239 0.890667 0 0 219 0.009252
0.066681 -0.135958 0.894395 0 0 219 0.008634
0.065897 -0.135214 0.889305 0 0 219 0.010437
0.068320 -0.136409 0.891155 0 0 219 0.007852
0.069965 -0.136874 0.887902 0 0 174 0.007722
0.063596 -0.133673 0.887452 0 0 219 0.008637
0.067549 -0.135674 0.886049 0 0 219 0.010665
0.065230 -0.134073 0.884217 0 0 219 0.008471
0.070640 -0.137525 0.892962 0 0 174 0.005537
0.072328 -0.137983 0.889711 0 0 174 0.005316
0.069072 -0.136885 0.896118 0 0 174 0.005273
0.067514 -0.136213 0.899294 0 0 174 0.005044
0.065132 -0.135336 0.897554 0 0 219 0.008287
0.061317 -0.132373 0.885873 0 0 219 0.008299
0.059780 -0.131870 0.889107 0 0 174 0.007656
0.057622 -0.130430 0.887536 0 0 174 0.006178
0.058167 -0.131534 0.892369 0 0 219 0.009756
0.056037 -0.130046 0.890768 0 0 174 0.006864
0.054384 -0.129635 0.894018 0 74 255 0.021579
0.056517 -0.131219 0.895638 0 114 255 0.026749
0.053882 -0.128318 0.889086 0 0 174 0.005877
0.052220 -0.127932 0.892343 0 34 255 0.018251
0.050045 -0.126245 0.890680 0 0 174 0.006728
0.051876 -0.126486 0.887430 0 0 219 0.008765
0.055630 -0.128722 0.885895 0 0 174 0.006043
0.053613 -0.127008 0.884272 0 0 255 0.012909
0.057307 -0.129240 0.882762 0 0 174 0.007428
0.059297 -0.130883 0.884332 0 0 174 0.007069
0.060980 -0.131259 0.881153 0 0 174 0.007606
0.055264 -0.127545 0.881122 0 0 255 0.013377
0.058959 -0.129605 0.879595 0 0 219 0.009095
0.056918 -0.127995 0.877971 0 0 255 0.013912
0.063042 -0.132735 0.882670 0 0 219 0.008158
0.054720 -0.130588 0.898916 0 154 255 0.028321
0.052966 -0.129906 0.902173 0 154 255 0.029571
0.050670 -0.128502 0.900594 0 114 255 0.026569
0.051150 -0.129338 0.905477 0 194 255 0.032775
0.048818 -0.127971 0.903926 0 154 255 0.030355
0.046477 -0.126529 0.902327 0 114 255 0.025992
0.044237 -0.124737 0.900575 0 34 255 0.019177
0.048438 -0.127004 0.898920 0 74 255 0.021893
0.046204 -0.125196 0.897181 0 34 255 0.018198
0.050364 -0.127325 0.895575 0 34 255 0.018969
0.052570 -0.128968 0.897260 0 74 255 0.022666
0.048142 -0.125571 0.893849 0 34 255 0.017883
0.035902 -0.117908 0.894410 134 255 113 0.073811
0.037836 -0.119756 0.895988 0 194 255 0.033250
0.039803 -0.120187 0.892603 36 255 211 0.040417
0.037823 -0.118487 0.891073 136 255 112 0.076970
0.041853 -0.121951 0.894166 0 154 255 0.028684
0.041739 -0.121011 0.889368 36 255 211 0.040668
0.043815 -0.122536 0.890879 0 74 255 0.021123
0.045772 -0.123240 0.887680 0 74 255 0.022898
0.039697 -0.119298 0.887833 136 255 112 0.074868
0.043647 -0.121792 0.886185 36 255 211 0.039147
0.041511 -0.120406 0.884697 134 255 113 0.071921
0.045949 -0.124122 0.892394 0 74 255 0.021720
0.047913 -0.124798 0.889192 0 0 255 0.013835
0.043996 -0.123699 0.895688 0 34 255 0.019405
0.042024 -0.123367 0.899089 0 34 255 0.018303
0.039917 -0.121551 0.897513 0 74 255 0.023375
0.043323 -0.121100 0.881516 134 255 113 0.070387
0.045432 -0.122367 0.883006 101 255 147 0.049948
0.047232 -0.123121 0.879860 126 255 122 0.051152
0.045097 -0.122073 0.878378 134 255 113 0.071015
0.049340 -0.124305 0.881329 0 194 255 0.034416
0.049020 -0.123972 0.876755 101 255 147 0.050629
0.051105 -0.124934 0.878198 4 234 244 0.037862
0.052842 -0.125782 0.875105 36 255 211 0.039271
0.046894 -0.123057 0.875272 133 255 115 0.069769
0.050744 -0.124842 0.873616 101 255 147 0.049581
0.048635 -0.124090 0.872131 133 255 115 0.068007
