ply
format ascii 1.0
comment VCGLIB generated
element vertex 992
property float x
property float y
property float z
property uchar red
property uchar green
property uchar blue
property float quality
end_header
-0.081231 -0.111829 0.705640 140 255 108 0.083791
-0.077819 -0.112944 0.704707 138 255 110 0.079680
-0.076843 -0.101724 0.705171 140 255 108 0.082169
-0.073485 -0.098546 0.705397 138 255 110 0.079928
-0.069386 -0.100644 0.703756 141 255 107 0.087627
-0.072332 -0.101504 0.704189 140 255 108 0.084891
-0.064866 -0.102704 0.702438 143 255 105 0.090676
-0.067909 -0.103545 0.702823 141 255 107 0.087314
-0.070668 -0.106475 0.702708 141 255 107 0.087079
-0.065986 -0.106287 0.701887 143 255 105 0.089941
-0.068144 -0.109605 0.702148 140 255 108 0.083145
-0.070773 -0.110876 0.702886 136 255 112 0.074340
-0.073512 -0.112142 0.703636 136 255 112 0.076399
-0.070601 -0.115114 0.703088 136 255 112 0.076965
-0.073339 -0.107743 0.703410 140 255 108 0.083704
-0.054056 -0.134171 0.707657 134 255 113 0.072885
-0.055687 -0.135221 0.709544 129 255 118 0.060760
-0.052807 -0.136733 0.710208 129 255 118 0.062170
-0.054359 -0.137746 0.712071 126 255 122 0.052794
-0.057308 -0.136234 0.711410 101 255 147 0.048452
-0.059011 -0.137240 0.713359 36 255 211 0.040919
-0.060290 -0.134549 0.710773 69 255 179 0.045309
-0.058531 -0.133512 0.708812 129 255 118 0.059385
-0.056858 -0.132417 0.706938 134 255 113 0.070853
-0.061507 -0.131835 0.708113 129 255 118 0.060844
-0.051226 -0.139083 0.712994 126 255 122 0.052941
-0.052519 -0.139884 0.715076 36 255 211 0.040425
-0.049471 -0.141156 0.715871 69 255 179 0.046442
-0.057145 -0.139399 0.716256 0 194 255 0.032952
-0.055726 -0.138540 0.714188 4 234 244 0.036526
-0.062657 -0.139140 0.718008 0 114 255 0.025305
-0.062668 -0.137006 0.714485 4 234 244 0.035504
-0.065400 -0.137921 0.717016 0 154 255 0.028383
-0.059898 -0.140382 0.718921 0 114 255 0.024953
-0.066934 -0.135361 0.714186 0 194 255 0.035100
-0.065689 -0.134140 0.712388 4 234 244 0.038803
-0.064505 -0.132877 0.710537 69 255 179 0.044644
-0.068083 -0.132565 0.711568 69 255 179 0.043806
-0.066881 -0.131380 0.709705 126 255 122 0.052430
-0.061485 -0.135761 0.712625 36 255 211 0.040296
-0.097108 -0.134944 0.738016 0 34 255 0.015745
-0.098480 -0.133240 0.736172 0 34 255 0.017833
-0.099861 -0.131686 0.734233 0 114 255 0.023489
-0.097190 -0.132899 0.731863 0 154 255 0.030638
-0.094429 -0.136074 0.735546 0 74 255 0.022659
-0.094470 -0.137195 0.738578 0 74 255 0.020452
-0.094565 -0.138370 0.741601 0 74 255 0.022836
-0.091836 -0.139508 0.739031 0 194 255 0.031775
-0.101680 -0.127685 0.730583 0 114 255 0.024582
-0.102604 -0.125749 0.728701 0 194 255 0.034775
-0.103589 -0.123803 0.726848 101 255 147 0.049164
-0.101162 -0.124983 0.724575 129 255 118 0.061530
-0.100075 -0.126906 0.726482 36 255 211 0.042353
-0.099016 -0.128858 0.728325 0 194 255 0.031459
-0.099404 -0.130232 0.731286 0 114 255 0.024509
-0.096151 -0.126904 0.720796 138 255 110 0.078315
-0.094976 -0.128812 0.722676 128 255 120 0.056842
-0.095334 -0.130268 0.725377 36 255 211 0.042227
-0.094342 -0.132210 0.727082 4 234 244 0.038006
-0.094726 -0.133775 0.729811 4 234 244 0.037508
-0.092088 -0.134619 0.727659 69 255 179 0.045841
-0.096882 -0.131347 0.729144 0 194 255 0.031575
-0.097638 -0.127848 0.724571 101 255 147 0.049509
-0.098747 -0.125916 0.722715 133 255 115 0.066940
-0.092002 -0.135768 0.730534 0 194 255 0.032599
-0.089286 -0.137683 0.731211 0 194 255 0.033360
-0.091905 -0.136989 0.733388 0 154 255 0.027654
-0.089247 -0.138972 0.734051 0 194 255 0.032464
-0.089253 -0.140276 0.736871 4 234 244 0.036051
-0.086618 -0.140960 0.734660 36 255 211 0.041543
-0.091822 -0.138220 0.736237 0 114 255 0.026489
-0.094563 -0.134922 0.732693 0 114 255 0.027124
-0.083210 -0.129683 0.714557 133 255 115 0.067403
-0.083739 -0.127459 0.713281 131 255 117 0.065524
-0.082491 -0.125527 0.711690 128 255 120 0.057817
-0.083078 -0.123255 0.710433 131 255 117 0.064290
-0.081763 -0.121380 0.708761 134 255 113 0.072173
-0.085356 -0.120595 0.709685 136 255 112 0.077809
-0.079461 -0.124012 0.709510 126 255 122 0.054469
-0.078206 -0.122167 0.707766 133 255 115 0.068221
-0.078869 -0.126090 0.710673 101 255 147 0.049772
-0.078373 -0.128184 0.711766 126 255 122 0.052880
-0.079627 -0.130031 0.713456 128 255 120 0.056489
-0.076017 -0.130457 0.712296 126 255 122 0.053588
-0.085227 -0.118113 0.708826 136 255 112 0.076584
-0.083392 -0.116199 0.707646 133 255 115 0.069773
-0.083146 -0.113737 0.706824 136 255 112 0.076733
-0.079907 -0.114821 0.705946 134 255 113 0.072152
-0.079977 -0.117157 0.706726 131 255 117 0.066045
-0.080057 -0.119487 0.707494 131 255 117 0.065689
-0.072660 -0.116871 0.704266 133 255 115 0.068532
-0.070729 -0.119361 0.704502 129 255 118 0.060419
-0.074573 -0.118649 0.705436 131 255 117 0.065053
-0.072601 -0.121136 0.705717 129 255 118 0.060458
-0.074465 -0.122858 0.706917 129 255 118 0.062477
-0.070763 -0.123526 0.705981 129 255 118 0.061020
-0.076443 -0.120402 0.706639 131 255 117 0.064820
-0.076266 -0.115791 0.705057 134 255 113 0.070493
-0.072115 -0.125288 0.707587 128 255 120 0.055038
-0.069692 -0.127401 0.708101 101 255 147 0.050740
-0.073472 -0.127009 0.709168 101 255 147 0.049957
-0.071053 -0.129094 0.709717 101 255 147 0.049339
-0.072314 -0.130801 0.711299 101 255 147 0.049896
-0.074776 -0.128734 0.710724 101 255 147 0.050394
-0.075776 -0.124611 0.708509 126 255 122 0.052916
-0.059632 -0.104662 0.701313 140 255 108 0.085386
-0.057512 -0.107353 0.700667 141 255 107 0.088097
-0.059796 -0.110255 0.700581 141 255 107 0.087404
-0.062056 -0.107557 0.701207 141 255 107 0.085977
-0.051698 -0.107253 0.700135 141 255 107 0.086635
-0.051409 -0.110741 0.699842 136 255 112 0.078067
-0.054812 -0.111600 0.700015 138 255 110 0.078224
-0.056118 -0.109475 0.700340 138 255 110 0.079892
-0.054422 -0.117139 0.700333 136 255 112 0.074927
-0.057522 -0.118320 0.700860 136 255 112 0.076429
-0.056103 -0.114847 0.700447 134 255 113 0.070705
-0.059340 -0.116028 0.700994 134 255 113 0.073590
-0.061192 -0.113688 0.701096 134 255 113 0.073934
-0.062646 -0.117088 0.701630 136 255 112 0.075768
-0.057908 -0.112560 0.700511 136 255 112 0.075884
-0.053118 -0.113854 0.700010 136 255 112 0.078042
-0.065759 -0.114287 0.702073 134 255 113 0.070819
-0.066964 -0.111956 0.702102 134 255 113 0.072185
-0.064168 -0.110761 0.701474 136 255 112 0.076040
-0.055283 -0.120774 0.701049 136 255 112 0.076148
-0.057799 -0.122137 0.701978 136 255 112 0.074909
-0.055646 -0.124251 0.702059 138 255 110 0.078613
-0.058110 -0.125568 0.703101 138 255 110 0.078939
-0.060421 -0.123463 0.702994 134 255 113 0.070997
-0.063038 -0.124779 0.704118 134 255 113 0.072715
-0.062827 -0.120950 0.702834 134 255 113 0.070455
-0.060143 -0.119671 0.701813 133 255 115 0.069296
-0.055505 -0.127828 0.703535 140 255 108 0.085235
-0.057502 -0.129221 0.705032 134 255 113 0.073571
-0.054952 -0.131077 0.705404 138 255 110 0.079569
-0.059496 -0.130562 0.706529 131 255 117 0.065546
-0.062311 -0.128335 0.706102 128 255 120 0.057086
-0.060223 -0.126944 0.704549 134 255 113 0.071772
-0.065961 -0.128043 0.707167 126 255 122 0.054586
-0.068312 -0.125801 0.706601 128 255 120 0.055298
-0.066817 -0.124178 0.705099 131 255 117 0.064113
-0.064558 -0.126429 0.705673 129 255 118 0.059234
-0.063697 -0.129940 0.707639 128 255 120 0.055150
-0.068783 -0.121967 0.704867 129 255 118 0.061519
-0.066707 -0.120363 0.703732 131 255 117 0.065174
-0.068680 -0.117757 0.703439 131 255 117 0.065694
-0.064707 -0.118707 0.702674 131 255 117 0.062643
-0.064871 -0.122591 0.703953 131 255 117 0.063062
-0.080581 -0.131397 0.715452 101 255 147 0.049149
-0.077984 -0.133130 0.716299 4 234 244 0.038566
-0.077053 -0.131759 0.714280 69 255 179 0.044448
-0.074547 -0.133480 0.715085 4 234 244 0.037288
-0.075472 -0.134888 0.717089 4 234 244 0.036109
-0.073073 -0.136673 0.717887 4 234 244 0.036399
-0.076429 -0.136588 0.719263 36 255 211 0.039374
-0.078819 -0.134788 0.718477 36 255 211 0.039866
-0.081406 -0.133041 0.717528 101 255 147 0.048404
-0.079745 -0.136499 0.720573 69 255 179 0.046059
-0.073523 -0.132017 0.713151 36 255 211 0.041937
-0.071054 -0.133590 0.714001 0 194 255 0.033233
-0.067994 -0.136759 0.716120 0 194 255 0.033830
-0.072059 -0.135102 0.715952 0 194 255 0.033313
-0.065244 -0.140180 0.720734 0 74 255 0.021275
-0.067793 -0.138948 0.719853 0 74 255 0.022459
-0.068507 -0.140287 0.722098 0 74 255 0.022397
-0.071083 -0.139076 0.721122 0 114 255 0.025943
-0.070392 -0.137788 0.718896 0 154 255 0.027552
-0.071751 -0.140408 0.723502 0 114 255 0.025800
-0.074368 -0.139082 0.722603 0 154 255 0.028152
-0.074835 -0.140581 0.725024 0 154 255 0.029158
-0.077483 -0.139211 0.724020 0 194 255 0.034289
-0.077038 -0.137778 0.721608 0 194 255 0.033302
-0.073687 -0.137849 0.720233 0 154 255 0.030579
-0.096736 -0.124364 0.719205 140 255 108 0.082899
-0.096015 -0.122417 0.716822 145 255 103 0.095449
-0.096574 -0.119863 0.715376 151 255 96 0.109731
-0.095528 -0.117763 0.713281 155 255 93 0.120721
-0.098580 -0.116751 0.714562 165 255 83 0.143239
-0.093475 -0.120881 0.714009 145 255 103 0.094733
-0.092259 -0.118817 0.711928 148 255 100 0.103835
-0.092984 -0.123323 0.715322 141 255 107 0.086248
-0.092307 -0.125741 0.716780 138 255 110 0.080821
-0.093310 -0.127733 0.719021 138 255 110 0.081926
-0.090105 -0.128568 0.717336 138 255 110 0.081737
-0.098370 -0.113993 0.713577 165 255 83 0.140985
-0.096606 -0.111844 0.712067 162 255 86 0.133399
-0.096200 -0.109051 0.711218 163 255 84 0.139002
-0.093217 -0.110387 0.710049 155 255 93 0.117919
-0.093521 -0.112984 0.710844 150 255 98 0.106518
-0.093796 -0.115625 0.711697 151 255 96 0.110297
-0.086684 -0.112714 0.707819 140 255 108 0.084480
-0.086907 -0.115172 0.708588 138 255 110 0.081193
-0.088866 -0.117177 0.709936 141 255 107 0.087340
-0.088834 -0.119683 0.710821 140 255 108 0.085314
-0.090371 -0.114087 0.709599 145 255 103 0.095609
-0.089958 -0.111493 0.708867 146 255 101 0.098397
-0.086712 -0.122589 0.711457 134 255 113 0.074217
-0.086135 -0.124897 0.712726 133 255 115 0.068376
-0.087276 -0.126907 0.714674 133 255 115 0.069250
-0.086720 -0.129171 0.715948 136 255 112 0.074606
-0.089583 -0.124176 0.714007 136 255 112 0.076441
-0.090084 -0.121713 0.712669 140 255 108 0.083338
-0.075177 -0.143291 0.730048 4 234 244 0.036959
-0.075098 -0.144428 0.732664 36 255 211 0.039470
-0.072122 -0.145569 0.733633 36 255 211 0.041964
-0.071945 -0.146774 0.736253 126 255 122 0.052929
-0.074923 -0.145580 0.735294 69 255 179 0.046635
-0.074674 -0.146695 0.737915 128 255 120 0.056247
-0.077867 -0.144294 0.734355 69 255 179 0.043698
-0.078054 -0.143190 0.731716 36 255 211 0.040341
-0.078207 -0.142059 0.729065 36 255 211 0.041272
-0.081067 -0.141912 0.730746 69 255 179 0.045339
-0.068522 -0.147471 0.737079 126 255 122 0.050816
-0.066628 -0.148066 0.738733 126 255 122 0.051016
-0.066019 -0.148690 0.741237 126 255 122 0.052655
-0.068686 -0.148713 0.742944 128 255 120 0.056689
-0.069261 -0.148137 0.740397 126 255 122 0.052894
-0.071259 -0.147479 0.738746 126 255 122 0.053652
-0.073554 -0.148256 0.746746 128 255 120 0.055747
-0.074320 -0.147809 0.744087 128 255 120 0.055909
-0.076496 -0.147057 0.742454 128 255 120 0.054966
-0.077277 -0.146454 0.739844 128 255 120 0.058031
-0.079915 -0.146074 0.741810 129 255 118 0.058867
-0.073819 -0.147415 0.740478 128 255 120 0.057272
-0.071775 -0.148078 0.742156 128 255 120 0.056415
-0.070993 -0.148600 0.744758 128 255 120 0.056497
-0.081595 -0.144788 0.740095 101 255 147 0.046939
-0.081850 -0.143785 0.737292 36 255 211 0.042426
-0.083553 -0.142481 0.735498 36 255 211 0.040205
-0.083921 -0.141478 0.732697 69 255 179 0.043378
-0.080800 -0.142962 0.733529 36 255 211 0.041941
-0.077582 -0.145388 0.737085 101 255 147 0.049667
-0.083979 -0.131190 0.716809 128 255 120 0.056734
-0.084781 -0.132712 0.719025 126 255 122 0.052625
-0.082207 -0.134583 0.719885 69 255 179 0.046015
-0.083055 -0.136225 0.722163 126 255 122 0.051224
-0.085478 -0.134263 0.721355 126 255 122 0.051367
-0.086157 -0.135854 0.723760 126 255 122 0.052881
-0.088066 -0.132116 0.720566 128 255 120 0.055118
-0.087442 -0.130653 0.718202 131 255 117 0.063004
-0.080198 -0.137788 0.723138 36 255 211 0.039551
-0.080524 -0.139139 0.725687 4 234 244 0.038026
-0.077929 -0.140648 0.726574 4 234 244 0.036452
-0.080790 -0.140509 0.728248 36 255 211 0.039141
-0.083528 -0.138814 0.727383 4 234 244 0.038594
-0.083338 -0.137496 0.724757 36 255 211 0.041757
-0.086467 -0.139609 0.731970 4 234 244 0.035443
-0.086391 -0.138364 0.729226 4 234 244 0.037750
-0.089213 -0.136431 0.728503 4 234 244 0.037650
-0.089216 -0.135244 0.725685 101 255 147 0.049417
-0.086324 -0.137089 0.726507 36 255 211 0.042719
-0.083768 -0.140126 0.729983 36 255 211 0.039722
-0.091633 -0.133025 0.725043 69 255 179 0.046067
-0.092603 -0.131113 0.723385 101 255 147 0.049815
-0.092199 -0.129629 0.720735 131 255 117 0.063571
-0.088647 -0.133663 0.723101 101 255 147 0.050159
-0.086053 -0.141962 0.737579 4 234 244 0.036330
-0.084346 -0.143253 0.739371 36 255 211 0.039364
-0.083855 -0.144269 0.742332 69 255 179 0.042993
-0.082297 -0.145498 0.744083 126 255 122 0.052274
-0.084599 -0.144965 0.746361 101 255 147 0.049590
-0.086396 -0.143572 0.744602 4 234 244 0.037514
-0.086856 -0.142586 0.741619 0 194 255 0.033852
-0.088678 -0.141210 0.739770 0 194 255 0.031615
-0.078685 -0.146712 0.744603 126 255 122 0.054270
-0.076557 -0.147456 0.746198 126 255 122 0.054257
-0.075328 -0.147906 0.749027 126 255 122 0.050869
-0.077421 -0.147411 0.751348 69 255 179 0.045371
-0.078597 -0.147009 0.748532 101 255 147 0.049271
-0.080996 -0.146160 0.746909 101 255 147 0.048355
-0.080271 -0.146289 0.755838 0 154 255 0.030111
-0.082855 -0.145454 0.754263 0 154 255 0.029877
-0.084306 -0.145028 0.751098 4 234 244 0.036343
-0.087007 -0.144025 0.749330 4 234 244 0.038364
-0.080724 -0.146360 0.751280 36 255 211 0.039908
-0.089911 -0.142211 0.748913 0 114 255 0.026801
-0.091926 -0.140749 0.746925 0 74 255 0.021423
-0.092561 -0.139806 0.743597 0 74 255 0.022064
-0.089370 -0.141755 0.744178 0 154 255 0.028239
-0.105372 -0.120592 0.726217 128 255 120 0.056242
-0.104971 -0.118557 0.723085 140 255 108 0.083299
-0.106680 -0.115313 0.722535 150 255 98 0.108263
-0.106025 -0.113242 0.719806 167 255 81 0.147844
-0.104348 -0.116540 0.720254 153 255 95 0.113652
-0.103642 -0.114510 0.717654 170 255 78 0.153051
-0.102475 -0.119807 0.720923 145 255 103 0.093924
-0.102998 -0.121807 0.723882 133 255 115 0.067589
-0.107098 -0.109633 0.719636 177 255 71 0.168692
-0.105684 -0.107281 0.717540 186 255 62 0.188595
-0.106222 -0.103614 0.717901 191 255 57 0.200938
-0.103995 -0.105056 0.715637 192 255 55 0.205342
-0.103212 -0.108637 0.715473 186 255 62 0.188007
-0.104712 -0.110959 0.717471 177 255 71 0.169980
-0.099007 -0.107791 0.712517 175 255 72 0.167803
-0.099453 -0.110604 0.713342 172 255 76 0.156821
-0.101029 -0.112839 0.715054 170 255 78 0.155562
-0.101222 -0.115614 0.716075 169 255 79 0.150392
-0.101479 -0.106421 0.713976 184 255 64 0.184420
-0.099491 -0.118810 0.716738 158 255 89 0.126192
-0.098808 -0.121391 0.718403 146 255 101 0.098457
-0.099456 -0.123401 0.720911 138 255 110 0.080969
-0.101879 -0.117726 0.718395 157 255 91 0.121492
-0.114003 -0.077865 0.746819 0 34 255 0.018603
-0.114132 -0.079878 0.745857 0 74 255 0.023379
-0.110367 -0.077401 0.744531 0 34 255 0.019352
-0.114254 -0.081771 0.744800 0 114 255 0.024908
-0.110428 -0.079353 0.743626 0 74 255 0.023391
-0.110609 -0.081306 0.742604 0 114 255 0.025113
-0.106647 -0.076852 0.742310 0 154 255 0.028466
-0.114288 -0.083728 0.743744 0 114 255 0.024945
-0.114418 -0.085593 0.742511 0 114 255 0.027260
-0.117643 -0.085624 0.744914 0 114 255 0.025710
-0.117503 -0.083763 0.746099 0 114 255 0.026585
-0.117457 -0.081839 0.747286 0 114 255 0.023775
-0.120947 -0.085639 0.747421 0 114 255 0.024278
-0.103835 -0.076035 0.740613 0 114 255 0.026616
-0.107050 -0.079213 0.740903 0 154 255 0.030851
-0.104363 -0.078405 0.739105 0 154 255 0.027512
-0.101192 -0.075154 0.738811 0 114 255 0.023546
-0.107451 -0.081430 0.739298 0 154 255 0.031143
-0.101749 -0.077528 0.737228 0 114 255 0.024187
-0.104869 -0.080719 0.737437 0 154 255 0.027351
-0.098865 -0.074244 0.736995 0 74 255 0.022561
-0.107949 -0.083599 0.737564 0 154 255 0.029522
-0.111507 -0.085685 0.739223 0 74 255 0.022471
-0.111146 -0.083573 0.740950 0 74 255 0.022700
-0.117183 -0.092918 0.739468 36 255 211 0.039276
-0.118922 -0.095274 0.739452 101 255 147 0.049228
-0.115353 -0.090609 0.739356 0 194 255 0.034506
-0.118237 -0.090186 0.742867 0 194 255 0.034205
-0.120063 -0.092448 0.742928 4 234 244 0.037021
-0.121981 -0.094754 0.742842 69 255 179 0.045293
-0.114935 -0.088206 0.740990 0 154 255 0.030434
-0.123320 -0.092168 0.745426 0 194 255 0.034040
-0.125173 -0.094176 0.745437 69 255 179 0.045111
-0.121479 -0.090196 0.745344 0 194 255 0.032049
-0.124670 -0.089620 0.747959 0 154 255 0.029333
-0.126522 -0.091554 0.748046 4 234 244 0.035334
-0.128410 -0.093471 0.748030 101 255 147 0.049934
-0.121198 -0.087957 0.746438 0 154 255 0.027540
-0.117916 -0.087944 0.744012 0 154 255 0.030018
-0.128372 -0.096004 0.746900 131 255 117 0.063821
-0.128184 -0.098659 0.745840 136 255 112 0.076565
-0.125137 -0.096665 0.744371 128 255 120 0.056761
-0.124927 -0.099302 0.743371 131 255 117 0.066311
-0.127912 -0.101362 0.744886 143 255 105 0.092533
-0.127476 -0.104150 0.744019 146 255 101 0.101467
-0.130828 -0.102777 0.746479 157 255 91 0.124440
-0.131265 -0.099995 0.747434 150 255 98 0.106967
-0.131546 -0.097290 0.748482 141 255 107 0.089742
-0.134184 -0.101351 0.748968 167 255 81 0.146553
-0.121880 -0.097488 0.741384 126 255 122 0.054493
-0.121734 -0.100464 0.740027 134 255 113 0.070454
-0.122983 -0.102832 0.740351 141 255 107 0.088710
-0.124091 -0.105322 0.740786 146 255 101 0.101423
-0.125025 -0.112390 0.743381 146 255 101 0.097989
-0.126652 -0.109361 0.743995 148 255 100 0.104211
-0.127226 -0.113728 0.745742 150 255 98 0.106969
-0.128839 -0.110640 0.746379 151 255 96 0.111521
-0.124493 -0.107762 0.741615 148 255 100 0.104354
-0.130960 -0.111889 0.748329 162 255 86 0.135405
-0.132528 -0.108961 0.748629 169 255 79 0.150777
-0.133811 -0.106070 0.749020 169 255 79 0.151136
-0.134743 -0.109852 0.750488 179 255 69 0.175638
-0.136203 -0.106946 0.750917 182 255 66 0.182938
-0.129853 -0.105560 0.745926 158 255 89 0.125121
-0.123114 -0.117240 0.743987 141 255 107 0.087503
-0.124938 -0.118214 0.746465 141 255 107 0.089315
-0.122208 -0.121287 0.746440 138 255 110 0.078587
-0.124067 -0.122231 0.748861 143 255 105 0.091047
-0.126733 -0.119107 0.748916 146 255 101 0.099253
-0.128377 -0.119937 0.751301 151 255 96 0.111761
-0.128797 -0.116369 0.749259 150 255 98 0.107636
-0.121635 -0.124600 0.749536 134 255 113 0.074083
-0.120698 -0.126446 0.751867 131 255 117 0.065569
-0.123884 -0.124812 0.752425 138 255 110 0.081565
-0.119639 -0.128345 0.754231 128 255 120 0.056597
-0.122806 -0.126695 0.754761 134 255 113 0.071164
-0.121637 -0.128560 0.757083 131 255 117 0.065375
-0.118610 -0.130241 0.756570 129 255 118 0.059252
-0.125792 -0.124983 0.755306 140 255 108 0.085562
-0.124592 -0.126838 0.757584 136 255 112 0.074233
-0.127547 -0.124985 0.758167 141 255 107 0.086904
-0.128094 -0.122404 0.754687 145 255 103 0.095953
-0.126195 -0.122351 0.751835 143 255 105 0.093715
-0.135653 -0.119532 0.761015 160 255 88 0.129658
-0.134044 -0.119676 0.758554 162 255 86 0.133698
-0.136032 -0.117261 0.758190 170 255 78 0.154074
-0.132300 -0.119844 0.756155 162 255 86 0.134350
-0.134343 -0.117405 0.755727 170 255 78 0.152800
-0.132488 -0.117513 0.753321 169 255 79 0.149850
-0.136375 -0.115034 0.755395 182 255 66 0.183470
-0.130412 -0.119906 0.753716 157 255 91 0.123081
-0.129967 -0.122368 0.757068 150 255 98 0.106339
-0.131686 -0.122232 0.759442 151 255 96 0.109892
-0.134743 -0.114502 0.753389 175 255 72 0.166643
-0.136665 -0.111872 0.753514 189 255 59 0.198531
-0.132928 -0.113999 0.751352 170 255 78 0.154734
-0.130698 -0.116934 0.751272 160 255 88 0.130544
-0.133635 -0.121301 0.762938 143 255 105 0.090008
-0.131510 -0.123124 0.764936 126 255 122 0.052821
-0.129631 -0.124120 0.761523 134 255 113 0.073858
-0.127569 -0.126015 0.763578 101 255 147 0.050697
-0.129522 -0.124949 0.766972 4 234 244 0.036964
-0.127596 -0.126768 0.769056 0 114 255 0.026190
-0.131456 -0.124191 0.769257 0 194 255 0.033766
-0.133469 -0.122382 0.767229 128 255 120 0.056895
-0.135531 -0.120609 0.765252 141 255 107 0.088019
-0.135351 -0.121715 0.769556 126 255 122 0.050798
-0.124936 -0.126999 0.761460 101 255 147 0.047054
-0.122182 -0.128864 0.760919 101 255 147 0.048252
-0.122532 -0.128935 0.764717 0 154 255 0.029179
-0.119333 -0.130626 0.760464 101 255 147 0.047336
-0.119796 -0.130820 0.764231 0 194 255 0.032072
-0.120054 -0.130777 0.767984 0 74 255 0.020197
-0.120184 -0.131171 0.770657 0 34 255 0.017990
-0.122554 -0.129336 0.767364 0 114 255 0.023451
-0.122538 -0.129728 0.770063 0 34 255 0.018879
-0.125077 -0.127864 0.766767 0 154 255 0.030175
-0.125012 -0.127473 0.764113 4 234 244 0.038529
-0.125018 -0.128243 0.769488 0 74 255 0.021014
-0.120871 -0.130535 0.785040 0 0 174 0.004911
-0.120567 -0.130345 0.781659 0 0 128 0.003150
-0.122997 -0.129047 0.780683 0 0 128 0.003838
-0.123199 -0.129252 0.784028 0 0 174 0.004622
-0.122798 -0.128994 0.777365 0 0 174 0.003934
-0.125447 -0.127802 0.779702 0 0 174 0.004242
-0.125342 -0.127723 0.776363 0 0 174 0.006120
-0.127764 -0.126502 0.775441 0 0 219 0.009118
-0.125584 -0.128010 0.783072 0 0 174 0.004732
-0.127936 -0.126557 0.778762 0 0 174 0.006236
-0.127971 -0.126803 0.782158 0 0 174 0.006279
-0.125084 -0.127843 0.773174 0 0 219 0.009471
-0.127685 -0.126588 0.772203 0 0 255 0.014213
-0.122760 -0.129274 0.773608 0 0 219 0.008495
-0.120318 -0.130784 0.774174 0 0 219 0.008020
-0.120456 -0.130480 0.777823 0 0 128 0.003671
-0.131665 -0.124338 0.778425 0 0 219 0.009263
-0.131864 -0.124683 0.781125 0 0 174 0.007637
-0.131478 -0.124111 0.775811 0 0 255 0.012558
-0.135454 -0.122019 0.774766 0 74 255 0.021915
-0.135491 -0.122335 0.777487 0 74 255 0.019987
-0.135598 -0.122678 0.780199 0 34 255 0.017415
-0.133458 -0.122868 0.772610 0 74 255 0.022604
-0.121299 -0.130296 0.788076 0 0 174 0.006901
-0.121743 -0.130008 0.791581 0 0 219 0.010057
-0.123997 -0.128884 0.790153 0 0 219 0.007994
-0.122162 -0.129707 0.795062 0 0 255 0.013788
-0.124410 -0.128650 0.793697 0 0 219 0.011093
-0.124845 -0.128359 0.797237 0 0 255 0.015352
-0.122640 -0.129287 0.798542 0 34 255 0.018190
-0.126732 -0.127645 0.792458 0 0 219 0.009630
-0.127150 -0.127448 0.796066 0 0 255 0.013856
-0.129563 -0.126435 0.794923 0 0 255 0.012727
-0.129104 -0.126542 0.791678 0 0 219 0.009588
-0.126279 -0.127765 0.789290 0 0 174 0.007420
-0.128696 -0.126575 0.788462 0 0 174 0.007653
-0.125901 -0.127860 0.786141 0 0 174 0.005597
-0.123592 -0.129042 0.787066 0 0 174 0.005805
-0.128325 -0.126640 0.785289 0 0 174 0.006552
-0.123474 -0.128528 0.801307 0 74 255 0.019753
-0.124315 -0.127533 0.804392 0 74 255 0.020336
-0.126470 -0.126967 0.802963 0 34 255 0.018954
-0.125274 -0.126373 0.807567 0 34 255 0.017909
-0.127433 -0.125912 0.806181 0 34 255 0.016951
-0.129673 -0.125374 0.804858 0 34 255 0.015936
-0.132098 -0.124635 0.803834 0 74 255 0.022487
-0.128781 -0.126238 0.801943 0 34 255 0.017969
-0.131161 -0.125429 0.800870 0 114 255 0.023448
-0.127903 -0.126933 0.799010 0 34 255 0.017000
-0.125617 -0.127743 0.800106 0 34 255 0.017726
-0.130324 -0.125991 0.797875 0 0 255 0.014635
-0.139660 -0.122157 0.799955 0 74 255 0.022451
-0.136859 -0.123255 0.797900 0 74 255 0.019708
-0.136060 -0.123557 0.795101 0 34 255 0.018397
-0.133394 -0.124705 0.793165 0 34 255 0.017196
-0.137280 -0.122928 0.791474 0 34 255 0.016282
-0.135819 -0.123480 0.801729 0 74 255 0.021818
-0.136751 -0.122849 0.788629 0 0 255 0.014557
-0.134413 -0.123715 0.786219 0 0 255 0.013935
-0.134075 -0.123593 0.783398 0 0 255 0.014125
-0.132924 -0.124693 0.789854 0 0 255 0.014612
-0.096973 -0.022476 0.785363 0 0 174 0.007345
-0.098115 -0.024325 0.783353 0 0 219 0.008966
-0.095296 -0.024166 0.781767 0 0 219 0.008282
-0.096357 -0.026113 0.779901 0 0 219 0.008385
-0.099221 -0.026221 0.781346 0 0 219 0.010616
-0.100412 -0.028162 0.779372 0 0 255 0.012618
-0.101768 -0.026611 0.782329 0 0 219 0.011595
-0.100581 -0.024743 0.784378 0 0 219 0.009734
-0.093896 -0.025963 0.778643 0 0 219 0.007886
-0.095372 -0.027942 0.777107 0 0 174 0.007778
-0.092452 -0.028053 0.775325 0 0 174 0.006621
-0.093868 -0.030175 0.773805 0 0 174 0.006250
-0.096909 -0.030024 0.775416 0 0 219 0.008526
-0.098418 -0.032076 0.773755 0 0 219 0.010046
-0.099412 -0.030022 0.776510 0 0 255 0.011848
-0.097887 -0.028053 0.778212 0 0 219 0.010104
-0.106447 -0.036194 0.773600 0 74 255 0.021200
-0.104974 -0.033942 0.775029 0 74 255 0.023032
-0.103485 -0.031857 0.776464 0 34 255 0.015867
-0.105565 -0.032065 0.777502 0 34 255 0.016474
-0.104095 -0.030118 0.778921 0 34 255 0.016562
-0.101917 -0.030000 0.777936 0 0 255 0.013764
-0.101005 -0.031977 0.775073 0 0 255 0.013028
-0.102524 -0.033973 0.773629 0 0 255 0.014015
-0.108170 -0.031609 0.779800 0 154 255 0.031135
-0.107083 -0.029710 0.781452 0 114 255 0.024032
-0.105978 -0.027967 0.783147 0 0 255 0.014892
-0.109202 -0.030242 0.782365 0 154 255 0.030138
-0.102943 -0.028339 0.780635 0 0 255 0.014453
-0.117930 -0.038559 0.779103 0 114 255 0.024048
-0.114819 -0.035908 0.779923 0 114 255 0.023999
-0.113946 -0.037426 0.777584 0 74 255 0.023417
-0.118748 -0.041307 0.776731 0 74 255 0.022963
-0.113695 -0.033918 0.781217 0 154 255 0.027555
-0.109211 -0.033413 0.778269 0 194 255 0.031449
-0.109962 -0.037737 0.774267 0 114 255 0.026490
-0.113518 -0.039460 0.775277 0 74 255 0.021717
-0.111493 -0.040175 0.773024 0 74 255 0.022629
-0.110488 -0.035707 0.776688 0 154 255 0.028231
-0.114837 -0.042684 0.772855 0 74 255 0.021262
-0.116753 -0.042039 0.774698 0 74 255 0.022087
-0.119968 -0.044358 0.774482 0 74 255 0.022588
-0.118064 -0.044954 0.772584 0 74 255 0.021887
-0.112284 -0.058150 0.758238 0 0 174 0.004808
-0.109233 -0.058490 0.756560 0 0 174 0.004055
-0.105936 -0.058730 0.754908 0 0 128 0.003751
-0.106007 -0.056083 0.756556 0 0 128 0.003874
-0.109153 -0.061086 0.754886 0 0 174 0.004873
-0.112111 -0.063086 0.755026 0 0 174 0.005837
-0.112249 -0.060708 0.756660 0 0 174 0.004918
-0.115152 -0.062676 0.756860 0 0 174 0.005826
-0.100728 -0.053981 0.756057 0 0 128 0.002845
-0.097971 -0.052904 0.755740 0 0 128 0.003215
-0.100584 -0.056760 0.754045 0 0 174 0.004860
-0.097822 -0.055620 0.753633 0 0 174 0.005489
-0.095455 -0.051850 0.755387 0 0 128 0.003736
-0.102967 -0.060261 0.752558 0 0 174 0.006177
-0.105690 -0.066415 0.749588 0 0 219 0.011015
-0.105763 -0.063988 0.751338 0 0 219 0.008301
-0.109111 -0.066159 0.751662 0 0 219 0.008775
-0.112331 -0.068097 0.752154 0 0 219 0.010244
-0.109138 -0.063586 0.753324 0 0 174 0.006089
-0.115227 -0.067531 0.753944 0 0 219 0.008055
-0.118182 -0.066874 0.755735 0 0 174 0.007255
-0.118310 -0.069245 0.754359 0 0 219 0.008594
-0.115122 -0.065156 0.755313 0 0 174 0.006647
-0.112228 -0.065658 0.753616 0 0 174 0.007502
-0.106883 -0.046550 0.764678 0 0 255 0.012154
-0.102584 -0.045740 0.763382 0 0 128 0.002633
-0.098344 -0.045232 0.762090 0 0 128 0.001408
-0.099609 -0.043140 0.764300 0 0 128 0.002138
-0.101375 -0.047860 0.761158 0 0 128 0.001882
-0.104492 -0.050504 0.760362 0 0 128 0.002722
-0.105734 -0.048594 0.762420 0 0 128 0.003514
-0.108569 -0.051005 0.761917 0 0 128 0.003467
-0.094771 -0.041419 0.763920 0 0 128 0.001385
-0.092808 -0.042046 0.762576 0 0 128 0.001781
-0.090382 -0.041124 0.762275 0 0 128 0.002363
-0.091468 -0.044091 0.760113 0 0 128 0.002545
-0.093808 -0.044973 0.760485 0 0 128 0.002083
-0.096300 -0.045865 0.760772 0 0 128 0.001527
-0.096207 -0.049733 0.757543 0 0 128 0.002797
-0.098723 -0.050666 0.757889 0 0 128 0.002289
-0.101431 -0.051756 0.758139 0 0 128 0.002086
-0.093698 -0.048720 0.757235 0 0 128 0.003368
-0.106561 -0.053942 0.758560 0 0 128 0.003228
-0.109482 -0.056086 0.758368 0 0 174 0.003915
-0.109897 -0.053826 0.760301 0 0 128 0.003809
-0.104246 -0.036268 0.772273 0 74 255 0.020389
-0.101976 -0.036476 0.771052 0 0 219 0.009160
-0.100231 -0.034226 0.772419 0 0 219 0.009909
-0.097855 -0.034464 0.771154 0 0 174 0.007193
-0.099586 -0.036680 0.769883 0 0 174 0.006723
-0.097219 -0.036843 0.768611 0 0 174 0.005004
-0.101582 -0.038738 0.768880 0 0 174 0.006411
-0.103948 -0.038583 0.770011 0 0 219 0.009272
-0.106230 -0.038539 0.771259 0 34 255 0.017904
-0.106040 -0.040967 0.768967 0 0 255 0.015260
-0.095689 -0.032459 0.772344 0 0 174 0.006014
-0.093003 -0.032705 0.770833 0 0 174 0.004359
-0.091233 -0.030458 0.772307 0 0 174 0.004530
-0.090292 -0.033003 0.769450 0 0 128 0.002967
-0.092323 -0.035053 0.768382 0 0 128 0.002549
-0.095050 -0.034860 0.769823 0 0 128 0.003433
-0.089863 -0.038371 0.764432 0 0 128 0.001971
-0.092297 -0.039258 0.764818 0 0 128 0.001713
-0.094706 -0.038733 0.766143 0 0 128 0.001807
-0.097231 -0.039537 0.766388 0 0 128 0.002504
-0.089952 -0.035622 0.767006 0 0 128 0.002133
-0.101827 -0.042836 0.765520 0 0 128 0.003317
-0.104075 -0.042559 0.766673 0 0 174 0.005232
-0.099424 -0.039177 0.767656 0 0 128 0.003906
-0.116515 -0.046006 0.770690 0 74 255 0.020788
-0.113161 -0.043753 0.770919 0 74 255 0.019970
-0.113197 -0.045966 0.768973 0 34 255 0.019322
-0.116472 -0.048005 0.768901 0 74 255 0.020777
-0.119663 -0.048137 0.770760 0 74 255 0.021648
-0.119696 -0.050069 0.768973 0 74 255 0.021654
-0.109685 -0.041276 0.770775 0 74 255 0.023049
-0.109688 -0.043567 0.768758 0 74 255 0.021383
-0.110394 -0.047464 0.765810 0 0 255 0.012251
-0.113702 -0.048303 0.767137 0 74 255 0.019961
-0.112441 -0.049646 0.765159 0 0 255 0.012017
-0.108340 -0.045051 0.766644 0 0 255 0.013351
-0.115758 -0.051480 0.765434 0 74 255 0.021081
-0.118619 -0.052226 0.766430 0 74 255 0.021558
-0.120429 -0.054148 0.765903 0 74 255 0.021837
-0.115031 -0.058032 0.759667 0 0 174 0.005199
-0.117704 -0.057946 0.761091 0 0 255 0.014683
-0.117502 -0.059867 0.759461 0 0 174 0.006660
-0.115202 -0.056063 0.761297 0 0 174 0.005102
-0.112695 -0.053857 0.761613 0 0 174 0.004787
-0.112553 -0.056019 0.759950 0 0 174 0.004351
-0.120692 -0.060972 0.760080 0 0 219 0.008379
-0.122989 -0.060976 0.761240 0 0 219 0.009949
-0.125357 -0.062651 0.761014 0 0 255 0.012478
-0.121629 -0.058762 0.762391 0 34 255 0.016679
-0.119381 -0.056765 0.762753 0 0 255 0.015381
-0.118312 -0.054727 0.764013 0 0 255 0.013993
-0.115687 -0.054216 0.763100 0 0 255 0.012805
-0.121386 -0.056199 0.764551 0 74 255 0.023340
-0.111706 -0.051474 0.763145 0 0 255 0.011990
-0.109343 -0.049091 0.763812 0 0 255 0.012018
-0.124213 -0.064279 0.759511 0 0 219 0.010463
-0.121046 -0.063256 0.759017 0 0 174 0.007150
-0.123038 -0.065930 0.758139 0 0 219 0.008753
-0.126185 -0.066795 0.758669 0 0 255 0.012092
-0.127394 -0.065231 0.760136 0 0 255 0.014229
-0.129404 -0.067719 0.759221 0 34 255 0.017416
-0.117731 -0.062276 0.758100 0 0 174 0.006017
-0.115016 -0.060230 0.758154 0 0 174 0.005438
-0.117869 -0.064521 0.756760 0 0 174 0.006758
-0.122087 -0.069948 0.755618 0 0 219 0.007876
-0.121696 -0.067783 0.756652 0 0 174 0.007595
-0.124525 -0.069426 0.756875 0 0 219 0.008714
-0.127308 -0.071058 0.757014 0 0 219 0.010619
-0.130606 -0.071725 0.757543 0 34 255 0.016450
-0.128495 -0.069384 0.758135 0 0 255 0.013150
-0.131679 -0.070136 0.758662 0 34 255 0.018676
-0.133957 -0.072424 0.758107 0 74 255 0.022269
-0.129259 -0.078990 0.753929 0 0 255 0.014664
-0.126844 -0.080496 0.752602 0 0 255 0.012858
-0.124671 -0.081952 0.751135 0 0 255 0.015393
-0.123319 -0.078694 0.751631 0 0 255 0.012151
-0.128367 -0.083730 0.752103 0 34 255 0.018343
-0.131887 -0.084940 0.752713 4 234 244 0.037351
-0.130537 -0.082024 0.753497 0 34 255 0.018932
-0.134165 -0.083293 0.754224 36 255 211 0.041406
-0.119609 -0.078398 0.749785 0 0 255 0.013536
-0.121374 -0.080389 0.750059 0 0 255 0.015310
-0.122774 -0.083860 0.749310 0 34 255 0.019383
-0.126185 -0.085368 0.750355 0 74 255 0.020027
-0.130110 -0.091026 0.749921 126 255 122 0.051321
-0.130008 -0.088971 0.750846 4 234 244 0.037839
-0.133766 -0.092249 0.750828 141 255 107 0.089125
-0.133751 -0.090147 0.751767 136 255 112 0.075843
-0.129930 -0.086914 0.751591 0 154 255 0.028885
-0.126341 -0.087482 0.749688 0 114 255 0.024506
-0.137507 -0.091357 0.752340 162 255 86 0.135607
-0.135965 -0.088146 0.753016 143 255 105 0.093276
-0.139552 -0.089062 0.753517 170 255 78 0.154579
-0.137718 -0.086004 0.754282 146 255 101 0.100066
-0.138028 -0.079558 0.756315 126 255 122 0.053472
-0.134465 -0.079340 0.755514 0 154 255 0.027525
-0.137731 -0.083245 0.755081 136 255 112 0.074501
-0.141238 -0.092410 0.753035 198 255 50 0.215506
-0.139107 -0.094936 0.752053 187 255 60 0.193889
-0.142349 -0.096049 0.752826 218 255 30 0.261719
-0.135456 -0.094068 0.751060 158 255 89 0.125105
-0.135174 -0.096417 0.750266 162 255 86 0.133933
-0.131716 -0.094966 0.749115 140 255 108 0.082465
-0.134762 -0.098867 0.749593 167 255 81 0.145885
-0.137812 -0.099870 0.750702 191 255 57 0.199799
-0.138394 -0.097421 0.751386 191 255 57 0.199530
-0.138675 -0.107815 0.752260 204 255 43 0.234170
-0.140090 -0.105139 0.752292 215 255 33 0.255479
-0.141428 -0.102492 0.752558 220 255 28 0.268545
-0.142711 -0.105748 0.753532 230 255 18 0.292747
-0.144353 -0.103009 0.753705 244 250 4 0.321994
-0.142790 -0.099798 0.752815 226 255 21 0.283678
-0.136838 -0.102447 0.750371 187 255 60 0.191684
-0.148090 -0.114089 0.766032 209 255 38 0.246031
-0.146142 -0.114364 0.764249 204 255 43 0.233194
-0.143725 -0.116032 0.765944 177 255 71 0.171870
-0.144129 -0.114675 0.762472 203 255 45 0.229026
-0.145706 -0.115769 0.767770 184 255 64 0.184602
-0.143331 -0.117434 0.769472 160 255 88 0.130754
-0.147648 -0.115585 0.769010 189 255 59 0.196809
-0.141790 -0.116478 0.764238 182 255 66 0.181843
-0.139824 -0.117081 0.761695 187 255 60 0.192208
-0.139535 -0.118262 0.766055 158 255 89 0.125248
-0.137625 -0.118862 0.763500 165 255 83 0.141244
-0.137330 -0.120001 0.767807 138 255 110 0.079724
-0.139268 -0.119540 0.769449 140 255 108 0.083734
-0.141382 -0.117845 0.767724 157 255 91 0.124157
-0.139317 -0.120316 0.776929 0 154 255 0.030569
-0.141213 -0.119044 0.774211 101 255 147 0.050252
-0.141306 -0.119917 0.778663 0 194 255 0.031911
-0.143284 -0.118515 0.775912 101 255 147 0.049887
-0.139200 -0.119750 0.772064 128 255 120 0.055282
-0.145184 -0.118219 0.777627 69 255 179 0.046759
-0.147385 -0.116855 0.775158 141 255 107 0.087075
-0.149616 -0.115572 0.772824 169 255 79 0.148634
-0.149322 -0.116651 0.776584 140 255 108 0.083893
-0.145380 -0.116835 0.771365 158 255 89 0.127448
-0.141029 -0.109644 0.754656 216 255 32 0.257945
-0.138619 -0.112361 0.754968 203 255 45 0.228037
-0.140587 -0.112761 0.756444 208 255 40 0.240140
-0.143115 -0.109995 0.756030 230 255 18 0.292029
-0.145072 -0.110346 0.757439 235 255 13 0.304208
-0.145194 -0.107476 0.755788 252 241 0 0.340150
-0.138394 -0.114960 0.757139 189 255 59 0.196133
-0.140413 -0.114865 0.758901 196 255 52 0.214582
-0.138018 -0.117165 0.759951 180 255 67 0.179287
-0.142314 -0.114779 0.760671 201 255 47 0.225230
-0.144661 -0.112456 0.759941 221 255 26 0.269743
-0.142723 -0.112630 0.758195 216 255 32 0.260029
-0.146652 -0.112511 0.761186 235 255 13 0.301984
-0.137720 -0.121782 0.782168 0 34 255 0.017168
-0.138233 -0.121832 0.784959 0 34 255 0.015976
-0.140251 -0.121194 0.787040 0 34 255 0.015916
-0.140687 -0.121355 0.789992 0 34 255 0.017557
-0.144345 -0.119830 0.788513 0 74 255 0.020811
-0.141827 -0.120123 0.783629 0 34 255 0.019518
-0.143461 -0.119113 0.780663 0 114 255 0.026915
-0.139668 -0.122040 0.793291 0 34 255 0.018341
-0.140488 -0.121869 0.796117 0 74 255 0.020529
-0.142952 -0.120981 0.798115 0 114 255 0.024024
-0.146268 -0.119794 0.796568 0 154 255 0.028655
-0.143940 -0.120525 0.794491 0 114 255 0.023438
-0.143295 -0.120498 0.791819 0 74 255 0.020076
-0.150764 -0.118275 0.794061 36 255 211 0.040870
-0.151744 -0.117832 0.790894 36 255 211 0.042574
-0.148650 -0.118926 0.792207 0 194 255 0.033761
-0.149821 -0.118271 0.788975 4 234 244 0.036774
-0.147768 -0.118684 0.787087 0 154 255 0.029252
-0.151164 -0.117563 0.785603 69 255 179 0.045068
-0.146558 -0.119326 0.790264 0 114 255 0.026159
-0.149373 -0.117690 0.783569 69 255 179 0.043635
-0.151210 -0.116660 0.780744 131 255 117 0.062793
-0.147357 -0.117985 0.781720 4 234 244 0.037392
-0.145791 -0.118908 0.785038 0 114 255 0.026882
-0.153545 -0.117450 0.792560 128 255 120 0.055724
-0.129212 -0.046370 0.776834 36 255 211 0.042743
-0.126970 -0.046720 0.775355 4 234 244 0.036265
-0.130124 -0.048334 0.774668 126 255 122 0.051956
-0.132314 -0.048019 0.776005 129 255 118 0.060639
-0.133334 -0.049914 0.774038 134 255 113 0.070410
-0.122764 -0.042316 0.778240 0 114 255 0.026376
-0.123677 -0.044648 0.775918 0 154 255 0.028458
-0.125975 -0.044467 0.777567 0 194 255 0.032014
-0.121376 -0.047062 0.772289 0 114 255 0.024849
-0.124864 -0.048168 0.772831 0 154 255 0.029193
-0.127842 -0.050661 0.771603 4 234 244 0.038482
-0.131230 -0.051300 0.771811 126 255 122 0.054461
-0.138323 -0.049965 0.775295 151 255 96 0.112440
-0.136114 -0.050941 0.773368 143 255 105 0.092714
-0.134141 -0.053203 0.770596 136 255 112 0.074871
-0.137219 -0.053408 0.770693 148 255 100 0.104555
-0.133568 -0.059623 0.765359 101 255 147 0.050677
-0.130574 -0.059324 0.765026 69 255 179 0.044620
-0.127741 -0.059039 0.764762 0 194 255 0.031768
-0.130305 -0.061352 0.763361 4 234 244 0.035927
-0.133147 -0.061607 0.763756 101 255 147 0.047420
-0.125266 -0.056450 0.765924 0 154 255 0.027775
-0.123487 -0.057936 0.763920 0 34 255 0.017644
-0.127821 -0.062707 0.761695 0 114 255 0.027002
-0.130910 -0.063754 0.761972 0 114 255 0.025545
-0.126270 -0.060627 0.762855 0 74 255 0.022530
-0.134325 -0.064745 0.761795 36 255 211 0.041444
-0.136460 -0.063950 0.762609 126 255 122 0.054481
-0.129417 -0.053100 0.769721 69 255 179 0.043075
-0.126215 -0.051735 0.770231 0 154 255 0.030760
-0.127710 -0.054160 0.768432 0 194 255 0.034619
-0.132616 -0.054456 0.769424 128 255 120 0.055931
-0.130988 -0.055446 0.768114 101 255 147 0.047839
-0.123051 -0.048987 0.771230 0 114 255 0.026077
-0.122935 -0.051815 0.768766 0 114 255 0.024951
-0.123271 -0.053790 0.767254 0 114 255 0.024736
-0.128343 -0.056901 0.766338 4 234 244 0.036177
-0.135598 -0.055215 0.768786 140 255 108 0.083814
-0.136587 -0.059523 0.765491 136 255 112 0.074960
-0.134389 -0.057354 0.767056 133 255 115 0.068012
-0.136446 -0.066787 0.760878 69 255 179 0.045204
-0.133024 -0.065940 0.760987 0 154 255 0.030021
-0.135103 -0.068194 0.760159 0 194 255 0.033613
-0.137476 -0.072945 0.758382 0 194 255 0.034861
-0.135285 -0.070875 0.758841 0 194 255 0.032138
-0.136196 -0.061716 0.763938 133 255 115 0.068647
-0.043574 -0.140846 0.827722 69 255 179 0.046830
-0.047011 -0.139365 0.830448 36 255 211 0.042176
-0.047882 -0.137419 0.834319 0 154 255 0.029605
-0.051205 -0.135176 0.836934 0 34 255 0.016160
-0.050408 -0.137514 0.833063 0 154 255 0.028932
-0.053742 -0.135263 0.835631 0 34 255 0.017050
-0.049557 -0.139671 0.829123 69 255 179 0.043367
-0.046083 -0.141128 0.826442 101 255 147 0.048595
-0.042568 -0.142242 0.823548 69 255 179 0.046478
-0.045101 -0.142488 0.822253 69 255 179 0.046565
-0.051889 -0.132243 0.840781 0 34 255 0.018387
-0.054990 -0.129413 0.843270 4 234 244 0.035206
-0.055604 -0.126929 0.847123 128 255 120 0.057744
-0.058039 -0.126922 0.845770 128 255 120 0.058189
-0.057456 -0.129504 0.841918 0 154 255 0.028129
-0.054385 -0.132326 0.839487 0 0 255 0.012631
-0.063061 -0.126870 0.842966 128 255 120 0.057059
-0.061339 -0.129577 0.839889 0 154 255 0.028879
-0.058283 -0.132445 0.837459 0 0 255 0.012493
-0.056470 -0.135408 0.834314 0 34 255 0.018159
-0.060509 -0.126926 0.844395 129 255 118 0.060042
-0.055840 -0.137776 0.830411 0 194 255 0.032786
-0.053835 -0.139907 0.827196 101 255 147 0.048801
-0.050264 -0.141436 0.824466 126 255 122 0.051945
-0.048087 -0.142679 0.820926 69 255 179 0.045226
-0.053045 -0.137671 0.831723 0 194 255 0.031833
-0.003885 -0.077748 0.759116 0 34 255 0.017688
-0.008157 -0.071536 0.757894 0 0 174 0.006066
-0.005356 -0.074312 0.759299 0 0 219 0.008756
-0.001335 -0.080705 0.760444 0 154 255 0.028480
0.000191 -0.084256 0.760660 101 255 147 0.050675
-0.011032 -0.069287 0.756809 0 0 128 0.003068
-0.013128 -0.066721 0.756408 0 0 128 0.001972
-0.014213 -0.063489 0.756666 0 0 128 0.002371
-0.012756 -0.062585 0.758453 0 0 128 0.003476
-0.011571 -0.065788 0.758123 0 0 128 0.002628
-0.008980 -0.068219 0.759288 0 0 128 0.002895
-0.009864 -0.061256 0.761444 0 0 174 0.006568
-0.008151 -0.064311 0.761899 0 0 174 0.006668
-0.007184 -0.067576 0.761402 0 0 174 0.004708
-0.005114 -0.070443 0.761406 0 0 174 0.004423
-0.009931 -0.064949 0.759941 0 0 128 0.003900
-0.002419 -0.073490 0.762901 0 0 174 0.006110
-0.000485 -0.076667 0.763288 0 0 219 0.009980
0.001897 -0.083692 0.762810 4 234 244 0.038375
-0.001042 -0.130289 0.778569 136 255 112 0.076639
-0.004968 -0.135142 0.779983 133 255 115 0.067762
-0.006963 -0.139261 0.782198 151 255 96 0.110119
-0.003357 -0.130915 0.777462 136 255 112 0.077896
-0.000221 -0.125995 0.775735 148 255 100 0.103396
-0.008300 -0.141207 0.785947 160 255 88 0.130442
-0.011363 -0.143185 0.788880 162 255 86 0.134524
-0.014557 -0.144624 0.791718 155 255 93 0.118288
-0.018815 -0.145935 0.793715 150 255 98 0.105961
-0.016607 -0.145309 0.790447 157 255 91 0.124515
-0.020985 -0.146412 0.792447 150 255 98 0.107475
-0.014108 -0.144090 0.787218 160 255 88 0.129582
-0.010882 -0.142069 0.784426 160 255 88 0.129069
-0.018979 -0.146028 0.788832 160 255 88 0.130086
-0.024008 -0.147399 0.790235 157 255 91 0.122200
-0.007413 -0.135332 0.778108 131 255 117 0.063731
-0.021100 -0.144691 0.797811 69 255 179 0.046169
-0.024214 -0.143875 0.801159 0 74 255 0.021076
-0.028577 -0.143477 0.803991 0 0 219 0.009488
-0.031640 -0.143506 0.807681 0 0 174 0.006327
-0.034112 -0.143638 0.806237 0 0 174 0.005388
-0.030896 -0.143642 0.802555 0 0 219 0.009258
-0.026560 -0.144094 0.799797 0 34 255 0.019328
-0.023248 -0.145094 0.796439 69 255 179 0.044127
-0.033321 -0.142925 0.812509 0 0 174 0.006923
-0.036094 -0.142758 0.816500 0 0 255 0.014593
-0.040011 -0.142578 0.819790 0 114 255 0.027056
-0.042532 -0.142805 0.818427 0 114 255 0.025587
-0.038580 -0.142861 0.815164 0 0 219 0.010974
-0.035743 -0.143113 0.811112 0 0 174 0.005191
-0.047048 -0.143009 0.816397 0 114 255 0.023723
-0.042864 -0.143002 0.813136 0 0 219 0.008385
-0.041867 -0.143234 0.808438 0 0 174 0.005022
-0.037456 -0.143654 0.804953 0 0 174 0.005252
-0.038514 -0.143099 0.809726 0 0 174 0.005186
-0.031014 -0.144156 0.797809 0 0 255 0.013492
-0.027586 -0.145680 0.794027 36 255 211 0.041976
-0.034260 -0.143561 0.801260 0 0 219 0.009965
0.006331 -0.100184 0.767208 153 255 95 0.114916
0.007280 -0.104452 0.770149 153 255 95 0.116957
0.006665 -0.109600 0.771816 157 255 91 0.123506
0.006354 -0.114684 0.773852 158 255 89 0.125802
0.003516 -0.091540 0.763620 143 255 105 0.091629
0.002460 -0.087556 0.762658 133 255 115 0.069730
0.005376 -0.095498 0.765842 141 255 107 0.087344
0.005629 -0.091018 0.766290 128 255 120 0.054980
0.007584 -0.099663 0.768712 145 255 103 0.096690
0.004135 -0.087196 0.764916 69 255 179 0.046594
0.008409 -0.109119 0.773127 151 255 96 0.110834
-0.032057 -0.053827 0.747770 0 0 219 0.010234
-0.027816 -0.056563 0.748252 0 0 255 0.015122
-0.031168 -0.056422 0.746477 0 34 255 0.016151
-0.033886 -0.055611 0.745491 0 0 255 0.015267
-0.036640 -0.054822 0.744559 0 0 255 0.013610
-0.039401 -0.054026 0.743460 0 34 255 0.016525
-0.024813 -0.057479 0.750574 0 0 174 0.006882
-0.022730 -0.059262 0.751552 0 0 174 0.004793
-0.021379 -0.061565 0.751300 0 0 174 0.005885
-0.022997 -0.062995 0.749194 0 0 219 0.010455
-0.024349 -0.060650 0.749467 0 0 219 0.008032
-0.026565 -0.059057 0.748395 0 0 219 0.010830
-0.026496 -0.062943 0.746831 0 0 255 0.012087
-0.028639 -0.061442 0.745530 0 34 255 0.019147
-0.030786 -0.059817 0.744159 0 194 255 0.032673
-0.034164 -0.059925 0.742471 0 154 255 0.029108
-0.036930 -0.059328 0.741472 0 114 255 0.026574
-0.041881 -0.057042 0.740223 0 154 255 0.028751
-0.038265 -0.056734 0.742389 0 74 255 0.019573
-0.035549 -0.057530 0.743346 0 74 255 0.020153
-0.057413 -0.050993 0.740018 4 234 244 0.037734
-0.054185 -0.051024 0.740556 0 154 255 0.030844
-0.050931 -0.051077 0.741087 0 114 255 0.025100
-0.053041 -0.053677 0.738963 0 154 255 0.029300
-0.056371 -0.053885 0.738478 0 154 255 0.030572
-0.059736 -0.054132 0.738034 4 234 244 0.036654
-0.061967 -0.052830 0.738535 69 255 179 0.043521
-0.064195 -0.051642 0.739058 126 255 122 0.050811
-0.066609 -0.054804 0.737035 128 255 120 0.056534
-0.046735 -0.050118 0.743010 0 74 255 0.020610
-0.043611 -0.050748 0.743986 0 34 255 0.017304
-0.041600 -0.052413 0.743822 0 0 255 0.013285
-0.043624 -0.054828 0.741479 0 34 255 0.017326
-0.045819 -0.053154 0.741795 0 34 255 0.017540
-0.048905 -0.052711 0.740885 0 74 255 0.022031
-0.045752 -0.057668 0.738521 0 154 255 0.028602
-0.048934 -0.057554 0.737842 0 114 255 0.024524
-0.051330 -0.056190 0.737960 0 154 255 0.027390
-0.054384 -0.056095 0.737127 0 194 255 0.033417
-0.047482 -0.055378 0.739679 0 74 255 0.021900
-0.058490 -0.057524 0.735721 4 234 244 0.038767
-0.061942 -0.058023 0.735216 36 255 211 0.040399
-0.064683 -0.057075 0.735649 101 255 147 0.048822
-0.068104 -0.057720 0.735090 128 255 120 0.056478
-0.082882 -0.058023 0.740291 0 74 255 0.023300
-0.080220 -0.056749 0.739786 0 194 255 0.033557
-0.077460 -0.055572 0.739381 36 255 211 0.042274
-0.080197 -0.059144 0.737303 69 255 179 0.043524
-0.083019 -0.060506 0.737867 0 154 255 0.029916
-0.085802 -0.061899 0.738499 0 74 255 0.022138
-0.085648 -0.059477 0.740936 0 0 255 0.015359
-0.088325 -0.060940 0.741608 0 0 219 0.010271
-0.088439 -0.063330 0.739090 0 34 255 0.016696
-0.091018 -0.064798 0.739782 0 0 219 0.011597
-0.070774 -0.053198 0.739009 126 255 122 0.054586
-0.067500 -0.052416 0.739016 126 255 122 0.054277
-0.070157 -0.055759 0.736998 126 255 122 0.051539
-0.073585 -0.056805 0.737095 101 255 147 0.047715
-0.075523 -0.056114 0.738141 69 255 179 0.046006
-0.072310 -0.060001 0.734119 128 255 120 0.055823
-0.075082 -0.059563 0.735051 128 255 120 0.057168
-0.079444 -0.062533 0.734083 126 255 122 0.050903
-0.081952 -0.062312 0.735121 101 255 147 0.048369
-0.077692 -0.059264 0.736129 101 255 147 0.049665
-0.085694 -0.065100 0.734538 36 255 211 0.042356
-0.088975 -0.067135 0.735126 0 154 255 0.027770
-0.087536 -0.064897 0.736160 0 154 255 0.030833
-0.092142 -0.069203 0.735727 0 194 255 0.033526
-0.090755 -0.066999 0.736812 0 34 255 0.019195
-0.093856 -0.069237 0.737594 0 114 255 0.024777
-0.095326 -0.071369 0.736537 0 114 255 0.025898
-0.092438 -0.066988 0.738671 0 0 219 0.010784
-0.101354 -0.067319 0.746194 0 0 219 0.011590
-0.097221 -0.064314 0.746040 0 0 219 0.009680
-0.097955 -0.067016 0.743999 0 0 219 0.009554
-0.101789 -0.069722 0.744377 0 0 255 0.012231
-0.105091 -0.069713 0.746702 0 0 255 0.013247
-0.108380 -0.071736 0.747211 0 0 255 0.013839
-0.092288 -0.063112 0.742837 0 0 174 0.005979
-0.090320 -0.062021 0.742215 0 0 174 0.007230
-0.094813 -0.066706 0.741436 0 0 174 0.007463
-0.097920 -0.071192 0.739388 0 74 255 0.021189
-0.100312 -0.072072 0.741103 0 74 255 0.022603
-0.103067 -0.073013 0.742841 0 34 255 0.016767
-0.096327 -0.068995 0.740394 0 0 219 0.008194
-0.107519 -0.074322 0.744836 0 34 255 0.016685
-0.111204 -0.074833 0.747052 0 34 255 0.017193
-0.118480 -0.071429 0.753160 0 0 219 0.009575
-0.115327 -0.069808 0.752625 0 0 219 0.010525
-0.115460 -0.071949 0.751354 0 0 219 0.011561
-0.118519 -0.073403 0.751929 0 0 219 0.010628
-0.121386 -0.072793 0.753745 0 0 219 0.008822
-0.124387 -0.074204 0.754296 0 0 219 0.009090
-0.109184 -0.068598 0.750004 0 0 219 0.011099
-0.111449 -0.071305 0.749443 0 0 255 0.013582
-0.116507 -0.076855 0.748866 0 34 255 0.016430
-0.118983 -0.075880 0.750956 0 0 255 0.013531
-0.115834 -0.074387 0.750026 0 0 255 0.014504
-0.122949 -0.076388 0.752625 0 0 219 0.010301
-0.126023 -0.077707 0.753325 0 0 219 0.010707
-0.132036 -0.074524 0.756798 0 34 255 0.017440
-0.135443 -0.075022 0.757364 0 114 255 0.026692
-0.124852 -0.071475 0.755907 0 0 219 0.008938
-0.126779 -0.073678 0.755474 0 0 219 0.010022
-0.130342 -0.077107 0.755208 0 0 255 0.014199
-0.137875 -0.077019 0.757108 36 255 211 0.040754
0.060115 -0.108468 0.907845 255 29 0 0.761729
