ply
format ascii 1.0
comment VCGLIB generated
element vertex 978
property float x
property float y
property float z
property uchar red
property uchar green
property uchar blue
property float quality
end_header
-0.433367 -0.141566 5.554670 0 217 255 0.013036
-0.429596 -0.150094 5.539460 3 233 245 0.015712
-0.452587 -0.147369 5.552550 0 217 255 0.012984
-0.456205 -0.138821 5.567840 0 205 255 0.011339
-0.475222 -0.144729 5.565860 0 209 255 0.012011
-0.448744 -0.156050 5.537540 0 229 248 0.014832
-0.471477 -0.153354 5.550700 0 217 255 0.013113
-0.467653 -0.162149 5.535710 0 229 248 0.015018
-0.478878 -0.136184 5.581130 0 205 255 0.011156
-0.383424 -0.108461 5.600030 0 185 255 0.009023
-0.364257 -0.104264 5.605800 0 185 255 0.008886
-0.359121 -0.114306 5.586230 0 197 255 0.010367
-0.345062 -0.100234 5.611630 0 185 255 0.008852
-0.340089 -0.110206 5.592000 0 201 255 0.010710
-0.335012 -0.120392 5.572540 0 217 255 0.012922
-0.330845 -0.129525 5.555360 6 237 242 0.016437
-0.354992 -0.123268 5.568730 0 217 255 0.012776
-0.350857 -0.132447 5.551420 6 237 242 0.016413
-0.375151 -0.126274 5.564930 0 221 255 0.013957
-0.379281 -0.117264 5.582370 0 205 255 0.011084
-0.371108 -0.135505 5.547680 9 241 238 0.016998
-0.327138 -0.173167 5.489690 58 255 190 0.030860
-0.327432 -0.162751 5.504030 48 255 200 0.027547
-0.348061 -0.164645 5.502070 45 255 203 0.026429
-0.347735 -0.175117 5.487660 55 255 193 0.029815
-0.348484 -0.154432 5.516830 32 255 216 0.022773
-0.368779 -0.166726 5.500140 45 255 203 0.026794
-0.369274 -0.156482 5.514990 35 255 213 0.023491
-0.390023 -0.158784 5.513290 38 255 209 0.024775
-0.368274 -0.177228 5.485810 55 255 193 0.030188
-0.389532 -0.169074 5.498440 51 255 196 0.028553
-0.388902 -0.179500 5.483980 61 255 187 0.032569
-0.369768 -0.146462 5.530140 19 253 229 0.019766
-0.390601 -0.148677 5.528510 29 255 219 0.021798
-0.349621 -0.143334 5.533870 19 253 229 0.019243
-0.329659 -0.140309 5.537710 22 255 225 0.019796
-0.328430 -0.151448 5.520580 32 255 216 0.022915
-0.408554 -0.184571 5.483760 51 255 196 0.028319
-0.428191 -0.180124 5.496240 32 255 216 0.022738
-0.447624 -0.185625 5.496400 22 255 225 0.020047
-0.467178 -0.181429 5.509430 9 241 238 0.017129
-0.466722 -0.200991 5.483860 25 255 222 0.020923
-0.448036 -0.166235 5.522230 13 245 235 0.017446
-0.428977 -0.160199 5.524160 13 245 235 0.017647
-0.409754 -0.154358 5.526240 19 253 229 0.019182
-0.409340 -0.164510 5.511000 32 255 216 0.022556
-0.451206 -0.205675 5.472610 35 255 213 0.023815
-0.431948 -0.200146 5.472360 42 255 206 0.026106
-0.416405 -0.205103 5.461470 58 255 190 0.030799
-0.396817 -0.199945 5.461540 67 255 180 0.035315
-0.404698 -0.220658 5.439730 77 255 171 0.038933
-0.424610 -0.226009 5.440820 61 255 187 0.032119
-0.440102 -0.220977 5.451790 48 255 200 0.027247
-0.459793 -0.226645 5.452980 32 255 216 0.023238
-0.475107 -0.221854 5.464170 22 255 225 0.020165
-0.483391 -0.242867 5.444730 29 255 219 0.021816
-0.355382 -0.195063 5.462320 71 255 177 0.036474
-0.334843 -0.193140 5.464390 74 255 174 0.037483
-0.343009 -0.213634 5.441650 84 255 164 0.041352
-0.363546 -0.215783 5.440780 77 255 171 0.038740
-0.380118 -0.207706 5.450910 74 255 174 0.036693
-0.366127 -0.244726 5.412530 84 255 164 0.041478
-0.386848 -0.248011 5.413090 71 255 177 0.036066
-0.407463 -0.251477 5.413630 64 255 184 0.033555
-0.420269 -0.243520 5.422430 64 255 184 0.034063
-0.435489 -0.266346 5.405530 61 255 187 0.032397
-0.391757 -0.228612 5.430620 77 255 171 0.038743
-0.455267 -0.272308 5.407590 38 255 209 0.024552
-0.474966 -0.278367 5.409760 22 255 225 0.020100
-0.459389 -0.254369 5.424660 42 255 206 0.025747
-0.479093 -0.260631 5.427040 25 255 222 0.020623
-0.498755 -0.267038 5.429640 6 237 242 0.016119
-0.494578 -0.284592 5.411940 6 237 242 0.016601
-0.514034 -0.290835 5.413960 0 225 251 0.014608
-0.439849 -0.248918 5.423610 51 255 196 0.029178
-0.502833 -0.455517 5.270290 0 197 255 0.010058
-0.524328 -0.473642 5.261030 0 197 255 0.010516
-0.503443 -0.474188 5.254840 0 185 255 0.008862
-0.524840 -0.491730 5.244980 0 193 255 0.009762
-0.545974 -0.491553 5.251530 0 209 255 0.011731
-0.567737 -0.508660 5.240890 16 249 232 0.018541
-0.571421 -0.489754 5.261070 6 237 242 0.016056
-0.549612 -0.472114 5.271130 0 205 255 0.011242
-0.527935 -0.453936 5.280510 0 193 255 0.009698
-0.574963 -0.470844 5.281330 0 217 255 0.013284
-0.499257 -0.492376 5.237050 0 181 255 0.008484
-0.515632 -0.509858 5.225380 0 189 255 0.009293
-0.496374 -0.509825 5.220970 0 173 255 0.007542
-0.536884 -0.518105 5.223230 0 209 255 0.011812
-0.558424 -0.526251 5.220880 13 245 235 0.018042
-0.611237 -0.560758 5.214040 48 255 200 0.028018
-0.631182 -0.572794 5.212860 67 255 180 0.034758
-0.591589 -0.548917 5.215320 32 255 216 0.022614
-0.606482 -0.532895 5.239160 19 253 229 0.019250
-0.626024 -0.545171 5.238310 67 255 180 0.034676
-0.645829 -0.557630 5.237700 84 255 164 0.041652
-0.579586 -0.529061 5.228480 19 253 229 0.019157
-0.569969 -0.546170 5.208010 19 253 229 0.019408
-0.653644 -0.548602 5.252400 74 255 174 0.037118
-0.635689 -0.527039 5.263490 55 255 193 0.029930
-0.661652 -0.539696 5.267040 64 255 184 0.033392
-0.609848 -0.514776 5.260210 0 229 248 0.015198
-0.643552 -0.517930 5.277970 45 255 203 0.026973
-0.617944 -0.505381 5.274380 42 255 206 0.025776
-0.625814 -0.495922 5.288420 0 201 255 0.010821
-0.669563 -0.530969 5.282140 51 255 196 0.028387
-0.651401 -0.509042 5.292890 32 255 216 0.022748
-0.677231 -0.522577 5.297780 32 255 216 0.023270
-0.592351 -0.493071 5.271050 0 221 255 0.013422
-0.600362 -0.483327 5.284810 0 205 255 0.011310
-0.588775 -0.511529 5.250420 6 237 242 0.016290
-0.495966 -0.305621 5.394220 3 233 245 0.015447
-0.476405 -0.299588 5.392360 16 249 232 0.018830
-0.456811 -0.293759 5.390820 25 255 222 0.021150
-0.478035 -0.320839 5.375310 6 237 242 0.016614
-0.497527 -0.327300 5.377910 0 217 255 0.013228
-0.517041 -0.333817 5.380580 0 193 255 0.009789
-0.515404 -0.312365 5.397200 0 205 255 0.011293
-0.534876 -0.319271 5.400300 0 185 255 0.008777
-0.536400 -0.340500 5.383340 0 173 255 0.007731
-0.555828 -0.347250 5.386300 0 161 255 0.006365
-0.404994 -0.272027 5.396300 55 255 193 0.029774
-0.415163 -0.284667 5.388170 45 255 203 0.026745
-0.425943 -0.298334 5.380750 29 255 219 0.022053
-0.436721 -0.311912 5.373370 9 241 238 0.017278
-0.457391 -0.316377 5.374410 6 237 242 0.016180
-0.457148 -0.359607 5.341540 0 205 255 0.011563
-0.478601 -0.365184 5.342840 0 201 255 0.010739
-0.456723 -0.337099 5.357300 0 225 251 0.014326
-0.478316 -0.342985 5.359150 0 221 255 0.013470
-0.499734 -0.348788 5.360570 0 213 255 0.012417
-0.500093 -0.370818 5.344250 0 197 255 0.010493
-0.521552 -0.376520 5.345550 0 197 255 0.010152
-0.541175 -0.383504 5.348870 0 173 255 0.007535
-0.560759 -0.390679 5.352270 0 153 255 0.005641
-0.538666 -0.361594 5.365450 0 177 255 0.008120
-0.558235 -0.369020 5.369260 0 153 255 0.005601
-0.577829 -0.376487 5.373270 0 129 255 0.004098
-0.580322 -0.397942 5.355850 0 133 255 0.004359
-0.599977 -0.405226 5.359590 0 117 255 0.003256
-0.519247 -0.355201 5.363060 0 193 255 0.009651
-0.611655 -0.197258 5.572140 0 141 255 0.004907
-0.589992 -0.196779 5.559880 0 145 255 0.004992
-0.574997 -0.179118 5.573370 0 157 255 0.006103
-0.553349 -0.178307 5.560740 0 173 255 0.007500
-0.568363 -0.195972 5.547400 0 157 255 0.006012
-0.546649 -0.195107 5.534750 0 173 255 0.007754
-0.584780 -0.212670 5.537320 0 137 255 0.004666
-0.606394 -0.213317 5.549670 0 129 255 0.004086
-0.628139 -0.213617 5.561640 0 141 255 0.004809
-0.622850 -0.229744 5.539280 0 133 255 0.004164
-0.537058 -0.162045 5.574340 0 177 255 0.007963
-0.517845 -0.153342 5.576440 0 181 255 0.008386
-0.514089 -0.162109 5.561460 0 185 255 0.008901
-0.498456 -0.144707 5.578730 0 193 255 0.009573
-0.494725 -0.153430 5.563660 0 197 255 0.010351
-0.490942 -0.162176 5.548620 0 205 255 0.011403
-0.507645 -0.178642 5.535070 0 193 255 0.010003
-0.530562 -0.178569 5.548010 0 177 255 0.008041
-0.486896 -0.208903 5.485350 3 233 245 0.015593
-0.506901 -0.207660 5.498020 0 201 255 0.010877
-0.526878 -0.215488 5.499580 0 185 255 0.008823
-0.546630 -0.213952 5.512320 0 165 255 0.006951
-0.546675 -0.232824 5.490100 0 173 255 0.007519
-0.526795 -0.196678 5.521950 0 185 255 0.008945
-0.487417 -0.180048 5.522280 0 213 255 0.012424
-0.566070 -0.241385 5.492860 0 145 255 0.005142
-0.585056 -0.240706 5.505230 0 129 255 0.004012
-0.604470 -0.248945 5.507660 0 117 255 0.003352
-0.623438 -0.248143 5.519770 0 113 255 0.003223
-0.624295 -0.266101 5.500060 0 117 255 0.003432
-0.603692 -0.230925 5.527170 0 125 255 0.003796
-0.565780 -0.213286 5.524850 0 149 255 0.005337
-0.609052 -0.268405 5.489050 0 117 255 0.003351
-0.589690 -0.260202 5.486630 0 125 255 0.003713
-0.574561 -0.262246 5.475420 0 137 255 0.004668
-0.555157 -0.253806 5.472800 0 157 255 0.006134
-0.563649 -0.274623 5.455260 0 161 255 0.006334
-0.582983 -0.282713 5.458820 0 137 255 0.004462
-0.598034 -0.280732 5.470000 0 117 255 0.003438
-0.617396 -0.288705 5.473250 0 109 255 0.002864
-0.632577 -0.286376 5.484340 0 109 255 0.002865
-0.641053 -0.306448 5.468250 0 117 255 0.003251
-0.530783 -0.235435 5.478480 0 189 255 0.009322
-0.511016 -0.227402 5.476970 0 209 255 0.011608
-0.495171 -0.229838 5.465590 3 233 245 0.015849
-0.503612 -0.250820 5.447440 3 233 245 0.015501
-0.519369 -0.248350 5.458650 0 205 255 0.011399
-0.539385 -0.256331 5.461350 0 181 255 0.008232
-0.533660 -0.298548 5.417030 0 201 255 0.010611
-0.553319 -0.306207 5.420150 0 173 255 0.007518
-0.538799 -0.282707 5.434430 0 189 255 0.009443
-0.558343 -0.290527 5.437810 0 157 255 0.006246
-0.578002 -0.298125 5.441000 0 141 255 0.004708
-0.572906 -0.313810 5.423400 0 153 255 0.005645
-0.592454 -0.321421 5.426430 0 133 255 0.004369
-0.518733 -0.274891 5.432080 0 209 255 0.012049
-0.610855 -0.328974 5.430250 0 113 255 0.003109
-0.629250 -0.336390 5.434100 0 101 255 0.002503
-0.616592 -0.314162 5.447470 0 109 255 0.002935
-0.635057 -0.321611 5.451250 0 97 255 0.002433
-0.653665 -0.329025 5.454980 0 97 255 0.002432
-0.647800 -0.343848 5.437800 0 97 255 0.002298
-0.666520 -0.351377 5.441500 0 97 255 0.002365
-0.597312 -0.306220 5.444320 0 117 255 0.003430
-0.909369 -0.904535 5.830160 0 121 255 0.003532
-0.888277 -0.910244 5.841340 0 105 255 0.002647
-0.879789 -0.918415 5.820390 0 117 255 0.003310
-0.900783 -0.912330 5.809150 0 133 255 0.004296
-0.858973 -0.924815 5.831280 0 113 255 0.003054
-0.871382 -0.926564 5.799310 0 133 255 0.004321
-0.850606 -0.933091 5.810390 0 125 255 0.003902
-0.842229 -0.941329 5.789560 0 149 255 0.005303
-0.892375 -0.920084 5.787910 0 145 255 0.005180
-0.862995 -0.934472 5.778330 0 149 255 0.005554
-0.883909 -0.927580 5.766790 0 157 255 0.006002
-0.829975 -0.939860 5.821280 0 125 255 0.003793
-0.821677 -0.948488 5.800530 0 153 255 0.005707
-0.801303 -0.955659 5.811380 0 161 255 0.006519
-0.810441 -0.945448 5.834130 0 125 255 0.003843
-0.839192 -0.929808 5.844160 0 105 255 0.002661
-0.819741 -0.935453 5.856970 0 101 255 0.002629
-0.848620 -0.919806 5.867050 0 93 255 0.002249
-0.868421 -0.914943 5.854290 0 97 255 0.002318
-0.829095 -0.925270 5.879800 0 93 255 0.002218
-0.877483 -0.933463 5.742880 0 161 255 0.006491
-0.855941 -0.942077 5.753450 0 169 255 0.007076
-0.849460 -0.947948 5.729710 0 177 255 0.007815
-0.871146 -0.938924 5.718820 0 173 255 0.007505
-0.828129 -0.957067 5.739920 0 185 255 0.008930
-0.842991 -0.953424 5.705760 0 185 255 0.008676
-0.821467 -0.962740 5.716130 0 189 255 0.009500
-0.814696 -0.968036 5.692360 0 193 255 0.009931
-0.864897 -0.944161 5.694690 0 181 255 0.008520
-0.836388 -0.958659 5.681840 0 189 255 0.009526
-0.858478 -0.949241 5.670700 0 197 255 0.010166
-0.800331 -0.971885 5.726160 0 209 255 0.011730
-0.793458 -0.977254 5.702410 0 209 255 0.012024
-0.772573 -0.986299 5.712190 3 233 245 0.015326
-0.780039 -0.979543 5.737180 0 221 255 0.013729
-0.807637 -0.964618 5.751070 0 193 255 0.009969
-0.787326 -0.972213 5.762040 0 209 255 0.011774
-0.814737 -0.956859 5.775940 0 177 255 0.007953
-0.835275 -0.949413 5.764770 0 169 255 0.007133
-0.794437 -0.964301 5.786790 0 189 255 0.009263
-0.709281 -1.001950 5.772650 19 253 229 0.019379
-0.717208 -0.993152 5.797880 3 233 245 0.015455
-0.740069 -0.987123 5.785640 0 229 248 0.014798
-0.724962 -0.983621 5.822870 0 201 255 0.010907
-0.747770 -0.977567 5.810690 0 193 255 0.010014
-0.755392 -0.967438 5.835660 0 157 255 0.006063
-0.732555 -0.973271 5.847770 0 161 255 0.006486
-0.770631 -0.971616 5.798550 0 193 255 0.009896
-0.778278 -0.961454 5.823510 0 153 255 0.005877
-0.763634 -0.979760 5.773870 0 213 255 0.012384
-0.756409 -0.987183 5.749050 0 225 251 0.014059
-0.732825 -0.994608 5.760920 6 237 242 0.016561
-0.725425 -1.001330 5.736000 9 241 238 0.017353
-0.748952 -0.993928 5.724110 0 229 248 0.015225
-0.701863 -1.008670 5.747760 22 255 225 0.019880
-0.741499 -0.962747 5.870330 0 209 255 0.011774
-0.751620 -0.950955 5.894690 0 197 255 0.010027
-0.773435 -0.946476 5.881040 0 197 255 0.010289
-0.761907 -0.939252 5.918990 0 197 255 0.010088
-0.783751 -0.934954 5.905450 0 197 255 0.010267
-0.805700 -0.930425 5.891770 0 93 255 0.002241
-0.796491 -0.940800 5.869000 0 97 255 0.002316
-0.787345 -0.951175 5.846270 0 121 255 0.003494
-0.764431 -0.957150 5.858350 0 121 255 0.003469
-0.646769 -0.363301 5.421140 0 73 255 0.001521
-0.628231 -0.355813 5.417510 0 81 255 0.001803
-0.609912 -0.348372 5.413850 0 93 255 0.002248
-0.627430 -0.374989 5.400730 0 77 255 0.001606
-0.643900 -0.381414 5.404930 0 61 255 0.001231
-0.660498 -0.387855 5.409170 0 49 255 0.000889
-0.663445 -0.369778 5.425460 0 65 255 0.001267
-0.680427 -0.376413 5.429760 0 57 255 0.001103
-0.677519 -0.394402 5.413430 0 45 255 0.000866
-0.694714 -0.401127 5.417760 0 49 255 0.000935
-0.574084 -0.334318 5.406260 0 141 255 0.004837
-0.554515 -0.326845 5.403300 0 165 255 0.006781
-0.573724 -0.354196 5.389910 0 133 255 0.004252
-0.591487 -0.361143 5.393440 0 109 255 0.002863
-0.591956 -0.341380 5.410010 0 113 255 0.003218
-0.609449 -0.368075 5.397100 0 85 255 0.001977
-0.616040 -0.411227 5.363730 0 105 255 0.002688
-0.632111 -0.417271 5.368000 0 93 255 0.002262
-0.613659 -0.390142 5.380050 0 97 255 0.002411
-0.629656 -0.396303 5.384360 0 81 255 0.001729
-0.645987 -0.402492 5.388960 0 65 255 0.001261
-0.648496 -0.423339 5.372390 0 85 255 0.001905
-0.664893 -0.429454 5.376850 0 73 255 0.001567
-0.595691 -0.383304 5.376660 0 109 255 0.002997
-0.687066 -0.427601 5.392280 0 65 255 0.001268
-0.709959 -0.425940 5.407580 0 65 255 0.001269
-0.709860 -0.444956 5.392100 0 85 255 0.001915
-0.662696 -0.408883 5.393160 0 57 255 0.001078
-0.348857 -0.785079 5.042870 100 255 148 0.048559
-0.327596 -0.789930 5.040070 106 255 142 0.053003
-0.312541 -0.806144 5.037190 103 255 145 0.051399
-0.291422 -0.811257 5.034460 106 255 142 0.052721
-0.303454 -0.833061 5.033930 116 255 132 0.058438
-0.324749 -0.827658 5.036260 116 255 132 0.057992
-0.339798 -0.811601 5.039200 106 255 142 0.052656
-0.361252 -0.805985 5.041590 106 255 142 0.051620
-0.376783 -0.789903 5.044710 100 255 148 0.048879
-0.389375 -0.811072 5.043350 103 255 145 0.050767
-0.259946 -0.806030 5.030910 109 255 138 0.053568
-0.234515 -0.811469 5.026640 122 255 126 0.060849
-0.214460 -0.828058 5.022420 116 255 132 0.057732
-0.226607 -0.850280 5.022920 125 255 122 0.063726
-0.246475 -0.833412 5.027070 116 255 132 0.058492
-0.272111 -0.827715 5.030710 113 255 135 0.055571
-0.242719 -0.895028 5.030640 138 255 109 0.071739
-0.264637 -0.877963 5.032450 129 255 119 0.066231
-0.290210 -0.872593 5.035790 125 255 122 0.062616
-0.311462 -0.855774 5.037290 116 255 132 0.057576
-0.319493 -0.878563 5.040380 125 255 122 0.062958
-0.282119 -0.849713 5.032450 119 255 129 0.059913
-0.256574 -0.855520 5.028940 122 255 126 0.062096
-0.234525 -0.872491 5.027060 132 255 116 0.067589
-0.340570 -0.873444 5.042590 119 255 129 0.060307
-0.357976 -0.856400 5.043370 106 255 142 0.052225
-0.379437 -0.851200 5.045600 103 255 145 0.051494
-0.397304 -0.834212 5.046400 96 255 151 0.047477
-0.405168 -0.857666 5.049480 113 255 135 0.055467
-0.371555 -0.827700 5.042540 106 255 142 0.052245
-0.350040 -0.833510 5.040290 103 255 145 0.051332
-0.332755 -0.850322 5.039510 113 255 135 0.055103
-0.653400 -1.032950 5.581770 0 177 255 0.008137
-0.660317 -1.030190 5.603740 0 181 255 0.008252
-0.684000 -1.022020 5.590500 0 177 255 0.007973
-0.667235 -1.027600 5.625800 0 185 255 0.008628
-0.690898 -1.019290 5.612470 0 177 255 0.008110
-0.697844 -1.016690 5.634480 0 189 255 0.009120
-0.674161 -1.024970 5.647900 0 197 255 0.010338
-0.714651 -1.011340 5.598960 0 185 255 0.008683
-0.721530 -1.008480 5.621010 0 185 255 0.008867
-0.745491 -1.000220 5.607330 0 193 255 0.009925
-0.737759 -1.002700 5.583720 0 193 255 0.009563
-0.706819 -1.013470 5.575490 0 177 255 0.007892
-0.730009 -1.005290 5.560230 0 197 255 0.010084
-0.698955 -1.015670 5.552160 0 177 255 0.007825
-0.676050 -1.024230 5.566960 0 165 255 0.006738
-0.668163 -1.026220 5.543670 0 165 255 0.006921
-0.722150 -1.007260 5.536950 0 197 255 0.010233
-0.691055 -1.017720 5.528860 0 177 255 0.008017
-0.714245 -1.009350 5.513670 0 201 255 0.010611
-0.645518 -1.035160 5.558340 0 177 255 0.007783
-0.681272 -1.022610 5.674290 0 225 251 0.014208
-0.688320 -1.018540 5.698840 6 237 242 0.016248
-0.711937 -1.011190 5.687080 0 229 248 0.015128
-0.695188 -1.013950 5.723320 16 249 232 0.018684
-0.718802 -1.006620 5.711550 6 237 242 0.016552
-0.742339 -0.999270 5.699730 3 233 245 0.015618
-0.766011 -0.990332 5.686010 0 217 255 0.013256
-0.735541 -1.002680 5.673460 0 213 255 0.012688
-0.759316 -0.993880 5.659800 0 205 255 0.011476
-0.728612 -1.005630 5.647280 0 197 255 0.010151
-0.704948 -1.014010 5.660800 0 205 255 0.011274
-0.752438 -0.997122 5.633610 0 197 255 0.010202
-0.852599 -0.951648 5.643450 0 193 255 0.009676
-0.830172 -0.962899 5.655480 0 201 255 0.010695
-0.824160 -0.965074 5.628200 0 197 255 0.010267
-0.846851 -0.953947 5.616240 0 205 255 0.011327
-0.801947 -0.976119 5.639660 0 201 255 0.010595
-0.817837 -0.967190 5.601280 0 197 255 0.010279
-0.795436 -0.978043 5.612690 0 189 255 0.009076
-0.788915 -0.979678 5.585820 0 185 255 0.008949
-0.840864 -0.956212 5.589210 0 225 251 0.014059
-0.811733 -0.969072 5.574160 0 217 255 0.012775
-0.834789 -0.958290 5.562390 13 245 235 0.018119
-0.773725 -0.988689 5.623630 0 197 255 0.010340
-0.766826 -0.990084 5.596820 0 185 255 0.008722
-0.780400 -0.985238 5.649850 0 201 255 0.010553
-0.786964 -0.981491 5.676160 0 205 255 0.011363
-0.808269 -0.972271 5.666060 0 197 255 0.010336
-0.828795 -0.958234 5.532470 25 255 222 0.021108
-0.804251 -0.972343 5.550800 3 233 245 0.015666
-0.797872 -0.971745 5.521020 13 245 235 0.017461
-0.822373 -0.957777 5.502830 48 255 200 0.027727
-0.773762 -0.985591 5.538810 0 221 255 0.013714
-0.790812 -0.970929 5.491550 19 253 229 0.019130
-0.766883 -0.984478 5.509250 0 217 255 0.012785
-0.759820 -0.983203 5.479700 0 221 255 0.013602
-0.815746 -0.957204 5.472850 71 255 177 0.035946
-0.783772 -0.969844 5.461640 32 255 216 0.022580
-0.808286 -0.956191 5.443200 93 255 155 0.045359
-0.743855 -0.998030 5.526320 0 213 255 0.012180
-0.736600 -0.996333 5.497010 0 189 255 0.009121
-0.751597 -0.995499 5.549740 0 197 255 0.010332
-0.759199 -0.992876 5.573270 0 189 255 0.009145
-0.781390 -0.982810 5.562210 0 201 255 0.010666
-0.684773 -1.005260 5.342010 58 255 190 0.030959
-0.670917 -1.013770 5.355570 32 255 216 0.022768
-0.667669 -1.018520 5.381390 13 245 235 0.018107
-0.654122 -1.027420 5.394630 13 245 235 0.017504
-0.650986 -1.032500 5.420250 13 245 235 0.018039
-0.630398 -1.040660 5.395080 35 255 213 0.023676
-0.674928 -1.019710 5.419610 0 229 248 0.014783
-0.671744 -1.024780 5.445160 0 229 248 0.015068
-0.687319 -1.014390 5.430470 0 221 255 0.013847
-0.690589 -1.009440 5.404770 0 229 248 0.014829
-0.703116 -1.004270 5.415550 0 229 248 0.015093
-0.706609 -0.999401 5.389540 22 255 225 0.020047
-0.693978 -1.004700 5.378750 22 255 225 0.019796
-0.710148 -0.994983 5.363310 51 255 196 0.028567
-0.719291 -0.994175 5.400220 22 255 225 0.020117
-0.723084 -0.989747 5.373790 61 255 187 0.032355
-0.735949 -0.984650 5.384390 67 255 180 0.034787
-0.697458 -0.999943 5.352680 51 255 196 0.028487
-0.612487 -1.046740 5.407500 22 255 225 0.020008
-0.602612 -1.050550 5.434110 9 241 238 0.016698
-0.584854 -1.056750 5.446220 6 237 242 0.016573
-0.600693 -1.051830 5.474580 0 221 255 0.013576
-0.620719 -1.043980 5.460860 0 209 255 0.011917
-0.640905 -1.036200 5.446950 0 213 255 0.012592
-0.635075 -1.039110 5.541210 0 177 255 0.008184
-0.657686 -1.030300 5.526530 0 165 255 0.006983
-0.647233 -1.034270 5.509450 0 181 255 0.008380
-0.680474 -1.021740 5.511650 0 185 255 0.008922
-0.669931 -1.025710 5.494610 0 189 255 0.009523
-0.693037 -1.017050 5.479320 0 217 255 0.013313
-0.703659 -1.013210 5.496520 0 213 255 0.012391
-0.659476 -1.029580 5.477440 0 197 255 0.010402
-0.682365 -1.020860 5.462220 0 221 255 0.013397
-0.639086 -1.036910 5.491500 0 185 255 0.009062
-0.618928 -1.044480 5.505250 0 185 255 0.008904
-0.627036 -1.041700 5.523170 0 177 255 0.008130
-0.719541 -1.002940 5.481900 0 193 255 0.009688
-0.742228 -0.990057 5.464760 0 217 255 0.012973
-0.724859 -0.996721 5.449770 0 213 255 0.012730
-0.765712 -0.976993 5.446950 32 255 216 0.022544
-0.748036 -0.983948 5.432020 22 255 225 0.020423
-0.771778 -0.971223 5.413820 87 255 161 0.042491
-0.790177 -0.963996 5.428380 90 255 158 0.044954
-0.730412 -0.990577 5.417140 22 255 225 0.020324
-0.753816 -0.978110 5.399110 77 255 171 0.038928
-0.714023 -1.000530 5.432640 0 221 255 0.013538
-0.698030 -1.010510 5.447560 0 213 255 0.012319
-0.708772 -1.006910 5.464710 0 201 255 0.010798
-0.630419 -0.604036 5.186150 84 255 164 0.041474
-0.654501 -0.613858 5.196770 87 255 161 0.042216
-0.669409 -0.630645 5.195230 100 255 148 0.049415
-0.692996 -0.641493 5.206700 109 255 138 0.053656
-0.674899 -0.653730 5.180910 132 255 116 0.067312
-0.687063 -0.618229 5.220910 106 255 142 0.052603
-0.710124 -0.629647 5.233590 106 255 142 0.052342
-0.670927 -0.600179 5.222170 93 255 155 0.045684
-0.654651 -0.582397 5.223580 87 255 161 0.043437
-0.686596 -0.673694 5.181500 135 255 113 0.068604
-0.707417 -0.688758 5.194960 129 255 119 0.066246
-0.718178 -0.709363 5.196630 135 255 113 0.070606
-0.738116 -0.725381 5.211300 142 255 106 0.074727
-0.719007 -0.735427 5.186120 161 255 87 0.087893
-0.736645 -0.699360 5.222520 113 255 135 0.056022
-0.756215 -0.715488 5.238080 109 255 138 0.053663
-0.725404 -0.677796 5.221210 100 255 148 0.048642
-0.713705 -0.656482 5.220310 93 255 155 0.046686
-0.795683 -0.697139 5.295170 58 255 190 0.030824
-0.784329 -0.675626 5.294140 45 255 203 0.026867
-0.774780 -0.679964 5.279390 58 255 190 0.031524
-0.763273 -0.658727 5.278470 71 255 177 0.036274
-0.772809 -0.654351 5.293140 67 255 180 0.034385
-0.753555 -0.662970 5.263670 84 255 164 0.041948
-0.751431 -0.637591 5.277730 67 255 180 0.034281
-0.741534 -0.641857 5.262880 77 255 171 0.038533
-0.729255 -0.620914 5.262090 77 255 171 0.038283
-0.760994 -0.633365 5.292250 58 255 190 0.031412
-0.739040 -0.616690 5.276870 64 255 184 0.033423
-0.748668 -0.612441 5.291440 51 255 196 0.028797
-0.731918 -0.646123 5.248080 93 255 155 0.045348
-0.719607 -0.625151 5.247630 96 255 151 0.047096
-0.755211 -0.688962 5.250630 77 255 171 0.038695
-0.776071 -0.706130 5.266770 80 255 167 0.039773
-0.730972 -0.589882 5.293100 42 255 206 0.025221
-0.722694 -0.597864 5.276610 51 255 196 0.028702
-0.704834 -0.575350 5.278270 45 255 203 0.027140
-0.712817 -0.567289 5.294920 25 255 222 0.021466
-0.697048 -0.583500 5.262140 61 255 187 0.032083
-0.686982 -0.553036 5.280180 38 255 209 0.024706
-0.679193 -0.561468 5.264690 55 255 193 0.030122
-0.694954 -0.544824 5.296250 25 255 222 0.020734
-0.671341 -0.570081 5.249510 71 255 177 0.035612
-0.687701 -0.588141 5.248590 71 255 177 0.036101
-0.703679 -0.606553 5.248010 80 255 167 0.040586
-0.713288 -0.602156 5.262120 67 255 180 0.034397
-0.737942 -0.903270 5.251250 109 255 138 0.054361
-0.748763 -0.879235 5.253550 87 255 161 0.042220
-0.760211 -0.892531 5.273990 93 255 155 0.046614
-0.759582 -0.854670 5.255850 90 255 158 0.044003
-0.771165 -0.867975 5.276380 84 255 164 0.041922
-0.782071 -0.842823 5.278890 96 255 151 0.047695
-0.782853 -0.881367 5.296970 96 255 151 0.047863
-0.770192 -0.829466 5.258160 93 255 155 0.046332
-0.780459 -0.803549 5.260820 119 255 129 0.060223
-0.760349 -0.814311 5.235680 132 255 116 0.066759
-0.750152 -0.839537 5.233280 113 255 135 0.056522
-0.739384 -0.864267 5.231330 106 255 142 0.052023
-0.739952 -0.824485 5.211640 138 255 109 0.072390
-0.795514 -0.874535 5.308800 103 255 145 0.050749
-0.793747 -0.856729 5.300970 90 255 158 0.044137
-0.806670 -0.849483 5.312870 90 255 158 0.043857
-0.808376 -0.867400 5.320610 103 255 145 0.050191
-0.804784 -0.831532 5.304990 96 255 151 0.046946
-0.818982 -0.842436 5.325040 93 255 155 0.045837
-0.816936 -0.824515 5.317310 96 255 151 0.046763
-0.828935 -0.817277 5.329630 87 255 161 0.043134
-0.820699 -0.860419 5.332750 100 255 148 0.048640
-0.831051 -0.835392 5.337290 87 255 161 0.042421
-0.832771 -0.853550 5.345130 96 255 151 0.046967
-0.814813 -0.806223 5.309520 96 255 151 0.048151
-0.826649 -0.799082 5.321900 90 255 158 0.044588
-0.823954 -0.780503 5.314240 96 255 151 0.047717
-0.813127 -0.786226 5.300980 109 255 138 0.053942
-0.803812 -0.811750 5.296260 103 255 145 0.050328
-0.802342 -0.791822 5.287650 119 255 129 0.059272
-0.792588 -0.817531 5.282980 109 255 138 0.053371
-0.793312 -0.837250 5.291990 93 255 155 0.046532
-0.791447 -0.797609 5.274220 113 255 135 0.056703
-0.793272 -0.723390 5.285900 77 255 171 0.038360
-0.789946 -0.749756 5.276830 90 255 158 0.043639
-0.773221 -0.732535 5.257630 96 255 151 0.046827
-0.779731 -0.754419 5.262630 100 255 148 0.048429
-0.769662 -0.759275 5.248460 109 255 138 0.054701
-0.785850 -0.776518 5.268400 113 255 135 0.056012
-0.796460 -0.770755 5.282050 106 255 142 0.052890
-0.807013 -0.765101 5.295590 96 255 151 0.048138
-0.800292 -0.744077 5.290370 84 255 164 0.041102
-0.810646 -0.738171 5.304060 74 255 174 0.037944
-0.817602 -0.759368 5.308980 90 255 158 0.044139
-0.803349 -0.717642 5.299430 67 255 180 0.034841
-0.753614 -0.742628 5.230240 122 255 126 0.061270
-0.750096 -0.770142 5.223130 129 255 119 0.065205
-0.734990 -0.752714 5.204160 138 255 109 0.072532
-0.730927 -0.779966 5.197570 145 255 103 0.075822
-0.745753 -0.797369 5.216730 135 255 113 0.069126
-0.765487 -0.786778 5.241630 119 255 129 0.059712
-0.585158 -0.654460 5.127260 87 255 161 0.043013
-0.597856 -0.668099 5.125750 96 255 151 0.047686
-0.617715 -0.676110 5.131150 109 255 138 0.054008
-0.630341 -0.690328 5.129980 135 255 113 0.068596
-0.644342 -0.678224 5.143650 142 255 106 0.073995
-0.630666 -0.662810 5.145400 116 255 132 0.057334
-0.611024 -0.655046 5.139910 96 255 151 0.046896
-0.597166 -0.640193 5.141870 84 255 164 0.041860
-0.634013 -0.714583 5.124080 135 255 113 0.070629
-0.643721 -0.732119 5.126140 138 255 109 0.070900
-0.660930 -0.745365 5.135030 145 255 103 0.076546
-0.670131 -0.763276 5.137480 158 255 90 0.086359
-0.686046 -0.754265 5.150440 171 255 77 0.095246
-0.676176 -0.734810 5.148150 158 255 90 0.085002
-0.658733 -0.721511 5.139510 142 255 106 0.073716
-0.648244 -0.702723 5.137860 138 255 109 0.072238
-0.701084 -0.720329 5.174570 151 255 96 0.081614
-0.690394 -0.699895 5.173040 142 255 106 0.073754
-0.671370 -0.685758 5.162800 135 255 113 0.070090
-0.659939 -0.665951 5.162070 135 255 113 0.070681
-0.674315 -0.710761 5.154970 145 255 103 0.075587
-0.702907 -0.744864 5.168010 167 255 80 0.094099
-0.653656 -0.644228 5.173020 113 255 135 0.055115
-0.638905 -0.627726 5.174820 93 255 155 0.046497
-0.617421 -0.619003 5.167330 87 255 161 0.043002
-0.624743 -0.641338 5.156070 100 255 148 0.048767
-0.733213 -0.917882 5.262320 90 255 158 0.044373
-0.746033 -0.912180 5.272460 100 255 148 0.048832
-0.741356 -0.926810 5.283450 90 255 158 0.043962
-0.728744 -0.932467 5.273130 84 255 164 0.040776
-0.754099 -0.921073 5.293710 96 255 151 0.046825
-0.736798 -0.941452 5.294180 87 255 161 0.042665
-0.749654 -0.935910 5.304420 93 255 155 0.045923
-0.744938 -0.950567 5.315300 96 255 151 0.047466
-0.724342 -0.946974 5.283760 84 255 164 0.041322
-0.732381 -0.955977 5.304850 90 255 158 0.043995
-0.719815 -0.961557 5.294430 87 255 161 0.043062
-0.762160 -0.930240 5.315110 93 255 155 0.045499
-0.757679 -0.945124 5.325730 100 255 148 0.049744
-0.770486 -0.939538 5.336200 109 255 138 0.054263
-0.776824 -0.910556 5.316520 93 255 155 0.045612
-0.768307 -0.901412 5.295360 93 255 155 0.045788
-0.710746 -0.972307 5.306610 64 255 184 0.033063
-0.723847 -0.967080 5.316900 74 255 174 0.036795
-0.714755 -0.977892 5.329120 61 255 187 0.031769
-0.701900 -0.983123 5.318590 58 255 190 0.031309
-0.727751 -0.972664 5.339530 64 255 184 0.033655
-0.706037 -0.988904 5.340910 51 255 196 0.028540
-0.718773 -0.983607 5.351580 51 255 196 0.028385
-0.693210 -0.994122 5.330410 51 255 196 0.028501
-0.731695 -0.978521 5.362110 55 255 193 0.030217
-0.744444 -0.973384 5.372490 64 255 184 0.033706
-0.740174 -0.967243 5.350200 64 255 184 0.033158
-0.752851 -0.961923 5.360670 67 255 180 0.035258
-0.748764 -0.956210 5.338100 80 255 167 0.039742
-0.736187 -0.961574 5.327560 71 255 177 0.036599
-0.761779 -0.950736 5.348340 84 255 164 0.041926
-0.813423 -0.944477 5.427320 93 255 155 0.045723
-0.798972 -0.952234 5.416490 93 255 155 0.046658
-0.803943 -0.940531 5.400610 93 255 155 0.045198
-0.818124 -0.932849 5.411660 90 255 158 0.044910
-0.789513 -0.948091 5.389610 96 255 151 0.047300
-0.808850 -0.928962 5.384620 103 255 145 0.050657
-0.794454 -0.936401 5.373740 96 255 151 0.047617
-0.799348 -0.924925 5.357700 122 255 126 0.060649
-0.823226 -0.921081 5.395720 106 255 142 0.051956
-0.813902 -0.917098 5.368680 116 255 132 0.057314
-0.827949 -0.909521 5.379870 119 255 129 0.059149
-0.779991 -0.943682 5.362930 96 255 151 0.046899
-0.784793 -0.932374 5.347000 119 255 129 0.059147
-0.771168 -0.955225 5.375010 84 255 164 0.041739
-0.762264 -0.966705 5.387240 84 255 164 0.041953
-0.780410 -0.959651 5.401950 90 255 158 0.044254
-0.818215 -0.888338 5.350420 109 255 138 0.053318
-0.830474 -0.881543 5.362470 100 255 148 0.049861
-0.805724 -0.895158 5.338310 109 255 138 0.053689
-0.790984 -0.902978 5.327560 103 255 145 0.050182
0.070008 -1.058980 5.144650 255 234 0 0.192700
0.088806 -1.057620 5.128610 255 204 0 0.228836
0.056239 -1.055020 5.124590 255 234 0 0.193779
0.074993 -1.053690 5.108660 255 193 0 0.244426
0.043772 -1.049450 5.105560 255 230 0 0.195777
0.064675 -1.046980 5.090640 255 201 0 0.235459
0.033070 -1.042250 5.087330 255 216 0 0.217764
0.053936 -1.039800 5.072450 255 186 0 0.259753
-0.347510 -1.018620 5.153830 74 255 174 0.037657
-0.372947 -1.009580 5.147910 67 255 180 0.034946
-0.333530 -1.012210 5.139700 84 255 164 0.041770
-0.358905 -1.003280 5.133640 84 255 164 0.041326
-0.344881 -0.996799 5.119550 100 255 148 0.048466
-0.384502 -0.994301 5.127880 80 255 167 0.039462
-0.319621 -1.005540 5.125700 100 255 148 0.048853
-0.305648 -0.998727 5.111790 116 255 132 0.057224
-0.295502 -1.012530 5.130030 109 255 138 0.053666
-0.309437 -1.019460 5.143990 100 255 148 0.048815
-0.323332 -1.026130 5.158030 90 255 158 0.045123
-0.285389 -1.026590 5.148330 106 255 142 0.053216
-0.367962 -0.986945 5.115480 90 255 158 0.044148
-0.392295 -0.974587 5.110030 80 255 167 0.039337
-0.351531 -0.979345 5.103300 103 255 145 0.050140
-0.375666 -0.967014 5.097590 93 255 155 0.045441
-0.359127 -0.959408 5.085410 116 255 132 0.058365
-0.400132 -0.954766 5.092030 93 255 155 0.046221
-0.335122 -0.971566 5.091290 113 255 135 0.055543
-0.318696 -0.963695 5.079360 129 255 119 0.065950
-0.312211 -0.981216 5.095600 116 255 132 0.057543
-0.328602 -0.989119 5.107470 109 255 138 0.054049
-0.218447 -0.974474 5.063420 158 255 90 0.084923
-0.240668 -0.980516 5.075440 145 255 103 0.076427
-0.213229 -0.989432 5.077560 145 255 103 0.076579
-0.262743 -0.986603 5.087550 132 255 116 0.068422
-0.235504 -0.995614 5.089670 145 255 103 0.075551
-0.257631 -1.001630 5.101890 135 255 113 0.068810
-0.208094 -1.004560 5.091820 145 255 103 0.076585
-0.284460 -0.992681 5.099720 125 255 122 0.064410
-0.290955 -0.975225 5.083610 132 255 116 0.068342
-0.269313 -0.969035 5.071420 142 255 106 0.073913
-0.227786 -1.010030 5.105850 135 255 113 0.069527
-0.198898 -1.016600 5.108140 132 255 116 0.068300
-0.247439 -1.015520 5.120070 119 255 129 0.059060
-0.218633 -1.022150 5.122230 122 255 126 0.061445
-0.238481 -1.027780 5.136530 122 255 126 0.061354
-0.189624 -1.028850 5.124520 125 255 122 0.063592
-0.266687 -1.021150 5.134180 113 255 135 0.056594
-0.276832 -1.007130 5.115950 119 255 129 0.059329
0.001783 -0.994308 5.020640 255 186 0 0.257307
-0.000673 -0.979715 5.010450 255 182 0 0.261226
-0.003307 -0.965251 5.000240 255 182 0 0.263812
-0.002776 -0.948086 4.993000 255 182 0 0.264126
0.023587 -1.033640 5.070380 255 212 0 0.221768
0.046113 -1.030420 5.056790 255 186 0 0.260750
0.015626 -1.023700 5.054660 255 204 0 0.231856
0.038229 -1.020650 5.041160 255 182 0 0.265794
0.009082 -1.012620 5.040360 255 201 0 0.234937
-0.191886 -0.969338 5.053060 161 255 87 0.088249
-0.220087 -0.957258 5.052670 155 255 93 0.082087
-0.165444 -0.964119 5.042830 167 255 80 0.092249
-0.193590 -0.952157 5.042290 161 255 87 0.088775
-0.167097 -0.947013 5.032020 171 255 77 0.095872
-0.221856 -0.939905 5.041770 161 255 87 0.087694
-0.139078 -0.958864 5.032720 190 255 58 0.111967
-0.112869 -0.953547 5.022620 203 255 45 0.126333
-0.111011 -0.969032 5.033020 196 255 51 0.117911
-0.137210 -0.974438 5.043150 180 255 67 0.103389
-0.163567 -0.979728 5.053210 174 255 74 0.099017
-0.109112 -0.984630 5.043360 200 255 48 0.123918
-0.193621 -0.934366 5.033320 164 255 84 0.090420
-0.219236 -0.920132 5.034470 158 255 90 0.086235
-0.165445 -0.928666 5.024900 161 255 87 0.087414
-0.190936 -0.914667 5.025960 158 255 90 0.084854
-0.138240 -0.932008 5.020090 177 255 71 0.101911
-0.111079 -0.935322 5.015340 200 255 48 0.121641
-0.030152 -0.945123 4.998640 255 216 0 0.216715
-0.057545 -0.942162 5.004250 255 230 0 0.197017
-0.058129 -0.959321 5.011520 255 234 0 0.192527
-0.030796 -0.962255 5.005920 255 212 0 0.221175
-0.085266 -0.947788 5.013490 232 255 16 0.159489
-0.083412 -0.929700 5.006140 232 255 16 0.158021
-0.028502 -0.977231 5.016210 255 212 0 0.221214
-0.056256 -0.974709 5.021900 255 234 0 0.192788
-0.053762 -0.989356 5.032100 248 245 0 0.177732
-0.026001 -0.991818 5.026400 255 212 0 0.219917
-0.082638 -0.979623 5.032610 229 255 19 0.155378
-0.084634 -0.964173 5.022330 229 255 19 0.154070
0.006077 -1.041380 5.093050 242 253 6 0.170996
-0.015163 -1.044050 5.107710 225 255 22 0.149033
0.017160 -1.048650 5.111270 242 253 6 0.171618
-0.004202 -1.051380 5.126070 222 255 25 0.145124
-0.036558 -1.046760 5.122440 187 255 61 0.111220
-0.057631 -1.049550 5.137140 164 255 84 0.091688
-0.070308 -1.041190 5.119340 161 255 87 0.087369
-0.049071 -1.038490 5.104660 200 255 48 0.122121
-0.027694 -1.035810 5.090010 225 255 22 0.152439
-0.082900 -1.033110 5.101570 171 255 77 0.095599
0.030761 -1.054770 5.130170 242 253 6 0.168508
0.011924 -1.056050 5.145580 213 255 35 0.134450
0.044537 -1.058550 5.150280 235 255 13 0.163190
-0.006812 -1.057470 5.161100 196 255 51 0.118699
-0.041652 -1.054090 5.156840 161 255 87 0.088466
-0.022809 -1.052730 5.141390 193 255 55 0.114895
-0.109268 -1.055080 5.182500 113 255 135 0.055888
-0.144364 -1.051600 5.178540 109 255 138 0.053451
-0.092053 -1.053220 5.167350 116 255 132 0.057442
-0.127180 -1.049910 5.163350 119 255 129 0.060027
-0.109889 -1.048130 5.148250 122 255 126 0.061102
-0.162100 -1.046660 5.159450 122 255 126 0.060863
-0.074868 -1.051430 5.152300 135 255 113 0.069086
-0.058687 -1.056040 5.171920 142 255 106 0.072908
-0.142194 -1.043340 5.144850 122 255 126 0.061157
-0.175960 -1.037660 5.142010 119 255 129 0.059863
-0.122429 -1.039930 5.130380 125 255 122 0.062516
-0.155999 -1.034300 5.127420 122 255 126 0.062285
-0.136287 -1.031030 5.112950 138 255 109 0.071553
-0.102581 -1.036580 5.115980 145 255 103 0.076538
-0.090062 -1.044700 5.133790 138 255 109 0.070881
-0.021235 -1.004580 5.039640 255 216 0 0.215429
-0.049099 -1.002680 5.045400 242 253 6 0.172519
-0.043972 -1.015050 5.058520 242 253 6 0.170392
-0.016095 -1.016990 5.052730 255 230 0 0.196120
-0.074265 -1.007000 5.057690 213 255 35 0.137392
-0.099473 -1.011280 5.069930 187 255 61 0.109791
-0.104261 -0.997910 5.056660 193 255 55 0.117308
-0.079041 -0.993641 5.044380 225 255 22 0.149899
-0.008028 -1.027320 5.068450 255 238 0 0.189821
-0.035546 -1.025920 5.074170 238 255 9 0.165128
-0.059111 -1.029530 5.087850 206 255 42 0.129600
-0.091092 -1.022120 5.085730 174 255 74 0.097852
-0.067492 -1.018550 5.072090 209 255 38 0.131281
-0.167030 -1.024540 5.110760 138 255 109 0.070830
-0.144576 -1.020090 5.097110 142 255 106 0.074973
-0.176166 -1.012370 5.094360 145 255 103 0.076255
-0.153471 -1.008000 5.080680 151 255 96 0.081896
-0.122017 -1.015690 5.083520 161 255 87 0.087191
-0.113684 -1.026610 5.099340 151 255 96 0.080335
-0.183166 -0.999612 5.079490 151 255 96 0.080059
-0.158373 -0.994600 5.067320 151 255 96 0.081635
-0.188206 -0.984676 5.065300 158 255 90 0.085227
-0.133696 -0.989613 5.055310 177 255 71 0.101115
-0.128935 -1.002930 5.068670 167 255 80 0.093942
-0.207033 -1.033090 5.139500 119 255 129 0.058838
-0.224570 -1.037250 5.154570 113 255 135 0.056669
-0.193029 -1.042020 5.156760 113 255 135 0.056320
-0.210832 -1.046170 5.172020 122 255 126 0.061270
-0.241647 -1.041450 5.169690 116 255 132 0.058579
-0.258289 -1.045610 5.184690 106 255 142 0.052780
-0.271765 -1.036020 5.166550 103 255 145 0.050139
-0.255335 -1.031960 5.151530 106 255 142 0.052320
-0.176939 -1.049070 5.175000 109 255 138 0.054294
-0.192931 -1.051250 5.191140 106 255 142 0.052883
-0.159273 -1.054120 5.194180 106 255 142 0.052856
-0.208444 -1.053420 5.207200 100 255 148 0.049906
-0.240955 -1.050450 5.203960 93 255 155 0.045971
-0.226153 -1.048350 5.188010 109 255 138 0.053354
-0.297101 -1.051030 5.221600 74 255 174 0.037753
-0.278398 -1.050920 5.215960 87 255 161 0.042741
-0.295876 -1.045910 5.195870 93 255 155 0.046442
-0.314576 -1.045990 5.201550 90 255 158 0.044124
-0.268374 -1.048280 5.200390 93 255 155 0.046501
-0.251081 -1.053230 5.219680 90 255 158 0.044208
-0.328323 -1.035970 5.182570 74 255 174 0.037282
-0.309223 -1.036240 5.177740 84 255 164 0.042027
-0.297368 -1.031500 5.162970 96 255 151 0.046957
-0.283814 -1.041010 5.181240 100 255 148 0.048509
-0.463432 -1.030830 5.211360 25 255 222 0.021201
-0.463537 -1.038000 5.227770 19 253 229 0.019640
-0.445375 -1.051040 5.251150 32 255 216 0.022663
-0.463723 -1.045230 5.244150 19 253 229 0.019586
-0.463868 -1.052550 5.260590 32 255 216 0.022504
-0.482757 -1.038920 5.236070 19 253 229 0.019101
-0.482669 -1.031740 5.219650 22 255 225 0.020313
-0.482578 -1.024790 5.203090 38 255 209 0.024301
-0.501775 -1.025800 5.211370 42 255 206 0.025626
-0.412928 -1.057770 5.269600 22 255 225 0.019807
-0.410391 -1.062380 5.286260 25 255 222 0.021237
-0.428244 -1.064200 5.296100 29 255 219 0.021778
-0.430871 -1.059540 5.279480 19 253 229 0.019316
-0.442758 -1.055660 5.267680 19 253 229 0.019057
-0.461836 -1.066990 5.317410 29 255 219 0.022167
-0.465418 -1.062380 5.300140 22 255 225 0.020122
-0.477718 -1.058400 5.288250 22 255 225 0.020464
-0.481328 -1.053760 5.271190 32 255 216 0.022950
-0.498778 -1.055040 5.281640 38 255 209 0.024682
-0.460316 -1.057120 5.277770 22 255 225 0.019964
-0.448398 -1.061030 5.289610 22 255 225 0.020339
-0.444902 -1.065630 5.306770 29 255 219 0.021790
-0.499468 -1.047480 5.264150 25 255 222 0.020642
-0.517963 -1.040880 5.256740 22 255 225 0.020319
-0.500180 -1.040090 5.246590 19 253 229 0.019000
-0.518827 -1.033600 5.239130 25 255 222 0.021358
-0.519660 -1.026510 5.221470 38 255 209 0.024695
-0.537560 -1.027320 5.231410 48 255 200 0.027399
-0.501036 -1.032820 5.229050 22 255 225 0.020165
-0.481970 -1.046230 5.253670 19 253 229 0.019701
-0.380899 -0.946893 5.082550 100 255 148 0.049505
-0.403969 -0.930987 5.078820 90 255 158 0.043677
-0.361898 -0.939074 5.073320 113 255 135 0.056143
-0.384662 -0.923161 5.069520 100 255 148 0.049637
-0.365497 -0.915315 5.060460 116 255 132 0.057403
-0.407865 -0.907409 5.065710 100 255 148 0.049819
-0.342902 -0.930958 5.064340 119 255 129 0.059521
-0.323942 -0.922891 5.055480 129 255 119 0.065843
-0.321336 -0.943304 5.067490 119 255 129 0.059902
-0.340206 -0.951388 5.076350 113 255 135 0.056325
-0.385544 -0.900321 5.059150 106 255 142 0.052009
-0.406552 -0.882554 5.057570 96 255 151 0.047751
-0.363419 -0.893112 5.052730 109 255 138 0.054698
-0.384092 -0.875375 5.051080 106 255 142 0.052004
-0.342467 -0.896834 5.050250 119 255 129 0.058736
-0.321690 -0.900704 5.047950 119 255 129 0.059126
-0.245246 -0.915824 5.037960 145 255 103 0.075984
-0.270974 -0.911628 5.041550 138 255 109 0.071297
-0.273647 -0.931383 5.048860 142 255 106 0.074408
-0.247917 -0.935600 5.045290 151 255 96 0.080366
-0.297687 -0.917215 5.048550 132 255 116 0.067208
-0.295393 -0.895033 5.041030 132 255 116 0.067488
-0.245721 -0.954405 5.056550 145 255 103 0.075735
-0.271089 -0.951686 5.060590 138 255 109 0.071862
-0.295137 -0.957687 5.070030 138 255 109 0.070857
-0.297673 -0.937282 5.058080 132 255 116 0.067101
-0.567593 -0.793297 5.081480 113 255 135 0.055703
-0.552984 -0.782301 5.076530 106 255 142 0.052936
-0.553710 -0.763010 5.077630 109 255 138 0.054467
-0.538667 -0.752527 5.073090 113 255 135 0.055587
-0.538232 -0.771570 5.071650 106 255 142 0.052248
-0.523553 -0.761011 5.066680 119 255 129 0.059523
-0.535237 -0.789171 5.070130 106 255 142 0.053154
-0.549793 -0.800055 5.075290 103 255 145 0.050698
-0.564488 -0.811070 5.080320 116 255 132 0.057080
-0.546552 -0.817783 5.074070 113 255 135 0.055861
-0.537328 -0.736283 5.077190 103 255 145 0.050220
-0.517006 -0.711439 5.079570 93 255 155 0.045452
-0.496021 -0.725749 5.070300 90 255 158 0.044784
-0.512813 -0.733042 5.072180 96 255 151 0.047374
-0.473273 -0.739731 5.063420 90 255 158 0.044821
-0.490002 -0.746734 5.064620 96 255 151 0.047656
-0.506389 -0.769055 5.062340 113 255 135 0.055757
-0.481244 -0.765957 5.058840 106 255 142 0.051617
-0.494329 -0.790330 5.059400 106 255 142 0.052354
-0.508698 -0.800398 5.063490 96 255 151 0.047683
-0.522961 -0.810588 5.067660 103 255 145 0.050446
-0.508653 -0.830256 5.064730 103 255 145 0.051516
-0.520970 -0.779176 5.066230 106 255 142 0.052728
-0.410618 -0.964072 5.104110 77 255 171 0.038365
-0.421175 -0.973350 5.116110 67 255 180 0.034208
-0.402697 -0.983697 5.122070 67 255 180 0.034666
-0.413252 -0.992935 5.134040 64 255 184 0.033479
-0.431778 -0.982492 5.128110 64 255 184 0.033246
-0.442385 -0.991569 5.140170 61 255 187 0.032776
-0.449861 -0.970769 5.121860 58 255 190 0.030543
-0.439195 -0.961639 5.109680 71 255 177 0.035408
-0.428546 -0.952388 5.097650 84 255 164 0.042050
-0.457394 -0.950130 5.103180 77 255 171 0.038575
-0.393031 -1.001510 5.141550 55 255 193 0.030309
-0.401706 -1.008890 5.155030 48 255 200 0.028165
-0.381550 -1.017020 5.161500 58 255 190 0.030605
-0.430696 -1.007510 5.161180 38 255 209 0.024261
-0.421934 -1.000150 5.147610 55 255 193 0.030079
-0.463908 -1.007350 5.170410 38 255 209 0.024356
-0.464522 -0.991223 5.145970 58 255 190 0.031654
-0.480857 -0.999105 5.162470 55 255 193 0.029722
-0.446971 -1.015700 5.177950 29 255 219 0.022288
-0.490245 -0.980132 5.142310 61 255 187 0.031985
-0.482872 -0.969976 5.130270 61 255 187 0.031966
-0.475516 -0.959669 5.118160 64 255 184 0.033978
-0.497079 -0.958649 5.123600 64 255 184 0.033817
-0.489858 -0.948604 5.111410 80 255 167 0.039680
-0.457192 -0.980996 5.133910 51 255 196 0.028842
-0.681702 -0.989828 5.301720 51 255 196 0.028373
-0.690462 -0.979083 5.289860 61 255 187 0.032054
-0.699425 -0.968370 5.277720 87 255 161 0.042861
-0.678967 -0.975196 5.261100 87 255 161 0.043042
-0.661762 -0.995883 5.284970 51 255 196 0.029263
-0.663385 -1.003520 5.304960 48 255 200 0.028028
-0.665057 -1.011340 5.324980 58 255 190 0.031359
-0.645396 -1.017410 5.307910 61 255 187 0.032863
-0.709654 -0.939684 5.255730 80 255 167 0.040128
-0.714318 -0.925310 5.244860 87 255 161 0.043224
-0.718966 -0.910787 5.233890 106 255 142 0.052159
-0.699749 -0.918204 5.216730 113 255 135 0.056067
-0.694303 -0.932424 5.228220 93 255 155 0.046279
-0.688880 -0.946619 5.239540 77 255 171 0.038900
-0.694116 -0.957406 5.258650 77 255 171 0.038279
-0.663302 -0.928344 5.189040 109 255 138 0.054399
-0.657529 -0.941939 5.200620 90 255 158 0.043906
-0.661607 -0.953584 5.218490 74 255 174 0.037391
-0.656430 -0.967265 5.229510 67 255 180 0.035311
-0.660600 -0.979082 5.247240 80 255 167 0.040118
-0.642238 -0.983089 5.233090 80 255 167 0.040491
-0.674913 -0.963301 5.243360 74 255 174 0.037340
-0.676057 -0.937389 5.214400 87 255 161 0.042225
-0.681482 -0.923288 5.202940 109 255 138 0.054762
-0.642982 -0.991423 5.251950 61 255 187 0.031888
-0.625725 -1.002980 5.256870 48 255 200 0.027538
-0.643618 -0.999894 5.270780 51 255 196 0.028591
-0.626611 -1.011670 5.275420 45 255 203 0.026721
-0.627628 -1.020530 5.293940 58 255 190 0.030978
-0.609878 -1.023640 5.279890 61 255 187 0.031694
-0.644393 -1.008570 5.289400 48 255 200 0.028081
-0.661199 -0.987447 5.266140 61 255 187 0.032593
-0.583133 -0.941603 5.143570 96 255 151 0.047045
-0.585158 -0.925289 5.135030 87 255 161 0.042865
-0.577196 -0.910816 5.123040 80 255 167 0.039484
-0.579204 -0.894253 5.114330 84 255 164 0.041906
-0.571105 -0.879764 5.102260 96 255 151 0.046775
-0.590889 -0.875542 5.109240 103 255 145 0.050973
-0.559483 -0.898264 5.107320 77 255 171 0.038455
-0.551391 -0.883866 5.095200 93 255 155 0.045598
-0.557020 -0.913617 5.115510 74 255 174 0.036979
-0.554971 -0.928997 5.123490 74 255 174 0.037363
-0.562662 -0.943344 5.135550 84 255 164 0.042075
-0.542416 -0.945313 5.127270 87 255 161 0.042760
-0.589019 -0.857799 5.103270 100 255 148 0.048680
-0.577848 -0.843328 5.094530 96 255 151 0.047903
-0.575734 -0.825507 5.088870 103 255 145 0.050885
-0.558054 -0.832125 5.082590 96 255 151 0.047812
-0.559103 -0.848707 5.087960 87 255 161 0.043355
-0.560329 -0.865324 5.093260 87 255 161 0.042680
-0.519625 -0.843540 5.072220 93 255 155 0.045710
-0.509837 -0.860700 5.074350 84 255 164 0.041804
-0.530337 -0.856944 5.079760 84 255 164 0.041134
-0.520329 -0.874106 5.082130 80 255 167 0.039800
-0.530877 -0.887491 5.089890 87 255 161 0.043024
-0.510546 -0.891099 5.084310 87 255 161 0.042926
-0.540853 -0.870353 5.087520 87 255 161 0.042409
-0.538661 -0.837367 5.076850 93 255 155 0.046462
-0.518724 -0.904711 5.095000 74 255 174 0.037388
-0.505591 -0.919601 5.099320 74 255 174 0.036980
-0.526806 -0.918247 5.105730 71 255 177 0.035848
-0.513639 -0.933147 5.110040 71 255 177 0.035358
-0.521493 -0.946624 5.120790 77 255 171 0.038703
-0.534703 -0.931799 5.116450 74 255 174 0.037825
-0.538850 -0.901084 5.100650 74 255 174 0.037826
-0.445271 -0.752406 5.057390 87 255 161 0.043021
-0.433994 -0.771655 5.052680 93 255 155 0.045401
-0.448196 -0.793084 5.050860 100 255 148 0.049669
-0.460461 -0.774049 5.055370 93 255 155 0.046347
-0.398139 -0.770431 5.049650 90 255 158 0.044465
-0.396861 -0.795838 5.046120 96 255 151 0.048044
-0.418530 -0.802169 5.047280 96 255 151 0.047820
-0.426270 -0.786934 5.049950 90 255 158 0.045013
-0.415757 -0.841488 5.049910 90 255 158 0.044178
-0.434889 -0.850167 5.053550 96 255 151 0.047099
-0.426454 -0.825296 5.050280 93 255 155 0.045925
-0.445783 -0.834022 5.053800 90 255 158 0.044722
-0.456755 -0.817697 5.053940 90 255 158 0.044370
-0.465211 -0.842592 5.057220 100 255 148 0.048495
-0.437369 -0.809197 5.050580 93 255 155 0.045821
-0.407911 -0.818251 5.046900 100 255 148 0.048884
-0.482113 -0.823138 5.059280 96 255 151 0.047361
-0.488392 -0.806791 5.059310 96 255 151 0.047386
-0.473000 -0.797608 5.056000 96 255 151 0.047477
-0.420486 -0.867627 5.055750 96 255 151 0.047701
-0.435833 -0.877692 5.062150 87 255 161 0.042316
-0.421786 -0.892519 5.063970 90 255 158 0.044675
-0.437031 -0.902569 5.070520 87 255 161 0.043622
-0.451346 -0.887803 5.068570 80 255 167 0.040625
-0.466805 -0.897832 5.075070 84 255 164 0.042022
-0.465955 -0.870134 5.066060 84 255 164 0.040950
-0.450402 -0.860192 5.059800 87 255 161 0.042507
-0.420264 -0.918146 5.075000 90 255 158 0.044824
