ply
format ascii 1.0
comment Seamless Cloth Simulation with High Geometric Fidelity 
comment Sat Apr  6 09:47:10 2019
element vertex 1262
property float x
property float y
property float z
property float quality
end_header
0.165529 -0.793244 6.75013 0.0264145 
0.177378 -0.815549 6.73047 0.0366281 
0.136539 -0.768229 6.76167 0.0319827 
0.153104 -0.769582 6.76917 0.0248671 
0.121233 -0.765425 6.7541 0.0382948 
0.105935 -0.762112 6.74625 0.0456879 
0.117376 -0.783035 6.72648 0.0508504 
0.102737 -0.777774 6.71854 0.0514067 
0.0913878 -0.758222 6.73911 0.0457689 
0.113732 -0.797285 6.6979 0.0569884 
0.194426 -0.8218 6.73971 0.0309123 
0.213296 -0.826014 6.7494 0.0239815 
0.200209 -0.802094 6.7683 0.0175079 
0.23279 -0.828374 6.75916 0.0185947 
0.219455 -0.805974 6.77772 0.0166688 
0.205719 -0.783071 6.79598 0.0176282 
0.187766 -0.778881 6.78667 0.0175101 
0.17021 -0.774584 6.77792 0.019689 
0.18256 -0.798224 6.75896 0.0218548 
0.358292 0.0196099 6.61032 0.0489991 
0.380878 0.0149161 6.6222 0.0407826 
0.362544 0.00696477 6.63912 0.0335738 
0.340673 0.0103915 6.6269 0.0367423 
0.387771 0.00243933 6.65246 0.0270815 
0.344676 -0.00290015 6.65531 0.0244078 
0.368381 -0.00617022 6.66866 0.0226944 
0.349189 -0.0171957 6.6843 0.0166334 
0.323357 -0.000875132 6.64285 0.0235702 
0.326691 -0.0154302 6.67113 0.0145641 
0.305746 -0.0144107 6.65854 0.0123009 
0.396695 -0.0100995 6.68384 0.0209111 
0.375845 -0.0193484 6.69943 0.0187862 
0.405937 -0.0205724 6.71593 0.0204789 
0.431132 -0.0136238 6.70097 0.0195243 
0.423211 -0.00377135 6.66942 0.0202028 
0.455037 -0.00765708 6.685 0.0181775 
0.448942 0.00191641 6.65393 0.0183505 
0.411913 0.00828764 6.63649 0.027161 
0.478995 -0.00264803 6.66852 0.015186 
0.286871 -0.034248 6.67539 0.00555991 
0.304923 -0.0348773 6.68716 0.00739776 
0.284841 -0.0525458 6.70581 0.0105878 
0.266846 -0.0514533 6.69513 0.00815062 
0.303296 -0.0530634 6.71693 0.0126253 
0.264879 -0.0672156 6.72629 0.0119564 
0.282693 -0.0676321 6.7368 0.0146147 
0.262243 -0.0792008 6.75869 0.0123454 
0.246578 -0.0658009 6.71648 0.00884847 
0.244446 -0.0780955 6.74921 0.0101732 
0.226316 -0.0763653 6.73971 0.00839933 
0.301511 -0.0674656 6.74775 0.0171016 
0.280635 -0.0798869 6.76866 0.0136657 
0.300274 -0.0786071 6.78014 0.0139861 
0.325774 -0.0655547 6.76172 0.0161662 
0.325714 -0.0525072 6.72951 0.0158826 
0.352223 -0.0504807 6.7452 0.015508 
0.350964 -0.0355195 6.71384 0.0136872 
0.326632 -0.0354548 6.6997 0.0104494 
0.379402 -0.0349988 6.73026 0.017183 
0.385103 -0.0606908 6.83622 0.0220285 
0.415784 -0.0497318 6.82107 0.0228851 
0.392892 -0.0532537 6.8068 0.0199418 
0.422323 -0.041536 6.7912 0.0232136 
0.443483 -0.0386138 6.80552 0.0249929 
0.399016 -0.0447777 6.77637 0.0204923 
0.449675 -0.030888 6.7753 0.0241133 
0.427729 -0.0322911 6.76098 0.0226101 
0.455018 -0.0216306 6.74531 0.0232043 
0.471301 -0.0299557 6.78954 0.0241831 
0.477218 -0.0223116 6.75917 0.0235126 
0.499099 -0.0225401 6.77324 0.0217447 
0.4035 -0.0338176 6.746 0.0199209 
0.432124 -0.0213391 6.73117 0.0220975 
0.376376 -0.0483404 6.76091 0.017762 
0.348195 -0.0625688 6.7767 0.0164519 
0.372509 -0.0572907 6.79272 0.0171111 
0.344117 -0.0704173 6.80834 0.015175 
0.32111 -0.0755892 6.79363 0.0145857 
0.365681 -0.0648654 6.82276 0.0182652 
0.525243 -0.0210438 6.75719 0.0167726 
0.500504 -0.0190096 6.74223 0.0177801 
0.526623 -0.0165438 6.72661 0.0134837 
0.551739 -0.0190795 6.74123 0.0137664 
0.501938 -0.0132589 6.71196 0.0154137 
0.553557 -0.0130462 6.71081 0.0101688 
0.527763 -0.0100145 6.69619 0.0119337 
0.578957 -0.0155615 6.72554 0.0102378 
0.502601 -0.00617717 6.68196 0.0129224 
0.479098 -0.0106256 6.69844 0.0166802 
0.455402 -0.0154882 6.71493 0.0198436 
0.478707 -0.0174044 6.72874 0.0189692 
0.2067 -0.0925667 6.76111 0.0120137 
0.222998 -0.0942709 6.77065 0.0135399 
0.204053 -0.110244 6.79081 0.0184983 
0.188076 -0.109162 6.78085 0.01819 
0.219795 -0.111554 6.80037 0.0187061 
0.18477 -0.125054 6.80985 0.0280543 
0.20055 -0.126028 6.81977 0.026236 
0.182552 -0.141604 6.83621 0.0361269 
0.16886 -0.124215 6.7993 0.0267918 
0.166401 -0.140476 6.82609 0.0370666 
0.150334 -0.13899 6.81572 0.0429907 
0.216222 -0.12675 6.82965 0.0238502 
0.197746 -0.14189 6.84662 0.0318552 
0.212903 -0.141024 6.85753 0.0291924 
0.233584 -0.125276 6.84052 0.0224304 
0.237442 -0.111415 6.81042 0.0191474 
0.255854 -0.110852 6.82 0.0192417 
0.259101 -0.0963245 6.78927 0.0172242 
0.240997 -0.095261 6.77991 0.0155306 
0.27779 -0.0951338 6.8 0.0167523 
0.134259 -0.157668 6.82942 0.0500462 
0.149204 -0.159787 6.83958 0.0473333 
0.132944 -0.177553 6.85271 0.062366 
0.117659 -0.174459 6.84355 0.0675189 
0.116667 -0.194698 6.86513 0.0725726 
0.115228 -0.21386 6.88631 0.0769858 
0.10116 -0.191652 6.85567 0.0849001 
0.0862002 -0.209664 6.86607 0.100721 
0.145865 -0.198691 6.88486 0.0581636 
0.143104 -0.215945 6.90725 0.06433 
0.161086 -0.198612 6.89527 0.0532845 
0.163589 -0.180832 6.87255 0.0495319 
0.178653 -0.180282 6.88333 0.0439954 
0.180613 -0.161631 6.86027 0.040013 
0.165367 -0.161708 6.8491 0.0443984 
0.195911 -0.161217 6.87064 0.0363619 
0.193504 -0.210359 6.95459 0.0638938 
0.213616 -0.190506 6.94327 0.0460656 
0.199308 -0.195018 6.93136 0.0461181 
0.21919 -0.17425 6.91947 0.0351578 
0.234506 -0.168829 6.93067 0.0366737 
0.204705 -0.178418 6.90734 0.0373716 
0.239393 -0.152822 6.90644 0.0298537 
0.224007 -0.157128 6.89471 0.0308572 
0.243937 -0.136614 6.88 0.0256141 
0.255426 -0.146933 6.91793 0.0321803 
0.260495 -0.131822 6.89143 0.0267769 
0.277447 -0.124795 6.90336 0.0306066 
0.22812 -0.139275 6.86897 0.0266452 
0.16841 -0.215378 6.93103 0.0580672 
0.304067 -0.108001 6.88637 0.0220364 
0.283779 -0.115748 6.87472 0.0195363 
0.310227 -0.098818 6.85685 0.0162067 
0.331209 -0.0923613 6.86947 0.0180912 
0.289387 -0.1058 6.84375 0.0164057 
0.338366 -0.0821042 6.8392 0.0153677 
0.316094 -0.0884972 6.82529 0.0146449 
0.358314 -0.0769917 6.85243 0.0175397 
0.294996 -0.0932176 6.81227 0.0158552 
0.27271 -0.108798 6.83135 0.0186411 
0.249977 -0.124219 6.85086 0.0215227 
0.266657 -0.121639 6.86194 0.0206239 
0.19706 -0.448205 7.06794 0.0995904 
0.186596 -0.444338 7.062 0.112837 
0.192652 -0.479442 7.0535 0.0668168 
0.181957 -0.475167 7.04646 0.0742974 
0.175962 -0.440461 7.05468 0.123552 
0.188352 -0.510846 7.03799 0.0474352 
0.170564 -0.471447 7.03798 0.080927 
0.176428 -0.506724 7.02973 0.0531351 
0.164007 -0.502971 7.02039 0.058993 
0.164524 -0.436783 7.04629 0.133526 
0.15863 -0.46774 7.02808 0.08367 
0.153497 -0.433469 7.03593 0.136487 
0.182824 -0.543063 7.02136 0.038177 
0.169671 -0.539397 7.01181 0.0465651 
0.175478 -0.576465 7.00211 0.0443701 
0.190186 -0.582834 7.01279 0.039915 
0.196169 -0.54998 7.03009 0.0355491 
0.203895 -0.589393 7.02172 0.0358593 
0.208078 -0.556637 7.03784 0.0332323 
0.200218 -0.517509 7.04555 0.041026 
0.211121 -0.524466 7.05205 0.0375478 
0.215964 -0.59607 7.02972 0.0340515 
0.219266 -0.563647 7.04457 0.0320355 
0.227483 -0.603043 7.03652 0.032429 
0.203567 -0.485991 7.05998 0.0597348 
0.14185 -0.429651 7.02466 0.137963 
0.146207 -0.460917 7.01701 0.0890449 
0.134327 -0.456877 7.005 0.0880731 
0.130559 -0.425531 7.01244 0.129327 
0.137664 -0.488858 6.99716 0.0604521 
0.122692 -0.452903 6.9915 0.0776374 
0.125355 -0.484873 6.98389 0.0585708 
0.113549 -0.480641 6.96963 0.0504039 
0.119791 -0.422026 6.99924 0.116848 
0.111764 -0.449365 6.97727 0.0676749 
0.109439 -0.418905 6.98455 0.102767 
0.127913 -0.517716 6.97559 0.0462485 
0.115548 -0.513413 6.96138 0.0427416 
0.117827 -0.546722 6.95223 0.0410795 
0.131367 -0.554067 6.96658 0.0478515 
0.141101 -0.524799 6.98917 0.0516812 
0.145388 -0.561834 6.97974 0.0516918 
0.155033 -0.532123 7.00146 0.0541665 
0.150499 -0.495604 7.00957 0.061225 
0.160455 -0.569284 6.99159 0.0474887 
0.161181 -0.645554 6.91872 0.0125816 
0.178177 -0.65595 6.93135 0.0132369 
0.165578 -0.623216 6.94722 0.017001 
0.195292 -0.666455 6.94308 0.0139349 
0.18251 -0.633436 6.9594 0.0167155 
0.199586 -0.643616 6.97035 0.0166324 
0.212194 -0.677006 6.95416 0.0145798 
0.170523 -0.600217 6.97546 0.0262542 
0.187276 -0.609967 6.98678 0.0254143 
0.155199 -0.592729 6.96374 0.0275984 
0.139989 -0.584846 6.95122 0.0281862 
0.150494 -0.61535 6.93498 0.0158498 
0.135745 -0.607535 6.92192 0.0163429 
0.126178 -0.576964 6.93784 0.0249545 
0.14632 -0.6376 6.90536 0.0138588 
0.227378 -0.683935 6.96541 0.0145555 
0.242059 -0.693644 6.97618 0.0171345 
0.228748 -0.65673 6.99127 0.0169305 
0.255023 -0.703241 6.98608 0.0185904 
0.242488 -0.66638 7.00049 0.0175713 
0.253965 -0.675935 7.00882 0.0218546 
0.265636 -0.712604 6.99475 0.0235085 
0.228623 -0.629535 7.0149 0.0196577 
0.240909 -0.639162 7.02282 0.0232077 
0.215863 -0.622963 7.00659 0.0213934 
0.202187 -0.616606 6.99721 0.0228841 
0.214277 -0.650183 6.9811 0.0168068 
0.506309 -0.0315549 6.94709 0.09347 
0.537992 -0.025686 6.93344 0.0704492 
0.524356 -0.0288213 6.91894 0.059569 
0.556468 -0.0248416 6.90434 0.040932 
0.571682 -0.0230641 6.91883 0.0457067 
0.5424 -0.0263341 6.89062 0.0380346 
0.58995 -0.0225146 6.89001 0.026504 
0.574127 -0.0238538 6.87517 0.026023 
0.60614 -0.022065 6.85968 0.0201307 
0.605093 -0.0211817 6.90419 0.0301121 
0.62289 -0.0204584 6.87507 0.0202323 
0.639057 -0.0174442 6.8912 0.0238248 
0.558899 -0.0254917 6.86029 0.0241677 
0.58992 -0.0228955 6.84479 0.0200646 
0.574638 -0.0230796 6.83082 0.0209087 
0.514329 -0.0314845 6.8625 0.0297909 
0.497793 -0.0343341 6.8921 0.0432423 
0.4801 -0.0385166 6.92002 0.0623265 
0.452009 -0.0447059 6.89281 0.044003 
0.673606 -0.0213707 6.87837 0.0167751 
0.654229 -0.0221174 6.86102 0.0168598 
0.688377 -0.0236024 6.84819 0.0158429 
0.708625 -0.024198 6.86532 0.0162683 
0.669434 -0.0231803 6.8317 0.0154209 
0.724799 -0.025095 6.83585 0.0150195 
0.706116 -0.023006 6.82038 0.0143717 
0.68547 -0.0221092 6.80349 0.0141061 
0.666664 -0.0226056 6.78736 0.0143651 
0.653454 -0.0244345 6.81687 0.0164897 
0.635405 -0.024348 6.8014 0.016295 
0.62083 -0.0244766 6.83034 0.0180874 
0.637274 -0.023875 6.84505 0.0174608 
0.604842 -0.0243053 6.81614 0.0179157 
0.598922 -0.0169883 6.74026 0.0111298 
0.571234 -0.0208918 6.75513 0.0141911 
0.590756 -0.0216102 6.76968 0.0152952 
0.544613 -0.0225286 6.77105 0.0168031 
0.563613 -0.0241881 6.78492 0.0182271 
0.537178 -0.0242573 6.80118 0.0203955 
0.517922 -0.0236462 6.78711 0.0212221 
0.583133 -0.0236379 6.79995 0.0178959 
0.556217 -0.0250098 6.81549 0.0206145 
0.612641 -0.022485 6.7855 0.0163869 
0.643253 -0.0209281 6.77096 0.0132528 
0.621235 -0.0187315 6.75586 0.0124143 
0.488801 -0.02904 6.8034 0.0247161 
0.461187 -0.0363973 6.81961 0.02698 
0.477476 -0.0343806 6.83344 0.0298991 
0.431768 -0.0459393 6.83497 0.0267939 
0.44976 -0.0428387 6.84923 0.029838 
0.419351 -0.0529584 6.86401 0.0309511 
0.403425 -0.0570989 6.85011 0.0258356 
0.465661 -0.0392839 6.86356 0.0338988 
0.436383 -0.0489333 6.87841 0.036563 
0.496295 -0.0329286 6.84815 0.029893 
0.526331 -0.0282211 6.83206 0.0247141 
0.507832 -0.0285248 6.81771 0.0253952 
0.374462 -0.0743217 6.86504 0.0204536 
0.347081 -0.0887518 6.88164 0.0196008 
0.363396 -0.086447 6.89385 0.0209472 
0.320182 -0.103784 6.89796 0.025077 
0.335006 -0.100168 6.90963 0.028252 
0.308952 -0.114295 6.92595 0.0422277 
0.293519 -0.118387 6.91485 0.038024 
0.351218 -0.0975223 6.92185 0.0310156 
0.323574 -0.111011 6.93714 0.0462082 
0.338605 -0.108058 6.94918 0.0509785 
0.366448 -0.0935578 6.93422 0.0372563 
0.37922 -0.0822357 6.90662 0.0256417 
0.39581 -0.0779434 6.92007 0.0322985 
0.408172 -0.0656159 6.89257 0.0287874 
0.391815 -0.0703965 6.8786 0.0236171 
0.42468 -0.0615927 6.90672 0.0333803 
0.262511 -0.158178 6.95293 0.0488937 
0.240554 -0.180899 6.96555 0.0579521 
0.218639 -0.203502 6.97757 0.0777197 
0.245183 -0.195254 6.99743 0.0883359 
0.267189 -0.172556 6.98658 0.0727097 
0.276702 -0.153466 6.96377 0.0559564 
0.290729 -0.149958 6.97431 0.0609606 
0.299321 -0.13229 6.95094 0.0500169 
0.285366 -0.135964 6.9401 0.0438748 
0.31468 -0.12893 6.96194 0.0534518 
0.291106 -0.188461 7.03664 0.106372 
0.314668 -0.164835 7.02604 0.0877485 
0.326963 -0.144646 7.00557 0.0747912 
0.351669 -0.121305 6.99456 0.0710189 
0.363662 -0.102287 6.97196 0.0638779 
0.388051 -0.0954348 6.99493 0.0948082 
0.291758 -0.168595 7.00677 0.0812309 
0.269 -0.190851 7.01716 0.101105 
0.417493 -0.0798687 6.98286 0.0786857 
0.434513 -0.0667981 6.95904 0.0629456 
0.463687 -0.0500384 6.94674 0.0702114 
0.392355 -0.0864045 6.95865 0.0537302 
0.123692 -0.388957 6.99978 0.121556 
0.134655 -0.392602 7.01297 0.128261 
0.139087 -0.359732 7.01303 0.144365 
0.145029 -0.395711 7.02542 0.137117 
0.150324 -0.363471 7.02486 0.14969 
0.160873 -0.36629 7.03569 0.142645 
0.156305 -0.399552 7.03635 0.140371 
0.156754 -0.331802 7.02272 0.158484 
0.167549 -0.334978 7.03367 0.153708 
0.1764 -0.30419 7.02993 0.156833 
0.154724 -0.303844 7.00881 0.149611 
0.136062 -0.330515 6.99879 0.143302 
0.118832 -0.358124 6.98643 0.121524 
0.133111 -0.303332 6.98397 0.139581 
0.177948 -0.404167 7.0549 0.129633 
0.182952 -0.368615 7.05354 0.134615 
0.189213 -0.407494 7.0621 0.11508 
0.194342 -0.371568 7.05986 0.115219 
0.205455 -0.374668 7.06464 0.0921423 
0.199644 -0.411238 7.0671 0.0958204 
0.201922 -0.336902 7.05646 0.11968 
0.213565 -0.339539 7.06095 0.0952975 
0.222967 -0.305696 7.05864 0.10814 
0.199609 -0.304563 7.04619 0.139449 
0.263369 -0.217415 7.03297 0.0929367 
0.235638 -0.246345 7.02909 0.0832654 
0.240615 -0.220713 7.01365 0.0831867 
0.211361 -0.251433 7.01235 0.0851753 
0.205124 -0.275461 7.02921 0.108595 
0.228975 -0.275376 7.04417 0.0916403 
0.257321 -0.247028 7.04733 0.0857944 
0.215883 -0.226097 6.99526 0.0802042 
0.186569 -0.254013 6.993 0.089812 
0.190388 -0.232219 6.97362 0.0683006 
0.162121 -0.25755 6.96995 0.0797399 
0.15792 -0.278424 6.99005 0.116478 
0.181545 -0.278207 7.0115 0.116089 
0.466007 -0.407752 7.20745 0.0291597 
0.464206 -0.434128 7.21076 0.0286193 
0.483034 -0.292801 7.20584 0.0722185 
0.47675 -0.32195 7.20912 0.0577189 
0.458377 -0.322766 7.19885 0.0513858 
0.448942 -0.353417 7.19407 0.0353629 
0.449278 -0.381975 7.19538 0.0276968 
0.439326 -0.412193 7.19243 0.0221479 
0.438337 -0.440321 7.19532 0.0226857 
0.420561 -0.444263 7.18567 0.0232644 
0.467053 -0.379719 7.20514 0.0309716 
0.476651 -0.35075 7.20941 0.0421399 
0.581321 -0.0077799 7.04111 0.214565 
0.606995 -0.00648575 7.01823 0.14751 
0.633635 -0.00633009 6.99541 0.112985 
0.650689 -0.0109988 6.95838 0.0624089 
0.615224 -0.0117957 6.97145 0.0954729 
0.589205 -0.0124999 6.99471 0.132853 
0.564318 -0.0130425 7.01876 0.177691 
0.546385 -0.019412 6.99534 0.154924 
0.663137 -0.0141879 6.91851 0.03243 
0.593104 -0.0172161 6.94449 0.0675169 
0.559784 -0.0211637 6.95791 0.0893309 
0.526082 -0.0255062 6.97125 0.128173 
0.628626 -0.0153506 6.93227 0.0429134 
0.46787 -0.964466 6.86333 0.0813224 
0.455875 -0.956968 6.85684 0.0623302 
0.46951 -0.965786 6.83632 0.0616857 
0.457737 -0.960722 6.8311 0.0533036 
0.443588 -0.952417 6.85175 0.0591786 
0.471446 -0.969414 6.81067 0.0502932 
0.446795 -0.957182 6.82709 0.0517812 
0.460521 -0.965593 6.80652 0.0485084 
0.450506 -0.961743 6.80267 0.0458102 
0.432625 -0.949135 6.84806 0.0631834 
0.436262 -0.953696 6.82327 0.0524548 
0.422246 -0.94598 6.84441 0.0652704 
0.473702 -0.974116 6.78519 0.0481111 
0.46431 -0.970132 6.78167 0.0449428 
0.477727 -0.978587 6.75995 0.0443192 
0.488125 -0.980137 6.76166 0.0410926 
0.485295 -0.975625 6.78739 0.0439522 
0.499474 -0.981769 6.76401 0.0384351 
0.497464 -0.978656 6.79049 0.0440279 
0.483695 -0.97224 6.81362 0.0501642 
0.496255 -0.977439 6.81781 0.059042 
0.512061 -0.985109 6.76741 0.0396138 
0.510577 -0.98414 6.79513 0.0540246 
0.525164 -0.990429 6.77196 0.0454516 
0.481995 -0.970858 6.8406 0.0678089 
0.415217 -0.93802 6.84007 0.0481239 
0.428793 -0.946083 6.81896 0.0367081 
0.421893 -0.938114 6.81421 0.0237167 
0.407746 -0.929699 6.83498 0.0311538 
0.435151 -0.946758 6.79336 0.020782 
0.414219 -0.92961 6.80883 0.0146524 
0.42757 -0.93863 6.78774 0.0135509 
0.400169 -0.921242 6.82974 0.0205044 
0.44066 -0.947378 6.76669 0.0124885 
0.453953 -0.95598 6.74467 0.0116083 
0.448975 -0.955099 6.77207 0.0193324 
0.462933 -0.963541 6.75069 0.0189537 
0.456868 -0.962754 6.77727 0.0306068 
0.443152 -0.954128 6.7983 0.0319624 
0.470387 -0.971394 6.75562 0.0311859 
0.502516 -0.980196 6.65409 0.00812726 
0.489874 -0.975169 6.67706 0.00839344 
0.499027 -0.981934 6.68368 0.0120448 
0.511424 -0.986938 6.6608 0.0101494 
0.486556 -0.976549 6.70604 0.0144587 
0.507336 -0.988718 6.68946 0.0205683 
0.49462 -0.983365 6.71146 0.0231955 
0.502419 -0.989991 6.71682 0.0339344 
0.519926 -0.993495 6.66699 0.0161543 
0.515208 -0.995205 6.69508 0.0301097 
0.527943 -0.999977 6.67268 0.0249251 
0.482255 -0.977643 6.73339 0.026742 
0.489948 -0.984305 6.73837 0.0378933 
0.474663 -0.970183 6.72863 0.0161472 
0.466086 -0.962535 6.7229 0.0101473 
0.477924 -0.96907 6.70017 0.00937313 
0.537868 -1.0003 6.67711 0.0241178 
0.526433 -0.996422 6.69769 0.0292244 
0.53685 -0.997153 6.70233 0.0283855 
0.548883 -1.00131 6.68233 0.0253237 
0.524889 -0.992813 6.72206 0.0318154 
0.548645 -0.999872 6.70842 0.0303775 
0.536731 -0.995652 6.7279 0.0344175 
0.548546 -0.999926 6.73413 0.0442467 
0.560274 -1.00404 6.68843 0.0263954 
0.560295 -1.00426 6.71479 0.0388931 
0.572614 -1.00842 6.69565 0.0341293 
0.525002 -0.990902 6.74712 0.0376071 
0.536828 -0.995405 6.75323 0.0446417 
0.512217 -0.987546 6.74318 0.0354707 
0.501075 -0.986014 6.74079 0.0382781 
0.513669 -0.991553 6.71958 0.0322939 
0.550258 -0.0215389 7.05155 0.215458 
0.528879 -0.0352819 7.07169 0.268296 
0.499763 -0.0536002 7.07963 0.287783 
0.478565 -0.0714395 7.09604 0.273982 
0.461307 -0.0747773 7.07704 0.271864 
0.515661 -0.0501734 7.09911 0.29232 
0.495456 -0.0694635 7.11472 0.293824 
0.545114 -0.0324536 7.09231 0.292395 
0.575189 -0.0161901 7.08391 0.251374 
0.43873 -0.102249 7.08353 0.226399 
0.424761 -0.128549 7.09907 0.199546 
0.401326 -0.156658 7.10562 0.17333 
0.388335 -0.184443 7.12008 0.164787 
0.36992 -0.183251 7.10471 0.161143 
0.419714 -0.156644 7.12096 0.194881 
0.407019 -0.185261 7.13395 0.17621 
0.442148 -0.128401 7.11551 0.208823 
0.464927 -0.0990042 7.11068 0.261262 
0.444616 -0.189478 7.16225 0.175872 
0.466555 -0.159767 7.15926 0.203876 
0.478608 -0.129364 7.14783 0.234645 
0.500094 -0.0998837 7.14532 0.269786 
0.513059 -0.0700331 7.13321 0.296282 
0.482775 -0.0983533 7.12736 0.269632 
0.460349 -0.12803 7.13151 0.241031 
0.438043 -0.157052 7.1359 0.197479 
0.425697 -0.186877 7.14805 0.169818 
0.531728 -0.0492735 7.11825 0.303106 
0.42759 -0.223502 7.15972 0.121187 
0.42214 -0.257451 7.16429 0.0930456 
0.405838 -0.289925 7.1632 0.0647436 
0.398811 -0.322121 7.167 0.0502136 
0.378747 -0.320968 7.15755 0.0562832 
0.426225 -0.290537 7.17421 0.0660346 
0.419214 -0.322919 7.17801 0.0486571 
0.441561 -0.259013 7.17569 0.087143 
0.457621 -0.226497 7.17849 0.130249 
0.463763 -0.19189 7.17519 0.174346 
0.482453 -0.194415 7.18783 0.184318 
0.369432 -0.354687 7.15422 0.0355468 
0.371401 -0.387282 7.15656 0.0246811 
0.36322 -0.42072 7.15454 0.0204412 
0.364199 -0.453533 7.15715 0.0215547 
0.345099 -0.456079 7.14783 0.0246529 
0.382491 -0.41854 7.16346 0.0193009 
0.382732 -0.451081 7.16656 0.0218975 
0.391238 -0.386695 7.16576 0.0221212 
0.399827 -0.354607 7.1687 0.0332776 
0.421667 -0.414138 7.183 0.0214104 
0.430403 -0.383821 7.18544 0.0254293 
0.43018 -0.353464 7.18412 0.0343716 
0.438744 -0.322861 7.18811 0.0504742 
0.411244 -0.38531 7.17591 0.022549 
0.401961 -0.417312 7.17329 0.0197691 
0.4019 -0.44764 7.17602 0.0212218 
0.4648 -0.291766 7.19523 0.0713476 
0.480699 -0.261247 7.19855 0.100728 
0.48698 -0.228941 7.1965 0.141331 
0.46131 -0.26004 7.18724 0.095543 
0.444595 -0.292159 7.18412 0.0645473 
0.343064 -0.216184 7.09976 0.114501 
0.350425 -0.184136 7.08904 0.142409 
0.316569 -0.248122 7.09467 0.0836381 
0.323236 -0.216736 7.08381 0.107948 
0.297856 -0.247713 7.0806 0.0876429 
0.331507 -0.185453 7.07215 0.133619 
0.290888 -0.278793 7.09136 0.0722877 
0.265092 -0.309262 7.0874 0.0763427 
0.285318 -0.310409 7.10184 0.0659121 
0.310218 -0.280167 7.10462 0.0696486 
0.336845 -0.249042 7.10965 0.0895433 
0.30443 -0.312569 7.11432 0.0636122 
0.304351 -0.215951 7.06828 0.106778 
0.31136 -0.185743 7.0545 0.122668 
0.277034 -0.246151 7.06411 0.0924869 
0.28428 -0.216685 7.05112 0.0972401 
0.250451 -0.275856 7.06052 0.0891039 
0.244455 -0.307233 7.0732 0.0899308 
0.270888 -0.277449 7.0759 0.0797232 
0.219584 -0.412639 7.07585 0.065588 
0.216013 -0.450962 7.07725 0.0736681 
0.226111 -0.375122 7.07445 0.0635919 
0.24812 -0.379564 7.0866 0.0452745 
0.241565 -0.4167 7.08667 0.0450782 
0.236234 -0.454907 7.08699 0.0483308 
0.246098 -0.341816 7.08038 0.0589491 
0.262048 -0.418199 7.09797 0.0334073 
0.256207 -0.455886 7.09725 0.0360156 
0.26893 -0.381418 7.09876 0.0353359 
0.288805 -0.383765 7.11097 0.0294131 
0.282176 -0.420322 7.10978 0.0267939 
0.276201 -0.457724 7.1088 0.0296756 
0.286972 -0.346551 7.10701 0.0405716 
0.266859 -0.344564 7.09359 0.047109 
0.361987 -0.217439 7.11387 0.116344 
0.355056 -0.250763 7.12158 0.0845807 
0.329634 -0.281871 7.11745 0.0707827 
0.323327 -0.3146 7.12622 0.0600964 
0.348154 -0.283884 7.12941 0.069536 
0.341611 -0.317398 7.13712 0.0603141 
0.373991 -0.252651 7.13473 0.0895544 
0.381075 -0.218565 7.12758 0.118868 
0.305854 -0.348275 7.11887 0.038529 
0.307104 -0.384392 7.12212 0.0265301 
0.300189 -0.42099 7.11992 0.0219436 
0.293852 -0.458244 7.11796 0.0234892 
0.311573 -0.458302 7.12884 0.023749 
0.317807 -0.422416 7.13008 0.0211991 
0.324892 -0.386852 7.13212 0.0252188 
0.324066 -0.350493 7.12965 0.0366046 
0.344692 -0.42104 7.14524 0.0209787 
0.352552 -0.387288 7.14716 0.0225944 
0.351338 -0.352836 7.14419 0.034452 
0.360515 -0.319076 7.14727 0.0568937 
0.328791 -0.457112 7.13811 0.0231965 
0.386194 -0.287935 7.15222 0.064753 
0.402269 -0.255644 7.15235 0.0894907 
0.409422 -0.22103 7.14707 0.12839 
0.36755 -0.286141 7.14096 0.0651834 
0.487619 -0.0433508 6.97228 0.111183 
0.458619 -0.0595089 6.98391 0.0979807 
0.438348 -0.0723526 7.00626 0.125354 
0.407735 -0.0901873 7.01592 0.130508 
0.427476 -0.0836221 7.03759 0.171475 
0.458171 -0.0662044 7.02847 0.182873 
0.478629 -0.0531746 7.00708 0.157405 
0.506319 -0.0361173 6.99613 0.158746 
0.373846 -0.116491 7.01618 0.0944634 
0.349113 -0.139179 7.02551 0.094832 
0.334913 -0.161997 7.04475 0.106475 
0.354846 -0.159973 7.06356 0.122884 
0.369231 -0.136733 7.04544 0.117992 
0.393749 -0.1115 7.036 0.127767 
0.383125 -0.156848 7.08941 0.157673 
0.406142 -0.130014 7.08181 0.178496 
0.420952 -0.105222 7.06494 0.187926 
0.445288 -0.0787008 7.0579 0.227277 
0.388506 -0.132741 7.06421 0.13854 
0.482539 -0.0581121 7.05947 0.236693 
0.512851 -0.0406116 7.05052 0.235911 
0.534404 -0.0272873 7.03009 0.207685 
0.495579 -0.046372 7.0295 0.199049 
0.518618 -0.101174 7.16177 0.270119 
0.497128 -0.131321 7.16375 0.242905 
0.485554 -0.162202 7.17316 0.212327 
0.50377 -0.16578 7.18714 0.223202 
0.319802 -0.761863 7.03347 0.0590827 
0.313978 -0.762689 7.02789 0.0645232 
0.32703 -0.791427 7.00937 0.0544324 
0.322225 -0.792355 7.00378 0.0567874 
0.308942 -0.763564 7.02228 0.0640339 
0.335718 -0.820766 6.98453 0.0548614 
0.317776 -0.792986 6.99779 0.0563238 
0.331437 -0.821247 6.97865 0.0537936 
0.327667 -0.821661 6.97217 0.052285 
0.304179 -0.764302 7.01629 0.0644133 
0.313622 -0.793637 6.99145 0.0550325 
0.29968 -0.765014 7.00977 0.0622826 
0.345791 -0.848841 6.95852 0.0568427 
0.341879 -0.849202 6.95222 0.0568355 
0.356492 -0.875935 6.93192 0.0678696 
0.361522 -0.876535 6.9382 0.0677572 
0.35128 -0.849217 6.9645 0.0546958 
0.366771 -0.877019 6.9441 0.065469 
0.35742 -0.849028 6.96999 0.0492711 
0.341746 -0.820625 6.98988 0.049699 
0.348571 -0.82061 6.99526 0.0453585 
0.372917 -0.877024 6.94998 0.0610545 
0.36398 -0.849215 6.97585 0.0460924 
0.379885 -0.877528 6.95673 0.0580067 
0.333867 -0.791451 7.01475 0.0490076 
0.29466 -0.760763 7.00403 0.0526653 
0.307429 -0.787728 6.9864 0.0454071 
0.302617 -0.783549 6.9798 0.0383274 
0.28959 -0.756689 6.9975 0.0437962 
0.315386 -0.809285 6.96124 0.0346126 
0.29667 -0.77896 6.97189 0.0320014 
0.309989 -0.804522 6.95359 0.0279293 
0.283521 -0.752293 6.98977 0.0379514 
0.323692 -0.829419 6.93474 0.0267721 
0.338952 -0.855296 6.91489 0.0287387 
0.330559 -0.836211 6.94164 0.0349745 
0.34555 -0.862617 6.92159 0.0402317 
0.33642 -0.8428 6.94735 0.045825 
0.321762 -0.815569 6.96719 0.0430981 
0.351185 -0.869403 6.92716 0.0531932 
0.383909 -0.903904 6.85184 0.016825 
0.391946 -0.91239 6.85727 0.0257113 
0.375177 -0.895221 6.87951 0.0272649 
0.399054 -0.920852 6.86211 0.039172 
0.382686 -0.903621 6.88416 0.037397 
0.389898 -0.911221 6.88855 0.0523696 
0.406159 -0.92863 6.86626 0.0552686 
0.366071 -0.886105 6.90629 0.0431898 
0.373482 -0.893823 6.9105 0.0563109 
0.360604 -0.878973 6.90049 0.0306494 
0.354298 -0.871619 6.89413 0.0202292 
0.369197 -0.887776 6.87307 0.0172278 
0.410506 -0.929823 6.8727 0.0571417 
0.421985 -0.932242 6.87617 0.0493761 
0.399026 -0.912866 6.90066 0.0528601 
0.434626 -0.935496 6.88047 0.0432765 
0.411829 -0.915097 6.90423 0.0417611 
0.425379 -0.919826 6.90977 0.0410601 
0.447341 -0.94193 6.887 0.0510173 
0.389189 -0.89529 6.92868 0.0534098 
0.402805 -0.89857 6.93326 0.0427355 
0.383164 -0.894992 6.92242 0.0557804 
0.3777 -0.894639 6.91633 0.0576327 
0.394095 -0.912352 6.89456 0.054049 
0.272736 -0.715329 7.003 0.0268255 
0.279334 -0.719613 7.01071 0.0309348 
0.267999 -0.681834 7.02315 0.0247779 
0.284865 -0.723765 7.01713 0.0343161 
0.274236 -0.686163 7.0294 0.0268129 
0.280507 -0.69072 7.03517 0.0318239 
0.290138 -0.727883 7.02286 0.0405709 
0.262925 -0.648434 7.04139 0.025658 
0.269861 -0.652969 7.04685 0.028069 
0.258359 -0.615684 7.05858 0.0308851 
0.251536 -0.61274 7.05409 0.0319102 
0.256572 -0.64549 7.03586 0.0242671 
0.244262 -0.609671 7.04882 0.0333058 
0.249323 -0.642399 7.02973 0.0235306 
0.261565 -0.679012 7.01636 0.0234516 
0.236425 -0.606452 7.04306 0.0335052 
0.300312 -0.726725 7.03462 0.0424901 
0.29112 -0.689487 7.04598 0.0311956 
0.305768 -0.726049 7.04029 0.0416851 
0.297233 -0.689131 7.05182 0.0320695 
0.303949 -0.688807 7.0583 0.0319445 
0.311821 -0.725507 7.04604 0.0408851 
0.288244 -0.652183 7.06294 0.0279662 
0.295375 -0.652026 7.06961 0.0275336 
0.28656 -0.615518 7.08114 0.0299815 
0.272034 -0.615701 7.06929 0.0306551 
0.268645 -0.49622 7.09557 0.0219265 
0.262535 -0.535506 7.08244 0.0214229 
0.249238 -0.494858 7.08484 0.0280409 
0.245502 -0.534938 7.07297 0.0278501 
0.259264 -0.575552 7.07 0.0232865 
0.275523 -0.575858 7.08162 0.0215516 
0.28098 -0.536411 7.09493 0.0182501 
0.230176 -0.491306 7.07487 0.0380839 
0.228253 -0.528137 7.06295 0.0328062 
0.235833 -0.568747 7.05607 0.030568 
0.243887 -0.57207 7.06072 0.0276826 
0.236722 -0.531638 7.06831 0.0308776 
0.324344 -0.717642 7.06061 0.0342121 
0.332009 -0.752412 7.04983 0.0499508 
0.316545 -0.682946 7.07078 0.0260427 
0.329997 -0.674066 7.0881 0.0283721 
0.337035 -0.708581 7.07814 0.0353754 
0.34376 -0.74337 7.06758 0.0518033 
0.315374 -0.643838 7.08879 0.024629 
0.315083 -0.605455 7.10673 0.029485 
0.300725 -0.610358 7.09354 0.0276354 
0.350289 -0.698285 7.09261 0.0321471 
0.356915 -0.730966 7.08448 0.0450708 
0.34381 -0.666065 7.10094 0.0261405 
0.357045 -0.654062 7.11628 0.0270032 
0.363133 -0.686009 7.10874 0.0325844 
0.369363 -0.718824 7.10099 0.0449449 
0.343919 -0.628216 7.11581 0.0244175 
0.344276 -0.590769 7.13035 0.0301888 
0.329648 -0.59793 7.11794 0.0275541 
0.329482 -0.635697 7.10307 0.0244051 
0.337098 -0.49241 7.13679 0.0159164 
0.329939 -0.529464 7.12669 0.0137083 
0.321028 -0.493939 7.12735 0.0147891 
0.313844 -0.531623 7.11717 0.0154421 
0.322187 -0.567223 7.11656 0.0185911 
0.3373 -0.560372 7.12787 0.0187529 
0.34497 -0.523306 7.1378 0.016914 
0.304313 -0.496653 7.11653 0.0146807 
0.297368 -0.535614 7.10462 0.0146296 
0.286875 -0.496801 7.10621 0.0172847 
0.291122 -0.575401 7.09257 0.0181693 
0.307064 -0.570654 7.10542 0.0179304 
0.377832 -0.676928 7.12041 0.0286571 
0.383639 -0.70815 7.114 0.0384859 
0.372295 -0.646416 7.12693 0.0237961 
0.386049 -0.63614 7.13865 0.0220664 
0.391495 -0.66674 7.13267 0.0275468 
0.3966 -0.698019 7.12673 0.0373379 
0.374065 -0.610974 7.13908 0.0219169 
0.3763 -0.576625 7.15145 0.0267907 
0.360673 -0.58353 7.14068 0.0270031 
0.35879 -0.618462 7.12866 0.0249681 
0.405513 -0.658908 7.14272 0.0254227 
0.410406 -0.689081 7.1369 0.0329428 
0.401394 -0.629371 7.14891 0.0216745 
0.415802 -0.62064 7.15945 0.022505 
0.419781 -0.650306 7.15354 0.02408 
0.42357 -0.680437 7.14741 0.0304211 
0.404825 -0.595908 7.16025 0.0226213 
0.409489 -0.563219 7.17204 0.0260985 
0.393295 -0.569794 7.16161 0.0251769 
0.38946 -0.602608 7.15016 0.0230804 
0.408361 -0.476832 7.17613 0.0178332 
0.396599 -0.509833 7.16729 0.0178191 
0.390001 -0.480501 7.16644 0.0179516 
0.378968 -0.513709 7.15756 0.0170213 
0.386028 -0.54321 7.15894 0.0198152 
0.403276 -0.536487 7.16914 0.0188727 
0.414735 -0.503241 7.17776 0.0201022 
0.371712 -0.485384 7.15639 0.0164006 
0.361921 -0.520169 7.14724 0.0155838 
0.354071 -0.488019 7.14713 0.0165486 
0.353159 -0.555306 7.13874 0.0194727 
0.369684 -0.548465 7.14893 0.0183255 
0.433831 -0.643474 7.16338 0.0254883 
0.437717 -0.672863 7.15774 0.0307622 
0.430939 -0.614663 7.16978 0.0253829 
0.446091 -0.606822 7.18002 0.0258471 
0.448347 -0.635607 7.17402 0.027208 
0.451765 -0.665196 7.16847 0.0305817 
0.435463 -0.582399 7.18047 0.0234322 
0.44125 -0.55081 7.19153 0.0301679 
0.42477 -0.557075 7.18097 0.0256025 
0.419859 -0.588504 7.1702 0.0230088 
0.463287 -0.629196 7.18585 0.0324899 
0.465432 -0.658083 7.1798 0.0359823 
0.46094 -0.600859 7.19157 0.0296451 
0.466508 -0.569336 7.2028 0.0332366 
0.46472 -0.541747 7.20778 0.0317042 
0.451257 -0.575413 7.19128 0.0267822 
0.464016 -0.488893 7.20806 0.0255977 
0.459927 -0.462512 7.20605 0.0243158 
0.448848 -0.493002 7.19754 0.0228536 
0.451901 -0.519725 7.19954 0.027416 
0.443208 -0.467625 7.19609 0.0229005 
0.431514 -0.499199 7.18777 0.0217016 
0.426263 -0.471754 7.18599 0.020503 
0.419913 -0.531189 7.17941 0.0224908 
0.436141 -0.52494 7.18896 0.022308 
0.100324 -0.44538 6.96265 0.0615077 
0.0886921 -0.414453 6.9558 0.076116 
0.0903226 -0.472109 6.9405 0.0404469 
0.0793378 -0.440665 6.93391 0.0461115 
0.068779 -0.466486 6.91282 0.0386601 
0.0686649 -0.41031 6.9272 0.0543191 
0.0791846 -0.498867 6.91903 0.0386257 
0.0687936 -0.525907 6.89843 0.0423534 
0.080403 -0.531285 6.9112 0.0405797 
0.0908095 -0.503722 6.9331 0.037782 
0.09255 -0.53649 6.92514 0.0395389 
0.10295 -0.508515 6.94743 0.0412299 
0.101719 -0.47616 6.95536 0.0456958 
0.104803 -0.5418 6.93873 0.039237 
0.058375 -0.436033 6.90688 0.0433866 
0.049062 -0.408086 6.89974 0.0510655 
0.0471498 -0.46207 6.88765 0.0501111 
0.0386859 -0.433659 6.87985 0.0507613 
0.0270272 -0.458714 6.86253 0.058494 
0.0298769 -0.406158 6.87275 0.0518917 
0.0357373 -0.487924 6.86887 0.0569353 
0.0248985 -0.514385 6.85123 0.0616257 
0.0464561 -0.52002 6.87442 0.0509221 
0.0572602 -0.492882 6.89374 0.045873 
0.0511286 -0.601885 6.82611 0.0624344 
0.0638773 -0.604847 6.83523 0.0547635 
0.0567693 -0.575482 6.84805 0.0531956 
0.076617 -0.60783 6.84514 0.0480752 
0.0693407 -0.57887 6.85892 0.0475262 
0.081642 -0.582651 6.87034 0.0365838 
0.0894729 -0.611181 6.85577 0.0380699 
0.0623497 -0.550289 6.87286 0.0449834 
0.0748517 -0.554148 6.88477 0.0367419 
0.0401717 -0.544223 6.85015 0.0593297 
0.0343217 -0.569865 6.82798 0.0673914 
0.102056 -0.616689 6.86784 0.0299747 
0.115968 -0.623635 6.88021 0.023882 
0.106131 -0.593754 6.89579 0.023185 
0.130893 -0.630648 6.89276 0.0176775 
0.120644 -0.600377 6.90893 0.0188613 
0.111779 -0.570196 6.92437 0.0256102 
0.0988413 -0.565078 6.91042 0.025933 
0.0866074 -0.559806 6.89733 0.031548 
0.0937073 -0.588021 6.88303 0.0272519 
0.167047 -0.236 6.9503 0.0626768 
0.140207 -0.257995 6.94575 0.0750899 
0.142076 -0.237725 6.92667 0.0665081 
0.116507 -0.259523 6.9206 0.0741485 
0.11482 -0.279595 6.93982 0.0891353 
0.0920189 -0.304214 6.93025 0.0862646 
0.112146 -0.303855 6.95771 0.116104 
0.136237 -0.280242 6.96494 0.101707 
0.116945 -0.236063 6.90383 0.0743467 
0.0924077 -0.257933 6.89739 0.0799114 
0.0896764 -0.234201 6.88214 0.0871759 
0.0674238 -0.258243 6.87298 0.0756094 
0.0714059 -0.281625 6.88725 0.0689293 
0.0528908 -0.306835 6.87529 0.0502366 
0.0721409 -0.30559 6.90284 0.0648145 
0.0928997 -0.280973 6.91317 0.0761526 
0.0467556 -0.380923 6.88522 0.043646 
0.0617182 -0.354736 6.9004 0.0426652 
0.0654389 -0.382217 6.91307 0.0439119 
0.0806312 -0.355968 6.92806 0.0552811 
0.0765689 -0.329551 6.91593 0.0562568 
0.0582191 -0.331354 6.88676 0.0485697 
0.0438838 -0.356814 6.87148 0.0490177 
0.0847978 -0.383126 6.9422 0.0591553 
0.0994057 -0.355569 6.95882 0.0893619 
0.104255 -0.386424 6.97151 0.0897158 
0.115911 -0.328785 6.97262 0.119885 
0.0954582 -0.329205 6.94427 0.0867043 
0.0175389 -0.431206 6.85724 0.0592503 
0.00904136 -0.405957 6.85077 0.0578878 
0.00506655 -0.456665 6.84199 0.0663789 
-0.00335267 -0.430978 6.83615 0.0650515 
-0.0161542 -0.455994 6.8229 0.0717989 
-0.0120391 -0.406205 6.83091 0.0606663 
-0.00718937 -0.482611 6.82816 0.07139 
-0.0192238 -0.510328 6.81677 0.0659939 
0.00287311 -0.512063 6.8326 0.0677739 
0.0145261 -0.48497 6.84693 0.0644602 
-0.0256591 -0.431078 6.81971 0.0623172 
-0.0351874 -0.40703 6.81571 0.054836 
-0.0391497 -0.457015 6.81068 0.0611205 
-0.0489634 -0.431854 6.80671 0.0551451 
-0.0628484 -0.458258 6.80028 0.0516624 
-0.0604391 -0.407366 6.80375 0.0454114 
-0.0522445 -0.483793 6.80319 0.0576443 
-0.0657889 -0.512872 6.79781 0.0496595 
-0.0418119 -0.511616 6.80645 0.0573782 
-0.0291893 -0.482784 6.81298 0.0679504 
-0.0569765 -0.636585 6.77671 0.0491884 
-0.0470866 -0.6029 6.78527 0.0497808 
-0.032456 -0.633776 6.78283 0.0527619 
-0.0369815 -0.569777 6.79336 0.0568465 
-0.0221969 -0.60009 6.79123 0.0584148 
-0.0122886 -0.567313 6.80066 0.0724444 
-0.00761585 -0.630737 6.78924 0.0565849 
-0.0276615 -0.538489 6.80345 0.0691612 
-0.051115 -0.540572 6.79541 0.0571799 
-0.0610126 -0.572195 6.78658 0.0480044 
0.00233705 -0.598459 6.79997 0.0642808 
0.0184093 -0.630645 6.79829 0.0603342 
0.0107539 -0.568264 6.81348 0.0727535 
0.0271509 -0.599063 6.81103 0.0660034 
0.0177973 -0.540148 6.83042 0.0710674 
-0.00447416 -0.538273 6.81462 0.0740195 
-0.815101 -0.784398 6.37937 0.00302082 
-0.836214 -0.787391 6.36154 0.0018622 
-0.822236 -0.798663 6.34608 0.00170874 
-0.84366 -0.80291 6.3294 0.00204016 
-0.857613 -0.791361 6.34432 0.00180266 
-0.829548 -0.815185 6.31476 0.0035912 
-0.865333 -0.807581 6.31336 0.00379492 
-0.850996 -0.820276 6.29937 0.00702235 
-0.872988 -0.825843 6.28408 0.0151708 
-0.879276 -0.795605 6.3278 0.00256302 
-0.886622 -0.812887 6.29776 0.00818719 
-0.900902 -0.800482 6.31172 0.00539005 
-0.836945 -0.832838 6.28544 0.0141542 
-0.858461 -0.83822 6.27013 0.0239745 
-0.8439 -0.851379 6.25649 0.044179 
-0.822496 -0.847953 6.27065 0.0336642 
-0.815662 -0.829608 6.29999 0.0106474 
-0.801348 -0.844301 6.28497 0.0265587 
-0.794243 -0.826565 6.31469 0.00881913 
-0.808248 -0.812274 6.32993 0.0030103 
-0.786837 -0.809752 6.34559 0.00298612 
-0.780244 -0.841059 6.29949 0.0217114 
-0.773131 -0.823796 6.32996 0.00797763 
-0.759168 -0.838509 6.31463 0.0204041 
-0.801256 -0.796615 6.36207 0.00190326 
-0.924534 -0.799452 6.29555 0.00564634 
-0.911055 -0.812092 6.28177 0.00982633 
-0.93562 -0.811865 6.26633 0.0127664 
-0.948541 -0.799225 6.27956 0.00801772 
-0.921967 -0.824827 6.25276 0.0206005 
-0.959816 -0.811912 6.25092 0.0182802 
-0.946596 -0.8248 6.23791 0.0282285 
-0.970593 -0.82433 6.22293 0.0392415 
-0.972954 -0.799134 6.26377 0.0118493 
-0.984277 -0.811705 6.23603 0.0300527 
-0.997443 -0.799286 6.24878 0.0210338 
-0.932374 -0.837463 6.22416 0.042294 
-0.956839 -0.836976 6.20927 0.0535089 
-0.941785 -0.849578 6.19534 0.0742966 
-0.917126 -0.850739 6.21052 0.0636202 
-0.906932 -0.837798 6.23928 0.0334425 
-0.891995 -0.851009 6.22567 0.0535998 
-0.882367 -0.837908 6.25458 0.0277645 
-0.897063 -0.825097 6.26821 0.0170494 
-0.867691 -0.85112 6.24097 0.0471461 
-0.864488 -0.879798 6.12612 0.0619398 
-0.841198 -0.882527 6.14081 0.0664339 
-0.861102 -0.87928 6.15954 0.087151 
-0.837551 -0.881016 6.17427 0.0853778 
-0.818656 -0.885137 6.15542 0.071095 
-0.856129 -0.873723 6.19243 0.0883017 
-0.814784 -0.882554 6.18862 0.0897269 
-0.832835 -0.87471 6.207 0.0850769 
-0.809748 -0.875283 6.22174 0.0844199 
-0.79647 -0.886673 6.16977 0.0765864 
-0.792283 -0.883654 6.2033 0.0928986 
-0.774697 -0.888726 6.18465 0.08501 
-0.850216 -0.863829 6.22476 0.0661011 
-0.827038 -0.864254 6.23947 0.0646665 
-0.874349 -0.863368 6.20946 0.0738299 
-0.899122 -0.862497 6.19414 0.081388 
-0.880381 -0.872445 6.17717 0.092957 
-0.904751 -0.870377 6.16173 0.0959563 
-0.923877 -0.860931 6.17873 0.0878586 
-0.884967 -0.876586 6.1441 0.0863543 
-0.754994 -0.887691 6.19721 0.0782552 
-0.772273 -0.880783 6.21776 0.0807919 
-0.752346 -0.879538 6.23059 0.0746714 
-0.735929 -0.887146 6.2103 0.0766633 
-0.768701 -0.868683 6.25056 0.0620716 
-0.73272 -0.878838 6.24424 0.0724639 
-0.748489 -0.867379 6.26371 0.0576203 
-0.728737 -0.867111 6.27756 0.056658 
-0.716921 -0.886895 6.22441 0.0791234 
-0.713128 -0.87908 6.2585 0.0770223 
-0.697517 -0.886981 6.2384 0.0800826 
-0.764125 -0.853926 6.28263 0.0376354 
-0.743891 -0.85297 6.29615 0.0368558 
-0.784898 -0.857059 6.26779 0.042879 
-0.805834 -0.860833 6.25357 0.0520804 
-0.788993 -0.871647 6.23592 0.071007 
-0.591138 -0.877978 6.31838 0.0717058 
-0.588274 -0.885627 6.28486 0.06394 
-0.614354 -0.880132 6.30129 0.072142 
-0.585001 -0.889725 6.25026 0.0419765 
-0.611552 -0.888025 6.26743 0.0664821 
-0.607796 -0.891423 6.2326 0.0429738 
-0.637683 -0.882879 6.28409 0.0764257 
-0.581221 -0.889912 6.21465 0.0197228 
-0.57705 -0.888795 6.17912 0.0115695 
-0.556481 -0.889994 6.19329 0.0111877 
-0.560446 -0.890461 6.22892 0.0224846 
-0.563989 -0.890054 6.26473 0.0483392 
-0.535841 -0.890348 6.20735 0.0117085 
-0.652892 -0.883403 6.27236 0.0755601 
-0.636996 -0.888604 6.24896 0.0607297 
-0.65183 -0.88882 6.23756 0.0598125 
-0.667668 -0.884428 6.26088 0.0746061 
-0.635552 -0.890079 6.21336 0.0347359 
-0.666167 -0.889169 6.22621 0.0584613 
-0.649615 -0.889517 6.20213 0.0330608 
-0.664288 -0.889513 6.19102 0.0303188 
-0.682567 -0.885579 6.2495 0.0786931 
-0.681109 -0.890391 6.21499 0.062208 
-0.633496 -0.887593 6.17749 0.013499 
-0.64775 -0.887294 6.16644 0.0136781 
-0.631056 -0.884215 6.14137 0.0165564 
-0.604177 -0.88652 6.15996 0.0140291 
-0.606041 -0.888971 6.19624 0.0161147 
-0.573664 -0.898018 6.03963 0.108525 
-0.573416 -0.888442 6.07134 0.106991 
-0.546537 -0.898303 6.05487 0.102998 
-0.573895 -0.884441 6.10564 0.0737823 
-0.546546 -0.889138 6.08688 0.0956271 
-0.547326 -0.886659 6.12245 0.0531765 
-0.51958 -0.899668 6.07038 0.0823528 
-0.575501 -0.885472 6.14201 0.0275981 
-0.6024 -0.883411 6.12323 0.0356125 
-0.600928 -0.884228 6.08774 0.0820123 
-0.522505 -0.890219 6.102 0.0773483 
-0.498762 -0.90029 6.08244 0.0774578 
-0.526522 -0.88644 6.13613 0.0491 
-0.502043 -0.890812 6.11465 0.0729149 
-0.506227 -0.887422 6.14901 0.0455256 
-0.478174 -0.90137 6.09481 0.0695963 
-0.530826 -0.887043 6.17172 0.0190055 
-0.5516 -0.88686 6.15768 0.0195117 
-0.727598 -0.899547 5.95674 0.0757405 
-0.706642 -0.897984 5.9676 0.0896915 
-0.718849 -0.88501 5.98885 0.110417 
-0.69834 -0.885017 5.99964 0.119487 
-0.686085 -0.896853 5.97824 0.101734 
-0.712381 -0.877569 6.02188 0.108975 
-0.678193 -0.885042 6.01028 0.126903 
-0.692073 -0.878602 6.03286 0.109921 
-0.672297 -0.880129 6.04401 0.106828 
-0.665901 -0.896439 5.98887 0.107791 
-0.658489 -0.886162 6.02129 0.123624 
-0.645774 -0.896936 5.99996 0.111948 
-0.707341 -0.876231 6.05645 0.0757332 
-0.687457 -0.8786 6.0681 0.0721556 
-0.703185 -0.879552 6.09331 0.0383339 
-0.722908 -0.876966 6.0799 0.0435784 
-0.72716 -0.874565 6.04393 0.0792627 
-0.742933 -0.875061 6.06701 0.0467405 
-0.747115 -0.873299 6.03162 0.0803331 
-0.732353 -0.877178 6.00976 0.104739 
-0.75286 -0.87721 5.9976 0.0970645 
-0.763069 -0.872918 6.05437 0.0501652 
-0.767663 -0.872308 6.01942 0.0782785 
-0.783922 -0.871764 6.0419 0.0401594 
-0.739375 -0.88621 5.97673 0.0963048 
-0.628026 -0.896545 6.00954 0.117388 
-0.640956 -0.885482 6.03174 0.125725 
-0.622788 -0.885896 6.04151 0.123894 
-0.610005 -0.89633 6.01918 0.117182 
-0.637006 -0.880868 6.06611 0.100641 
-0.605082 -0.887306 6.05213 0.115943 
-0.619125 -0.882239 6.07665 0.093447 
-0.591867 -0.896689 6.02927 0.115872 
-0.633922 -0.88115 6.10299 0.0595939 
-0.649473 -0.88279 6.12896 0.0198025 
-0.651909 -0.879519 6.09093 0.0663774 
-0.667471 -0.881603 6.11687 0.0233361 
-0.669579 -0.879003 6.07943 0.0684879 
-0.654755 -0.879893 6.05468 0.108717 
-0.685351 -0.88008 6.10479 0.0360801 
-0.700029 -0.889184 6.2023 0.0557811 
-0.718754 -0.887976 6.18836 0.050563 
-0.70152 -0.88644 6.16609 0.0248915 
-0.737416 -0.887781 6.1749 0.0476072 
-0.72002 -0.885436 6.15243 0.020997 
-0.738419 -0.885869 6.13972 0.0219095 
-0.756371 -0.888006 6.16215 0.0481853 
-0.702646 -0.882577 6.12931 0.0119357 
-0.72051 -0.882681 6.11686 0.0131427 
-0.684473 -0.883707 6.14121 0.0116208 
-0.666284 -0.885102 6.15367 0.0121711 
-0.683071 -0.887708 6.17837 0.0259566 
-0.777681 -0.886302 6.1487 0.0430305 
-0.799064 -0.883826 6.13407 0.0361042 
-0.779547 -0.880813 6.11289 0.0144066 
-0.820967 -0.881887 6.11992 0.0345358 
-0.80084 -0.878278 6.09864 0.0127509 
-0.822793 -0.876255 6.08407 0.0129949 
-0.843744 -0.879313 6.1052 0.0321604 
-0.781452 -0.875048 6.07705 0.0156808 
-0.802781 -0.872876 6.0627 0.0171462 
-0.76078 -0.877876 6.09028 0.0138923 
-0.740611 -0.880011 6.10329 0.0129653 
-0.758815 -0.883513 6.1262 0.0178719 
-0.61737 -0.328215 6.83076 0.246657 
-0.619151 -0.335107 6.81696 0.226442 
-0.611087 -0.313263 6.80286 0.215596 
-0.611479 -0.319888 6.7897 0.205584 
-0.618883 -0.34164 6.80313 0.212254 
-0.604845 -0.296436 6.77581 0.197375 
-0.612031 -0.326154 6.77619 0.181465 
-0.605545 -0.30267 6.76317 0.188484 
-0.605833 -0.308499 6.74942 0.154011 
-0.619523 -0.347958 6.78998 0.201062 
-0.613152 -0.332058 6.76328 0.161108 
-0.621036 -0.355006 6.77749 0.181894 
-0.600745 -0.278495 6.75009 0.269345 
-0.601205 -0.282887 6.73616 0.250851 
-0.59911 -0.257483 6.72526 0.301398 
-0.598353 -0.254015 6.74022 0.323201 
-0.600393 -0.273865 6.76529 0.226995 
-0.597309 -0.250686 6.75603 0.292493 
-0.600213 -0.270247 6.78061 0.210164 
-0.605259 -0.292786 6.79127 0.20935 
-0.604514 -0.28813 6.80617 0.245786 
-0.597041 -0.247314 6.77244 0.261677 
-0.599783 -0.266125 6.79617 0.245865 
-0.610983 -0.309184 6.81816 0.254923 
-0.622088 -0.360145 6.76478 0.160676 
-0.613913 -0.33585 6.74958 0.142458 
-0.614931 -0.340492 6.73707 0.142347 
-0.623626 -0.365938 6.75243 0.155341 
-0.605108 -0.315287 6.72403 0.173381 
-0.609898 -0.347054 6.72815 0.171701 
-0.602162 -0.319596 6.71491 0.200274 
-0.602203 -0.324207 6.70543 0.204229 
-0.620958 -0.373358 6.7414 0.163531 
-0.608588 -0.352198 6.7186 0.193857 
-0.617455 -0.380095 6.73157 0.190727 
-0.598996 -0.291858 6.70161 0.23953 
-0.600237 -0.29527 6.692 0.226904 
-0.601656 -0.26752 6.67987 0.262487 
-0.599127 -0.265929 6.69078 0.264143 
-0.599481 -0.289586 6.71214 0.234438 
-0.598556 -0.264086 6.70121 0.269722 
-0.601813 -0.286887 6.72365 0.225274 
-0.60711 -0.311095 6.73533 0.167576 
-0.599621 -0.26149 6.71247 0.275651 
-0.65294 -0.158725 6.65638 0.140039 
-0.646903 -0.155225 6.67134 0.187721 
-0.635203 -0.181996 6.66814 0.22837 
-0.629299 -0.179958 6.68249 0.274666 
-0.640563 -0.15192 6.68677 0.211238 
-0.618576 -0.20775 6.68282 0.26775 
-0.624078 -0.176816 6.69799 0.301999 
-0.615264 -0.204903 6.69738 0.294701 
-0.610663 -0.202268 6.71366 0.332256 
-0.634658 -0.148191 6.70234 0.219969 
-0.619219 -0.173812 6.71385 0.300805 
-0.629141 -0.145107 6.71693 0.248118 
-0.606873 -0.233381 6.70229 0.284742 
-0.604109 -0.230726 6.71745 0.320288 
-0.60731 -0.235032 6.68989 0.261127 
-0.609046 -0.237457 6.67835 0.250303 
-0.620859 -0.209745 6.66976 0.229162 
-0.624376 -0.212057 6.65749 0.221468 
-0.611525 -0.239469 6.6672 0.236219 
-0.638803 -0.18568 6.65378 0.192406 
-0.625413 -0.142226 6.73302 0.230534 
-0.616119 -0.168825 6.72957 0.280622 
-0.61367 -0.167314 6.7459 0.302041 
-0.62184 -0.140294 6.74928 0.24242 
-0.606592 -0.194641 6.74617 0.32449 
-0.60448 -0.192311 6.76248 0.320318 
-0.600038 -0.218872 6.76526 0.28788 
-0.600883 -0.222659 6.749 0.340823 
-0.602038 -0.226655 6.73367 0.325763 
-0.608334 -0.197596 6.72989 0.357232 
-0.702424 -0.391738 6.89575 0.242251 
-0.697992 -0.383118 6.91058 0.275708 
-0.704697 -0.37485 6.9327 0.273517 
-0.728201 -0.37527 6.94526 0.265275 
-0.734663 -0.384064 6.92874 0.257681 
-0.728366 -0.392706 6.90665 0.239701 
-0.753709 -0.392928 6.91876 0.243184 
-0.774757 -0.366311 6.96648 0.261162 
-0.783002 -0.375032 6.94895 0.246394 
-0.779039 -0.386915 6.92732 0.231193 
-0.803709 -0.381 6.93654 0.203544 
-0.75872 -0.381407 6.93953 0.264423 
-0.751633 -0.372722 6.95601 0.270546 
-0.805287 -0.366017 6.95854 0.238779 
-0.796447 -0.356881 6.97621 0.251857 
-0.816782 -0.344716 6.98528 0.232669 
-0.827015 -0.354525 6.96541 0.213404 
-0.825934 -0.369251 6.94406 0.192942 
-0.847888 -0.359007 6.9498 0.194748 
-0.853269 -0.316666 6.99848 0.24075 
-0.865437 -0.328029 6.97587 0.228028 
-0.867294 -0.345397 6.95295 0.192079 
-0.88673 -0.33273 6.95599 0.191284 
-0.846551 -0.341936 6.97215 0.223006 
-0.835753 -0.3313 6.99259 0.238061 
-0.899255 -0.343592 6.9337 0.170508 
-0.900681 -0.359562 6.91358 0.141215 
-0.91261 -0.369905 6.89298 0.122319 
-0.913446 -0.385688 6.87442 0.101249 
-0.935455 -0.375381 6.87246 0.107702 
-0.890419 -0.381058 6.89532 0.120468 
-0.891153 -0.397046 6.87562 0.104607 
-0.87954 -0.371335 6.91354 0.147177 
-0.868379 -0.361706 6.9325 0.165559 
-0.947457 -0.386951 6.85195 0.100603 
-0.947268 -0.40359 6.83335 0.0976673 
-0.958715 -0.415706 6.81135 0.0910538 
-0.95781 -0.433266 6.79049 0.0984265 
-0.981928 -0.427586 6.78078 0.101575 
-0.934864 -0.42436 6.81749 0.0927965 
-0.933853 -0.441424 6.79754 0.086916 
-0.924117 -0.412788 6.83711 0.0892185 
-0.913209 -0.401575 6.85673 0.0878701 
-0.879947 -0.45268 6.80538 0.084085 
-0.870039 -0.442575 6.82273 0.0788462 
-0.87323 -0.42879 6.84006 0.0827318 
-0.863223 -0.418872 6.85744 0.0893329 
-0.866115 -0.405173 6.87468 0.106079 
-0.840668 -0.415014 6.87271 0.11914 
-0.888883 -0.411212 6.85783 0.0915362 
-0.899469 -0.421039 6.83968 0.0796774 
-0.910208 -0.431592 6.82108 0.0848149 
-0.90717 -0.44595 6.80232 0.0845726 
-0.831256 -0.4057 6.88929 0.139104 
-0.833522 -0.392293 6.90756 0.160245 
-0.824278 -0.383841 6.92333 0.16787 
-0.846753 -0.373538 6.92942 0.176172 
-0.857108 -0.382186 6.9116 0.143078 
-0.867729 -0.391456 6.8935 0.120606 
-0.624628 -0.332678 6.85366 0.266256 
-0.644014 -0.354717 6.8729 0.273581 
-0.636835 -0.35192 6.84976 0.256562 
-0.655964 -0.372889 6.86772 0.268116 
-0.682338 -0.370905 6.91767 0.292871 
-0.675125 -0.374862 6.89561 0.276931 
-0.679321 -0.383517 6.8804 0.265724 
-0.799364 -0.392383 6.91707 0.193803 
-0.808706 -0.40045 6.90177 0.166017 
-0.804377 -0.412035 6.88292 0.149106 
-0.813589 -0.419814 6.86858 0.115325 
-0.785606 -0.426076 6.86285 0.149123 
-0.77698 -0.418221 6.87571 0.170455 
-0.781885 -0.406828 6.89417 0.182228 
-0.774127 -0.398867 6.90781 0.214696 
-0.845777 -0.43492 6.84033 0.0828772 
-0.841124 -0.446165 6.82298 0.0735082 
-0.851162 -0.455031 6.80645 0.0771533 
-0.821318 -0.458995 6.80608 0.0859966 
-0.812569 -0.449584 6.82245 0.0911597 
-0.817677 -0.438627 6.83885 0.0951329 
-0.808461 -0.430792 6.85215 0.108131 
-0.75782 -0.45765 6.79493 0.10739 
-0.749963 -0.449619 6.8075 0.121765 
-0.741781 -0.442074 6.81887 0.140764 
-0.77223 -0.442636 6.82755 0.119878 
-0.764551 -0.434385 6.83978 0.135467 
-0.756574 -0.426424 6.85216 0.156596 
-0.73416 -0.433866 6.83128 0.162713 
-0.727063 -0.425634 6.84348 0.182061 
-0.781588 -0.450269 6.81421 0.0981274 
-0.790822 -0.457838 6.80109 0.0858809 
-0.720058 -0.417449 6.85563 0.200869 
-0.727099 -0.409529 6.8743 0.21146 
-0.734346 -0.401394 6.89309 0.229264 
-0.707953 -0.400596 6.88157 0.249203 
-0.754919 -0.410035 6.88446 0.199133 
-0.748619 -0.418301 6.86544 0.182497 
-0.700274 -0.404532 6.86141 0.219449 
-0.692202 -0.40847 6.84129 0.199847 
