ply
format ascii 1.0
comment VCGLIB generated
element vertex 1052
property float x
property float y
property float z
property uchar red
property uchar green
property uchar blue
property float quality
end_header
0.059459 0.027202 6.116520 0 0 142 0.999958
-0.042453 0.039544 6.169260 0 0 133 0.999981
-0.022292 0.039927 6.178740 0 0 137 0.999976
-0.012119 0.035465 6.159270 0 0 128 0.999997
0.008029 0.035735 6.168290 0 0 128 0.999996
-0.002107 0.040102 6.188070 0 0 133 0.999978
0.017986 0.032351 6.148570 0 0 128 0.999996
0.027997 0.036311 6.177380 0 0 128 0.999995
0.038235 0.032848 6.157270 0 0 128 0.999998
0.058353 0.033055 6.166320 0 0 128 0.999995
0.018021 0.040122 6.197140 0 0 133 0.999982
0.048084 0.036353 6.186250 0 0 128 0.999996
0.037722 0.040184 6.206180 0 0 133 0.999985
0.048404 0.030018 6.137260 0 0 128 0.999995
0.068757 0.030307 6.146250 0 0 128 0.999992
0.028760 0.029168 6.127820 0 0 128 0.999995
0.008922 0.028148 6.118490 0 0 128 0.999996
-0.001626 0.031422 6.139120 0 0 128 0.999993
-0.021190 0.030738 6.129430 0 0 128 0.999993
-0.010773 0.027058 6.109010 0 0 128 0.999993
-0.031659 0.034915 6.149540 0 0 128 0.999992
0.059100 0.040878 6.216470 0 0 133 0.999981
0.069265 0.037310 6.196990 0 0 128 0.999996
0.090819 0.037966 6.207140 0 0 128 0.999996
0.080424 0.041433 6.226540 0 0 137 0.999974
0.101112 0.034949 6.187580 0 0 128 0.999997
0.111953 0.038188 6.217300 0 0 128 0.999996
0.122362 0.035234 6.197620 0 0 128 0.999998
0.101550 0.041622 6.236780 0 0 137 0.999976
0.132999 0.032646 6.177810 0 0 128 0.999989
0.111811 0.032339 6.167260 0 0 133 0.999988
0.090269 0.031532 6.156680 0 0 128 0.999990
0.079796 0.034157 6.176900 0 0 128 0.999997
-0.119746 0.033477 6.319290 0 0 133 0.999988
-0.138680 0.034931 6.311100 0 0 128 0.999996
-0.128899 0.039889 6.289930 0 0 128 0.999998
-0.109777 0.038631 6.297820 0 0 128 0.999995
-0.148101 0.041208 6.281600 0 0 128 0.999999
-0.118900 0.044654 6.268920 0 0 142 0.999964
-0.138441 0.045855 6.260860 0 0 142 0.999965
-0.128281 0.049635 6.239700 0 0 178 0.999869
-0.099271 0.043411 6.276580 0 0 137 0.999967
-0.108419 0.048530 6.247540 0 0 173 0.999874
-0.088411 0.047364 6.255190 0 0 169 0.999892
-0.158031 0.046873 6.252480 0 0 137 0.999971
-0.148017 0.050728 6.231540 0 0 173 0.999874
-0.167583 0.051802 6.223260 0 0 173 0.999879
-0.178053 0.047915 6.244220 0 0 137 0.999974
-0.168150 0.042414 6.273320 0 0 128 0.999999
-0.188092 0.043508 6.265040 0 0 128 0.999999
-0.178088 0.037683 6.294670 0 0 128 0.999999
-0.158377 0.036257 6.303000 0 0 128 0.999998
-0.197790 0.038994 6.286210 0 0 128 0.999999
-0.076968 0.046322 6.234120 0 0 137 0.999966
-0.095923 0.046976 6.226240 0 0 137 0.999970
-0.083906 0.045058 6.204840 0 0 128 0.999997
-0.065124 0.044355 6.212510 0 0 128 0.999996
-0.103033 0.045742 6.196990 0 0 128 0.999998
-0.071985 0.042617 6.183220 0 0 128 0.999992
-0.091054 0.043269 6.175220 0 0 128 0.999994
-0.079883 0.040905 6.153680 0 0 137 0.999976
-0.053391 0.041984 6.190730 0 0 128 0.999992
-0.060900 0.040265 6.161570 0 0 133 0.999980
-0.110379 0.044027 6.167380 0 0 128 0.999994
-0.098893 0.041442 6.145600 0 0 137 0.999975
-0.118017 0.042198 6.137870 0 0 137 0.999975
-0.130977 0.045374 6.159990 0 0 128 0.999991
-0.123526 0.047045 6.189490 0 0 128 0.999997
-0.143812 0.048445 6.181840 0 0 128 0.999993
-0.136079 0.049331 6.210780 0 0 142 0.999962
-0.115906 0.048127 6.218610 0 0 137 0.999969
-0.155994 0.050598 6.202870 0 0 142 0.999957
-0.193505 0.045639 6.107980 0 0 142 0.999957
-0.207489 0.049961 6.130240 0 0 133 0.999983
-0.187340 0.047944 6.137210 0 0 128 0.999997
-0.201216 0.051579 6.158830 0 0 128 0.999991
-0.221166 0.053321 6.151610 0 0 137 0.999971
-0.181130 0.049850 6.165970 0 0 128 0.999996
-0.214502 0.053983 6.179520 0 0 146 0.999950
-0.194429 0.052664 6.187120 0 0 142 0.999958
-0.207423 0.053968 6.207460 0 0 173 0.999877
-0.234412 0.055380 6.171940 0 0 151 0.999937
-0.227321 0.055012 6.199600 0 0 169 0.999889
-0.246997 0.056212 6.191780 0 0 178 0.999870
-0.174515 0.051237 6.194710 0 0 137 0.999966
-0.187550 0.052889 6.215320 0 0 173 0.999873
-0.162630 0.049035 6.173850 0 0 128 0.999997
-0.150134 0.046076 6.152420 0 0 128 0.999999
-0.168887 0.046919 6.144780 0 0 128 0.999998
-0.156246 0.043554 6.122990 0 0 137 0.999975
-0.137349 0.042845 6.130420 0 0 137 0.999975
-0.174966 0.044470 6.115530 0 0 137 0.999969
-0.257922 0.052414 6.212090 0 0 137 0.999975
-0.237398 0.051002 6.219690 0 0 133 0.999982
-0.247972 0.046826 6.240500 0 0 128 0.999997
-0.268159 0.048288 6.232460 0 0 128 0.999993
-0.227474 0.045432 6.248450 0 0 128 0.999997
-0.258401 0.043226 6.261270 0 0 133 0.999981
-0.237978 0.041487 6.269360 0 0 133 0.999988
-0.278214 0.044748 6.252980 0 0 137 0.999973
-0.217445 0.039917 6.277640 0 0 128 0.999994
-0.207844 0.044468 6.256790 0 0 128 0.999999
-0.197874 0.048871 6.235980 0 0 137 0.999972
-0.217613 0.049904 6.227810 0 0 133 0.999978
-0.095306 -0.009276 5.935180 0 0 142 0.999963
-0.106671 -0.001614 5.956670 0 0 128 0.999995
-0.089452 -0.001085 5.965320 0 0 128 0.999999
-0.101064 0.006254 5.986660 0 0 128 0.999999
-0.118300 0.005841 5.978310 0 0 128 0.999996
-0.083229 0.006799 5.995210 0 0 128 0.999999
-0.112471 0.013515 6.008300 0 0 128 0.999999
-0.094835 0.013831 6.016730 0 0 128 0.999997
-0.106379 0.021138 6.037860 0 0 128 0.999989
-0.129842 0.013282 5.999840 0 0 128 0.999997
-0.124021 0.021003 6.029440 0 0 133 0.999981
-0.141439 0.020960 6.021020 0 0 137 0.999972
-0.077161 0.014445 6.024890 0 0 128 0.999999
-0.088793 0.021634 6.046280 0 0 133 0.999986
-0.071072 0.022226 6.054670 0 0 133 0.999981
-0.059922 0.015621 6.034270 0 0 128 0.999999
-0.066225 0.007862 6.004520 0 0 128 1.000000
-0.048899 0.009127 6.013820 0 0 128 0.999999
-0.055311 0.001124 5.984160 0 0 128 0.999999
-0.072297 -0.000098 5.974750 0 0 128 0.999999
-0.061533 -0.007518 5.954270 0 0 133 0.999982
-0.037987 0.002457 5.993550 0 0 128 0.999997
-0.044402 -0.006426 5.963690 0 0 133 0.999978
-0.027119 -0.005132 5.973330 0 0 137 0.999969
-0.078615 -0.008487 5.944760 0 0 133 0.999980
-0.153818 0.026387 6.042760 0 0 128 0.999994
-0.135393 0.025806 6.050380 0 0 128 0.999995
-0.148104 0.031553 6.072070 0 0 128 0.999998
-0.166842 0.032295 6.064680 0 0 128 0.999997
-0.129426 0.031008 6.079440 0 0 128 0.999997
-0.161384 0.037775 6.093660 0 0 128 0.999994
-0.142553 0.037026 6.101050 0 0 128 0.999998
-0.180127 0.038774 6.086440 0 0 128 0.999990
-0.123696 0.036423 6.108640 0 0 128 0.999998
-0.105702 0.036528 6.117150 0 0 128 0.999999
-0.111740 0.031145 6.087900 0 0 128 0.999999
-0.093875 0.031348 6.096640 0 0 128 0.999999
-0.100289 0.026192 6.067200 0 0 128 0.999998
-0.117795 0.025942 6.058890 0 0 128 0.999994
-0.082544 0.026542 6.075800 0 0 128 0.999998
-0.049151 0.034895 6.141030 0 0 128 0.999995
-0.038614 0.030523 6.120920 0 0 128 0.999994
-0.056322 0.030544 6.112440 0 0 128 0.999997
-0.028269 0.026719 6.100520 0 0 128 0.999997
-0.046005 0.026548 6.092130 0 0 128 0.999997
-0.035555 0.023052 6.071580 0 0 133 0.999981
-0.017755 0.023498 6.079940 0 0 133 0.999984
-0.063827 0.026388 6.083660 0 0 128 0.999995
-0.053203 0.022563 6.063080 0 0 133 0.999984
-0.075187 0.030937 6.104580 0 0 128 0.999998
-0.086790 0.035990 6.125100 0 0 128 0.999999
-0.067957 0.035447 6.133100 0 0 128 0.999998
-0.006603 0.017611 6.059280 0 0 128 0.999999
0.004013 0.011867 6.039690 0 0 128 0.999992
-0.013176 0.010761 6.030490 0 0 128 0.999996
0.014371 0.005327 6.020730 0 0 137 0.999972
-0.002927 0.004385 6.011300 0 0 133 0.999983
0.007335 -0.003243 5.992430 0 0 142 0.999960
0.024500 -0.002376 6.002060 0 0 146 0.999948
-0.020148 0.003205 6.001900 0 0 133 0.999986
-0.010138 -0.004204 5.982830 0 0 142 0.999963
-0.031066 0.009922 6.022250 0 0 128 0.999999
-0.042056 0.016275 6.042770 0 0 128 0.999999
-0.024442 0.016966 6.051090 0 0 128 0.999999
0.090649 0.043107 6.257890 0 0 128 0.999997
0.069730 0.042825 6.247570 0 0 128 0.999997
0.058965 0.044550 6.268100 0 0 128 0.999999
0.048528 0.042300 6.237270 0 0 128 0.999997
0.037935 0.044256 6.257750 0 0 128 0.999998
0.016928 0.043791 6.247510 0 0 128 0.999998
0.027423 0.041881 6.226980 0 0 128 0.999994
0.027142 0.046033 6.278180 0 0 137 0.999968
0.005737 0.045559 6.267990 0 0 137 0.999967
-0.005714 0.046376 6.288550 0 0 173 0.999883
0.015669 0.046733 6.297980 0 0 169 0.999896
0.047942 0.046292 6.287660 0 0 137 0.999967
0.036717 0.047126 6.307390 0 0 178 0.999869
0.068447 0.046504 6.297410 0 0 146 0.999953
0.079537 0.044582 6.277730 0 0 128 0.999999
0.057401 0.047567 6.316980 0 0 178 0.999864
0.007350 0.042147 6.218540 0 0 128 0.999996
-0.012782 0.042216 6.209540 0 0 128 0.999995
-0.024194 0.044431 6.230900 0 0 128 0.999997
-0.033125 0.042288 6.200380 0 0 128 0.999994
-0.044647 0.044526 6.221840 0 0 128 0.999997
-0.056299 0.046291 6.243290 0 0 137 0.999967
-0.067427 0.047183 6.263840 0 0 169 0.999885
-0.035587 0.046097 6.251670 0 0 137 0.999967
-0.046832 0.046941 6.272120 0 0 169 0.999886
-0.014863 0.045923 6.259780 0 0 137 0.999967
-0.003547 0.044205 6.239180 0 0 128 0.999996
-0.026291 0.046666 6.280390 0 0 169 0.999894
-0.099714 0.033090 6.328450 0 0 128 0.999998
-0.079864 0.032724 6.336610 0 0 128 0.999998
-0.068773 0.037938 6.315360 0 0 128 0.999997
-0.059951 0.032149 6.344480 0 0 128 0.999999
-0.048761 0.037780 6.323260 0 0 128 0.999995
-0.028621 0.037415 6.331020 0 0 128 0.999994
-0.040200 0.031380 6.352350 0 0 128 0.999993
-0.037460 0.042636 6.302200 0 0 137 0.999969
-0.017329 0.042493 6.310010 0 0 146 0.999947
-0.057746 0.042841 6.293790 0 0 137 0.999972
-0.078324 0.043115 6.285200 0 0 137 0.999972
-0.089229 0.038400 6.306560 0 0 128 0.999997
-0.019195 0.031449 6.361690 0 0 128 0.999991
0.001289 0.031840 6.370330 0 0 133 0.999987
0.013548 0.037990 6.349910 0 0 128 0.999990
0.021704 0.032104 6.378760 0 0 128 0.999996
0.033904 0.038304 6.358330 0 0 128 0.999991
0.046133 0.043805 6.338190 0 0 146 0.999953
0.025170 0.043394 6.328720 0 0 151 0.999935
0.003937 0.042864 6.319330 0 0 142 0.999961
-0.007605 0.037617 6.340450 0 0 128 0.999993
-0.310514 0.042425 6.265500 0 0 155 0.999925
-0.315683 0.034117 6.288920 0 0 133 0.999981
-0.337317 0.035454 6.280740 0 0 133 0.999983
-0.332011 0.043565 6.257650 0 0 155 0.999930
-0.342817 0.027957 6.304810 0 0 128 0.999996
-0.357913 0.036903 6.272730 0 0 133 0.999985
-0.363612 0.029415 6.296470 0 0 128 0.999998
-0.383925 0.030501 6.288390 0 0 128 0.999994
-0.352633 0.044899 6.250340 0 0 155 0.999926
-0.378358 0.038160 6.265050 0 0 133 0.999987
-0.372965 0.046361 6.243330 0 0 173 0.999882
-0.369299 0.022381 6.321390 0 0 128 0.999993
-0.389524 0.023168 6.312870 0 0 128 0.999997
-0.395095 0.015910 6.337500 0 0 164 0.999907
-0.376273 0.014855 6.345850 0 0 169 0.999896
-0.349873 0.020388 6.329230 0 0 128 0.999997
-0.357333 0.013230 6.353890 0 0 160 0.999916
-0.330166 0.018472 6.337250 0 0 128 0.999998
-0.322703 0.025919 6.312330 0 0 128 0.999995
-0.337748 0.011255 6.362260 0 0 155 0.999929
-0.396221 0.047830 6.234660 0 0 178 0.999870
-0.396202 0.039671 6.260250 0 0 128 0.999995
-0.419244 0.040801 6.251530 0 0 142 0.999958
-0.419730 0.049924 6.226410 0 0 201 0.999810
-0.419048 0.032752 6.277970 0 0 133 0.999981
-0.441744 0.042241 6.242630 0 0 151 0.999938
-0.441560 0.032997 6.268350 0 0 128 0.999992
-0.464126 0.033933 6.258770 0 0 137 0.999966
-0.442301 0.052290 6.218300 0 0 219 0.999761
-0.464689 0.044290 6.233810 0 0 146 0.999947
-0.465459 0.055262 6.210300 0 0 210 0.999779
-0.441260 0.024909 6.294770 0 0 151 0.999940
-0.463338 0.024416 6.284170 0 0 146 0.999952
-0.462538 0.015755 6.310260 0 0 173 0.999874
-0.446118 0.016405 6.317210 0 0 183 0.999858
-0.424208 0.024451 6.300870 0 0 142 0.999965
-0.429319 0.016437 6.323900 0 0 169 0.999887
-0.407325 0.024009 6.306890 0 0 137 0.999974
-0.401843 0.031781 6.283070 0 0 128 0.999996
-0.412674 0.016422 6.330670 0 0 164 0.999903
-0.445538 -0.021134 6.388490 0 0 133 0.999979
-0.431051 -0.020389 6.396440 0 0 133 0.999982
-0.428713 -0.008112 6.372240 0 0 128 0.999989
-0.416668 -0.020385 6.404620 0 0 133 0.999978
-0.414389 -0.008019 6.380070 0 0 137 0.999976
-0.399599 -0.008835 6.387110 0 0 128 0.999990
-0.401911 -0.021376 6.412410 0 0 133 0.999986
-0.411844 0.003873 6.355280 0 0 137 0.999972
-0.397247 0.003164 6.362100 0 0 128 0.999993
-0.428902 0.004028 6.347980 0 0 137 0.999967
-0.445908 0.003478 6.340360 0 0 137 0.999969
-0.445428 -0.008904 6.364280 0 0 128 0.999989
-0.462234 -0.010136 6.355870 0 0 133 0.999985
-0.462597 0.002730 6.333100 0 0 137 0.999976
-0.462173 -0.022670 6.379290 0 0 128 0.999990
-0.383688 -0.023023 6.422250 0 0 128 0.999993
-0.367182 -0.024410 6.430500 0 0 128 0.999990
-0.362836 -0.011954 6.406010 0 0 128 0.999993
-0.350652 -0.026583 6.438370 0 0 128 0.999996
-0.345711 -0.013652 6.413150 0 0 128 0.999999
-0.340660 -0.000997 6.388400 0 0 128 0.999995
-0.360135 0.001040 6.380180 0 0 133 0.999984
-0.378924 0.002239 6.371040 0 0 128 0.999993
-0.381331 -0.009980 6.396650 0 0 128 0.999989
-0.484553 0.053812 6.214010 0 0 223 0.999745
-0.498059 0.042657 6.235010 0 0 142 0.999961
-0.503499 0.052247 6.216870 0 0 183 0.999861
-0.492843 0.033761 6.254110 0 0 133 0.999982
-0.516986 0.040328 6.237880 0 0 142 0.999960
-0.511475 0.030900 6.256490 0 0 133 0.999980
-0.530703 0.028665 6.259040 0 0 133 0.999978
-0.522659 0.050818 6.219810 0 0 219 0.999754
-0.536361 0.038596 6.240760 0 0 137 0.999973
-0.542705 0.049698 6.223160 0 0 219 0.999759
-0.506333 0.022753 6.275950 0 0 146 0.999953
-0.525384 0.019688 6.278090 0 0 155 0.999931
-0.519983 0.011218 6.297230 0 0 201 0.999808
-0.491279 0.013619 6.303510 0 0 187 0.999846
-0.564802 0.036258 6.241230 0 0 151 0.999936
-0.572906 0.046165 6.224510 0 0 178 0.999870
-0.557065 0.026408 6.257900 0 0 133 0.999982
-0.586949 0.022499 6.260040 0 0 133 0.999980
-0.595392 0.033402 6.243160 0 0 160 0.999912
-0.604429 0.044150 6.226080 0 0 228 0.999738
-0.564319 0.014627 6.275600 0 0 142 0.999960
-0.571831 0.003923 6.293770 0 0 192 0.999834
-0.545604 0.006626 6.295000 0 0 164 0.999907
-0.545812 -0.036510 6.347900 0 0 155 0.999927
-0.537573 -0.020692 6.331890 0 0 142 0.999963
-0.524783 -0.031869 6.355170 0 0 164 0.999897
-0.515845 -0.017154 6.337660 0 0 133 0.999979
-0.528996 -0.005010 6.314700 0 0 146 0.999954
-0.554529 -0.009308 6.312390 0 0 137 0.999969
-0.563215 -0.026004 6.328900 0 0 137 0.999975
-0.499579 -0.027874 6.363250 0 0 164 0.999899
-0.487410 -0.013017 6.346190 0 0 128 0.999990
-0.489372 0.000006 6.324390 0 0 146 0.999944
-0.298936 0.045207 6.243580 0 0 133 0.999984
-0.289135 0.048614 6.223540 0 0 128 0.999994
-0.309682 0.048910 6.214990 0 0 133 0.999980
-0.278972 0.052672 6.203620 0 0 137 0.999974
-0.299476 0.053023 6.195520 0 0 137 0.999971
-0.289308 0.057002 6.175930 0 0 155 0.999922
-0.268357 0.056713 6.183710 0 0 160 0.999911
-0.319875 0.053682 6.187600 0 0 133 0.999984
-0.309579 0.057680 6.168150 0 0 160 0.999913
-0.329687 0.058485 6.160520 0 0 169 0.999896
-0.340828 0.055074 6.181160 0 0 133 0.999981
-0.331046 0.050313 6.208330 0 0 128 0.999993
-0.351607 0.052075 6.201660 0 0 137 0.999976
-0.341903 0.047523 6.229060 0 0 133 0.999979
-0.320918 0.046094 6.236080 0 0 133 0.999982
-0.362188 0.049233 6.222350 0 0 142 0.999957
-0.253792 0.054961 6.162600 0 0 137 0.999969
-0.240836 0.053099 6.142420 0 0 128 0.999995
-0.260068 0.053236 6.133360 0 0 128 0.999992
-0.227435 0.050150 6.121280 0 0 128 0.999993
-0.246984 0.050453 6.112220 0 0 128 0.999994
-0.233567 0.046614 6.090280 0 0 146 0.999950
-0.213752 0.046142 6.099150 0 0 146 0.999952
-0.266102 0.050894 6.103230 0 0 133 0.999980
-0.252744 0.047050 6.081480 0 0 142 0.999958
-0.271523 0.047702 6.072790 0 0 146 0.999946
-0.286830 0.052613 6.096120 0 0 142 0.999962
-0.281285 0.054560 6.125860 0 0 133 0.999988
-0.301915 0.055959 6.118610 0 0 142 0.999957
-0.295724 0.056727 6.147360 0 0 146 0.999952
-0.274909 0.055805 6.154930 0 0 142 0.999962
-0.316112 0.057710 6.140040 0 0 151 0.999937
-0.343172 0.046367 6.033720 0 0 142 0.999957
-0.359717 0.052020 6.057350 0 0 133 0.999978
-0.340663 0.050766 6.066620 0 0 128 0.999994
-0.356524 0.054742 6.089660 0 0 128 0.999996
-0.375403 0.056046 6.080180 0 0 133 0.999981
-0.337688 0.054282 6.098750 0 0 128 0.999991
-0.371567 0.057528 6.111720 0 0 137 0.999974
-0.352930 0.056921 6.120920 0 0 137 0.999975
-0.367294 0.058444 6.141840 0 0 151 0.999938
-0.390188 0.058772 6.102390 0 0 137 0.999966
-0.385622 0.059167 6.132630 0 0 146 0.999948
-0.403945 0.060588 6.123450 0 0 146 0.999944
-0.334112 0.056679 6.130190 0 0 137 0.999972
-0.348632 0.058216 6.150940 0 0 151 0.999942
-0.319958 0.054905 6.108620 0 0 128 0.999992
-0.305037 0.051596 6.086280 0 0 128 0.999994
-0.322936 0.051064 6.076520 0 0 128 0.999994
-0.307849 0.046410 6.053330 0 0 133 0.999981
-0.289785 0.046915 6.063040 0 0 137 0.999972
-0.325558 0.046107 6.043500 0 0 133 0.999978
-0.419803 0.059713 6.145750 0 0 137 0.999966
-0.396213 0.055864 6.152930 0 0 146 0.999948
-0.411826 0.054835 6.174980 0 0 133 0.999982
-0.435129 0.058684 6.167750 0 0 137 0.999976
-0.388427 0.051882 6.182350 0 0 160 0.999919
-0.427028 0.053688 6.196610 0 0 146 0.999954
-0.403884 0.050878 6.204420 0 0 142 0.999955
-0.450325 0.057159 6.188840 0 0 151 0.999933
-0.380709 0.048633 6.212430 0 0 142 0.999960
-0.370315 0.051787 6.192170 0 0 133 0.999987
-0.359674 0.054802 6.171570 0 0 133 0.999980
-0.378147 0.055071 6.162240 0 0 142 0.999960
-0.312382 0.038454 6.021540 0 0 128 0.999999
-0.294374 0.038792 6.031390 0 0 128 0.999999
-0.280954 0.030876 6.009070 0 0 128 0.999998
-0.276333 0.039313 6.041180 0 0 128 0.999999
-0.262750 0.031522 6.018900 0 0 128 0.999999
-0.244360 0.032287 6.028640 0 0 128 0.999998
-0.258086 0.040060 6.050870 0 0 128 0.999996
-0.249066 0.023932 5.996210 0 0 128 0.999998
-0.230610 0.024866 6.005990 0 0 128 0.999997
-0.216893 0.017980 5.982930 0 0 133 0.999978
-0.235120 0.016587 5.973260 0 0 128 0.999990
-0.267094 0.022779 5.986410 0 0 128 0.999995
-0.253145 0.015258 5.963550 0 0 128 0.999996
-0.284831 0.021918 5.976440 0 0 128 0.999997
-0.298590 0.030155 5.999100 0 0 128 0.999998
-0.316350 0.029880 5.989170 0 0 128 0.999995
-0.271179 0.014302 5.953590 0 0 128 0.999993
-0.302672 0.021384 5.966300 0 0 128 0.999995
-0.289091 0.013606 5.943370 0 0 137 0.999976
-0.329905 0.038376 6.011650 0 0 128 0.999993
-0.239755 0.039993 6.060210 0 0 128 0.999989
-0.220354 0.039414 6.068840 0 0 128 0.999991
-0.207169 0.032398 6.047250 0 0 128 0.999998
-0.200439 0.039071 6.077720 0 0 128 0.999994
-0.187225 0.032218 6.055950 0 0 128 0.999997
-0.174040 0.025979 6.034000 0 0 128 0.999996
-0.160771 0.019815 6.011270 0 0 133 0.999985
-0.193531 0.025404 6.024610 0 0 128 0.999996
-0.180006 0.018979 6.001640 0 0 128 0.999992
-0.212266 0.024975 6.015270 0 0 128 0.999997
-0.226123 0.032253 6.037900 0 0 128 0.999998
-0.198662 0.018329 5.992340 0 0 128 0.999990
-0.114314 -0.011011 5.924850 0 0 133 0.999985
-0.125743 -0.003183 5.946790 0 0 128 0.999999
-0.144430 -0.004759 5.936770 0 0 128 0.999998
-0.132830 -0.012510 5.914520 0 0 128 0.999991
-0.156340 0.003202 5.958800 0 0 128 0.999998
-0.162814 -0.006030 5.926740 0 0 128 0.999999
-0.174793 0.002033 5.949040 0 0 128 0.999999
-0.192724 0.001213 5.939280 0 0 128 0.999998
-0.151012 -0.013775 5.904450 0 0 128 0.999990
-0.180731 -0.006936 5.916920 0 0 128 0.999998
-0.168901 -0.014721 5.894650 0 0 133 0.999981
-0.186702 0.010242 5.970880 0 0 128 0.999999
-0.204820 0.009512 5.961150 0 0 128 0.999997
-0.168151 0.011046 5.980330 0 0 128 0.999998
-0.149185 0.012079 5.989980 0 0 128 0.999999
-0.137473 0.004324 5.968370 0 0 128 0.999999
-0.187263 -0.016497 5.885260 0 0 128 0.999995
-0.198886 -0.008643 5.907290 0 0 128 0.999999
-0.217050 -0.010137 5.897820 0 0 128 0.999996
-0.205456 -0.018002 5.875700 0 0 128 0.999997
-0.228704 -0.001864 5.919740 0 0 128 0.999998
-0.235459 -0.011327 5.888180 0 0 128 0.999998
-0.247111 -0.002960 5.910130 0 0 128 0.999999
-0.265700 -0.003821 5.900310 0 0 128 0.999995
-0.223874 -0.019165 5.866150 0 0 128 0.999996
-0.253952 -0.012146 5.878430 0 0 128 0.999996
-0.242210 -0.019923 5.856460 0 0 133 0.999983
-0.258866 0.005530 5.931700 0 0 128 0.999999
-0.277311 0.004851 5.922110 0 0 128 0.999994
-0.240700 0.006526 5.941550 0 0 128 0.999997
-0.222805 0.007898 5.951350 0 0 128 0.999999
-0.210803 -0.000486 5.929480 0 0 128 0.999999
-0.359630 0.044945 6.022690 0 0 133 0.999982
-0.375929 0.051234 6.043880 0 0 133 0.999980
-0.392396 0.050390 6.032550 0 0 128 0.999990
-0.376164 0.043840 6.011080 0 0 128 0.999989
-0.407676 0.055288 6.053530 0 0 128 0.999990
-0.409218 0.049906 6.020670 0 0 128 0.999990
-0.424375 0.055312 6.041560 0 0 128 0.999992
-0.442068 0.056360 6.028980 0 0 133 0.999983
-0.393095 0.043189 5.999170 0 0 133 0.999988
-0.426602 0.050503 6.008220 0 0 133 0.999979
-0.410554 0.042984 5.986940 0 0 137 0.999974
-0.439118 0.059808 6.061970 0 0 133 0.999984
-0.456980 0.060943 6.049590 0 0 133 0.999988
-0.471588 0.064746 6.069740 0 0 137 0.999973
-0.453721 0.062866 6.084040 0 0 128 0.999994
-0.422177 0.058836 6.076110 0 0 128 0.999989
-0.436514 0.061333 6.097730 0 0 128 0.999991
-0.406068 0.058355 6.089460 0 0 128 0.999995
-0.391483 0.055430 6.067180 0 0 128 0.999992
-0.420139 0.060496 6.110910 0 0 133 0.999980
-0.428005 0.041332 5.974320 0 0 133 0.999983
-0.443239 0.048952 5.992200 0 0 137 0.999966
-0.462081 0.047785 5.978610 0 0 137 0.999976
-0.446904 0.039995 5.960930 0 0 128 0.999990
-0.476723 0.054467 5.996360 0 0 146 0.999953
-0.482125 0.046084 5.964590 0 0 142 0.999958
-0.496768 0.052758 5.982270 0 0 142 0.999956
-0.517060 0.050289 5.967820 0 0 146 0.999944
-0.466693 0.038349 5.946960 0 0 137 0.999974
-0.502788 0.043499 5.949890 0 0 151 0.999941
-0.487542 0.036002 5.931970 0 0 155 0.999925
-0.511159 0.058626 6.000050 0 0 151 0.999934
-0.531843 0.056356 5.985690 0 0 155 0.999930
-0.545972 0.061828 6.003400 0 0 160 0.999917
-0.526240 0.063633 6.020950 0 0 142 0.999959
-0.492191 0.060095 6.017210 0 0 137 0.999971
-0.506891 0.064442 6.038080 0 0 128 0.999992
-0.473759 0.060565 6.033980 0 0 133 0.999988
-0.458656 0.055455 6.013160 0 0 137 0.999973
-0.488733 0.064855 6.054320 0 0 133 0.999983
-0.607196 0.070729 6.054990 0 0 192 0.999826
-0.587728 0.072357 6.074040 0 0 142 0.999962
-0.572163 0.070883 6.059750 0 0 142 0.999965
-0.553459 0.071570 6.078380 0 0 133 0.999986
-0.568844 0.072956 6.092530 0 0 133 0.999980
-0.537120 0.069530 6.064400 0 0 128 0.999989
-0.534988 0.071085 6.096950 0 0 128 0.999991
-0.519604 0.069703 6.082250 0 0 133 0.999985
-0.502611 0.068803 6.100030 0 0 133 0.999985
-0.550463 0.072581 6.110570 0 0 142 0.999957
-0.518119 0.070592 6.114070 0 0 151 0.999935
-0.532957 0.071395 6.128130 0 0 169 0.999887
-0.503819 0.067415 6.067520 0 0 133 0.999983
-0.487572 0.067082 6.085140 0 0 137 0.999977
-0.522501 0.067451 6.051330 0 0 133 0.999984
-0.541598 0.066529 6.034830 0 0 137 0.999967
-0.557219 0.069029 6.047290 0 0 137 0.999974
-0.577519 0.067387 6.030280 0 0 155 0.999930
-0.561799 0.064832 6.017150 0 0 155 0.999927
-0.592253 0.069299 6.042920 0 0 155 0.999920
-0.514171 0.065536 6.149480 0 0 133 0.999979
-0.498960 0.067479 6.128610 0 0 151 0.999936
-0.481863 0.062909 6.149110 0 0 133 0.999982
-0.496989 0.060820 6.169940 0 0 133 0.999988
-0.466655 0.064385 6.127810 0 0 137 0.999977
-0.465812 0.059664 6.169100 0 0 128 0.999991
-0.450582 0.060972 6.147950 0 0 133 0.999984
-0.480693 0.057077 6.190380 0 0 151 0.999933
-0.434909 0.062062 6.126230 0 0 137 0.999970
-0.451809 0.063001 6.112980 0 0 133 0.999983
-0.469334 0.064779 6.099560 0 0 128 0.999995
-0.484150 0.066368 6.114370 0 0 133 0.999979
-0.259551 -0.021820 5.847970 0 0 128 0.999998
-0.271186 -0.014197 5.868950 0 0 128 0.999998
-0.288788 -0.015717 5.860200 0 0 128 0.999994
-0.277256 -0.023324 5.839170 0 0 128 0.999998
-0.300282 -0.007663 5.880840 0 0 128 0.999996
-0.306933 -0.016941 5.850800 0 0 128 0.999998
-0.318316 -0.008923 5.871510 0 0 128 0.999998
-0.336549 -0.009784 5.861860 0 0 128 0.999996
-0.295497 -0.024497 5.829910 0 0 128 0.999998
-0.325448 -0.017828 5.841110 0 0 128 0.999995
-0.314124 -0.025285 5.820510 0 0 133 0.999987
-0.329306 -0.000460 5.892210 0 0 128 0.999998
-0.347525 -0.001354 5.882370 0 0 128 0.999996
-0.358250 0.007558 5.902950 0 0 128 0.999989
-0.340447 0.008527 5.913690 0 0 128 0.999997
-0.311830 0.000887 5.902520 0 0 128 0.999993
-0.323079 0.009785 5.923890 0 0 128 0.999996
-0.294580 0.002600 5.912320 0 0 128 0.999998
-0.282934 -0.005946 5.890690 0 0 128 0.999998
-0.306026 0.011435 5.933690 0 0 128 0.999996
-0.332537 -0.027303 5.811670 0 0 128 0.999998
-0.343323 -0.020118 5.831100 0 0 128 0.999998
-0.362496 -0.021988 5.821430 0 0 128 0.999998
-0.351793 -0.029096 5.802270 0 0 128 1.000000
-0.373049 -0.014306 5.840620 0 0 128 0.999998
-0.382582 -0.023841 5.811210 0 0 128 0.999996
-0.393092 -0.016216 5.830250 0 0 128 0.999993
-0.414384 -0.018227 5.819220 0 0 133 0.999984
-0.371950 -0.030874 5.792330 0 0 128 0.999998
-0.403761 -0.025725 5.800420 0 0 133 0.999986
-0.392946 -0.032680 5.781810 0 0 133 0.999986
-0.404029 -0.007971 5.849150 0 0 128 0.999995
-0.425243 -0.009947 5.838060 0 0 133 0.999984
-0.436294 -0.000969 5.857190 0 0 133 0.999980
-0.415284 0.001355 5.869610 0 0 128 0.999996
-0.383935 -0.005772 5.861050 0 0 128 0.999998
-0.394915 0.003368 5.881570 0 0 128 0.999999
-0.365111 -0.003675 5.872110 0 0 128 0.999998
-0.354255 -0.012180 5.851650 0 0 128 0.999997
-0.375977 0.005304 5.892450 0 0 128 0.999997
-0.454270 0.028879 5.926400 0 0 133 0.999978
-0.434134 0.030746 5.940600 0 0 128 0.999997
-0.420962 0.021169 5.919690 0 0 128 0.999997
-0.415381 0.032353 5.953780 0 0 128 0.999998
-0.402135 0.023085 5.932860 0 0 128 0.999998
-0.384477 0.024937 5.945320 0 0 128 0.999996
-0.397725 0.034239 5.966370 0 0 128 0.999994
-0.388867 0.013774 5.911560 0 0 128 0.999995
-0.371195 0.015871 5.923980 0 0 128 0.999995
-0.407976 0.012047 5.900610 0 0 128 0.999998
-0.428279 0.009986 5.888560 0 0 128 0.999995
-0.441299 0.019204 5.907560 0 0 128 0.999992
-0.462646 0.017220 5.895170 0 0 133 0.999978
-0.449473 0.007842 5.876160 0 0 133 0.999982
-0.475347 0.026687 5.913770 0 0 142 0.999961
-0.379934 0.034587 5.977230 0 0 128 0.999997
-0.362970 0.035347 5.989110 0 0 128 0.999995
-0.349465 0.026456 5.966480 0 0 128 0.999995
-0.346393 0.036730 6.000610 0 0 128 0.999998
-0.332800 0.028014 5.977940 0 0 128 0.999998
-0.319310 0.019386 5.955020 0 0 128 0.999997
-0.336164 0.017700 5.945040 0 0 128 0.999991
-0.353517 0.016671 5.934850 0 0 128 0.999996
-0.366630 0.025457 5.956220 0 0 128 0.999997
-0.495846 0.022822 5.902770 0 0 133 0.999986
-0.483351 0.013542 5.884290 0 0 128 0.999989
-0.504212 0.009244 5.873410 0 0 128 0.999994
-0.470124 0.004313 5.865560 0 0 128 0.999991
-0.491115 0.000131 5.854820 0 0 128 0.999996
-0.477250 -0.008467 5.836320 0 0 128 0.999996
-0.456536 -0.004677 5.846480 0 0 128 0.999994
-0.511525 -0.004647 5.844440 0 0 128 0.999989
-0.498287 -0.012885 5.825980 0 0 128 0.999989
-0.518950 -0.017949 5.815750 0 0 142 0.999965
-0.530823 -0.010296 5.833110 0 0 137 0.999971
-0.523484 0.003449 5.861440 0 0 128 0.999990
-0.543143 -0.002105 5.850150 0 0 142 0.999964
-0.535425 0.011926 5.878430 0 0 133 0.999981
-0.515831 0.017641 5.890380 0 0 128 0.999993
-0.527248 0.026145 5.907230 0 0 137 0.999977
-0.554714 0.005740 5.866850 0 0 142 0.999962
-0.546635 0.019868 5.895010 0 0 133 0.999981
-0.566078 0.013672 5.883620 0 0 146 0.999953
-0.507768 0.031466 5.919450 0 0 142 0.999959
-0.445795 -0.013355 5.828630 0 0 128 0.999992
-0.435194 -0.021623 5.809780 0 0 128 0.999991
-0.455992 -0.025171 5.800380 0 0 128 0.999992
-0.424376 -0.029186 5.790990 0 0 128 0.999994
-0.445301 -0.032719 5.781610 0 0 128 0.999997
-0.434515 -0.039511 5.763110 0 0 128 0.999998
-0.413787 -0.035960 5.772360 0 0 128 0.999995
-0.466572 -0.036661 5.772280 0 0 128 0.999990
-0.456066 -0.043526 5.753700 0 0 128 0.999992
-0.477286 -0.047889 5.744640 0 0 137 0.999974
-0.487532 -0.041344 5.762340 0 0 137 0.999972
-0.477150 -0.029485 5.789990 0 0 133 0.999986
-0.497910 -0.034170 5.780050 0 0 137 0.999968
-0.487608 -0.021527 5.807900 0 0 128 0.999989
-0.466596 -0.017093 5.818320 0 0 128 0.999996
-0.508513 -0.026364 5.797750 0 0 137 0.999968
-0.558522 -0.075149 5.715030 0 0 137 0.999977
-0.567897 -0.069035 5.731580 0 0 133 0.999978
-0.549285 -0.061652 5.739320 0 0 128 0.999992
-0.558659 -0.054950 5.756100 0 0 128 0.999990
-0.577309 -0.062667 5.748440 0 0 137 0.999976
-0.538755 -0.047452 5.764410 0 0 128 0.999995
-0.567989 -0.047934 5.773110 0 0 128 0.999992
-0.548634 -0.040052 5.781530 0 0 128 0.999996
-0.558326 -0.032244 5.798600 0 0 128 0.999996
-0.586066 -0.055547 5.765330 0 0 137 0.999974
-0.577113 -0.040222 5.790140 0 0 128 0.999998
-0.595574 -0.048139 5.782360 0 0 137 0.999974
-0.528933 -0.033009 5.789640 0 0 133 0.999988
-0.538884 -0.024843 5.807190 0 0 128 0.999990
-0.518559 -0.040718 5.771890 0 0 128 0.999989
-0.508323 -0.047785 5.754360 0 0 128 0.999989
-0.528852 -0.054475 5.746700 0 0 128 0.999997
-0.518798 -0.060944 5.729100 0 0 128 0.999997
-0.498083 -0.054246 5.736780 0 0 128 0.999992
-0.539336 -0.067914 5.721770 0 0 128 0.999990
-0.606175 -0.041933 5.798150 0 0 137 0.999969
-0.588630 -0.033229 5.807300 0 0 133 0.999987
-0.599092 -0.026413 5.823160 0 0 133 0.999984
-0.616508 -0.035463 5.814040 0 0 137 0.999966
-0.581284 -0.017871 5.832430 0 0 128 0.999996
-0.609679 -0.019799 5.838760 0 0 133 0.999983
-0.592100 -0.010623 5.848180 0 0 128 0.999993
-0.602633 -0.003966 5.863520 0 0 128 0.999993
-0.626433 -0.028962 5.829800 0 0 137 0.999966
-0.619862 -0.013179 5.854280 0 0 133 0.999981
-0.636654 -0.022644 5.845380 0 0 142 0.999963
-0.574130 -0.002110 5.857860 0 0 133 0.999987
-0.584762 0.005057 5.873380 0 0 133 0.999983
-0.562435 -0.009832 5.841150 0 0 133 0.999988
-0.550904 -0.017391 5.824240 0 0 133 0.999988
-0.569881 -0.025177 5.815550 0 0 128 0.999996
-0.902709 -0.050494 6.737600 0 0 169 0.999889
-0.914106 -0.058758 6.710080 0 0 173 0.999875
-0.890866 -0.042220 6.764140 0 0 183 0.999852
-0.912424 -0.052057 6.761800 0 0 183 0.999851
-0.924339 -0.059861 6.734440 0 0 173 0.999875
-0.935715 -0.067796 6.706770 0 0 178 0.999865
-0.889716 -0.039168 6.790310 0 0 192 0.999836
-0.887698 -0.035503 6.817870 0 0 201 0.999807
-0.866983 -0.026334 6.817200 0 0 173 0.999883
-0.869112 -0.029621 6.788790 0 0 205 0.999797
-0.943074 -0.073450 6.733140 0 0 155 0.999928
-0.954778 -0.081603 6.704620 0 0 155 0.999921
-0.930886 -0.065611 6.760810 0 0 164 0.999898
-0.950411 -0.078878 6.757640 0 0 164 0.999907
-0.962215 -0.086499 6.730120 0 0 160 0.999917
-0.973881 -0.094247 6.701910 0 0 160 0.999917
-0.928145 -0.064088 6.788240 0 0 160 0.999916
-0.925009 -0.061916 6.815540 0 0 164 0.999905
-0.905717 -0.048771 6.818030 0 0 155 0.999920
-0.909587 -0.050864 6.789350 0 0 169 0.999892
-0.878845 -0.029733 6.881030 0 0 233 0.999729
-0.883486 -0.033017 6.849020 0 0 160 0.999909
-0.902256 -0.045845 6.848410 0 0 155 0.999930
-0.898037 -0.041945 6.879640 0 0 246 0.999687
-0.843621 -0.013274 6.845480 0 0 237 0.999712
-0.864412 -0.022169 6.847620 0 0 187 0.999838
-0.970949 -0.155369 6.926280 0 0 237 0.999709
-0.982060 -0.159553 6.893030 0 0 173 0.999873
-0.963289 -0.138863 6.924170 0 0 210 0.999783
-0.992468 -0.162873 6.861390 0 0 146 0.999949
-0.974706 -0.142975 6.891100 0 0 155 0.999931
-0.985905 -0.145839 6.858610 0 0 164 0.999902
-0.955765 -0.120785 6.924350 0 0 233 0.999720
-1.002850 -0.165293 6.830300 0 0 151 0.999932
-1.012810 -0.166419 6.800630 0 0 155 0.999928
-1.020790 -0.184965 6.803260 0 0 151 0.999940
-1.011180 -0.183559 6.832880 0 0 169 0.999892
-1.001500 -0.181264 6.862870 0 0 196 0.999819
-1.029330 -0.203815 6.806030 0 0 201 0.999803
-0.964531 -0.124287 6.892200 0 0 146 0.999943
-0.943828 -0.102009 6.927220 0 0 255 0.999628
-0.973063 -0.126668 6.860530 0 0 142 0.999959
-0.953491 -0.105755 6.893500 0 0 169 0.999892
-0.962425 -0.108210 6.861620 0 0 164 0.999902
-0.981093 -0.128097 6.830380 0 0 146 0.999953
-0.988778 -0.128628 6.801310 0 0 155 0.999923
-1.000530 -0.147997 6.800510 0 0 142 0.999963
-0.993396 -0.147404 6.829120 0 0 142 0.999959
-1.039750 -0.161991 6.688990 0 0 151 0.999932
-1.032530 -0.163686 6.717690 0 0 142 0.999957
-1.053210 -0.183180 6.687880 0 0 142 0.999958
-1.025740 -0.165154 6.745370 0 0 137 0.999970
-1.045720 -0.183441 6.718280 0 0 155 0.999930
-1.039400 -0.184894 6.745590 0 0 155 0.999926
-1.067090 -0.204299 6.686790 0 0 151 0.999937
-1.019270 -0.166130 6.772990 0 0 142 0.999959
-1.007370 -0.147054 6.772700 0 0 142 0.999956
-1.014360 -0.146041 6.744610 0 0 151 0.999939
-1.056610 -0.203444 6.719520 0 0 155 0.999924
-1.076560 -0.225361 6.687560 0 0 146 0.999945
-1.047220 -0.203752 6.748610 0 0 155 0.999931
-1.066250 -0.224588 6.720480 0 0 173 0.999877
-1.057000 -0.224184 6.750290 0 0 192 0.999828
-1.086670 -0.246470 6.688850 0 0 196 0.999822
-1.038200 -0.203673 6.777580 0 0 160 0.999911
-1.029980 -0.184986 6.774480 0 0 151 0.999937
-0.975868 -0.093913 6.676500 0 0 178 0.999870
-0.977630 -0.093955 6.649820 0 0 178 0.999872
-0.956584 -0.080605 6.679700 0 0 192 0.999834
-0.958272 -0.080530 6.652500 0 0 242 0.999703
-0.979344 -0.094779 6.620380 0 0 214 0.999767
-0.980970 -0.099059 6.587220 0 0 237 0.999714
-1.003640 -0.112915 6.581540 0 0 178 0.999864
-1.001230 -0.109461 6.612590 0 0 214 0.999775
-0.998628 -0.107366 6.643860 0 0 196 0.999821
-1.026390 -0.124758 6.577230 0 0 192 0.999837
-0.935862 -0.068995 6.683290 0 0 201 0.999804
-0.935663 -0.070758 6.658840 0 0 214 0.999772
-0.914331 -0.059557 6.686730 0 0 205 0.999799
-0.935450 -0.072979 6.633240 0 0 255 0.999663
-0.945528 -0.083106 6.601630 0 0 246 0.999684
-0.957908 -0.083153 6.626590 0 0 233 0.999721
-0.980576 -0.112402 6.525630 0 0 160 0.999912
-0.972947 -0.105028 6.546240 0 0 178 0.999868
-0.998721 -0.112632 6.540420 0 0 219 0.999757
-0.990431 -0.106711 6.561740 0 13 255 0.999579
-0.965209 -0.097640 6.569450 0 0 242 0.999700
-1.017460 -0.121584 6.522070 0 0 192 0.999826
-1.021040 -0.122058 6.539760 0 0 183 0.999861
-1.041620 -0.129792 6.521230 0 0 178 0.999868
-1.045340 -0.130968 6.538330 0 0 173 0.999879
-1.024250 -0.123083 6.558130 0 0 151 0.999932
-1.046330 -0.161382 6.658750 0 0 151 0.999940
-1.023430 -0.143754 6.692300 0 0 142 0.999955
-1.053390 -0.159655 6.628710 0 0 160 0.999914
-1.029780 -0.141760 6.663670 0 0 155 0.999924
-1.036890 -0.140458 6.632110 0 0 187 0.999841
-1.008280 -0.125815 6.694580 0 0 151 0.999936
-1.060190 -0.156592 6.600660 0 0 155 0.999931
-1.065630 -0.151510 6.575990 0 0 155 0.999927
-1.082280 -0.166860 6.577950 0 0 146 0.999945
-1.076980 -0.172870 6.600780 0 0 146 0.999948
-1.070860 -0.177267 6.626180 0 0 155 0.999926
-1.098950 -0.181724 6.580200 0 0 151 0.999935
-1.012370 -0.124111 6.668260 0 0 164 0.999906
-0.990897 -0.110375 6.698230 0 0 142 0.999955
-1.016980 -0.124037 6.639200 0 0 169 0.999893
-0.994895 -0.108755 6.671550 0 0 164 0.999898
-1.022100 -0.124641 6.606710 0 0 178 0.999869
-1.046310 -0.138712 6.576200 0 0 155 0.999930
-1.042330 -0.140539 6.602090 0 0 187 0.999849
-1.063960 -0.138638 6.521920 0 0 192 0.999832
-1.083530 -0.146565 6.504090 0 0 164 0.999903
-1.065000 -0.142744 6.539910 0 0 137 0.999970
-1.085000 -0.149683 6.522500 0 0 146 0.999952
-1.086050 -0.154046 6.540250 0 0 155 0.999926
-1.104790 -0.156644 6.503950 0 0 160 0.999910
-1.065670 -0.147090 6.557830 0 0 151 0.999932
-1.046110 -0.134659 6.557130 0 0 160 0.999917
-1.104070 -0.162156 6.523800 0 0 146 0.999947
-1.123580 -0.170136 6.505480 0 0 155 0.999929
-1.102710 -0.168022 6.543200 0 0 137 0.999971
-1.122240 -0.175795 6.525870 0 0 155 0.999930
-1.120910 -0.181992 6.545160 0 0 164 0.999907
-1.142350 -0.183801 6.506360 0 0 192 0.999828
-1.101110 -0.174740 6.561730 0 0 142 0.999964
-1.084580 -0.159940 6.559100 0 0 146 0.999943
-0.978811 -0.102704 6.726910 0 0 142 0.999960
-0.966807 -0.094870 6.754850 0 0 151 0.999936
-0.984370 -0.110516 6.750400 0 0 155 0.999926
-0.996293 -0.118090 6.722880 0 0 151 0.999936
-0.962895 -0.094504 6.781400 0 0 146 0.999945
-0.958811 -0.093172 6.808450 0 0 160 0.999918
-0.941795 -0.078000 6.812120 0 0 146 0.999944
-0.946292 -0.078659 6.784900 0 0 155 0.999923
-1.010840 -0.136201 6.720190 0 0 137 0.999977
-0.998511 -0.128649 6.747630 0 0 142 0.999965
-0.993623 -0.128823 6.774480 0 0 146 0.999946
-0.973589 -0.111209 6.804790 0 0 146 0.999949
-0.978858 -0.111030 6.777630 0 0 146 0.999944
-0.939623 -0.087267 6.897900 0 0 187 0.999849
-0.946469 -0.090303 6.866980 0 0 151 0.999938
-0.924940 -0.069934 6.902820 0 0 237 0.999716
-0.932453 -0.072529 6.871000 0 0 183 0.999854
-0.952816 -0.092161 6.836940 0 0 151 0.999941
-0.968145 -0.110124 6.832780 0 0 151 0.999941
-0.914647 -0.057268 6.876080 0 0 178 0.999869
-0.920121 -0.060212 6.844810 0 0 151 0.999938
-0.937714 -0.075992 6.840590 0 0 155 0.999930
-1.194860 -0.193210 6.312610 0 0 178 0.999871
-1.208930 -0.206623 6.298520 0 0 137 0.999970
-1.195100 -0.193643 6.290870 0 0 173 0.999884
-1.223470 -0.220039 6.284510 0 0 128 0.999992
-1.209530 -0.206765 6.277080 0 0 142 0.999963
-1.224270 -0.219802 6.263080 0 0 142 0.999965
-1.194880 -0.193814 6.269470 0 0 196 0.999824
-1.238490 -0.233245 6.270710 0 0 146 0.999946
-1.252970 -0.246512 6.257460 0 0 210 0.999781
-1.250380 -0.244784 6.279200 0 0 178 0.999870
-1.235840 -0.231456 6.292990 0 0 146 0.999947
-1.221470 -0.217422 6.307370 0 0 133 0.999978
-1.247870 -0.242648 6.301690 0 0 196 0.999824
-1.208990 -0.208277 6.254840 0 0 133 0.999982
-1.191810 -0.194748 6.247270 0 0 160 0.999910
-1.223450 -0.222182 6.240030 0 0 128 0.999989
-1.206030 -0.208700 6.232600 0 0 133 0.999980
-1.220890 -0.222252 6.217590 0 0 142 0.999965
-1.188600 -0.195014 6.224890 0 0 183 0.999857
-1.238010 -0.236495 6.225680 0 0 146 0.999950
-1.252670 -0.250533 6.211580 0 0 201 0.999812
-1.253240 -0.248728 6.234370 0 0 201 0.999804
-1.238810 -0.234239 6.248510 0 0 151 0.999932
-1.299470 -0.321117 6.213360 0 0 246 0.999691
-1.288960 -0.302290 6.223590 0 0 173 0.999883
-1.297320 -0.317237 6.235990 0 0 210 0.999787
-1.277430 -0.283871 6.234270 0 0 137 0.999971
-1.286210 -0.298475 6.246590 0 0 155 0.999927
-1.274720 -0.279587 6.258030 0 0 137 0.999972
-1.294810 -0.313050 6.258830 0 0 219 0.999762
-1.265300 -0.265335 6.245790 0 0 151 0.999937
-1.265470 -0.267222 6.222900 0 0 151 0.999942
-1.277630 -0.285185 6.211830 0 0 155 0.999929
-1.283430 -0.295559 6.268910 0 0 155 0.999929
-1.289690 -0.309248 6.281500 0 0 187 0.999843
-1.272110 -0.277804 6.279180 0 0 133 0.999980
-1.278820 -0.291246 6.291650 0 0 160 0.999917
-1.266790 -0.273397 6.303280 0 0 137 0.999972
-1.284780 -0.304782 6.304860 0 0 205 0.999793
-1.259480 -0.260291 6.290570 0 0 142 0.999961
-1.262690 -0.262082 6.268550 0 0 146 0.999949
-1.173730 -0.185624 6.240450 0 0 137 0.999970
-1.158870 -0.175863 6.256120 0 0 128 0.999994
-1.177200 -0.184560 6.262930 0 0 142 0.999961
-1.162090 -0.174764 6.278620 0 0 133 0.999984
-1.144200 -0.165953 6.272030 0 0 128 0.999989
-1.130110 -0.156383 6.287520 0 0 164 0.999906
-1.125570 -0.156062 6.265430 0 0 151 0.999934
-1.139740 -0.165472 6.250190 0 0 133 0.999982
-1.154120 -0.175221 6.234980 0 0 133 0.999985
-1.121030 -0.155094 6.243940 0 0 169 0.999892
-1.179330 -0.184607 6.284650 0 0 142 0.999962
-1.163420 -0.175361 6.300150 0 0 128 0.999996
-1.179370 -0.184562 6.305930 0 0 133 0.999979
-1.164080 -0.174740 6.321540 0 0 128 0.999992
-1.148390 -0.166520 6.314910 0 0 128 0.999991
-1.134020 -0.157461 6.329610 0 0 160 0.999918
-1.131910 -0.157296 6.308550 0 0 146 0.999950
-1.146640 -0.165914 6.294180 0 0 133 0.999981
-1.083130 -0.139709 6.321880 0 0 133 0.999986
-1.098050 -0.145029 6.307230 0 0 128 0.999999
-1.116820 -0.151429 6.323750 0 0 133 0.999981
-1.101950 -0.145508 6.338850 0 0 133 0.999986
-1.077530 -0.137730 6.291150 0 0 128 0.999993
-1.091810 -0.143552 6.275560 0 0 128 0.999995
-1.071950 -0.135898 6.270840 0 0 133 0.999985
-1.086400 -0.141437 6.255220 0 0 128 0.999989
-1.106390 -0.149015 6.259950 0 0 137 0.999966
-1.111140 -0.150232 6.281830 0 0 133 0.999986
-1.103070 -0.147894 6.426790 0 0 151 0.999937
-1.128120 -0.158819 6.431210 0 0 178 0.999868
-1.118250 -0.153041 6.413720 0 0 160 0.999909
-1.112910 -0.153467 6.444110 0 0 155 0.999920
-1.144270 -0.166118 6.408030 0 0 155 0.999931
-1.150030 -0.172919 6.428830 0 0 146 0.999950
-1.165860 -0.181424 6.413910 0 0 155 0.999920
-1.182220 -0.190080 6.398510 0 0 223 0.999752
-1.171310 -0.188183 6.435050 0 0 187 0.999839
-1.156720 -0.180244 6.448040 0 0 169 0.999893
-1.135070 -0.165532 6.450560 0 0 173 0.999873
-1.133530 -0.171155 6.479370 0 0 160 0.999908
-1.114560 -0.157585 6.478880 0 0 187 0.999849
-1.154800 -0.185395 6.477740 0 0 178 0.999864
-1.090930 -0.146622 6.481210 0 0 178 0.999872
-1.178280 -0.183940 6.337630 0 0 146 0.999945
-1.163200 -0.174847 6.352250 0 0 133 0.999979
-1.192110 -0.192620 6.343520 0 0 173 0.999875
-1.148770 -0.165834 6.366670 0 0 155 0.999921
-1.134580 -0.157924 6.359970 0 0 173 0.999883
-1.175480 -0.183375 6.369020 0 0 151 0.999934
-1.160280 -0.174560 6.383480 0 0 146 0.999948
-1.133320 -0.158355 6.390380 0 0 164 0.999905
-1.090900 -0.143362 6.409290 0 0 137 0.999973
-1.105320 -0.147552 6.397570 0 0 137 0.999967
-1.090030 -0.141240 6.381860 0 0 151 0.999940
-1.119930 -0.151938 6.374810 0 0 155 0.999927
-1.087190 -0.140495 6.352580 0 0 137 0.999967
-1.104160 -0.146563 6.368510 0 0 137 0.999977
-1.008790 -0.109976 6.187580 0 0 151 0.999933
-0.996595 -0.105598 6.204620 0 0 133 0.999982
-1.021020 -0.115701 6.206500 0 0 146 0.999951
-0.984662 -0.101285 6.221340 0 0 128 0.999990
-1.009110 -0.111431 6.223460 0 0 137 0.999973
-0.997226 -0.107332 6.239900 0 0 133 0.999987
-1.033510 -0.120067 6.225640 0 0 151 0.999942
-0.973085 -0.097065 6.237590 0 0 137 0.999967
-0.961475 -0.093817 6.253900 0 0 160 0.999908
-0.948304 -0.084901 6.239350 0 0 169 0.999891
-0.959836 -0.089130 6.222760 0 0 142 0.999963
-0.971653 -0.093511 6.205740 0 0 128 0.999989
-0.935689 -0.075147 6.224830 0 0 187 0.999846
-1.020880 -0.117033 6.241110 0 0 137 0.999976
-1.042570 -0.124669 6.245300 0 0 137 0.999973
-1.008320 -0.113913 6.256670 0 0 128 0.999989
-1.029970 -0.121492 6.261290 0 0 133 0.999986
-0.977823 -0.104591 6.277640 0 0 160 0.999914
-0.990216 -0.107967 6.263320 0 0 137 0.999975
-0.919961 -0.093352 6.293540 0 0 146 0.999946
-0.937443 -0.096495 6.284450 0 0 142 0.999957
-0.925803 -0.087217 6.272140 0 0 133 0.999981
-0.949383 -0.095268 6.269300 0 0 146 0.999949
-0.902252 -0.077418 6.275730 0 0 142 0.999963
-0.912918 -0.077043 6.259190 0 0 133 0.999978
-0.888990 -0.065388 6.265270 0 0 142 0.999956
-0.899744 -0.065279 6.248550 0 0 133 0.999985
-0.923990 -0.076218 6.241980 0 0 142 0.999955
-0.936930 -0.086038 6.255640 0 0 137 0.999974
-1.064710 -0.133718 6.249570 0 0 133 0.999986
-1.077890 -0.140291 6.233360 0 0 128 0.999994
-1.055640 -0.130543 6.229600 0 0 137 0.999977
-1.068530 -0.137023 6.213870 0 0 133 0.999983
-1.091300 -0.146807 6.216940 0 0 133 0.999985
-1.104210 -0.153827 6.200530 0 0 160 0.999914
-1.112660 -0.154964 6.222040 0 0 151 0.999934
-1.099590 -0.148160 6.238440 0 0 137 0.999972
-1.045480 -0.127928 6.208020 0 0 133 0.999981
-1.057750 -0.135987 6.190350 0 0 133 0.999987
-1.033250 -0.123499 6.189040 0 0 133 0.999982
-1.045450 -0.131422 6.170930 0 0 133 0.999985
-1.070120 -0.144234 6.172080 0 0 137 0.999970
-1.082480 -0.151880 6.154890 0 0 187 0.999847
-1.093160 -0.153424 6.177050 0 0 155 0.999922
-1.080740 -0.145413 6.195620 0 0 133 0.999984
-1.154700 -0.201802 6.129690 0 0 187 0.999842
-1.142280 -0.189755 6.147160 0 0 137 0.999970
-1.165480 -0.199239 6.153140 0 0 192 0.999837
-1.129020 -0.178417 6.164810 0 0 133 0.999986
-1.151400 -0.187911 6.171460 0 0 133 0.999986
-1.138230 -0.175551 6.190590 0 0 133 0.999986
-1.174750 -0.197011 6.178190 0 0 178 0.999862
-1.116170 -0.166333 6.182740 0 0 133 0.999984
-1.105710 -0.165665 6.160240 0 0 137 0.999972
-1.118150 -0.177704 6.143080 0 0 137 0.999973
-1.160760 -0.186733 6.194920 0 0 133 0.999981
-1.182010 -0.196080 6.201040 0 0 173 0.999880
-1.146780 -0.176499 6.211650 0 0 128 0.999992
-1.167720 -0.185853 6.218250 0 0 137 0.999976
-1.133690 -0.166087 6.227970 0 0 133 0.999986
-1.125270 -0.165203 6.206320 0 0 133 0.999979
-0.756012 -0.081561 6.357110 0 0 155 0.999921
-0.762937 -0.066846 6.343390 0 0 133 0.999980
-0.737661 -0.071364 6.351180 0 0 151 0.999938
-0.769743 -0.051406 6.329700 0 0 169 0.999893
-0.777434 -0.034449 6.316160 0 69 255 0.999386
-0.736143 -0.053091 6.335910 0 0 137 0.999975
-0.716699 -0.063860 6.346530 0 0 169 0.999894
-0.742403 -0.036958 6.322420 0 0 192 0.999828
-0.749366 -0.019810 6.308660 0 117 255 0.999227
-0.813025 -0.009708 6.247120 0 21 255 0.999554
-0.803711 -0.015485 6.265050 0 0 187 0.999845
-0.826862 -0.019347 6.252930 0 0 251 0.999673
-0.795024 -0.020865 6.282610 0 0 183 0.999859
-0.817888 -0.025040 6.271110 0 0 183 0.999861
-0.809185 -0.031381 6.288750 0 0 155 0.999921
-0.840596 -0.029865 6.258600 0 0 223 0.999742
-0.785829 -0.028017 6.299750 0 0 205 0.999799
-0.764853 -0.016641 6.294470 0 0 223 0.999746
-0.837117 -0.041307 6.279610 0 0 160 0.999918
-0.827511 -0.047755 6.296460 0 0 128 0.999992
-0.624184 0.027188 6.244350 0 0 133 0.999980
-0.635315 0.036391 6.228350 0 0 160 0.999916
-0.613434 0.018310 6.260370 0 0 128 0.999994
-0.643446 0.010428 6.263410 0 0 133 0.999985
-0.654833 0.020064 6.247300 0 0 133 0.999987
-0.666617 0.029670 6.230980 0 0 178 0.999865
-0.617738 0.005931 6.277360 0 0 142 0.999955
-0.622221 -0.007188 6.293870 0 0 160 0.999915
-0.597027 -0.002173 6.293840 0 0 169 0.999896
-0.591783 0.009448 6.276740 0 0 142 0.999965
-0.681296 0.014955 6.249470 0 0 142 0.999955
-0.694956 0.021341 6.233420 0 0 155 0.999923
-0.668045 0.008170 6.264820 0 0 142 0.999960
-0.696304 0.000456 6.268020 0 0 151 0.999939
-0.709762 0.006850 6.252650 0 0 146 0.999953
-0.724227 0.012749 6.235510 0 0 164 0.999904
-0.669004 -0.003278 6.281380 0 0 151 0.999936
-0.670304 -0.013832 6.296890 0 0 187 0.999848
-0.645843 -0.011133 6.295620 0 0 173 0.999882
-0.644889 0.000167 6.279620 0 0 146 0.999950
-0.628244 -0.053376 6.336750 0 0 146 0.999945
-0.612276 -0.064499 6.352800 0 0 173 0.999882
-0.626228 -0.038619 6.322900 0 0 137 0.999973
-0.609741 -0.050875 6.338230 0 0 146 0.999953
-0.607579 -0.036352 6.324050 0 0 146 0.999953
-0.594105 -0.060545 6.355290 0 0 178 0.999871
-0.624398 -0.023209 6.308350 0 0 137 0.999966
-0.647737 -0.027429 6.309890 0 0 142 0.999964
-0.649498 -0.042979 6.323710 0 0 137 0.999968
-0.588437 -0.045473 6.340090 0 0 137 0.999976
-0.573840 -0.056881 6.358670 0 0 164 0.999907
-0.583003 -0.029511 6.325370 0 0 133 0.999985
-0.568214 -0.041750 6.343750 0 0 151 0.999939
-0.577384 -0.012807 6.309820 0 0 146 0.999950
-0.602232 -0.019447 6.309080 0 0 137 0.999968
-0.604340 0.072494 6.079820 0 0 151 0.999941
-0.636942 0.068632 6.067530 0 0 178 0.999867
-0.601177 0.073416 6.104130 0 0 142 0.999962
-0.633704 0.070325 6.092600 0 0 151 0.999932
-0.630319 0.071117 6.117050 0 0 151 0.999936
-0.666077 0.065548 6.079910 0 0 246 0.999686
-0.598165 0.072933 6.128140 0 0 155 0.999920
-0.595622 0.071872 6.151920 0 0 233 0.999725
-0.579763 0.072032 6.145870 0 0 173 0.999880
-0.582361 0.073221 6.122210 0 0 142 0.999955
-0.564065 0.072466 6.139680 0 0 173 0.999877
-0.566536 0.073198 6.116430 0 0 142 0.999965
-0.585004 0.073350 6.098170 0 0 137 0.999972
-0.548445 0.071985 6.133890 0 0 169 0.999888
-0.664902 0.066000 6.099930 0 0 187 0.999840
-0.696649 0.055907 6.084730 0 0 178 0.999869
-0.663432 0.065579 6.119780 0 0 164 0.999903
-0.695393 0.056579 6.104670 0 0 155 0.999924
-0.693841 0.056668 6.124380 0 0 151 0.999935
-0.726491 0.044862 6.089530 0 0 210 0.999786
-0.662041 0.064535 6.139350 0 0 192 0.999837
-0.660696 0.062536 6.158870 0 0 228 0.999735
-0.628358 0.067762 6.155210 0 0 196 0.999815
-0.629435 0.070006 6.136330 0 0 169 0.999895
-0.602156 0.051281 6.207810 0 0 169 0.999895
-0.599761 0.058461 6.189150 0 0 142 0.999962
-0.569966 0.053004 6.206320 0 0 151 0.999938
-0.567271 0.060280 6.188050 0 0 146 0.999946
-0.597339 0.065582 6.170850 0 0 169 0.999892
-0.629992 0.061272 6.174440 0 0 160 0.999919
-0.631529 0.054101 6.193370 0 0 151 0.999938
-0.539859 0.055436 6.199500 0 0 142 0.999960
-0.519604 0.055742 6.196460 0 0 146 0.999954
-0.537295 0.061267 6.176120 0 0 133 0.999988
-0.500025 0.056590 6.193600 0 0 146 0.999953
-0.516791 0.060671 6.173030 0 0 133 0.999988
-0.534949 0.066558 6.152330 0 0 133 0.999983
-0.550262 0.066888 6.158240 0 0 137 0.999977
-0.565668 0.066821 6.164150 0 0 146 0.999943
