ply
format ascii 1.0
comment VCGLIB generated
element vertex 1027
property float x
property float y
property float z
property uchar red
property uchar green
property uchar blue
property float quality
end_header
0.936910 -0.922924 6.175580 255 82 0 0.459324
0.958507 -0.921176 6.178410 255 64 0 0.506139
0.936710 -0.902407 6.157770 255 64 0 0.497969
0.948296 -0.880592 6.139730 255 41 0 0.557867
0.971985 -0.859622 6.123020 255 41 0 0.561459
0.948835 -0.938754 6.197520 255 75 0 0.475046
0.929803 -0.959054 6.216390 255 78 0 0.467136
0.921187 -0.978322 6.235450 255 86 0 0.445226
0.903219 -0.999851 6.254440 255 90 0 0.443752
0.922415 -0.995775 6.255520 255 101 0 0.412287
0.901470 -0.982608 6.234110 255 71 0 0.483699
0.909283 -0.962372 6.214250 255 64 0 0.504698
0.927931 -0.941601 6.195710 255 67 0 0.490829
0.940758 -0.975281 6.237570 255 97 0 0.423579
0.949760 -0.956130 6.218430 255 82 0 0.455154
0.969259 -0.936698 6.200730 255 78 0 0.470196
0.978519 -0.918916 6.181480 255 64 0 0.503344
0.998841 -0.916808 6.184490 255 82 0 0.456886
0.988953 -0.933638 6.203360 255 90 0 0.436478
0.969862 -0.953181 6.221150 255 78 0 0.461546
0.959537 -0.971293 6.239670 255 104 0 0.405433
0.940452 -0.991811 6.257410 255 108 0 0.396135
0.958841 -0.988232 6.259140 255 86 0 0.450064
0.979706 -0.899403 6.164410 255 60 0 0.509672
0.992117 -0.878227 6.147940 255 64 0 0.504911
1.016140 -0.857367 6.132980 255 60 0 0.512695
1.037310 -0.855573 6.137110 255 97 0 0.420722
1.013510 -0.876701 6.152010 255 75 0 0.476366
1.000830 -0.896813 6.168090 255 67 0 0.496756
1.079540 -0.852565 6.145430 255 164 0 0.290986
1.054740 -0.873810 6.158860 255 145 0 0.324185
1.041980 -0.893734 6.174170 255 112 0 0.394813
1.018980 -0.915030 6.187220 255 93 0 0.434025
1.039440 -0.913187 6.189970 255 141 0 0.332150
1.021420 -0.895830 6.171290 255 93 0 0.432037
1.034240 -0.875378 6.155520 255 112 0 0.394145
1.057810 -0.854733 6.141200 255 134 0 0.344270
1.028420 -0.929727 6.207950 255 160 0 0.298690
1.007790 -0.948408 6.224990 255 145 0 0.325774
0.996475 -0.966201 6.242860 255 141 0 0.333643
0.976673 -0.985507 6.260690 255 101 0 0.414491
0.995720 -0.982951 6.262210 255 127 0 0.363161
0.977863 -0.968928 6.241350 255 86 0 0.445471
0.988864 -0.950712 6.223020 255 108 0 0.403179
1.008050 -0.932079 6.205560 255 112 0 0.390966
1.016770 -0.964963 6.244470 255 167 0 0.289044
1.028020 -0.946725 6.226800 255 197 0 0.243326
1.049400 -0.929265 6.209750 255 212 0 0.218464
1.060630 -0.912374 6.191950 255 193 0 0.246649
1.048280 -0.945910 6.227900 222 255 25 0.145814
1.036780 -0.963746 6.245270 255 234 0 0.193765
1.015390 -0.982191 6.262890 255 201 0 0.236295
1.063140 -0.892844 6.177000 255 164 0 0.295416
1.076240 -0.872271 6.162100 255 175 0 0.273820
1.101620 -0.851947 6.148890 255 212 0 0.220268
1.119570 -0.810265 6.120130 255 208 0 0.225875
0.648551 -0.846475 5.939960 255 82 0 0.457185
0.634164 -0.866912 5.961480 255 75 0 0.476761
0.620504 -0.855670 5.956340 255 71 0 0.485509
0.619504 -0.887195 5.983920 255 60 0 0.514113
0.605530 -0.876512 5.978530 255 60 0 0.511126
0.589899 -0.895811 6.002610 255 41 0 0.557291
0.604708 -0.907027 6.008230 255 41 0 0.564184
0.591486 -0.865189 5.974070 255 53 0 0.535360
0.576050 -0.884819 5.996890 255 45 0 0.549181
0.561592 -0.874519 5.991040 255 34 0 0.580164
0.591744 -0.838200 5.948910 255 45 0 0.551494
0.621126 -0.829277 5.931760 255 56 0 0.525807
0.648306 -0.819754 5.916140 255 64 0 0.500017
0.620299 -0.803417 5.909100 255 53 0 0.533475
0.589182 -0.917826 6.036680 255 34 0 0.585045
0.575250 -0.928912 6.066780 255 27 0 0.601856
0.560077 -0.916620 6.059430 255 27 0 0.605425
0.561683 -0.937527 6.099160 255 23 0 0.612631
0.545931 -0.925363 6.091640 255 23 0 0.613967
0.530579 -0.914167 6.083870 255 23 0 0.611265
0.516066 -0.902055 6.078990 255 27 0 0.604843
0.545240 -0.905674 6.053590 255 27 0 0.601828
0.531104 -0.894751 6.047960 255 27 0 0.600353
0.559985 -0.895912 6.024410 255 34 0 0.578081
0.574514 -0.906960 6.030320 255 34 0 0.584938
0.546396 -0.885074 6.018560 255 30 0 0.590754
0.460987 -0.865747 6.060000 255 64 0 0.504838
0.489187 -0.866342 6.033540 255 49 0 0.543712
0.503814 -0.858730 6.004480 255 49 0 0.542575
0.533042 -0.857415 5.981480 255 41 0 0.559674
0.504702 -0.840977 5.972790 255 56 0 0.525380
0.531445 -0.875776 6.013280 255 34 0 0.580380
0.516182 -0.885282 6.042690 255 34 0 0.584202
0.501483 -0.893110 6.073910 255 30 0 0.587962
0.487319 -0.883698 6.068700 255 45 0 0.555078
0.518590 -0.824721 5.952010 255 30 0 0.595273
0.547025 -0.814586 5.936550 255 38 0 0.571924
0.561275 -0.799135 5.917530 255 41 0 0.564890
0.589776 -0.789476 5.903940 255 45 0 0.546897
0.559542 -0.776698 5.897680 255 41 0 0.559109
0.591592 -0.813618 5.923460 255 41 0 0.563250
0.562460 -0.847688 5.964400 255 30 0 0.590536
0.740995 -0.629295 5.879780 251 16 0 0.633536
0.729372 -0.660293 5.881210 255 19 0 0.624178
0.704207 -0.687954 5.879740 255 34 0 0.583759
0.693701 -0.717318 5.880270 255 19 0 0.627895
0.665323 -0.710231 5.874610 246 12 0 0.641921
0.674429 -0.683306 5.874520 255 71 0 0.487185
0.699814 -0.656455 5.874850 255 78 0 0.462252
0.709606 -0.627369 5.873730 255 53 0 0.534034
0.697662 -0.746147 5.890440 255 56 0 0.516398
0.685739 -0.773491 5.899210 255 45 0 0.554639
0.660680 -0.793731 5.905050 255 64 0 0.497987
0.632318 -0.780382 5.899120 255 56 0 0.518413
0.658325 -0.762309 5.892130 255 56 0 0.521018
0.669299 -0.738693 5.884190 255 19 0 0.620339
0.571409 -0.755821 5.890100 255 34 0 0.580632
0.599389 -0.740321 5.883330 219 0 0 0.711747
0.609977 -0.720199 5.876500 255 60 0 0.511378
0.635188 -0.703560 5.871550 255 56 0 0.520217
0.604184 -0.695793 5.867760 255 41 0 0.556458
0.640755 -0.729203 5.879480 242 8 0 0.659158
0.629983 -0.751560 5.886640 242 8 0 0.659310
0.602888 -0.767219 5.894460 255 34 0 0.577721
0.612115 -0.671835 5.866360 255 45 0 0.545922
0.636939 -0.649015 5.864990 255 53 0 0.527140
0.644558 -0.622602 5.861760 255 53 0 0.525881
0.677869 -0.624238 5.867350 255 71 0 0.484675
0.669024 -0.652943 5.869280 255 78 0 0.463620
0.644688 -0.677871 5.868700 255 71 0 0.484592
0.530936 -0.787127 5.911520 255 41 0 0.558209
0.517922 -0.803818 5.927850 255 41 0 0.565416
0.490178 -0.813999 5.945220 255 38 0 0.569134
0.477260 -0.829334 5.967060 255 30 0 0.588299
0.450497 -0.820025 5.962130 255 45 0 0.555012
0.462095 -0.804808 5.941030 255 49 0 0.544935
0.488286 -0.793356 5.923110 255 49 0 0.543114
0.500735 -0.778458 5.905350 255 49 0 0.537333
0.529134 -0.767399 5.891970 255 38 0 0.566311
0.497869 -0.758542 5.888430 255 56 0 0.521224
0.476837 -0.844239 5.997100 255 60 0 0.515246
0.462824 -0.852288 6.026660 255 56 0 0.517333
0.436412 -0.856117 6.051880 255 67 0 0.489888
0.423428 -0.868526 6.078540 255 67 0 0.488432
0.399905 -0.867509 6.066350 255 56 0 0.516587
0.413140 -0.852106 6.042610 255 67 0 0.488401
0.437577 -0.842151 6.020190 255 67 0 0.497473
0.450532 -0.833337 5.991860 255 38 0 0.569325
0.356035 -0.884516 6.039380 255 30 0 0.587815
0.368482 -0.866287 6.018550 255 49 0 0.542648
0.391190 -0.844850 6.001890 255 41 0 0.559048
0.402507 -0.830099 5.978300 255 41 0 0.555451
0.426172 -0.817038 5.956670 255 49 0 0.542739
0.402512 -0.818038 5.950400 255 49 0 0.543808
0.425953 -0.828689 5.985870 255 45 0 0.551477
0.413665 -0.840416 6.012020 255 45 0 0.551283
0.390493 -0.856974 6.031160 255 45 0 0.545704
0.377710 -0.873946 6.053660 255 49 0 0.540688
0.411472 -0.799128 5.931770 255 53 0 0.526879
0.433895 -0.782813 5.915480 255 67 0 0.489789
0.444394 -0.766973 5.896940 255 56 0 0.516817
0.469201 -0.753508 5.882830 255 23 0 0.609932
0.440482 -0.749407 5.876710 255 75 0 0.479185
0.472266 -0.771230 5.901200 255 75 0 0.474902
0.460479 -0.786720 5.918850 255 60 0 0.510271
0.436507 -0.800940 5.936430 255 53 0 0.530175
-0.425314 -1.051960 5.659790 255 86 0 0.451740
-0.433751 -1.047370 5.683140 255 93 0 0.433858
-0.459002 -1.043650 5.674600 255 130 0 0.351220
-0.467555 -1.042010 5.698900 255 104 0 0.408425
-0.442583 -1.044630 5.707380 255 108 0 0.400615
-0.493089 -1.040020 5.690100 255 123 0 0.367205
-0.475756 -1.041830 5.723360 255 108 0 0.397317
-0.500940 -1.040400 5.714840 255 90 0 0.441136
-0.508914 -1.042050 5.739100 255 93 0 0.433737
-0.450989 -1.043640 5.731910 255 112 0 0.390805
-0.484032 -1.042850 5.747870 255 112 0 0.393458
-0.459234 -1.044020 5.756190 255 101 0 0.412987
-0.525855 -1.039870 5.705950 255 112 0 0.388848
-0.533636 -1.041820 5.730430 255 75 0 0.471421
-0.557830 -1.041580 5.721460 255 86 0 0.445566
-0.551452 -1.040380 5.697900 255 82 0 0.459343
-0.519253 -1.039620 5.682380 255 86 0 0.450888
-0.545039 -1.040300 5.674560 255 101 0 0.412865
-0.512575 -1.040720 5.659060 255 101 0 0.417267
-0.485728 -1.041680 5.667020 255 93 0 0.431858
-0.478755 -1.044630 5.644240 255 97 0 0.424113
-0.538340 -1.040450 5.651160 255 116 0 0.380038
-0.505772 -1.042660 5.636310 255 101 0 0.415926
-0.531627 -1.041920 5.628880 255 104 0 0.408956
-0.451908 -1.047740 5.652120 255 78 0 0.465094
-0.469321 -1.043500 5.782960 255 127 0 0.363645
-0.492140 -1.042190 5.773450 255 116 0 0.385035
-0.502080 -1.042200 5.800060 255 123 0 0.369815
-0.479164 -1.043050 5.809340 255 97 0 0.421249
-0.524706 -1.041500 5.790510 255 101 0 0.419196
-0.511548 -1.040650 5.826340 255 101 0 0.418347
-0.533950 -1.040060 5.817070 255 108 0 0.402865
-0.542607 -1.036060 5.843000 255 86 0 0.445337
-0.488693 -1.040970 5.835570 255 108 0 0.399168
-0.520293 -1.036060 5.852040 255 101 0 0.411894
-0.497472 -1.036520 5.861290 255 86 0 0.449410
-0.556295 -1.040060 5.807430 255 86 0 0.449757
-0.564993 -1.036760 5.833630 255 90 0 0.439410
-0.586557 -1.037750 5.824270 255 78 0 0.462824
-0.579846 -1.041450 5.799060 255 78 0 0.467823
-0.548705 -1.041920 5.782250 255 82 0 0.456509
-0.572439 -1.042530 5.773570 255 75 0 0.472861
-0.541250 -1.042070 5.756460 255 82 0 0.460574
-0.516850 -1.042000 5.765010 255 97 0 0.425461
-0.565124 -1.042300 5.747400 255 75 0 0.476479
-0.683102 -1.029740 5.775060 255 97 0 0.425766
-0.677173 -1.031840 5.749160 255 97 0 0.422485
-0.652235 -1.034740 5.762310 255 104 0 0.405767
-0.646253 -1.034650 5.736180 255 93 0 0.432993
-0.671134 -1.031730 5.723220 255 97 0 0.419631
-0.621052 -1.037360 5.749020 255 101 0 0.417228
-0.639793 -1.033150 5.710230 255 93 0 0.431388
-0.614905 -1.035970 5.722980 255 86 0 0.446932
-0.608272 -1.034830 5.696990 255 86 0 0.446232
-0.664963 -1.030420 5.697210 255 101 0 0.416652
-0.633233 -1.032050 5.684210 255 93 0 0.429678
-0.658162 -1.030000 5.671610 255 101 0 0.414056
-0.589614 -1.039390 5.735490 255 93 0 0.431114
-0.583076 -1.037870 5.709280 255 78 0 0.462669
-0.596820 -1.039990 5.761430 255 82 0 0.460227
-0.604010 -1.038930 5.787150 255 82 0 0.456638
-0.627921 -1.036680 5.775100 255 86 0 0.445156
-0.634598 -1.034010 5.800660 255 90 0 0.443578
-0.610567 -1.035830 5.812650 255 82 0 0.453062
-0.658501 -1.031920 5.788510 255 93 0 0.434505
-0.651406 -1.028980 5.649040 255 116 0 0.386696
-0.626947 -1.030800 5.661000 255 101 0 0.411499
-0.620523 -1.030230 5.638470 255 119 0 0.377951
-0.644677 -1.028770 5.627240 255 101 0 0.413137
-0.595765 -1.032720 5.649960 255 112 0 0.388783
-0.614003 -1.030070 5.616500 255 104 0 0.404585
-0.589370 -1.032530 5.627760 255 130 0 0.355695
-0.582803 -1.033460 5.606580 255 112 0 0.389410
-0.638177 -1.028770 5.605940 255 112 0 0.394032
-0.607448 -1.031430 5.596040 255 108 0 0.401585
-0.631588 -1.029460 5.585620 255 112 0 0.387937
-0.564296 -1.036000 5.639290 255 127 0 0.362218
-0.557693 -1.037090 5.617410 255 138 0 0.340653
-0.570602 -1.035760 5.662000 255 108 0 0.400586
-0.576891 -1.036380 5.685500 255 90 0 0.442705
-0.601971 -1.033290 5.673360 255 93 0 0.428700
-0.370037 -1.030330 5.905160 255 60 0 0.507385
-0.385731 -1.021530 5.931030 255 34 0 0.579674
-0.412295 -1.009200 5.950230 255 41 0 0.559152
-0.426515 -0.993771 5.973710 255 45 0 0.547061
-0.451720 -0.976957 5.991850 255 34 0 0.577083
-0.428782 -0.977117 6.002650 255 38 0 0.567461
-0.449862 -0.994313 5.963190 255 60 0 0.508050
-0.474401 -0.976864 5.980880 255 53 0 0.527869
-0.437917 -1.010390 5.940290 255 49 0 0.545256
-0.425573 -1.023470 5.916200 255 49 0 0.539311
-0.398231 -1.031750 5.895650 255 45 0 0.546264
-0.426151 -1.033660 5.885930 255 49 0 0.540198
-0.441174 -0.955787 6.025090 255 38 0 0.573494
-0.464111 -0.934660 6.041830 255 45 0 0.555323
-0.476440 -0.915489 6.064300 255 49 0 0.540775
-0.497363 -0.915206 6.052550 255 60 0 0.511163
-0.485840 -0.934324 6.030450 255 67 0 0.488491
-0.474428 -0.955165 6.008500 255 41 0 0.564895
-0.563613 -0.913307 6.017040 255 101 0 0.417499
-0.539311 -0.933439 6.002730 255 64 0 0.500037
-0.529563 -0.955300 5.981360 255 34 0 0.576937
-0.504370 -0.976302 5.966800 255 30 0 0.590988
-0.534260 -0.977074 5.953890 255 38 0 0.572059
-0.499902 -0.955650 5.995630 255 64 0 0.499739
-0.510902 -0.933955 6.017480 255 56 0 0.520951
-0.522258 -0.914376 6.039300 255 71 0 0.486650
-0.525997 -0.995750 5.932060 255 82 0 0.459508
-0.508756 -0.995299 5.938380 255 56 0 0.516429
-0.499549 -1.011990 5.916340 255 112 0 0.393586
-0.516966 -1.012210 5.909810 255 97 0 0.423560
-0.482529 -1.011630 5.922280 255 56 0 0.524637
-0.489665 -1.025160 5.892590 255 108 0 0.399125
-0.472660 -1.025100 5.898680 255 108 0 0.401385
-0.461810 -1.034390 5.873420 255 78 0 0.465342
-0.507719 -1.026800 5.886810 255 101 0 0.414769
-0.479712 -1.035100 5.867300 255 127 0 0.363304
-0.455067 -1.024720 5.904790 255 71 0 0.487742
-0.444183 -1.034060 5.879710 255 86 0 0.449914
-0.478597 -0.995179 5.951860 255 34 0 0.580144
-0.721004 -0.917636 5.934990 255 97 0 0.426939
-0.699115 -0.916798 5.945350 255 101 0 0.418226
-0.692451 -0.937009 5.924630 255 86 0 0.452667
-0.714596 -0.938141 5.914030 255 82 0 0.453378
-0.670830 -0.936690 5.935070 255 82 0 0.455935
-0.686365 -0.958444 5.904290 255 75 0 0.476374
-0.664526 -0.958708 5.915430 255 71 0 0.481668
-0.658290 -0.979524 5.895430 255 71 0 0.487411
-0.708535 -0.958567 5.892930 255 75 0 0.473994
-0.680481 -0.979226 5.884200 255 71 0 0.481314
-0.702856 -0.979260 5.872440 255 75 0 0.476423
-0.642821 -0.958683 5.926090 255 71 0 0.487074
-0.636019 -0.978955 5.906070 255 67 0 0.494469
-0.614087 -0.979203 5.916520 255 64 0 0.502610
-0.622108 -0.957974 5.937420 255 67 0 0.495067
-0.650056 -0.935541 5.946190 255 78 0 0.461540
-0.629785 -0.935339 5.957590 255 78 0 0.469709
-0.657800 -0.914805 5.967540 255 93 0 0.428073
-0.678293 -0.916063 5.956750 255 97 0 0.422444
-0.637511 -0.914625 5.978380 255 93 0 0.435273
-0.699407 -0.997315 5.850800 255 112 0 0.394367
-0.675701 -0.997666 5.862190 255 78 0 0.464031
-0.671099 -1.012990 5.839310 255 108 0 0.399372
-0.694981 -1.011400 5.827150 255 123 0 0.371629
-0.647272 -1.014420 5.851040 255 82 0 0.454449
-0.665597 -1.024810 5.814710 255 104 0 0.410835
-0.641792 -1.026870 5.826820 255 101 0 0.417972
-0.689799 -1.022820 5.801600 255 104 0 0.404228
-0.617974 -1.027690 5.838230 255 82 0 0.453281
-0.595173 -1.028570 5.849790 255 78 0 0.462140
-0.624773 -1.014650 5.862670 255 78 0 0.461760
-0.602186 -1.015210 5.873880 255 75 0 0.470633
-0.631032 -0.998668 5.885220 255 75 0 0.477557
-0.653169 -0.998130 5.873910 255 78 0 0.470109
-0.608514 -0.998824 5.896070 255 71 0 0.486406
-0.528709 -1.026210 5.876990 255 82 0 0.453935
-0.538197 -1.012510 5.900560 255 93 0 0.432856
-0.558785 -1.012690 5.890940 255 71 0 0.481832
-0.546507 -0.995928 5.922790 255 90 0 0.441445
-0.566984 -0.996557 5.913600 255 86 0 0.451555
-0.574582 -0.976977 5.934530 255 86 0 0.451569
-0.554474 -0.976620 5.944070 255 67 0 0.488538
-0.587445 -0.997581 5.904550 255 67 0 0.492501
-0.594536 -0.977902 5.925480 255 71 0 0.480526
-0.580607 -1.013580 5.882360 255 75 0 0.477015
-0.573473 -1.027470 5.859040 255 78 0 0.468321
-0.551286 -1.026850 5.868010 255 90 0 0.443708
-0.563312 -0.955264 5.964410 255 45 0 0.551545
-0.572558 -0.932691 5.985410 255 53 0 0.526748
-0.591436 -0.933504 5.975590 255 64 0 0.498462
-0.582380 -0.912885 6.006800 255 119 0 0.379669
-0.600799 -0.912821 5.996680 255 86 0 0.449409
-0.618966 -0.914024 5.987460 255 93 0 0.433129
-0.610662 -0.934184 5.966600 255 86 0 0.452592
-0.602583 -0.956735 5.946370 255 75 0 0.475743
-0.583002 -0.955323 5.955040 255 75 0 0.471476
0.238571 -0.826942 5.290370 255 234 0 0.190386
0.238579 -0.847279 5.297820 255 227 0 0.199532
0.238600 -0.867772 5.305420 255 219 0 0.213406
0.239037 -0.887609 5.313090 255 186 0 0.255953
0.147982 -0.708112 5.274060 255 160 0 0.300800
0.153884 -0.728408 5.287150 255 164 0 0.291140
0.172027 -0.730850 5.277890 255 171 0 0.281777
0.177406 -0.753492 5.290290 255 178 0 0.272355
0.159726 -0.750480 5.299980 255 178 0 0.269347
0.195377 -0.756886 5.280210 255 178 0 0.267411
0.182682 -0.776047 5.302340 255 186 0 0.256222
0.199801 -0.777970 5.292170 255 190 0 0.253074
0.204344 -0.799022 5.304780 255 212 0 0.222570
0.164977 -0.772941 5.312360 255 178 0 0.269928
0.187206 -0.795853 5.315140 255 208 0 0.223672
0.170038 -0.793168 5.325340 255 178 0 0.267847
0.217083 -0.780560 5.281470 255 201 0 0.236221
0.221764 -0.803189 5.292980 255 212 0 0.221500
0.214028 -0.760675 5.269530 255 186 0 0.255886
0.210330 -0.739765 5.258290 255 208 0 0.225723
0.191477 -0.735181 5.268020 255 167 0 0.290375
0.187075 -0.714764 5.256640 255 182 0 0.265744
0.206744 -0.718468 5.246810 255 190 0 0.250534
0.167925 -0.711320 5.265310 255 149 0 0.321622
0.171043 -0.816303 5.333720 255 141 0 0.335291
0.187441 -0.818591 5.323360 255 197 0 0.242053
0.188201 -0.840533 5.331560 255 138 0 0.337967
0.171407 -0.838998 5.342490 255 119 0 0.376307
0.204269 -0.841849 5.321420 255 190 0 0.255423
0.188335 -0.862155 5.339710 255 130 0 0.353123
0.204892 -0.863538 5.328490 255 149 0 0.322994
0.205373 -0.885299 5.336230 255 156 0 0.306895
0.172129 -0.860518 5.350070 255 82 0 0.454737
0.188733 -0.883548 5.347150 255 123 0 0.365576
0.171709 -0.882963 5.357910 255 112 0 0.393365
0.221352 -0.864969 5.317280 255 186 0 0.257674
0.222358 -0.886148 5.324910 255 145 0 0.326762
0.221428 -0.844577 5.309720 255 204 0 0.232397
0.221767 -0.824407 5.301220 255 219 0 0.210438
0.204356 -0.820769 5.312930 255 219 0 0.210565
0.182189 -1.046960 5.188200 255 227 0 0.201469
0.163609 -1.047910 5.169780 255 223 0 0.206929
0.147023 -1.046660 5.150760 255 216 0 0.218227
0.119549 -1.048510 5.158970 255 160 0 0.301539
0.101448 -1.050370 5.176550 255 130 0 0.354719
0.136646 -1.049570 5.178780 255 164 0 0.291034
0.118857 -1.051580 5.196600 255 149 0 0.318888
0.084417 -1.052270 5.193560 255 97 0 0.425467
0.067299 -1.054120 5.210510 255 60 0 0.511281
0.045787 -1.052350 5.189920 255 49 0 0.543259
0.062914 -1.050500 5.173340 255 82 0 0.454080
0.080592 -1.048790 5.156630 255 123 0 0.368805
0.024174 -1.050820 5.169160 255 49 0 0.544808
0.156384 -1.048940 5.197790 255 167 0 0.285616
0.141070 -1.048770 5.215810 255 156 0 0.304708
0.175720 -1.044990 5.215920 255 178 0 0.272717
0.160181 -1.044530 5.234290 255 171 0 0.281940
0.126407 -1.048400 5.233120 255 130 0 0.354227
0.112285 -1.047490 5.250790 255 101 0 0.417779
0.089608 -1.050830 5.230830 255 82 0 0.457864
0.104027 -1.051440 5.213570 255 116 0 0.381478
0.012501 -1.053700 5.278010 246 12 0 0.647508
0.027075 -1.053940 5.260910 255 23 0 0.615769
-0.014153 -1.055410 5.256520 242 8 0 0.659446
0.040928 -1.054070 5.243860 255 30 0 0.589727
0.000735 -1.056130 5.239210 255 19 0 0.626613
0.014723 -1.056440 5.222620 255 27 0 0.598347
-0.039916 -1.057690 5.234750 242 8 0 0.657791
0.054212 -1.053980 5.227070 255 38 0 0.568787
0.076515 -1.050880 5.247470 255 56 0 0.524771
0.064001 -1.050810 5.264430 255 38 0 0.571486
-0.023275 -1.056020 5.217780 255 19 0 0.626803
-0.064714 -1.055180 5.213190 251 16 0 0.639759
-0.007229 -1.054410 5.201180 255 27 0 0.598117
-0.047707 -1.054000 5.196370 255 23 0 0.613911
-0.031747 -1.052410 5.180010 255 30 0 0.589123
-0.088212 -1.053940 5.191450 255 23 0 0.613600
0.008568 -1.052710 5.184950 255 38 0 0.575031
0.030534 -1.054350 5.206100 255 38 0 0.575420
0.196199 -1.038200 5.232120 255 186 0 0.257816
0.183091 -1.035400 5.249650 255 175 0 0.274513
0.202492 -1.024450 5.264180 255 175 0 0.276440
0.169925 -1.032080 5.266900 255 164 0 0.291555
0.157820 -1.028510 5.283490 255 141 0 0.336179
0.135081 -1.038210 5.267100 255 123 0 0.368428
0.147174 -1.041670 5.250820 255 153 0 0.313637
0.222568 -1.008360 5.274900 255 178 0 0.267325
0.209598 -1.002900 5.291360 255 175 0 0.273458
0.197410 -0.996539 5.306700 255 160 0 0.300460
0.176962 -1.012730 5.295810 255 156 0 0.308285
0.189794 -1.018750 5.280020 255 171 0 0.279946
0.112553 -1.004880 5.345640 255 38 0 0.569737
0.124143 -1.011310 5.329660 255 67 0 0.489125
0.088494 -1.021050 5.331830 255 49 0 0.538963
0.135861 -1.016850 5.314080 255 78 0 0.462899
0.100515 -1.027320 5.316460 255 56 0 0.521539
0.112515 -1.032830 5.300580 255 64 0 0.506409
0.064864 -1.036960 5.317350 255 38 0 0.572923
0.146837 -1.023010 5.298850 255 119 0 0.379109
0.166708 -1.006960 5.311190 255 123 0 0.365561
0.155892 -1.000650 5.326570 255 71 0 0.484486
0.077869 -1.040470 5.300510 255 45 0 0.552530
0.038040 -1.045620 5.298020 255 27 0 0.599981
0.089824 -1.042520 5.283460 255 41 0 0.556966
0.051757 -1.048400 5.281110 255 38 0 0.575549
0.101288 -1.045240 5.266670 255 71 0 0.487035
0.123762 -1.035740 5.284350 255 93 0 0.433539
0.238575 -0.959835 5.304810 255 153 0 0.311679
0.224909 -0.949888 5.319500 255 175 0 0.276583
0.210932 -0.973361 5.313460 255 156 0 0.309687
0.224738 -0.982976 5.299250 255 164 0 0.295656
0.232579 -0.919312 5.316690 255 156 0 0.305257
0.180081 -0.918040 5.349170 255 141 0 0.333513
0.161296 -0.918968 5.360300 255 108 0 0.396718
0.198135 -0.917183 5.338780 255 134 0 0.347978
0.187955 -0.951328 5.341120 255 130 0 0.354933
0.169411 -0.952347 5.351200 255 119 0 0.377469
0.149711 -0.953390 5.361970 255 56 0 0.521968
0.211011 -0.934084 5.329040 255 190 0 0.250102
0.152779 -0.977472 5.343960 255 116 0 0.383111
0.130750 -0.979654 5.354330 255 82 0 0.454196
0.173399 -0.975270 5.334340 255 112 0 0.391510
0.184846 -0.986373 5.320770 255 127 0 0.360221
0.199531 -0.962784 5.327140 255 164 0 0.293580
0.171320 -0.687660 5.230420 255 164 0 0.291181
0.190648 -0.691283 5.222280 255 164 0 0.290876
0.173971 -0.665755 5.194590 255 138 0 0.337342
0.161639 -0.674698 5.216090 255 145 0 0.329556
0.153162 -0.662341 5.201780 255 93 0 0.428425
0.140925 -0.671622 5.223680 255 82 0 0.453312
0.150305 -0.684358 5.238480 255 119 0 0.379872
0.128533 -0.680964 5.245620 255 123 0 0.365160
0.131478 -0.659269 5.208520 255 34 0 0.581461
0.119382 -0.669157 5.231050 255 104 0 0.405210
0.110193 -0.657332 5.215990 255 45 0 0.547644
0.138444 -0.693841 5.259960 255 149 0 0.321050
0.173820 -0.656144 5.160860 255 178 0 0.272056
0.153772 -0.644696 5.134410 255 160 0 0.298419
0.132417 -0.641623 5.140530 255 112 0 0.390609
0.121517 -0.644379 5.160650 255 101 0 0.415235
0.099253 -0.642262 5.166630 255 86 0 0.444540
0.087720 -0.646205 5.187560 255 101 0 0.418770
0.065417 -0.637280 5.158340 255 101 0 0.417338
0.153757 -0.652927 5.167880 255 127 0 0.363090
0.077862 -0.638270 5.140400 255 90 0 0.442528
0.099606 -0.639688 5.134560 255 104 0 0.404572
0.110905 -0.642421 5.116890 255 127 0 0.358023
0.132893 -0.645012 5.110920 255 171 0 0.283872
0.112288 -0.647317 5.087240 255 178 0 0.269519
0.089601 -0.644667 5.093150 255 160 0 0.302464
0.077876 -0.641523 5.110610 255 116 0 0.386722
0.055066 -0.640352 5.115750 255 86 0 0.451568
0.042345 -0.639080 5.133590 255 78 0 0.464264
0.020142 -0.641312 5.109110 255 75 0 0.474881
0.135011 -0.650247 5.079940 255 186 0 0.259296
0.106229 -0.666523 5.051680 255 182 0 0.263256
0.092579 -0.657757 5.068450 255 201 0 0.236919
0.072907 -0.669150 5.049520 255 197 0 0.239419
0.049705 -0.666660 5.054750 255 171 0 0.283726
0.036477 -0.659500 5.069190 255 149 0 0.316677
0.012549 -0.658080 5.074550 255 134 0 0.344938
-0.001522 -0.652356 5.089350 255 127 0 0.364265
-0.021761 -0.662020 5.071360 255 97 0 0.421905
0.034012 -0.647273 5.094020 255 134 0 0.346697
0.057081 -0.648356 5.088880 255 149 0 0.321956
0.070093 -0.655205 5.073940 255 171 0 0.283409
0.694961 -0.076344 5.946380 255 112 0 0.392083
0.693698 -0.053661 5.959220 255 123 0 0.368718
0.671089 -0.057442 5.951300 255 130 0 0.354951
0.672171 -0.079979 5.938620 255 116 0 0.385161
0.667642 -0.038677 5.969620 255 127 0 0.359332
0.648229 -0.061398 5.943230 255 130 0 0.353631
0.644800 -0.042953 5.961040 255 130 0 0.355579
0.621379 -0.046241 5.952190 255 127 0 0.359815
0.649067 -0.082551 5.930060 255 116 0 0.384195
0.624741 -0.064420 5.934460 255 130 0 0.357666
0.625594 -0.086132 5.921190 255 116 0 0.385373
0.640861 -0.028636 5.980330 255 119 0 0.376159
0.617632 -0.032241 5.970960 255 119 0 0.379905
0.612288 -0.022530 5.993000 255 104 0 0.408227
0.636471 -0.019306 6.003890 255 104 0 0.406391
0.664746 -0.024440 5.990130 255 116 0 0.384486
0.659996 -0.015038 6.013990 255 97 0 0.420158
0.688184 -0.019848 5.999550 255 97 0 0.422061
0.691433 -0.034382 5.978820 255 116 0 0.385053
0.683163 -0.010231 6.023710 255 78 0 0.468152
0.602898 -0.089239 5.911590 255 112 0 0.389035
0.600915 -0.067387 5.923660 255 127 0 0.364083
0.577683 -0.070569 5.914180 255 123 0 0.371252
0.579961 -0.092638 5.901600 255 112 0 0.394058
0.573488 -0.052336 5.930550 255 119 0 0.373843
0.554316 -0.074014 5.904250 255 119 0 0.377759
0.549985 -0.055565 5.920580 255 116 0 0.380102
0.525877 -0.059175 5.910670 255 116 0 0.384084
0.556530 -0.096441 5.891760 255 108 0 0.399385
0.530345 -0.077908 5.894400 255 116 0 0.382868
0.532560 -0.100521 5.881790 255 104 0 0.404344
0.545309 -0.040256 5.938120 255 108 0 0.399266
0.521410 -0.043538 5.928050 255 108 0 0.402695
0.515117 -0.032831 5.948200 255 93 0 0.430412
0.540357 -0.030187 5.959680 255 93 0 0.428001
0.570081 -0.037524 5.949270 255 112 0 0.393763
0.564892 -0.027595 5.970920 255 97 0 0.422498
0.594164 -0.034909 5.960200 255 116 0 0.386749
0.597775 -0.049336 5.941500 255 123 0 0.366590
0.588899 -0.024850 5.981990 255 101 0 0.415168
0.478367 -0.034976 6.042970 255 53 0 0.531478
0.504949 -0.033075 6.055070 255 53 0 0.530315
0.513517 -0.029101 6.029760 255 56 0 0.517258
0.539294 -0.027177 6.041950 255 60 0 0.512073
0.530946 -0.031220 6.067090 255 56 0 0.525785
0.547504 -0.024879 6.017200 255 71 0 0.485407
0.564614 -0.025230 6.053780 255 64 0 0.504920
0.572617 -0.022761 6.029070 255 75 0 0.478058
0.597117 -0.020103 6.040720 255 75 0 0.471884
0.556268 -0.029277 6.078880 255 56 0 0.519186
0.588889 -0.023716 6.065850 255 64 0 0.499404
0.580739 -0.028346 6.091120 255 60 0 0.515782
0.580472 -0.021875 6.004360 255 86 0 0.446276
0.605211 -0.019426 6.015820 255 90 0 0.440161
0.556462 -0.024710 5.993560 255 82 0 0.453838
0.531655 -0.027310 5.982500 255 82 0 0.459263
0.522914 -0.027088 6.005830 255 67 0 0.491197
0.497468 -0.029911 5.994590 255 67 0 0.493207
0.506369 -0.029891 5.971360 255 82 0 0.461462
0.488113 -0.031908 6.018740 255 56 0 0.519065
0.605891 -0.026406 6.102990 255 53 0 0.529869
0.613121 -0.021044 6.077160 255 64 0 0.505857
0.637445 -0.017692 6.089090 255 45 0 0.546805
0.630249 -0.023199 6.114800 255 34 0 0.585466
0.644479 -0.013762 6.062820 255 64 0 0.502586
0.661877 -0.013605 6.101200 251 16 0 0.629322
0.668683 -0.009622 6.074680 255 38 0 0.574108
0.655503 -0.018088 6.127140 233 1 0 0.676566
0.675508 -0.007557 6.047780 255 56 0 0.518509
0.652421 -0.012681 6.037640 255 82 0 0.459422
0.629047 -0.016469 6.027140 255 90 0 0.439473
0.621122 -0.016903 6.051810 255 75 0 0.473997
0.417794 -0.765105 5.890850 255 93 0 0.434414
0.408630 -0.782218 5.909780 255 56 0 0.524019
0.388703 -0.803349 5.923630 255 49 0 0.536651
0.380752 -0.824069 5.942200 255 41 0 0.558834
0.358741 -0.832500 5.930960 255 45 0 0.551774
0.365247 -0.807775 5.914700 255 60 0 0.514735
0.383931 -0.783494 5.902950 255 82 0 0.460836
0.391910 -0.764097 5.884390 255 97 0 0.426401
0.413354 -0.746894 5.870190 255 97 0 0.421500
0.386549 -0.745542 5.862780 255 134 0 0.344889
0.381069 -0.837426 5.968690 255 38 0 0.572742
0.369632 -0.854645 5.990520 255 34 0 0.582895
0.347030 -0.879846 6.004990 255 30 0 0.587516
0.335875 -0.900219 6.025380 255 45 0 0.555315
0.314953 -0.916144 6.010000 255 34 0 0.577846
0.326234 -0.894819 5.990800 255 27 0 0.603288
0.348183 -0.866776 5.978240 255 23 0 0.617238
0.359663 -0.846829 5.957930 255 23 0 0.607659
0.271531 -0.941471 5.979260 255 27 0 0.602546
0.283160 -0.919170 5.960370 255 60 0 0.515879
0.304722 -0.891661 5.950060 255 45 0 0.555153
0.315652 -0.868332 5.931450 255 53 0 0.526860
0.336399 -0.840509 5.918770 255 64 0 0.500390
0.314141 -0.849613 5.905420 255 19 0 0.618808
0.337774 -0.858760 5.945070 255 45 0 0.549379
0.327047 -0.880488 5.964300 255 30 0 0.588318
0.305258 -0.908977 5.976020 255 30 0 0.590210
0.293917 -0.931033 5.995130 255 19 0 0.628033
0.320336 -0.820551 5.891680 255 64 0 0.498402
0.337900 -0.792125 5.882250 255 82 0 0.453999
0.343430 -0.768212 5.866780 255 104 0 0.404952
0.361398 -0.745372 5.854990 255 130 0 0.357101
0.336754 -0.746625 5.845320 255 90 0 0.442592
0.367319 -0.765633 5.876190 255 123 0 0.370734
0.360532 -0.787161 5.893540 255 67 0 0.491998
0.343261 -0.814349 5.903350 255 38 0 0.565789
0.290476 -0.046575 5.946540 255 116 0 0.387254
0.312581 -0.044712 5.958410 255 93 0 0.433785
0.323250 -0.044675 5.935670 255 97 0 0.421464
0.345119 -0.043015 5.947290 255 82 0 0.455447
0.334449 -0.043567 5.970280 255 90 0 0.440742
0.355359 -0.042758 5.924180 255 93 0 0.434737
0.367002 -0.041230 5.958740 255 78 0 0.467563
0.377407 -0.040919 5.935850 255 86 0 0.446144
0.399885 -0.039097 5.947350 255 82 0 0.458772
0.356320 -0.042520 5.982060 255 75 0 0.477042
0.389290 -0.040092 5.970680 255 71 0 0.481062
0.378660 -0.041545 5.994190 255 67 0 0.490735
0.387511 -0.042364 5.913300 255 97 0 0.420037
0.410260 -0.040064 5.924950 255 93 0 0.431530
0.419626 -0.044402 5.903220 255 104 0 0.405785
0.397991 -0.046959 5.891850 255 108 0 0.396446
0.366367 -0.044356 5.901810 255 104 0 0.410305
0.376675 -0.049326 5.880660 255 127 0 0.362170
0.345563 -0.046425 5.890260 255 130 0 0.354853
0.334520 -0.044711 5.912880 255 97 0 0.427096
0.313539 -0.047116 5.901400 255 127 0 0.360793
0.355638 -0.051611 5.869250 255 130 0 0.356851
0.324656 -0.048905 5.878870 255 130 0 0.352000
0.334697 -0.054597 5.858240 255 153 0 0.316365
0.302209 -0.046516 5.924110 255 101 0 0.418924
0.403049 -0.040296 6.006470 255 64 0 0.504307
0.412523 -0.038209 5.982080 255 67 0 0.494172
0.437913 -0.035569 5.994230 255 64 0 0.506499
0.427791 -0.038601 6.018620 255 56 0 0.517430
0.447457 -0.033856 5.970050 255 71 0 0.482310
0.463009 -0.033684 6.006520 255 60 0 0.515532
0.472469 -0.031790 5.982200 255 67 0 0.490351
0.453183 -0.036495 6.030810 255 53 0 0.527289
0.481186 -0.031803 5.958950 255 82 0 0.459292
0.491048 -0.035123 5.936530 255 93 0 0.429431
0.457295 -0.034114 5.947340 255 86 0 0.452611
0.467051 -0.037905 5.925200 255 97 0 0.423818
0.433705 -0.036980 5.936000 255 90 0 0.442620
0.423722 -0.036007 5.958450 255 75 0 0.471066
0.443195 -0.040932 5.914090 255 101 0 0.415257
0.510090 -0.103931 5.871350 255 104 0 0.408857
0.506378 -0.081350 5.882890 255 116 0 0.386889
0.483800 -0.084758 5.872550 255 112 0 0.389022
0.487713 -0.107414 5.860960 255 101 0 0.412438
0.477916 -0.065792 5.887970 255 116 0 0.385147
0.461357 -0.088284 5.862470 255 112 0 0.390036
0.455441 -0.069054 5.877720 255 116 0 0.382675
0.433132 -0.072570 5.867870 255 119 0 0.379425
0.465675 -0.111065 5.850730 255 101 0 0.414978
0.439021 -0.091906 5.852750 255 112 0 0.390319
0.443608 -0.114478 5.840560 255 101 0 0.416658
0.449014 -0.052882 5.894610 255 112 0 0.392911
0.426803 -0.056501 5.884730 255 116 0 0.386219
0.473012 -0.049550 5.905400 255 108 0 0.398727
0.497196 -0.046335 5.916680 255 108 0 0.402448
0.501761 -0.062419 5.899180 255 116 0 0.385764
0.423307 -0.117532 5.829840 255 101 0 0.416806
0.417357 -0.094987 5.841750 255 112 0 0.389721
0.397412 -0.098090 5.831170 255 112 0 0.388832
0.403384 -0.120499 5.819290 255 101 0 0.416806
0.390453 -0.078324 5.845390 255 119 0 0.372772
0.377593 -0.101057 5.820820 255 112 0 0.389099
0.370828 -0.080932 5.834640 255 123 0 0.371410
0.351083 -0.083985 5.824230 255 130 0 0.350794
0.383839 -0.123558 5.808710 255 101 0 0.417109
0.357899 -0.104011 5.810530 255 112 0 0.390847
0.364355 -0.126630 5.798210 255 101 0 0.418250
0.362832 -0.064736 5.851050 255 134 0 0.346544
0.342998 -0.067658 5.840650 255 134 0 0.346093
0.383861 -0.061912 5.862200 255 119 0 0.373158
0.405116 -0.059264 5.873560 255 119 0 0.379045
0.411552 -0.075584 5.856750 255 119 0 0.375749
0.554117 -0.125426 5.882130 255 90 0 0.439428
0.577469 -0.121487 5.892550 255 90 0 0.438074
0.574414 -0.152968 5.884730 255 71 0 0.485843
0.600385 -0.117743 5.902870 255 90 0 0.437607
0.597020 -0.149460 5.895740 255 67 0 0.490311
0.619369 -0.145815 5.906560 255 67 0 0.496971
0.622925 -0.114569 5.912990 255 90 0 0.438731
0.593363 -0.182728 5.889250 255 53 0 0.533325
0.615245 -0.179866 5.901000 255 49 0 0.542945
0.612164 -0.212906 5.893900 255 38 0 0.568968
0.592119 -0.214691 5.882280 255 41 0 0.557651
0.572351 -0.185302 5.878820 255 56 0 0.525073
0.571933 -0.216617 5.870540 255 45 0 0.546804
0.551675 -0.187908 5.868210 255 56 0 0.517881
0.552709 -0.156684 5.875100 255 71 0 0.482198
0.531083 -0.159848 5.865470 255 71 0 0.480123
0.551505 -0.219063 5.859060 255 49 0 0.537293
0.530769 -0.190704 5.857750 255 60 0 0.512645
0.531013 -0.221459 5.847350 255 53 0 0.530514
0.531947 -0.129074 5.873080 255 90 0 0.440863
0.645105 -0.112585 5.921190 255 90 0 0.441420
0.668391 -0.109157 5.930250 255 86 0 0.446605
0.662949 -0.141071 5.924610 255 60 0 0.514996
0.691337 -0.105967 5.938490 255 82 0 0.453219
0.686152 -0.137773 5.933600 255 56 0 0.525440
0.679496 -0.173261 5.930650 255 34 0 0.580400
0.674957 -0.207907 5.926920 255 23 0 0.609402
0.658266 -0.175055 5.921130 255 38 0 0.567784
0.653790 -0.209988 5.916760 255 30 0 0.595632
0.636867 -0.177533 5.911320 255 45 0 0.554608
0.641238 -0.143762 5.915920 255 64 0 0.504907
0.633102 -0.211425 5.905590 255 34 0 0.581878
0.664773 -0.343486 5.879380 255 38 0 0.570222
0.665143 -0.313929 5.893010 255 30 0 0.593863
0.646235 -0.313412 5.881270 255 34 0 0.583178
0.645686 -0.343142 5.868010 255 41 0 0.561102
0.646363 -0.281318 5.895280 255 27 0 0.598315
0.626931 -0.312824 5.869990 255 38 0 0.571324
0.627603 -0.280909 5.883240 255 34 0 0.585354
0.608454 -0.280879 5.871910 255 38 0 0.572387
0.625817 -0.342811 5.857130 255 45 0 0.552356
0.607404 -0.312614 5.858430 255 41 0 0.560599
0.605348 -0.343146 5.846900 255 49 0 0.544661
0.628407 -0.247883 5.896120 255 30 0 0.589763
0.609647 -0.247855 5.884700 255 34 0 0.576870
0.648665 -0.247010 5.908820 255 27 0 0.603138
0.668762 -0.246235 5.921340 255 23 0 0.615909
0.665813 -0.281374 5.909220 255 23 0 0.610282
0.584716 -0.344408 5.837230 255 49 0 0.537710
0.586524 -0.314315 5.845870 255 45 0 0.551322
0.566410 -0.315594 5.835760 255 49 0 0.542117
0.563724 -0.345866 5.827990 255 53 0 0.530471
0.567944 -0.283656 5.846460 255 45 0 0.550115
0.545895 -0.317304 5.826500 255 53 0 0.534149
0.548263 -0.285272 5.835780 255 49 0 0.540821
0.528462 -0.286857 5.826080 255 53 0 0.533342
0.542087 -0.348275 5.819660 255 56 0 0.524014
0.524840 -0.319932 5.818040 255 53 0 0.527481
0.520267 -0.351613 5.811670 255 56 0 0.518327
0.549357 -0.252825 5.847440 255 49 0 0.543047
0.529862 -0.254594 5.836850 255 53 0 0.535199
0.569767 -0.250601 5.859650 255 45 0 0.552640
0.589649 -0.248765 5.872050 255 41 0 0.564452
0.588468 -0.282007 5.858880 255 41 0 0.560670
0.646670 -0.026061 6.150930 219 0 0 0.718133
0.620727 -0.030313 6.137880 255 23 0 0.617849
0.611371 -0.036522 6.160440 246 12 0 0.647229
0.596151 -0.033211 6.126340 255 45 0 0.547215
0.586490 -0.038585 6.148820 255 41 0 0.563043
0.561348 -0.039901 6.137620 255 53 0 0.526416
0.571058 -0.035089 6.114760 255 56 0 0.523095
0.576770 -0.042366 6.171170 255 34 0 0.578354
0.551481 -0.042970 6.159820 255 53 0 0.529207
0.541951 -0.043289 6.181060 255 53 0 0.533653
0.567710 -0.043929 6.192990 255 30 0 0.592750
0.602356 -0.041899 6.183570 237 4 0 0.671454
0.593746 -0.044495 6.205770 228 0 0 0.688689
0.630399 -0.039549 6.198040 196 0 0 0.779113
0.638456 -0.033485 6.174850 205 0 0 0.753151
0.622765 -0.043377 6.220600 192 0 0 0.794532
0.545669 -0.036381 6.102820 255 56 0 0.522883
0.520363 -0.037451 6.091060 255 53 0 0.528513
0.509987 -0.041791 6.114040 255 53 0 0.526276
0.494288 -0.039104 6.079200 255 53 0 0.532637
0.483859 -0.042737 6.102280 255 53 0 0.530149
0.457187 -0.043462 6.090000 255 53 0 0.530740
0.467487 -0.040656 6.066990 255 53 0 0.533407
0.473780 -0.042968 6.123770 255 53 0 0.526102
0.447350 -0.043174 6.111460 255 53 0 0.526686
0.438203 -0.039264 6.131500 255 56 0 0.523795
0.464920 -0.039984 6.144480 255 56 0 0.522963
0.500229 -0.043122 6.136380 255 56 0 0.522451
0.491102 -0.040767 6.157250 255 56 0 0.519788
0.526334 -0.043250 6.148370 255 56 0 0.519551
0.536096 -0.041033 6.125880 255 56 0 0.521898
0.516935 -0.041966 6.169310 255 56 0 0.518605
0.436894 -0.020983 6.198130 255 104 0 0.408566
0.462552 -0.024013 6.211600 255 104 0 0.406344
0.471487 -0.031631 6.194380 255 86 0 0.446088
0.487324 -0.027549 6.224450 255 101 0 0.414358
0.496594 -0.034654 6.207020 255 86 0 0.449706
0.521418 -0.038180 6.219420 255 75 0 0.477845
0.511913 -0.031580 6.237160 255 82 0 0.455294
0.506560 -0.039888 6.188580 255 67 0 0.490783
0.531452 -0.042545 6.200770 255 60 0 0.511582
0.481054 -0.037599 6.176420 255 67 0 0.489855
0.455033 -0.036050 6.163570 255 67 0 0.492385
0.445762 -0.029403 6.181450 255 86 0 0.447977
0.419519 -0.027500 6.168240 255 86 0 0.449755
0.428549 -0.034644 6.150460 255 67 0 0.493555
0.410887 -0.018533 6.184750 255 101 0 0.412028
0.537464 -0.035460 6.249870 255 45 0 0.551778
0.563359 -0.039283 6.263380 233 1 0 0.679268
0.573138 -0.043837 6.244770 242 8 0 0.658696
0.593892 -0.041828 6.279360 196 0 0 0.778213
0.603103 -0.045234 6.260530 201 0 0 0.761192
0.612948 -0.045863 6.240950 196 0 0 0.778948
0.583318 -0.045946 6.225820 233 1 0 0.676475
0.557118 -0.044596 6.212970 255 34 0 0.578264
0.547041 -0.041295 6.231880 255 45 0 0.552829
0.240123 -0.918533 6.226360 255 112 0 0.387982
0.254807 -0.925516 6.201340 255 67 0 0.489743
0.281798 -0.920944 6.183860 255 75 0 0.478777
0.297385 -0.922256 6.159580 255 56 0 0.524588
0.324363 -0.915047 6.143460 255 41 0 0.560912
0.301195 -0.928418 6.128190 255 56 0 0.517956
0.321350 -0.909182 6.175220 255 67 0 0.496075
0.348001 -0.903828 6.159240 255 60 0 0.512542
0.306870 -0.907764 6.198970 255 97 0 0.420166
0.292829 -0.906096 6.223180 255 97 0 0.427100
0.266142 -0.906500 6.240300 255 108 0 0.396255
0.292659 -0.897332 6.255200 255 104 0 0.408313
0.315402 -0.920185 6.105590 233 1 0 0.680024
0.339967 -0.902763 6.090850 255 38 0 0.574813
0.353577 -0.891222 6.068620 255 34 0 0.584576
0.375399 -0.881225 6.083080 255 53 0 0.532847
0.362200 -0.891653 6.105450 255 71 0 0.485496
0.348923 -0.900848 6.127940 255 19 0 0.626525
0.397863 -0.884931 6.128280 255 38 0 0.566223
0.385742 -0.892336 6.152590 255 56 0 0.522109
0.373774 -0.899337 6.176730 255 86 0 0.452729
0.398502 -0.875405 6.097110 255 75 0 0.473126
0.373649 -0.899042 6.209380 255 108 0 0.395548
0.360998 -0.898191 6.233660 255 123 0 0.370942
0.346995 -0.898522 6.224560 255 108 0 0.401686
0.348188 -0.895953 6.257810 255 112 0 0.394167
0.334067 -0.896857 6.248890 255 130 0 0.352859
0.320808 -0.893432 6.272680 255 108 0 0.396842
0.335464 -0.894354 6.282050 255 93 0 0.433682
0.319783 -0.898322 6.239840 255 112 0 0.395171
0.306839 -0.894914 6.264090 255 134 0 0.343768
0.347199 -0.901251 6.191730 255 90 0 0.436968
0.148555 -0.824248 6.384100 255 53 0 0.525877
0.174842 -0.829412 6.368490 255 45 0 0.554225
0.187135 -0.840718 6.346290 255 82 0 0.459528
0.212945 -0.853278 6.331740 255 67 0 0.493772
0.186149 -0.861288 6.318610 255 82 0 0.460269
0.214358 -0.837039 6.360930 255 49 0 0.544780
0.240333 -0.850568 6.346360 255 60 0 0.514470
0.202551 -0.826873 6.383640 255 64 0 0.506671
0.189771 -0.820059 6.406940 255 49 0 0.543882
0.199176 -0.875908 6.296480 255 53 0 0.528629
0.225410 -0.884731 6.280520 255 71 0 0.480626
0.239164 -0.899516 6.256980 255 108 0 0.396633
0.265369 -0.889705 6.270900 255 82 0 0.459919
0.252242 -0.877180 6.293960 255 90 0 0.437517
0.239005 -0.863274 6.316350 255 67 0 0.492495
0.322242 -0.886393 6.304780 255 97 0 0.419973
0.309113 -0.877191 6.327170 255 101 0 0.411454
0.294755 -0.876675 6.318750 255 86 0 0.450267
0.296496 -0.869294 6.350090 255 90 0 0.442276
0.281932 -0.866412 6.341250 255 104 0 0.408540
0.269475 -0.856896 6.364280 255 90 0 0.439604
0.283566 -0.861004 6.372760 255 75 0 0.477613
0.266940 -0.863484 6.332380 255 78 0 0.466523
0.254928 -0.853294 6.355320 255 104 0 0.407404
0.280130 -0.874671 6.309620 255 71 0 0.480542
0.292811 -0.884065 6.286550 255 97 0 0.422536
0.307758 -0.885381 6.295750 255 78 0 0.466545
0.270678 -0.851721 6.395700 255 78 0 0.465236
0.257842 -0.843929 6.418710 255 78 0 0.466455
0.244403 -0.836976 6.409890 255 67 0 0.490968
0.244290 -0.839928 6.442980 255 90 0 0.441263
0.231253 -0.830996 6.433530 255 75 0 0.477346
0.217486 -0.825240 6.424220 255 60 0 0.513619
0.230620 -0.831051 6.400480 255 45 0 0.548278
0.242827 -0.840819 6.377550 255 64 0 0.498562
0.256924 -0.845251 6.386500 255 60 0 0.510390
0.534557 -0.382681 5.816390 255 67 0 0.489476
0.556888 -0.379804 5.823920 255 67 0 0.495953
0.550203 -0.412805 5.820510 255 75 0 0.474915
0.578868 -0.377389 5.832040 255 64 0 0.502766
0.572094 -0.410689 5.828490 255 71 0 0.482056
0.594710 -0.408195 5.836180 255 56 0 0.520194
0.600036 -0.376274 5.841530 255 64 0 0.502649
0.566847 -0.442665 5.824560 255 86 0 0.446190
0.589082 -0.440565 5.831770 255 78 0 0.463146
0.584374 -0.471743 5.828640 255 82 0 0.459870
0.563871 -0.473524 5.822450 255 101 0 0.414856
0.546763 -0.444171 5.818230 255 93 0 0.433578
0.543725 -0.474825 5.817440 255 86 0 0.451768
0.527526 -0.445631 5.811720 255 78 0 0.470068
0.530634 -0.414684 5.813850 255 78 0 0.464711
0.511596 -0.416104 5.806820 255 67 0 0.496650
0.524366 -0.476095 5.811440 255 93 0 0.427697
0.508386 -0.447164 5.805510 255 90 0 0.436429
0.505945 -0.476896 5.805350 255 97 0 0.426746
0.515564 -0.383707 5.808750 255 71 0 0.480910
0.619729 -0.376424 5.849890 255 60 0 0.509663
0.640706 -0.375835 5.859720 255 60 0 0.516157
0.634581 -0.408117 5.852710 255 67 0 0.489004
0.661185 -0.375821 5.868430 255 56 0 0.523615
0.655684 -0.407394 5.862000 255 67 0 0.493508
0.649395 -0.439188 5.854740 255 82 0 0.455160
0.645074 -0.468992 5.848940 255 93 0 0.427827
0.629808 -0.438711 5.846930 255 86 0 0.448178
0.625483 -0.469021 5.841580 255 75 0 0.472283
0.609812 -0.439356 5.839250 255 67 0 0.492035
0.615394 -0.407896 5.843860 255 71 0 0.482458
0.604483 -0.470082 5.835600 255 82 0 0.461496
0.622547 -0.564953 5.849600 255 30 0 0.593180
0.599128 -0.593050 5.847240 255 34 0 0.585372
0.609561 -0.535388 5.843840 255 67 0 0.496701
0.585646 -0.565236 5.842130 255 27 0 0.598969
0.572396 -0.535431 5.834520 255 71 0 0.486510
0.563003 -0.591363 5.840620 255 41 0 0.564792
0.595984 -0.504270 5.837600 255 64 0 0.499646
0.616663 -0.502655 5.843100 255 75 0 0.471978
0.637239 -0.501655 5.848540 255 64 0 0.499410
0.629718 -0.533954 5.848740 255 71 0 0.481341
0.548551 -0.565023 5.834430 255 38 0 0.575456
0.527490 -0.588380 5.833540 255 41 0 0.561671
0.533373 -0.536633 5.826510 255 78 0 0.469443
0.513452 -0.563079 5.825820 255 38 0 0.571778
0.499068 -0.535785 5.816240 255 93 0 0.435049
0.492529 -0.585373 5.824490 255 56 0 0.523993
0.519491 -0.507421 5.816130 255 78 0 0.465180
0.538154 -0.506638 5.821820 255 90 0 0.436621
0.557791 -0.506049 5.826040 255 75 0 0.475941
0.552740 -0.536237 5.830350 255 90 0 0.440982
0.503649 -0.610405 5.837340 255 53 0 0.534205
0.514752 -0.634261 5.848130 255 45 0 0.551838
0.539197 -0.613579 5.845140 255 41 0 0.561253
0.550658 -0.637900 5.855170 255 41 0 0.561608
0.525893 -0.657804 5.856070 255 45 0 0.550866
0.536978 -0.681827 5.861060 255 64 0 0.506372
0.503559 -0.677319 5.852640 255 82 0 0.458183
0.492334 -0.654219 5.845750 255 53 0 0.531305
0.481124 -0.630631 5.838020 255 56 0 0.520410
0.470965 -0.673787 5.841430 255 90 0 0.436237
0.574098 -0.617519 5.851170 255 41 0 0.559043
0.584792 -0.643310 5.860550 255 45 0 0.550711
0.609434 -0.620489 5.856800 255 45 0 0.553667
0.578579 -0.666180 5.863920 255 30 0 0.586523
0.571184 -0.688108 5.865100 255 82 0 0.453138
0.539812 -0.747602 5.884680 255 56 0 0.522700
0.550081 -0.727663 5.879130 237 4 0 0.673032
0.518098 -0.719358 5.874570 255 56 0 0.516296
0.508511 -0.739378 5.880630 255 19 0 0.628721
0.544138 -0.703852 5.871100 255 90 0 0.438892
0.577765 -0.711701 5.873720 255 60 0 0.515691
0.478209 -0.734255 5.874580 255 41 0 0.556349
0.485821 -0.713927 5.867830 255 64 0 0.501145
0.455542 -0.710111 5.857910 255 119 0 0.374227
0.447898 -0.729843 5.867220 255 93 0 0.428578
0.478633 -0.693871 5.855150 255 101 0 0.417860
0.511166 -0.697852 5.865310 255 71 0 0.484684
0.608044 -1.018040 6.671300 255 116 0 0.385083
0.620426 -1.013590 6.682730 255 90 0 0.438834
0.617765 -1.025590 6.652620 255 127 0 0.358821
0.629970 -1.021090 6.664250 255 93 0 0.435284
0.639697 -1.028420 6.645730 255 127 0 0.362621
0.627167 -1.032810 6.633850 255 119 0 0.373749
0.642157 -1.018210 6.675950 255 90 0 0.436801
0.651800 -1.025440 6.657560 255 71 0 0.482736
0.664015 -1.023930 6.669540 255 93 0 0.435479
0.648920 -1.013130 6.696180 255 78 0 0.461835
0.627054 -1.007000 6.702670 255 86 0 0.448346
0.646971 -1.046960 6.599290 255 116 0 0.385602
0.655991 -1.039750 6.622540 255 116 0 0.387592
0.659287 -1.055060 6.576330 255 108 0 0.401521
0.667817 -1.048100 6.599680 255 104 0 0.408393
0.680348 -1.055890 6.576540 255 93 0 0.428865
0.671619 -1.062590 6.553130 255 97 0 0.420381
0.677090 -1.042650 6.623130 255 64 0 0.505740
0.689152 -1.050670 6.600000 255 67 0 0.496123
0.697983 -1.046800 6.623120 255 53 0 0.534132
0.681085 -1.035690 6.646670 255 64 0 0.505557
0.744007 -1.009230 6.684810 255 230 0 0.198375
0.721408 -1.012290 6.680020 255 190 0 0.253264
0.729654 -1.001810 6.698660 255 186 0 0.256391
0.702013 -1.015260 6.676530 255 108 0 0.401015
0.708453 -1.004420 6.694100 255 167 0 0.285718
0.688854 -1.007230 6.690260 255 112 0 0.389047
0.715822 -0.993987 6.712160 255 208 0 0.224679
0.683126 -1.019030 6.673150 255 49 0 0.542396
0.700394 -1.030630 6.650130 255 53 0 0.534477
0.719309 -1.026360 6.653130 255 123 0 0.368045
0.693780 -0.995440 6.714070 255 175 0 0.275062
0.704713 -0.987345 6.727990 255 223 0 0.208145
0.673205 -0.996799 6.716500 255 130 0 0.356471
0.682855 -0.988353 6.729800 255 182 0 0.264552
0.661166 -1.004310 6.706350 255 82 0 0.459280
0.759417 -0.993744 6.695420 255 164 0 0.292940
0.739124 -0.983505 6.713030 255 175 0 0.274168
0.722631 -0.973682 6.732460 255 208 0 0.223649
0.742413 -1.021880 6.660280 255 190 0 0.254138
0.741820 -1.034570 6.636120 255 134 0 0.347948
0.719430 -1.040250 6.629560 255 71 0 0.486722
0.719322 -1.054450 6.605770 255 78 0 0.467524
0.741637 -1.047670 6.612330 255 90 0 0.442265
0.741260 -1.061020 6.588260 255 93 0 0.431403
0.758426 -1.039470 6.623870 255 134 0 0.348587
0.759604 -1.027120 6.648470 255 182 0 0.262060
0.762021 -1.014920 6.673820 255 201 0 0.237893
0.779794 -1.020110 6.662030 255 153 0 0.310864
0.706614 -1.054830 6.590780 255 60 0 0.512126
0.697986 -1.059160 6.567590 255 64 0 0.503304
0.716245 -1.062110 6.558670 255 67 0 0.491221
0.689126 -1.064890 6.544190 255 71 0 0.479428
0.707027 -1.067130 6.535260 255 60 0 0.511060
0.697250 -1.073970 6.511910 255 53 0 0.529273
0.679684 -1.072430 6.520770 255 67 0 0.491947
0.725093 -1.069020 6.526190 255 75 0 0.476753
0.714729 -1.075380 6.502860 255 53 0 0.532564
0.732756 -1.076680 6.493760 255 90 0 0.443854
0.738048 -1.066780 6.541080 255 86 0 0.448372
0.728541 -1.060910 6.573490 255 82 0 0.459551
0.784796 -1.078230 6.469970 255 101 0 0.416315
0.785956 -1.073250 6.493050 255 75 0 0.477334
0.775593 -1.069090 6.522600 255 86 0 0.451651
0.775703 -1.066500 6.546050 255 116 0 0.381196
0.764141 -1.063880 6.576130 255 123 0 0.366836
0.786401 -1.065910 6.562760 255 108 0 0.395472
0.752785 -1.064950 6.558470 255 93 0 0.428416
0.748796 -1.071610 6.511530 255 75 0 0.477623
0.758852 -1.077380 6.482090 255 97 0 0.426089
0.792571 -1.055680 6.581810 255 138 0 0.341270
0.790925 -1.044590 6.606760 255 138 0 0.340772
0.798796 -1.034940 6.626950 255 145 0 0.325645
0.780366 -1.031960 6.636580 255 167 0 0.285809
0.761155 -1.051690 6.599790 255 104 0 0.403327
0.868605 -1.063030 6.535070 255 238 0 0.188162
