ply
format ascii 1.0
comment Seamless Cloth Simulation with High Geometric Fidelity 
comment Wed May  8 12:46:52 2019
element vertex 1008
property float x
property float y
property float z
property float quality
property uchar red
property uchar green
property uchar blue
end_header
0.382838 0.0188854 6.25089 0.467181 255 0 255 
0.3982 0.0247523 6.28224 0.494109 255 0 255 
0.372112 0.0271136 6.2678 0.498093 255 0 255 
0.459227 0.00903653 6.29364 0.462184 255 0 255 
0.448643 0.0187535 6.31094 0.490056 255 0 255 
0.470073 -0.00125429 6.27678 0.421814 255 0 255 
0.480672 -0.0113852 6.26044 0.397208 255 0 255 
0.455363 -0.00722254 6.24694 0.387265 255 0 255 
0.466 -0.0161657 6.23082 0.429253 255 0 255 
0.491207 -0.0204535 6.244 0.449096 255 0 255 
0.439643 -0.0126417 6.21698 0.434418 255 0 255 
0.359161 0.0319692 6.28673 0.500571 255 0 255 
0.384745 0.0305458 6.30082 0.496718 255 0 255 
0.371354 0.0347771 6.32093 0.498407 255 0 255 
0.345665 0.0356152 6.30674 0.502797 255 0 255 
0.396915 0.0333517 6.33495 0.490866 255 0 255 
0.35774 0.0382368 6.34153 0.499194 255 0 255 
0.383481 0.037308 6.35544 0.489552 255 0 255 
0.331496 0.038647 6.3276 0.504914 255 0 255 
0.408186 0.0357949 6.36903 0.479786 255 0 255 
0.422152 0.0311589 6.34891 0.484744 255 0 255 
0.435491 0.0256646 6.32955 0.488383 255 0 255 
0.410683 0.0282595 6.31525 0.490805 255 0 255 
0.0134939 -0.813557 6.6366 0.572135 255 0 255 
0.0124274 -0.796241 6.66499 0.499351 255 0 255 
0.0378776 -0.809153 6.64586 0.511733 255 0 255 
0.0132237 -0.77694 6.68968 0.468517 255 0 255 
0.0381692 -0.791748 6.6724 0.456214 255 0 255 
0.0399397 -0.771854 6.69648 0.478511 255 0 255 
0.063077 -0.806804 6.65451 0.454563 255 0 255 
0.0155225 -0.755741 6.71291 0.468222 255 0 255 
0.0177441 -0.734077 6.73682 0.477036 255 0 255 
-0.00864964 -0.738547 6.72976 0.468982 255 0 255 
-0.0108897 -0.760535 6.70678 0.465726 255 0 255 
-0.0124686 -0.781548 6.68345 0.459196 255 0 255 
-0.0346369 -0.743581 6.72385 0.472871 255 0 255 
0.0761953 -0.807669 6.65988 0.434553 255 0 255 
0.0644074 -0.790426 6.68053 0.440628 255 0 255 
0.0782183 -0.791615 6.68546 0.432904 255 0 255 
0.0894426 -0.809119 6.66519 0.422262 255 0 255 
0.0671711 -0.773557 6.70621 0.473681 255 0 255 
0.0919048 -0.792863 6.69123 0.430508 255 0 255 
0.0813353 -0.773891 6.71174 0.474483 255 0 255 
0.102867 -0.811646 6.67056 0.459467 255 0 255 
0.0700412 -0.754613 6.7324 0.488494 255 0 255 
0.0448745 -0.734289 6.74739 0.500118 255 0 255 
0.0425075 -0.753406 6.72171 0.486816 255 0 255 
0.0181121 -0.65524 6.78673 0.49599 255 0 255 
0.0253401 -0.682667 6.77594 0.47883 255 0 255 
-0.000506241 -0.683155 6.76633 0.483169 255 0 255 
-0.00725697 -0.655921 6.77798 0.505627 255 0 255 
0.0210143 -0.709426 6.75713 0.490793 255 0 255 
-0.0322131 -0.660228 6.7715 0.521118 255 0 255 
-0.0258981 -0.687901 6.75917 0.495106 255 0 255 
-0.0502935 -0.691472 6.75266 0.510988 255 0 255 
-0.0559331 -0.663479 6.7648 0.53911 255 0 255 
-0.0308351 -0.716058 6.74173 0.485108 255 0 255 
-0.00487683 -0.711319 6.74813 0.482476 255 0 255 
0.129912 -0.816974 6.40407 0.437874 255 0 255 
0.130161 -0.811318 6.43661 0.492394 255 0 255 
0.156621 -0.812084 6.41876 0.549072 255 0 255 
0.128438 -0.813013 6.47099 0.532449 255 0 255 
0.15591 -0.810386 6.4522 0.578815 255 0 255 
0.153136 -0.814624 6.48687 0.588516 255 0 255 
0.182955 -0.81327 6.43466 0.581608 255 0 255 
0.125355 -0.816209 6.506 0.569229 255 0 255 
0.12113 -0.823575 6.5423 0.539096 255 0 255 
0.0971141 -0.821707 6.52803 0.589401 255 0 255 
0.100716 -0.816269 6.49169 0.563331 255 0 255 
0.10312 -0.814106 6.45647 0.498201 255 0 255 
0.0727998 -0.822562 6.51421 0.592006 255 0 255 
0.197249 -0.816406 6.44369 0.550663 255 0 255 
0.181774 -0.816886 6.46912 0.610395 255 0 255 
0.195235 -0.821632 6.47848 0.52683 255 0 255 
0.210768 -0.8216 6.45303 0.47281 255 0 255 
0.178534 -0.824625 6.50474 0.56895 255 0 255 
0.207662 -0.829312 6.48808 0.49144 255 0 255 
0.191221 -0.831339 6.51427 0.524117 255 0 255 
0.223347 -0.829784 6.46241 0.460033 255 0 255 
0.174124 -0.834859 6.54097 0.544938 255 0 255 
0.15747 -0.838573 6.56826 0.482979 255 0 255 
0.161573 -0.829379 6.53184 0.513384 255 0 255 
0.144985 -0.833383 6.55946 0.505016 255 0 255 
0.149432 -0.823639 6.52283 0.570522 255 0 255 
0.166012 -0.82027 6.49593 0.556837 255 0 255 
0.133334 -0.827903 6.55089 0.463903 255 0 255 
0.114829 -0.823032 6.64623 0.439864 255 0 255 
0.10159 -0.81984 6.63984 0.457748 255 0 255 
0.114924 -0.82863 6.61386 0.454008 255 0 255 
0.0889333 -0.817681 6.63422 0.411862 255 0 255 
0.102734 -0.824156 6.60689 0.47986 255 0 255 
0.0903233 -0.821211 6.59979 0.458645 255 0 255 
0.0760358 -0.816009 6.62851 0.454274 255 0 255 
0.117841 -0.827341 6.57824 0.473295 255 0 255 
0.105384 -0.824138 6.57128 0.550322 255 0 255 
0.129562 -0.832039 6.58617 0.439352 255 0 255 
0.141901 -0.83686 6.5946 0.480782 255 0 255 
0.127432 -0.831819 6.62094 0.433874 255 0 255 
0.0519173 -0.817036 6.61726 0.514342 255 0 255 
0.0668652 -0.822009 6.58773 0.518785 255 0 255 
0.0426413 -0.824451 6.57631 0.556332 255 0 255 
0.0276952 -0.820168 6.60686 0.561174 255 0 255 
0.0697189 -0.823643 6.55086 0.580267 255 0 255 
0.0546304 -0.0785297 6.69174 0.440048 255 0 255 
0.0723877 -0.0823366 6.70105 0.437381 255 0 255 
0.0554936 -0.0924988 6.72269 0.43859 255 0 255 
0.0380086 -0.0886935 6.71307 0.408594 255 0 255 
0.0734088 -0.0970675 6.7317 0.411105 255 0 255 
0.039393 -0.103418 6.74374 0.38816 255 0 255 
0.058104 -0.107946 6.75179 0.406659 255 0 255 
0.0423525 -0.118668 6.77216 0.364418 255 0 255 
0.0223725 -0.100134 6.73353 0.381383 255 0 255 
0.0243884 -0.116315 6.76276 0.386524 255 0 255 
0.00665084 -0.113521 6.75314 0.352359 255 0 255 
0.0765024 -0.112772 6.76023 0.37057 255 0 255 
0.0604504 -0.123434 6.78013 0.38453 255 0 255 
0.0785849 -0.128547 6.78823 0.341983 255 0 255 
0.0969944 -0.118221 6.76837 0.380751 255 0 255 
0.0943502 -0.102261 6.73997 0.421935 255 0 255 
0.114948 -0.105587 6.74942 0.42877 255 0 255 
0.112902 -0.0885181 6.72051 0.456973 255 0 255 
0.0923159 -0.0855259 6.71054 0.448304 255 0 255 
0.133686 -0.0911219 6.72957 0.463877 255 0 255 
-0.00424663 -0.136259 6.7656 0.420449 255 0 255 
0.0014794 -0.160452 6.78553 0.488922 255 0 255 
-0.0044862 -0.185184 6.79081 0.560206 255 0 255 
0.00339671 -0.208622 6.80669 0.601445 255 0 255 
-0.0221868 -0.212004 6.78285 0.503444 255 0 255 
0.0230395 -0.184206 6.81324 0.563278 255 0 255 
0.0293785 -0.207247 6.82949 0.546555 255 0 255 
0.0383109 -0.1847 6.82474 0.487534 255 0 255 
0.032742 -0.161552 6.80661 0.483183 255 0 255 
0.0498438 -0.163242 6.81584 0.370584 255 0 255 
0.0458817 -0.140715 6.79546 0.374173 255 0 255 
0.0282507 -0.137935 6.78624 0.438932 255 0 255 
0.0637837 -0.145062 6.8038 0.39088 255 0 255 
0.0857254 -0.191899 6.85117 0.493038 255 0 255 
0.101817 -0.175033 6.84021 0.332992 255 0 255 
0.0831762 -0.171062 6.83205 0.408965 255 0 255 
0.118517 -0.15853 6.82664 0.355456 255 0 255 
0.0998223 -0.154606 6.81902 0.358278 255 0 255 
0.11638 -0.137696 6.80453 0.373028 255 0 255 
0.135843 -0.141438 6.8129 0.388007 255 0 255 
0.0975174 -0.133197 6.79628 0.345678 255 0 255 
0.0577321 -0.208792 6.85072 0.52135 255 0 255 
0.152025 -0.127305 6.79709 0.404047 255 0 255 
0.170888 -0.111475 6.77981 0.44861 255 0 255 
0.151525 -0.11018 6.76933 0.440584 255 0 255 
0.189656 -0.0943383 6.76044 0.500282 255 0 255 
0.170607 -0.093446 6.75063 0.493926 255 0 255 
0.151394 -0.0930401 6.74001 0.486312 255 0 255 
0.133443 -0.108684 6.75928 0.45466 255 0 255 
0.115184 -0.122316 6.77781 0.406403 255 0 255 
0.134397 -0.125013 6.7871 0.428067 255 0 255 
-0.0235242 -0.240632 6.78228 0.74005 255 0 255 
-0.0132239 -0.267075 6.79242 0.536844 255 0 255 
-0.0163122 -0.292317 6.79251 0.443449 255 0 255 
-0.00966849 -0.3157 6.80373 0.524877 255 0 255 
-0.0361637 -0.316687 6.78774 0.407089 255 0 255 
0.00738823 -0.290799 6.81305 0.513319 255 0 255 
0.0144395 -0.314247 6.82326 0.50929 255 0 255 
0.0110212 -0.264573 6.8144 0.560982 255 0 255 
0.0135245 -0.236081 6.81673 0.674745 255 0 255 
-0.0413489 -0.340228 6.79042 0.589863 255 0 255 
-0.0335879 -0.363203 6.79951 0.482704 255 0 255 
-0.0401699 -0.385536 6.80294 0.463325 255 0 255 
-0.0149751 -0.384712 6.81536 0.368184 255 0 255 
-0.00711537 -0.362863 6.81284 0.504071 255 0 255 
-0.000881751 -0.339818 6.81149 0.573735 255 0 255 
0.0276142 -0.381593 6.85544 0.430517 255 0 255 
0.0253956 -0.360185 6.84307 0.515823 255 0 255 
0.0410221 -0.334387 6.85701 0.537926 255 0 255 
0.0353018 -0.311158 6.84766 0.527079 255 0 255 
0.0219356 -0.337787 6.83187 0.550302 255 0 255 
0.00747254 -0.383135 6.83328 0.402041 255 0 255 
0.0514387 -0.28669 6.86018 0.526869 255 0 255 
0.0455542 -0.262952 6.84923 0.531871 255 0 255 
0.0641573 -0.235943 6.8619 0.540304 255 0 255 
0.0379882 -0.235954 6.83942 0.583411 255 0 255 
0.0300035 -0.288798 6.83638 0.532532 255 0 255 
0.577518 -1.00551 6.6939 0.405456 255 0 255 
0.583538 -1.00141 6.71513 0.47689 255 0 255 
0.597477 -1.00206 6.72157 0.444153 255 0 255 
0.60242 -1.00109 6.74272 0.472453 255 0 255 
0.61933 -1.00731 6.71381 0.435304 255 0 255 
0.58038 -0.995663 6.75096 0.536234 255 0 255 
0.58552 -0.993829 6.77192 0.589646 255 0 255 
0.568458 -0.990589 6.77015 0.578289 255 0 255 
0.562736 -0.993632 6.74945 0.505011 255 0 255 
0.550829 -0.988618 6.76859 0.430257 255 0 255 
0.544813 -0.993158 6.74815 0.405056 255 0 255 
0.55673 -0.998002 6.72837 0.433461 255 0 255 
0.532662 -0.988239 6.76726 0.415355 255 0 255 
0.633269 -1.00228 6.71855 0.471418 255 0 255 
0.641441 -0.996924 6.73245 0.390541 255 0 255 
0.655081 -0.994075 6.73729 0.247917 255 0 255 
0.66503 -0.989668 6.7519 0.201561 255 0 255 
0.674221 -0.993231 6.73361 0.169027 255 0 255 
0.645925 -0.990391 6.75587 0.323482 255 0 255 
0.656326 -0.985635 6.77053 0.265875 255 0 255 
0.62852 -0.99169 6.75596 0.331732 255 0 255 
0.611581 -0.993715 6.75665 0.495301 255 0 255 
0.643327 -0.980315 6.80977 0.268904 255 0 255 
0.621028 -0.980163 6.81325 0.357392 255 0 255 
0.606957 -0.983091 6.80372 0.472012 255 0 255 
0.586538 -0.984066 6.80879 0.528899 255 0 255 
0.572074 -0.989277 6.8 0.581025 255 0 255 
0.558055 -0.983316 6.82737 0.607467 255 0 255 
0.599645 -0.989127 6.78077 0.510382 255 0 255 
0.617007 -0.986881 6.77994 0.405521 255 0 255 
0.634103 -0.985395 6.77949 0.384267 255 0 255 
0.649774 -0.983253 6.79015 0.263015 255 0 255 
0.533502 -0.975106 6.83493 0.549604 255 0 255 
0.548528 -0.982844 6.81187 0.558338 255 0 255 
0.523062 -0.976167 6.81983 0.458282 255 0 255 
0.508045 -0.968292 6.84282 0.481844 255 0 255 
0.537989 -0.983481 6.79672 0.472529 255 0 255 
0.496693 -0.970869 6.8277 0.458769 255 0 255 
0.51163 -0.978242 6.80467 0.450969 255 0 255 
0.482098 -0.963328 6.85086 0.485196 255 0 255 
0.665603 -0.971114 6.80131 0.268959 255 0 255 
0.671239 -0.973762 6.78109 0.241216 255 0 255 
0.681523 -0.977992 6.75557 0.238079 255 0 255 
0.690184 -0.981473 6.73695 0.200879 255 0 255 
0.617181 -0.975827 6.83668 0.330242 255 0 255 
0.641705 -0.976885 6.8303 0.278431 255 0 255 
0.594889 -0.975146 6.84429 0.427682 255 0 255 
0.591678 -0.970924 6.86388 0.359411 255 0 255 
0.615196 -0.971693 6.85736 0.343072 255 0 255 
0.640315 -0.972813 6.8515 0.281445 255 0 255 
0.57109 -0.972654 6.86202 0.452719 255 0 255 
0.547666 -0.971012 6.87998 0.486562 255 0 255 
0.552929 -0.977463 6.85362 0.565623 255 0 255 
0.576769 -0.978628 6.83581 0.521151 255 0 255 
0.616639 -0.967082 6.87956 0.308326 255 0 255 
0.592794 -0.96528 6.88862 0.333051 255 0 255 
0.593187 -0.960531 6.90774 0.267995 255 0 255 
0.570091 -0.961547 6.90736 0.350245 255 0 255 
0.547502 -0.958099 6.92606 0.344911 255 0 255 
0.547414 -0.964978 6.90249 0.41248 255 0 255 
0.569249 -0.967773 6.88308 0.390142 255 0 255 
0.468399 -0.918992 6.98071 0.492594 255 0 255 
0.488864 -0.931456 6.95618 0.457886 255 0 255 
0.465668 -0.92884 6.95541 0.51363 255 0 255 
0.508231 -0.944237 6.93087 0.451975 255 0 255 
0.486061 -0.940028 6.93084 0.510187 255 0 255 
0.505997 -0.951958 6.90554 0.505902 255 0 255 
0.461577 -0.93785 6.92992 0.597849 255 0 255 
0.528151 -0.957594 6.9054 0.446769 255 0 255 
0.527498 -0.950326 6.92785 0.391205 255 0 255 
0.508108 -0.936169 6.9533 0.419571 255 0 255 
0.46071 -0.943528 6.91231 0.603968 255 0 255 
0.48616 -0.948157 6.9048 0.567944 255 0 255 
0.485159 -0.953297 6.88695 0.55923 255 0 255 
0.458618 -0.949124 6.89419 0.592192 255 0 255 
0.509934 -0.959154 6.87904 0.549776 255 0 255 
0.48409 -0.958417 6.86897 0.553287 255 0 255 
0.509277 -0.963645 6.86104 0.560067 255 0 255 
0.456831 -0.954724 6.87624 0.566919 255 0 255 
0.534025 -0.970993 6.85306 0.552378 255 0 255 
0.52921 -0.964313 6.87932 0.517355 255 0 255 
0.513351 -0.869969 7.07293 0.346933 255 0 255 
0.526753 -0.886114 7.05375 0.303896 255 0 255 
0.503869 -0.878439 7.05765 0.335173 255 0 255 
0.51708 -0.893681 7.03825 0.308296 255 0 255 
0.535073 -0.905795 7.02634 0.285236 255 0 255 
0.495266 -0.886182 7.04396 0.350995 255 0 255 
0.548567 -0.92161 7.00669 0.280912 255 0 255 
0.411499 -0.703396 7.13014 0.544528 255 0 255 
0.415756 -0.738246 7.11458 0.578095 255 0 255 
0.399425 -0.711797 7.1196 0.56166 255 0 255 
0.403697 -0.746584 7.10347 0.588306 255 0 255 
0.420188 -0.774068 7.09742 0.590779 255 0 255 
0.424328 -0.809631 7.07862 0.60858 255 0 255 
0.43459 -0.800343 7.09053 0.582859 255 0 255 
0.430385 -0.763834 7.10895 0.567696 255 0 255 
0.425908 -0.727626 7.12558 0.509143 255 0 255 
0.44376 -0.790417 7.10266 0.560321 255 0 255 
0.387784 -0.722296 7.10705 0.673195 255 0 255 
0.393498 -0.758676 7.08824 0.677757 255 0 255 
0.374948 -0.732276 7.09292 0.65746 255 0 255 
0.380586 -0.768105 7.07344 0.717543 255 0 255 
0.399273 -0.795025 7.06783 0.723468 255 0 255 
0.404423 -0.831069 7.04604 0.678428 255 0 255 
0.41486 -0.820272 7.06251 0.662598 255 0 255 
0.409659 -0.783759 7.08381 0.620168 255 0 255 
0.45756 -0.892372 7.00588 0.521345 255 0 255 
0.474018 -0.910364 6.99798 0.468602 255 0 255 
0.446662 -0.86527 7.03093 0.556028 255 0 255 
0.463545 -0.883021 7.023 0.496572 255 0 255 
0.452881 -0.85523 7.04779 0.524837 255 0 255 
0.479397 -0.901766 7.01531 0.437032 255 0 255 
0.435619 -0.837597 7.05511 0.608063 255 0 255 
0.426253 -0.847436 7.03877 0.626862 255 0 255 
0.437474 -0.874132 7.01417 0.575442 255 0 255 
0.471047 -0.87473 7.03819 0.464042 255 0 255 
0.487044 -0.89401 7.02904 0.402386 255 0 255 
0.462428 -0.847112 7.06065 0.497545 255 0 255 
0.478458 -0.865947 7.05189 0.42115 255 0 255 
0.469702 -0.837653 7.07391 0.456789 255 0 255 
0.453701 -0.819024 7.08245 0.542028 255 0 255 
0.443937 -0.827967 7.06958 0.565119 255 0 255 
0.509952 -0.900772 7.0238 0.312325 255 0 255 
0.524677 -0.915872 7.00347 0.325791 255 0 255 
0.501675 -0.907941 7.00884 0.355461 255 0 255 
0.51672 -0.921867 6.98881 0.354606 255 0 255 
0.540002 -0.930944 6.98335 0.30649 255 0 255 
0.555322 -0.946145 6.96277 0.305674 255 0 255 
0.560864 -0.940361 6.97832 0.300911 255 0 255 
0.496397 -0.915333 6.99323 0.397565 255 0 255 
0.513632 -0.92923 6.97133 0.388871 255 0 255 
0.49144 -0.923084 6.97602 0.433009 255 0 255 
0.530522 -0.94351 6.94891 0.358757 255 0 255 
0.551141 -0.95215 6.94426 0.303471 255 0 255 
0.533985 -0.936881 6.96666 0.320472 255 0 255 
0.598324 -0.955247 6.92703 0.281697 255 0 255 
0.576475 -0.950412 6.94493 0.303369 255 0 255 
0.572131 -0.956135 6.92603 0.277574 255 0 255 
0.328034 -0.775362 7.01994 0.611471 255 0 255 
0.342037 -0.805626 7.00053 0.556924 255 0 255 
0.347879 -0.801046 7.01194 0.632792 255 0 255 
0.356953 -0.835245 6.98137 0.519979 255 0 255 
0.362137 -0.831509 6.9933 0.593626 255 0 255 
0.376743 -0.861717 6.97407 0.608325 255 0 255 
0.371822 -0.865085 6.96244 0.529448 255 0 255 
0.36756 -0.827755 7.00538 0.623679 255 0 255 
0.381407 -0.858516 6.98612 0.592674 255 0 255 
0.385978 -0.855245 6.99822 0.703265 255 0 255 
0.359046 -0.793688 7.03207 0.643442 255 0 255 
0.339563 -0.766806 7.03858 0.636836 255 0 255 
0.392513 -0.883206 6.9456 0.631235 255 0 255 
0.415307 -0.906641 6.92307 0.650217 255 0 255 
0.417097 -0.899749 6.9405 0.682437 255 0 255 
0.43686 -0.930446 6.89998 0.604562 255 0 255 
0.43852 -0.924228 6.91757 0.647446 255 0 255 
0.440372 -0.918196 6.93524 0.643675 255 0 255 
0.444011 -0.916824 6.94734 0.591464 255 0 255 
0.421203 -0.898027 6.95254 0.644236 255 0 255 
0.42512 -0.896004 6.96459 0.593273 255 0 255 
0.401358 -0.877985 6.9692 0.675615 255 0 255 
0.396966 -0.880405 6.95721 0.59136 255 0 255 
0.405906 -0.875551 6.98161 0.677252 255 0 255 
0.450335 -0.901466 6.98575 0.544485 255 0 255 
0.430285 -0.884856 6.99037 0.594901 255 0 255 
0.4174 -0.858244 7.01874 0.641253 255 0 255 
0.395392 -0.843295 7.02209 0.688662 255 0 255 
0.387596 -0.804708 7.05103 0.695096 255 0 255 
0.369245 -0.779403 7.05489 0.717023 255 0 255 
0.362563 -0.743178 7.07714 0.716999 255 0 255 
0.3508 -0.755314 7.0593 0.65981 255 0 255 
0.378141 -0.818144 7.02766 0.698378 255 0 255 
0.487379 -0.858193 7.06535 0.369894 255 0 255 
0.480187 -0.829931 7.08652 0.404729 255 0 255 
0.496472 -0.849083 7.0796 0.342732 255 0 255 
0.489004 -0.819584 7.10045 0.32753 255 0 255 
0.472174 -0.800463 7.10667 0.423761 255 0 255 
0.464634 -0.77207 7.12593 0.421225 255 0 255 
0.453607 -0.78136 7.11336 0.500615 255 0 255 
0.461498 -0.809449 7.09407 0.500952 255 0 255 
0.506771 -0.841146 7.09399 0.343449 255 0 255 
0.488454 -0.788422 7.1268 0.360068 255 0 255 
0.476608 -0.764194 7.1389 0.321287 255 0 255 
0.460453 -0.671789 7.17453 0.279011 255 0 255 
0.461766 -0.704525 7.15945 0.321531 255 0 255 
0.447819 -0.678937 7.16226 0.359764 255 0 255 
0.449415 -0.711166 7.14722 0.432811 255 0 255 
0.463691 -0.73829 7.14341 0.38305 255 0 255 
0.475327 -0.729322 7.15615 0.288947 255 0 255 
0.435384 -0.687132 7.15077 0.473775 255 0 255 
0.437002 -0.720491 7.13515 0.519857 255 0 255 
0.42243 -0.694293 7.13993 0.510341 255 0 255 
0.440437 -0.754914 7.11971 0.515783 255 0 255 
0.45085 -0.745697 7.13054 0.484129 255 0 255 
-1.05352 -0.127746 6.26621 0.240784 255 0 255 
-1.03903 -0.12499 6.28156 0.256182 255 0 255 
-1.05922 -0.131343 6.28681 0.277078 255 0 255 
-1.02465 -0.123078 6.29614 0.341692 255 0 255 
-1.04515 -0.127784 6.30199 0.341057 255 0 255 
-1.03089 -0.125732 6.31614 0.420523 255 0 255 
-1.06507 -0.13226 6.3077 0.310172 255 0 255 
-1.01032 -0.121036 6.30973 0.29874 255 0 255 
-0.997051 -0.119267 6.32313 0.43361 255 0 255 
-0.985974 -0.111397 6.29612 0.344303 255 0 255 
-1.00078 -0.113583 6.28253 0.318686 255 0 255 
-1.05154 -0.131213 6.33182 0.33701 255 0 255 
-1.03701 -0.128801 6.345 0.368372 255 0 255 
-1.0699 -0.133748 6.33938 0.293818 255 0 255 
-1.02273 -0.12702 6.35837 0.412919 255 0 255 
-1.00324 -0.124319 6.3505 0.48196 255 0 255 
-0.938646 -0.124694 6.37478 0.366693 255 0 255 
-0.952587 -0.123997 6.36187 0.451058 255 0 255 
-0.967047 -0.12268 6.3488 0.420036 255 0 255 
-0.929766 -0.117634 6.35192 0.393323 255 0 255 
-0.944419 -0.1171 6.33842 0.361801 255 0 255 
-0.981783 -0.121227 6.33612 0.385544 255 0 255 
-0.989091 -0.125604 6.36381 0.434751 255 0 255 
-0.919214 -0.109298 6.32999 0.291219 255 0 255 
-0.954631 -0.112469 6.31543 0.452505 255 0 255 
-0.932365 -0.10737 6.31595 0.374735 255 0 255 
-0.964383 -0.107118 6.29442 0.28256 255 0 255 
-0.658865 -0.240922 6.47193 0.54634 255 0 255 
-0.653206 -0.262656 6.48571 0.580175 255 0 255 
-0.646058 -0.287465 6.50244 0.536796 255 0 255 
-0.674648 -0.24106 6.47646 0.481601 255 0 255 
-0.636447 -0.316615 6.52306 0.628164 255 0 255 
-0.627016 -0.349374 6.54535 0.622067 255 0 255 
-0.670869 -0.26146 6.49021 0.48324 255 0 255 
-0.662574 -0.285878 6.50581 0.582506 255 0 255 
-0.639826 -0.449075 6.59562 0.299207 255 0 255 
-0.629914 -0.427262 6.58673 0.36706 255 0 255 
-0.623959 -0.404096 6.57578 0.430188 255 0 255 
-0.623882 -0.377827 6.56241 0.446089 255 0 255 
-0.626681 -0.457862 6.59635 0.39889 255 0 255 
-0.613791 -0.434541 6.58719 0.43133 255 0 255 
-0.605778 -0.40949 6.57538 0.534557 255 0 255 
-0.60284 -0.38167 6.56116 0.624808 255 0 255 
-0.643623 -0.344569 6.54793 0.60494 255 0 255 
-0.641293 -0.371354 6.56549 0.435686 255 0 255 
-0.654941 -0.314341 6.52736 0.489771 255 0 255 
-0.692138 -0.239729 6.48405 0.402727 255 0 255 
-0.687249 -0.258543 6.4964 0.538638 255 0 255 
-0.706815 -0.235718 6.49376 0.467081 255 0 255 
-0.680875 -0.279008 6.51331 0.540991 255 0 255 
-0.668286 -0.305975 6.53207 0.495336 255 0 255 
-0.64287 -0.394438 6.58193 0.443292 255 0 255 
-0.644753 -0.416522 6.59251 0.368729 255 0 255 
-0.6489 -0.437776 6.60139 0.302325 255 0 255 
-0.633422 -0.484566 6.59791 0.452551 255 0 255 
-0.653921 -0.504406 6.59624 0.344855 255 0 255 
-0.674818 -0.523922 6.59257 0.38949 255 0 255 
-0.697279 -0.5427 6.5885 0.424632 255 0 255 
-0.686744 -0.557416 6.59059 0.403167 255 0 255 
-0.666201 -0.537515 6.59499 0.514358 255 0 255 
-0.647108 -0.474166 6.59574 0.271851 255 0 255 
-0.666804 -0.491658 6.59363 0.292135 255 0 255 
-0.686286 -0.509288 6.59114 0.305033 255 0 255 
-0.779364 -0.595753 6.56517 0.264523 255 0 255 
-0.761151 -0.58209 6.56898 0.328456 255 0 255 
-0.740824 -0.568653 6.57377 0.372478 255 0 255 
-0.770279 -0.613552 6.56388 0.352715 255 0 255 
-0.719239 -0.555677 6.58047 0.311971 255 0 255 
-0.750872 -0.600473 6.56812 0.305942 255 0 255 
-0.729797 -0.587499 6.57475 0.363343 255 0 255 
-0.7571 -0.633442 6.56188 0.400429 255 0 255 
-0.73861 -0.620215 6.5666 0.372525 255 0 255 
-0.706569 -0.574757 6.58214 0.437972 255 0 255 
-0.788369 -0.561775 6.57731 0.289097 255 0 255 
-0.770644 -0.549917 6.57881 0.348273 255 0 255 
-0.750991 -0.538223 6.58159 0.32828 255 0 255 
-0.785177 -0.578308 6.56937 0.247558 255 0 255 
-0.729626 -0.527734 6.58619 0.452095 255 0 255 
-0.708042 -0.516183 6.59199 0.345263 255 0 255 
-0.659424 -0.462551 6.59762 0.250402 255 0 255 
-0.676975 -0.473403 6.59955 0.240084 255 0 255 
-0.692667 -0.489165 6.59943 0.260089 255 0 255 
-0.933086 -0.622411 6.53824 0.404949 255 0 255 
-0.913824 -0.620783 6.54082 0.269678 255 0 255 
-0.895099 -0.619968 6.54383 0.326437 255 0 255 
-0.930893 -0.640922 6.52612 0.341171 255 0 255 
-0.911686 -0.639607 6.52903 0.320669 255 0 255 
-0.876173 -0.619028 6.54656 0.308455 255 0 255 
-0.857135 -0.618605 6.54934 0.333506 255 0 255 
-0.862492 -0.597857 6.55952 0.324113 255 0 255 
-0.927198 -0.65886 6.51515 0.309198 255 0 255 
-0.890045 -0.643005 6.53173 0.282428 255 0 255 
-0.906796 -0.656876 6.52021 0.311945 255 0 255 
-0.869846 -0.641431 6.53691 0.323459 255 0 255 
-0.849467 -0.639494 6.54225 0.260927 255 0 255 
-0.799298 -0.601385 6.55991 0.326035 255 0 255 
-0.819235 -0.606743 6.55586 0.383342 255 0 255 
-0.838558 -0.612373 6.55256 0.374361 255 0 255 
-0.805724 -0.583163 6.56592 0.240941 255 0 255 
-0.825038 -0.587907 6.5631 0.313574 255 0 255 
-0.843798 -0.592672 6.56104 0.346899 255 0 255 
-0.810075 -0.627459 6.5496 0.408399 255 0 255 
-0.829798 -0.633312 6.54574 0.357646 255 0 255 
-0.841382 -0.655534 6.53716 0.330088 255 0 255 
-0.790334 -0.620511 6.55568 0.368493 255 0 255 
-0.883948 -0.660341 6.52248 0.295919 255 0 255 
-0.899694 -0.673488 6.51022 0.287133 255 0 255 
-0.918755 -0.681329 6.50111 0.331423 255 0 255 
-0.875867 -0.675546 6.51502 0.315597 255 0 255 
-0.860122 -0.663052 6.52719 0.353862 255 0 255 
-0.892459 -0.717386 6.47368 0.394448 255 0 255 
-0.873664 -0.70989 6.48703 0.376664 255 0 255 
-0.860173 -0.696008 6.50274 0.358765 255 0 255 
-0.841516 -0.688556 6.51459 0.385556 255 0 255 
-0.828162 -0.674973 6.52931 0.364869 255 0 255 
-0.817851 -0.688143 6.52384 0.354586 255 0 255 
-0.889071 -0.69097 6.5003 0.329205 255 0 255 
-0.903545 -0.705176 6.48426 0.341539 255 0 255 
-0.800873 -0.675771 6.53271 0.383831 255 0 255 
-0.789751 -0.657062 6.54326 0.443979 255 0 255 
-0.774121 -0.644628 6.55223 0.440973 255 0 255 
-0.816212 -0.655651 6.53949 0.393732 255 0 255 
-1.11085 -0.453818 6.59747 0.3789 255 0 255 
-1.11121 -0.475299 6.57516 0.402662 255 0 255 
-1.1124 -0.499455 6.55318 0.454479 255 0 255 
-1.12866 -0.474418 6.55695 0.42097 255 0 255 
-1.09521 -0.500305 6.57103 0.510267 255 0 255 
-1.08098 -0.500596 6.58687 0.562068 255 0 255 
-1.09618 -0.476272 6.59247 0.473596 255 0 255 
-1.08261 -0.477379 6.60837 0.418867 255 0 255 
-1.14042 -0.489305 6.53295 0.431924 255 0 255 
-1.12003 -0.515217 6.53376 0.45441 255 0 255 
-1.13867 -0.513501 6.51725 0.380819 255 0 255 
-1.15828 -0.512245 6.49992 0.340487 255 0 255 
-1.118 -0.539857 6.51857 0.371832 255 0 255 
-1.10095 -0.54129 6.53396 0.459772 255 0 255 
-1.09356 -0.525474 6.55281 0.538604 255 0 255 
-1.04584 -0.573501 6.54564 0.44835 255 0 255 
-1.05477 -0.551997 6.55841 0.377905 255 0 255 
-1.06421 -0.529934 6.57063 0.486657 255 0 255 
-1.04015 -0.550007 6.57017 0.492023 255 0 255 
-1.07097 -0.553751 6.54448 0.461318 255 0 255 
-1.0358 -0.533816 6.58925 0.531841 255 0 255 
-1.05593 -0.513404 6.59467 0.463057 255 0 255 
-1.04233 -0.511391 6.60908 0.446597 255 0 255 
-1.02973 -0.510158 6.62305 0.330388 255 0 255 
-1.06254 -0.491621 6.61443 0.426357 255 0 255 
-0.791326 -0.13067 6.40318 0.350833 255 0 255 
-0.805123 -0.125424 6.39362 0.281094 255 0 255 
-0.824012 -0.123678 6.38782 0.337009 255 0 255 
-0.837708 -0.117295 6.37604 0.409901 255 0 255 
-0.856671 -0.113114 6.36907 0.396167 255 0 255 
-0.851465 -0.127586 6.38921 0.372401 255 0 255 
-0.83819 -0.132989 6.39936 0.343779 255 0 255 
-0.819718 -0.134726 6.40523 0.349492 255 0 255 
-0.806288 -0.138003 6.41459 0.345483 255 0 255 
-0.863224 -0.104452 6.34988 0.337005 255 0 255 
-0.882798 -0.109138 6.34488 0.264228 255 0 255 
-0.898829 -0.107567 6.33437 0.359937 255 0 255 
-0.895444 -0.1197 6.36131 0.298768 255 0 255 
-0.875909 -0.117747 6.36447 0.332886 255 0 255 
-0.904373 -0.127124 6.38166 0.312396 255 0 255 
-0.872399 -0.125564 6.38981 0.351223 255 0 255 
-0.916454 -0.12302 6.36744 0.27438 255 0 255 
-0.866801 -0.134568 6.40997 0.393598 255 0 255 
-0.849769 -0.138742 6.41431 0.348731 255 0 255 
-0.836736 -0.141913 6.42282 0.378728 255 0 255 
-0.823323 -0.144195 6.43069 0.293984 255 0 255 
-0.670371 -0.221236 6.45721 0.528396 255 0 255 
-0.685748 -0.204344 6.44698 0.51263 255 0 255 
-0.696389 -0.187579 6.43468 0.504708 255 0 255 
-0.710757 -0.170474 6.42557 0.334188 255 0 255 
-0.686794 -0.222337 6.46346 0.469022 255 0 255 
-0.711887 -0.153163 6.40819 0.361149 255 0 255 
-0.728532 -0.13995 6.40009 0.360489 255 0 255 
-0.738673 -0.12275 6.38909 0.344257 255 0 255 
-0.754601 -0.106138 6.38152 0.290066 255 0 255 
-0.756676 -0.133014 6.39895 0.334984 255 0 255 
-0.745699 -0.148081 6.40967 0.302927 255 0 255 
-0.728845 -0.159052 6.41725 0.336362 255 0 255 
-0.779763 -0.145327 6.41429 0.333072 255 0 255 
-0.762286 -0.155553 6.42094 0.306821 255 0 255 
-0.749045 -0.167377 6.43056 0.369776 255 0 255 
-0.730528 -0.177024 6.43718 0.42391 255 0 255 
-0.773552 -0.119289 6.39191 0.249138 255 0 255 
-0.727641 -0.194278 6.45222 0.522363 255 0 255 
-0.711298 -0.208374 6.45962 0.415014 255 0 255 
-0.806597 -0.109967 6.37461 0.315811 255 0 255 
-0.786668 -0.112223 6.38174 0.281996 255 0 255 
-0.814792 -0.0957867 6.35966 0.407473 255 0 255 
-0.823794 -0.0813641 6.34377 0.4128 255 0 255 
-0.841821 -0.0986992 6.35602 0.411179 255 0 255 
-0.767925 -0.0979938 6.37076 0.24669 255 0 255 
-0.781478 -0.0885371 6.35972 0.398844 255 0 255 
-0.789219 -0.0728112 6.3451 0.4089 255 0 255 
-0.797662 -0.055921 6.33032 0.407739 255 0 255 
-0.863057 -0.0520188 6.27752 0.34753 255 0 255 
-0.852448 -0.0601973 6.29453 0.28537 255 0 255 
-0.875693 -0.0664739 6.28639 0.290754 255 0 255 
-0.842679 -0.0678672 6.31185 0.306305 255 0 255 
-0.865857 -0.0740512 6.30293 0.319493 255 0 255 
-0.856079 -0.0817173 6.31983 0.325539 255 0 255 
-0.889011 -0.0793319 6.2952 0.314772 255 0 255 
-0.833019 -0.0753768 6.32788 0.327172 255 0 255 
-0.813892 -0.0549297 6.31801 0.347449 255 0 255 
-0.883637 -0.0925445 6.31686 0.341239 255 0 255 
-0.905717 -0.0950591 6.31225 0.336975 255 0 255 
-0.703792 -0.223553 6.47292 0.43641 255 0 255 
-0.747773 -0.180544 6.44961 0.40438 255 0 255 
-0.72759 -0.2086 6.46991 0.415809 255 0 255 
-0.798578 -0.15352 6.42855 0.273211 255 0 255 
-0.780512 -0.162735 6.43526 0.371122 255 0 255 
-0.766575 -0.17277 6.44439 0.348652 255 0 255 
-0.813908 -0.157083 6.44431 0.369476 255 0 255 
-0.796323 -0.166173 6.45007 0.398477 255 0 255 
-0.781657 -0.174839 6.4582 0.394461 255 0 255 
-0.765895 -0.182533 6.46541 0.524142 255 0 255 
-0.754336 -0.195463 6.47535 0.471976 255 0 255 
-0.720273 -0.221111 6.48501 0.405935 255 0 255 
-0.850223 -0.143203 6.47589 0.543001 255 0 255 
-0.877741 -0.136561 6.47136 0.589413 255 0 255 
-0.905727 -0.126935 6.46734 0.471914 255 0 255 
-0.895985 -0.12832 6.48708 0.574579 255 0 255 
-0.867841 -0.136085 6.49033 0.674291 255 0 255 
-0.855308 -0.135878 6.50256 0.539587 255 0 255 
-0.915552 -0.130178 6.44874 0.373809 255 0 255 
-0.944692 -0.128052 6.45021 0.399004 255 0 255 
-0.956789 -0.127259 6.4393 0.390627 255 0 255 
-0.963912 -0.121862 6.4712 0.437645 255 0 255 
-0.935105 -0.12544 6.46885 0.411005 255 0 255 
-0.959938 -0.111115 6.51571 0.413841 255 0 255 
-0.934023 -0.114011 6.50989 0.46508 255 0 255 
-0.919535 -0.108513 6.5248 0.565612 255 0 255 
-0.922503 -0.120921 6.49058 0.492768 255 0 255 
-0.948816 -0.11762 6.49604 0.39864 255 0 255 
-0.892478 -0.108285 6.53428 0.682435 255 0 255 
-0.86617 -0.11766 6.53247 0.631124 255 0 255 
-0.85209 -0.110902 6.55075 0.642481 255 0 255 
-0.894375 -0.119994 6.50974 0.527746 255 0 255 
-0.875875 -0.0953213 6.56585 0.629657 255 0 255 
-0.87249 -0.0812654 6.59439 0.597418 255 0 255 
-0.89792 -0.0801051 6.5802 0.691312 255 0 255 
-0.893004 -0.0692422 6.60949 0.628625 255 0 255 
-0.885838 -0.0629179 6.63257 0.562306 255 0 255 
-0.866646 -0.0725207 6.61672 0.505114 255 0 255 
-0.859022 -0.0658561 6.63619 0.46475 255 0 255 
-0.845663 -0.0820882 6.59916 0.549828 255 0 255 
-0.838889 -0.0742237 6.61899 0.465521 255 0 255 
-0.830684 -0.0675257 6.63615 0.451308 255 0 255 
-0.850035 -0.0942501 6.57656 0.54492 255 0 255 
-0.914827 -0.0960939 6.54796 0.528645 255 0 255 
-0.941001 -0.101686 6.53838 0.59008 255 0 255 
-0.935246 -0.090352 6.56324 0.489695 255 0 255 
-0.928947 -0.078503 6.59293 0.49583 255 0 255 
-0.921704 -0.0705134 6.6218 0.62709 255 0 255 
-0.889703 -0.0488244 6.70553 0.546755 255 0 255 
-0.888999 -0.052846 6.68216 0.44747 255 0 255 
-0.865793 -0.043631 6.70636 0.459386 255 0 255 
-0.865396 -0.0477818 6.68301 0.460668 255 0 255 
-0.888048 -0.0576344 6.65723 0.468584 255 0 255 
-0.911615 -0.0622261 6.65195 0.607783 255 0 255 
-0.913176 -0.0579264 6.67552 0.614663 255 0 255 
-0.825667 -0.0437897 6.7021 0.35024 255 0 255 
-0.83718 -0.0499509 6.68349 0.446853 255 0 255 
-0.808841 -0.0523988 6.68011 0.405778 255 0 255 
-0.797139 -0.0470596 6.69871 0.330248 255 0 255 
-0.820465 -0.0590781 6.65841 0.443794 255 0 255 
-0.849098 -0.0577488 6.65989 0.411348 255 0 255 
-0.923397 -0.13201 6.4313 0.382993 255 0 255 
-0.894128 -0.131531 6.43212 0.404095 255 0 255 
-0.93552 -0.131205 6.41919 0.331512 255 0 255 
-0.947945 -0.128266 6.40691 0.370107 255 0 255 
-0.886379 -0.135075 6.45254 0.368748 255 0 255 
-0.85807 -0.143383 6.45872 0.354329 255 0 255 
-0.866699 -0.140704 6.44 0.460336 255 0 255 
-0.885782 -0.131316 6.413 0.361944 255 0 255 
-0.837142 -0.146282 6.44922 0.408129 255 0 255 
-0.912851 -0.13173 6.40268 0.274464 255 0 255 
-0.925446 -0.128722 6.3889 0.29282 255 0 255 
-0.988611 -0.126939 6.44549 0.353974 255 0 255 
-1.01921 -0.125694 6.45108 0.396225 255 0 255 
-1.00299 -0.127243 6.43538 0.375319 255 0 255 
-1.00574 -0.125289 6.46083 0.397426 255 0 255 
-0.975039 -0.125402 6.45449 0.413953 255 0 255 
-1.0331 -0.12836 6.43323 0.314451 255 0 255 
-1.0469 -0.13066 6.45019 0.305152 255 0 255 
-1.06186 -0.13327 6.43977 0.429139 255 0 255 
-1.07707 -0.136466 6.42831 0.48157 255 0 255 
-1.0749 -0.136798 6.45638 0.460041 255 0 255 
-1.06081 -0.133179 6.4662 0.397568 255 0 255 
-1.03378 -0.127544 6.4675 0.361077 255 0 255 
-1.0601 -0.134031 6.51173 0.390048 255 0 255 
-1.03821 -0.127294 6.50118 0.264641 255 0 255 
-1.0165 -0.121479 6.4899 0.330486 255 0 255 
-1.02394 -0.122567 6.5121 0.249663 255 0 255 
-1.05394 -0.131649 6.48998 0.317069 255 0 255 
-0.999396 -0.117931 6.51263 0.427396 255 0 255 
-0.989221 -0.120201 6.49169 0.450626 255 0 255 
-0.974695 -0.115751 6.50363 0.449236 255 0 255 
-1.0566 -0.131742 6.36267 0.325769 255 0 255 
-1.07361 -0.134683 6.37026 0.31143 255 0 255 
-1.04233 -0.129809 6.37501 0.329512 255 0 255 
-1.06044 -0.132585 6.39294 0.390134 255 0 255 
-1.02766 -0.128564 6.38677 0.332949 255 0 255 
-1.01313 -0.126944 6.39784 0.519979 255 0 255 
-1.04666 -0.131247 6.4133 0.466591 255 0 255 
-1.01661 -0.127348 6.42484 0.407872 255 0 255 
-0.970192 -0.128791 6.42945 0.400005 255 0 255 
-0.984434 -0.128943 6.41898 0.398443 255 0 255 
-0.998586 -0.128316 6.40838 0.431377 255 0 255 
-0.962093 -0.128745 6.39514 0.394769 255 0 255 
-0.976614 -0.127856 6.38391 0.500957 255 0 255 
-0.631284 -0.216066 6.64089 0.545449 255 0 255 
-0.638262 -0.21915 6.6288 0.480468 255 0 255 
-0.624326 -0.246359 6.63807 0.60726 255 0 255 
-0.611705 -0.273622 6.65197 0.771247 255 0 255 
-0.631001 -0.250554 6.62542 0.448314 255 0 255 
-0.617861 -0.278071 6.63916 0.52156 255 0 255 
-0.622926 -0.283281 6.62628 0.520601 255 0 255 
-0.63799 -0.254626 6.61143 0.542899 255 0 255 
-0.646787 -0.222778 6.61524 0.468142 255 0 255 
-0.655159 -0.226724 6.60151 0.510726 255 0 255 
-0.663597 -0.195563 6.61087 0.510616 255 0 255 
-0.654465 -0.1921 6.62365 0.540858 255 0 255 
-0.673361 -0.165955 6.6273 0.500326 255 0 255 
-0.672823 -0.198672 6.59749 0.557349 255 0 255 
-0.683 -0.169798 6.61418 0.507305 255 0 255 
-0.691875 -0.173364 6.60071 0.429188 255 0 255 
-0.66432 -0.163267 6.6394 0.48178 255 0 255 
-0.606533 -0.333435 6.68275 0.795332 255 0 255 
-0.610785 -0.363652 6.69756 0.854724 255 0 255 
-0.618645 -0.391678 6.71071 0.61576 255 0 255 
-0.625522 -0.401404 6.68845 0.476007 255 0 255 
-0.619238 -0.373621 6.67409 0.541467 255 0 255 
-0.614722 -0.343332 6.6579 0.742494 255 0 255 
-0.6124 -0.307214 6.65458 0.624756 255 0 255 
-0.616645 -0.312686 6.64167 0.562407 255 0 255 
-0.637879 -0.414786 6.65239 0.387996 255 0 255 
-0.632792 -0.391865 6.63825 0.465809 255 0 255 
-0.625692 -0.359636 6.62994 0.577932 255 0 255 
-0.62817 -0.328027 6.61156 0.629518 255 0 255 
-0.631541 -0.29213 6.6052 0.561403 255 0 255 
-0.640281 -0.302899 6.58627 0.650562 255 0 255 
-0.624596 -0.383309 6.65574 0.535154 255 0 255 
-0.63258 -0.408782 6.67046 0.467397 255 0 255 
-0.660127 -0.27001 6.56991 0.591977 255 0 255 
-0.674271 -0.2357 6.57019 0.534304 255 0 255 
-0.694273 -0.208877 6.56622 0.544226 255 0 255 
-0.705737 -0.181194 6.57768 0.477114 255 0 255 
-0.718137 -0.193003 6.55431 0.506851 255 0 255 
-0.64825 -0.262313 6.59036 0.552357 255 0 255 
-0.837161 -0.116567 6.55596 0.60099 255 0 255 
-0.822 -0.131048 6.54781 0.573264 255 0 255 
-0.806545 -0.137322 6.54982 0.496241 255 0 255 
-0.790263 -0.150536 6.54148 0.486586 255 0 255 
-0.790508 -0.134852 6.56245 0.617894 255 0 255 
-0.807717 -0.152635 6.53007 0.482386 255 0 255 
-0.791379 -0.164334 6.52306 0.429417 255 0 255 
-0.823562 -0.145969 6.5255 0.533828 255 0 255 
-0.839112 -0.138398 6.52003 0.668618 255 0 255 
-0.773688 -0.147011 6.56111 0.697394 255 0 255 
-0.755229 -0.167221 6.54983 0.59096 255 0 255 
-0.737556 -0.181531 6.54805 0.512721 255 0 255 
-0.721487 -0.208324 6.53516 0.439678 255 0 255 
-0.740428 -0.198617 6.52787 0.511254 255 0 255 
-0.757719 -0.185445 6.52728 0.482001 255 0 255 
-0.774511 -0.168445 6.53437 0.5629 255 0 255 
-0.721245 -0.224724 6.51656 0.423591 255 0 255 
-0.755427 -0.196247 6.51068 0.493482 255 0 255 
-0.773384 -0.183243 6.5124 0.456177 255 0 255 
-0.788324 -0.17424 6.50263 0.39777 255 0 255 
-0.804713 -0.167806 6.49749 0.48458 255 0 255 
-0.821633 -0.158922 6.49732 0.599291 255 0 255 
-0.836959 -0.150468 6.49022 0.506553 255 0 255 
-0.780966 -0.0558754 6.69289 0.386727 255 0 255 
-0.776164 -0.0693607 6.67094 0.44418 255 0 255 
-0.749713 -0.0721381 6.68383 0.496407 255 0 255 
-0.743709 -0.086662 6.66042 0.648978 255 0 255 
-0.769982 -0.0843531 6.64785 0.423326 255 0 255 
-0.762955 -0.0998206 6.62421 0.60771 255 0 255 
-0.780104 -0.0900964 6.62929 0.507533 255 0 255 
-0.787304 -0.0746412 6.65328 0.399882 255 0 255 
-0.798067 -0.0816502 6.63241 0.60107 255 0 255 
-0.804065 -0.06723 6.6558 0.476181 255 0 255 
-0.793477 -0.0608771 6.67654 0.406464 255 0 255 
-0.814415 -0.0745141 6.6355 0.524071 255 0 255 
-0.715185 -0.100766 6.66659 0.550334 255 0 255 
-0.698283 -0.120977 6.65655 0.576838 255 0 255 
-0.70681 -0.125908 6.64186 0.510486 255 0 255 
-0.681069 -0.141535 6.64655 0.539817 255 0 255 
-0.689574 -0.145495 6.63367 0.534027 255 0 255 
-0.69931 -0.150783 6.6204 0.456337 255 0 255 
-0.709992 -0.153365 6.60664 0.452961 255 0 255 
-0.717406 -0.129394 6.62815 0.444196 255 0 255 
-0.727444 -0.133993 6.61326 0.571039 255 0 255 
-0.735076 -0.109849 6.63537 0.565931 255 0 255 
-0.725642 -0.105215 6.65183 0.447895 255 0 255 
-0.744946 -0.116615 6.61882 0.417164 255 0 255 
-0.730145 -0.169362 6.56909 0.563825 255 0 255 
-0.748512 -0.151986 6.57299 0.549857 255 0 255 
-0.759993 -0.128913 6.59124 0.614599 255 0 255 
-0.778234 -0.113301 6.59506 0.677131 255 0 255 
-0.802461 -0.115315 6.58127 0.527629 255 0 255 
-0.819081 -0.107265 6.58148 0.506779 255 0 255 
-0.812428 -0.0981205 6.59963 0.571724 255 0 255 
-0.835005 -0.100095 6.58042 0.589997 255 0 255 
-0.829556 -0.0902262 6.60005 0.532282 255 0 255 
-0.780231 -0.180009 6.48435 0.466778 255 0 255 
-0.796455 -0.173522 6.47765 0.542632 255 0 255 
-0.814046 -0.164499 6.47586 0.437437 255 0 255 
-0.829164 -0.155712 6.46791 0.442237 255 0 255 
-0.736448 -0.211449 6.50944 0.443036 255 0 255 
-0.766864 -0.190478 6.49433 0.419264 255 0 255 
-0.741713 -0.206494 6.48455 0.408598 255 0 255 
-0.703084 -0.218455 6.54996 0.541837 255 0 255 
-0.683719 -0.243849 6.55446 0.558937 255 0 255 
-0.667552 -0.282155 6.55696 0.558429 255 0 255 
-0.647636 -0.314451 6.57398 0.595851 255 0 255 
-0.690485 -0.255346 6.54031 0.57328 255 0 255 
-0.707627 -0.232389 6.53335 0.437067 255 0 255 
-0.635412 -0.337985 6.59929 0.592279 255 0 255 
-0.633691 -0.367967 6.61718 0.516292 255 0 255 
-0.639897 -0.398112 6.62416 0.434981 255 0 255 
-0.644831 -0.420079 6.6376 0.32928 255 0 255 
-0.642149 -0.376492 6.60529 0.454699 255 0 255 
-0.644625 -0.348591 6.58822 0.558796 255 0 255 
-0.653345 -0.426365 6.62151 0.308622 255 0 255 
-0.649713 -0.40642 6.61057 0.37075 255 0 255 
-0.647883 -0.384288 6.59735 0.491282 255 0 255 
-0.650512 -0.357977 6.58183 0.559378 255 0 255 
-0.654813 -0.325859 6.56577 0.589888 255 0 255 
-0.674711 -0.294661 6.54551 0.586525 255 0 255 
-0.706217 -0.24553 6.51936 0.415549 255 0 255 
-0.691242 -0.267332 6.52905 0.485036 255 0 255 
-0.657556 -0.333838 6.55764 0.600202 255 0 255 
-0.651274 -0.364774 6.57333 0.604025 255 0 255 
-0.699056 -0.252578 6.50635 0.43059 255 0 255 
-0.7703 -0.465617 6.7799 0.515276 255 0 255 
-0.758363 -0.468248 6.76016 0.627965 255 0 255 
-0.763232 -0.476115 6.74467 0.629524 255 0 255 
-0.745998 -0.477736 6.72373 0.644804 255 0 255 
-0.783685 -0.487607 6.73041 0.869077 255 0 255 
-0.721478 -0.467504 6.73537 0.583109 255 0 255 
-0.700693 -0.468086 6.71723 0.510544 255 0 255 
-0.718208 -0.46145 6.74801 0.711508 255 0 255 
-0.71443 -0.453907 6.76068 0.478441 255 0 255 
-0.762846 -0.488678 6.69773 0.642586 255 0 255 
-0.779793 -0.495681 6.69666 0.88024 255 0 255 
-0.743941 -0.483077 6.69857 0.744123 255 0 255 
-0.743611 -0.487984 6.67028 0.681953 255 0 255 
-0.762561 -0.495698 6.66784 0.665758 255 0 255 
-0.78053 -0.503785 6.66621 0.585582 255 0 255 
-0.724022 -0.481327 6.67185 0.544325 255 0 255 
-0.703876 -0.474757 6.67299 0.599609 255 0 255 
-0.702124 -0.47231 6.69493 0.546129 255 0 255 
-0.649709 -0.429874 6.66879 0.3709 255 0 255 
-0.66493 -0.444232 6.68446 0.365344 255 0 255 
-0.64459 -0.425268 6.68684 0.451749 255 0 255 
-0.659967 -0.440421 6.70275 0.507769 255 0 255 
-0.681991 -0.457175 6.70039 0.473502 255 0 255 
-0.685271 -0.460474 6.67998 0.415007 255 0 255 
-0.670417 -0.447902 6.66509 0.356016 255 0 255 
-0.638075 -0.415693 6.70754 0.49314 255 0 255 
-0.653725 -0.429353 6.725 0.550093 255 0 255 
-0.634532 -0.407739 6.72801 0.555502 255 0 255 
-0.673883 -0.43778 6.74534 0.49065 255 0 255 
-0.674598 -0.445603 6.73354 0.576849 255 0 255 
-0.677182 -0.451457 6.72151 0.650011 255 0 255 
-0.656847 -0.435243 6.71454 0.468939 255 0 255 
-0.763655 -0.500414 6.6513 0.487638 255 0 255 
-0.782671 -0.510051 6.64829 0.520994 255 0 255 
-0.746963 -0.49736 6.63734 0.356416 255 0 255 
-0.766984 -0.506843 6.63368 0.407996 255 0 255 
-0.786485 -0.517788 6.63019 0.546534 255 0 255 
-0.725902 -0.484729 6.64977 0.558298 255 0 255 
-0.706446 -0.477496 6.6523 0.417553 255 0 255 
-0.751194 -0.50649 6.61672 0.497199 255 0 255 
-0.788569 -0.527462 6.61415 0.499461 255 0 255 
-0.730378 -0.495684 6.62218 0.382944 255 0 255 
-0.710597 -0.485297 6.6266 0.375445 255 0 255 
-0.665687 -0.440396 6.62893 0.283701 255 0 255 
-0.679242 -0.453147 6.63461 0.276161 255 0 255 
-0.693444 -0.466254 6.63979 0.346908 255 0 255 
-0.659931 -0.435511 6.6439 0.346137 255 0 255 
-0.689025 -0.461927 6.66373 0.418429 255 0 255 
-0.675278 -0.450129 6.64802 0.33238 255 0 255 
-0.663971 -0.451212 6.60621 0.252199 255 0 255 
-0.681517 -0.461887 6.6131 0.287606 255 0 255 
-0.696245 -0.477943 6.61228 0.297396 255 0 255 
-0.710545 -0.494174 6.61129 0.282065 255 0 255 
-0.771749 -0.528103 6.59831 0.491509 255 0 255 
-0.790209 -0.541904 6.59535 0.424817 255 0 255 
-0.731154 -0.505841 6.60518 0.370142 255 0 255 
-0.93108 -0.573077 6.58107 0.389856 255 0 255 
-0.958679 -0.562121 6.58606 0.401923 255 0 255 
-0.943293 -0.557024 6.59611 0.315017 255 0 255 
-0.928107 -0.551629 6.60554 0.374133 255 0 255 
-0.985573 -0.552554 6.59241 0.361025 255 0 255 
-0.987228 -0.565517 6.57842 0.378556 255 0 255 
-0.960407 -0.576073 6.57313 0.413854 255 0 255 
-0.989653 -0.579632 6.56458 0.457954 255 0 255 
-0.939433 -0.538908 6.62214 0.325561 255 0 255 
-0.950014 -0.52688 6.63915 0.325959 255 0 255 
-0.923217 -0.533625 6.63457 0.300469 255 0 255 
-0.966276 -0.531737 6.62655 0.352077 255 0 255 
-0.981839 -0.538609 6.61287 0.378707 255 0 255 
-0.955285 -0.545034 6.60856 0.358193 255 0 255 
-1.02019 -0.528737 6.60396 0.321926 255 0 255 
-1.01198 -0.547831 6.5858 0.391569 255 0 255 
-1.00546 -0.52462 6.6177 0.372929 255 0 255 
-0.991371 -0.521614 6.63131 0.346481 255 0 255 
-1.0144 -0.561175 6.57113 0.484161 255 0 255 
-1.02926 -0.566944 6.5583 0.344076 255 0 255 
-0.808742 -0.565579 6.57545 0.222261 255 0 255 
-0.828158 -0.569562 6.57463 0.292583 255 0 255 
-0.846819 -0.573784 6.57416 0.29619 255 0 255 
-0.864726 -0.577499 6.57483 0.346317 255 0 255 
-0.810245 -0.548887 6.59021 0.327145 255 0 255 
-0.829416 -0.545099 6.59999 0.337721 255 0 255 
-0.847299 -0.555676 6.59199 0.303379 255 0 255 
-0.864879 -0.563933 6.58934 0.312259 255 0 255 
-0.898595 -0.574766 6.57724 0.380577 255 0 255 
-0.915457 -0.585521 6.56768 0.349572 255 0 255 
-0.932164 -0.591 6.56324 0.413604 255 0 255 
-0.882301 -0.566602 6.58587 0.305281 255 0 255 
-0.915119 -0.602923 6.55309 0.340774 255 0 255 
-0.897676 -0.59687 6.55834 0.327339 255 0 255 
-0.880217 -0.5971 6.55893 0.33872 255 0 255 
-0.942341 -0.673796 6.49716 0.351894 255 0 255 
-0.958445 -0.683505 6.48147 0.359195 255 0 255 
-0.977117 -0.686866 6.47008 0.365161 255 0 255 
-0.993601 -0.696378 6.45206 0.341839 255 0 255 
-0.969588 -0.702609 6.45473 0.303323 255 0 255 
-0.950786 -0.698917 6.4686 0.411962 255 0 255 
-0.934769 -0.690313 6.48534 0.377358 255 0 255 
-1.01634 -0.685242 6.45119 0.32983 255 0 255 
-1.03293 -0.690381 6.43217 0.315005 255 0 255 
-1.05089 -0.6905 6.4203 0.282987 255 0 255 
-1.06696 -0.695618 6.40164 0.282284 255 0 255 
-1.06366 -0.706324 6.38596 0.327707 255 0 255 
-1.04505 -0.705835 6.39964 0.272176 255 0 255 
-1.02623 -0.705548 6.41323 0.380339 255 0 255 
-1.00999 -0.70048 6.43269 0.365546 255 0 255 
-1.04973 -0.731187 6.34762 0.396175 255 0 255 
-1.02995 -0.730371 6.36328 0.379082 255 0 255 
-1.015 -0.723742 6.3861 0.425595 255 0 255 
-0.995127 -0.724039 6.40162 0.338708 255 0 255 
-0.97977 -0.718862 6.42561 0.412954 255 0 255 
-0.970104 -0.730414 6.41028 0.410889 255 0 255 
-1.00436 -0.71162 6.41724 0.355609 255 0 255 
-1.03815 -0.71772 6.38088 0.334056 255 0 255 
-1.05691 -0.718792 6.36688 0.333236 255 0 255 
-0.950667 -0.726862 6.42622 0.442039 255 0 255 
-0.936084 -0.71759 6.44897 0.428462 255 0 255 
-0.9168 -0.714704 6.46415 0.418622 255 0 255 
-0.960382 -0.715128 6.44009 0.356437 255 0 255 
-0.891262 -0.462388 6.78825 0.721956 255 0 255 
-0.883594 -0.474673 6.76834 0.584381 255 0 255 
-0.886609 -0.487954 6.74254 0.565643 255 0 255 
-0.875977 -0.496897 6.72188 0.552841 255 0 255 
-0.905056 -0.499895 6.71514 0.565295 255 0 255 
-0.85835 -0.486512 6.74879 0.728453 255 0 255 
-0.84536 -0.495875 6.72666 0.57009 255 0 255 
-0.854702 -0.475699 6.77052 0.976151 255 0 255 
-0.848275 -0.465495 6.79071 0.860691 255 0 255 
-0.909494 -0.507375 6.69676 0.542567 255 0 255 
-0.913711 -0.51427 6.67877 0.448927 255 0 255 
-0.881313 -0.510767 6.68376 0.550647 255 0 255 
-0.885292 -0.517647 6.66591 0.524969 255 0 255 
-0.88953 -0.524489 6.64882 0.374585 255 0 255 
-0.917154 -0.520971 6.66113 0.328948 255 0 255 
-0.855396 -0.522068 6.65441 0.58654 255 0 255 
-0.851401 -0.514817 6.67114 0.576265 255 0 255 
-0.848371 -0.50849 6.68863 0.457649 255 0 255 
-0.878372 -0.504094 6.70222 0.566359 255 0 255 
-0.846218 -0.5022 6.70723 0.454443 255 0 255 
-0.814239 -0.49992 6.6935 0.695005 255 0 255 
-0.81567 -0.489717 6.72892 0.962237 255 0 255 
-0.816416 -0.504894 6.67604 0.526698 255 0 255 
-0.819193 -0.511337 6.65885 0.474095 255 0 255 
-0.79364 -0.472593 6.76798 0.808397 255 0 255 
-0.825144 -0.474773 6.77072 0.915936 255 0 255 
-0.907033 -0.530978 6.63708 0.289369 255 0 255 
-0.910455 -0.542387 6.61735 0.319781 255 0 255 
-0.894766 -0.540041 6.62039 0.281054 255 0 255 
-0.877895 -0.538079 6.62303 0.322381 255 0 255 
-0.858608 -0.531839 6.63503 0.446562 255 0 255 
-0.897307 -0.554257 6.59905 0.34968 255 0 255 
-0.914276 -0.563459 6.59022 0.355191 255 0 255 
-0.88092 -0.552295 6.6021 0.293148 255 0 255 
-0.863491 -0.551117 6.60515 0.385834 255 0 255 
-0.809066 -0.533731 6.60969 0.453152 255 0 255 
-0.845205 -0.539757 6.61347 0.414533 255 0 255 
-0.821931 -0.519485 6.64091 0.581951 255 0 255 
-0.841156 -0.525837 6.63794 0.474768 255 0 255 
-0.990447 -0.445525 6.75403 0.400206 255 0 255 
-0.986675 -0.462801 6.7347 0.34135 255 0 255 
-0.994436 -0.473686 6.71307 0.299472 255 0 255 
-0.988551 -0.486684 6.69666 0.375861 255 0 255 
-1.01385 -0.47821 6.69017 0.34001 255 0 255 
-0.968875 -0.481581 6.72134 0.430151 255 0 255 
-0.962841 -0.495045 6.70356 0.452089 255 0 255 
-0.961924 -0.469701 6.744 0.476321 255 0 255 
-0.955003 -0.452407 6.77115 0.387073 255 0 255 
-1.0185 -0.485877 6.67422 0.324024 255 0 255 
-1.02262 -0.493725 6.65749 0.358981 255 0 255 
-0.996556 -0.501727 6.66341 0.363619 255 0 255 
-1.01306 -0.505482 6.64305 0.367729 255 0 255 
-0.987503 -0.513663 6.64887 0.339262 255 0 255 
-0.970878 -0.510233 6.66854 0.388428 255 0 255 
-0.993014 -0.494426 6.68021 0.373392 255 0 255 
-0.966876 -0.502732 6.68584 0.381067 255 0 255 
-0.942567 -0.511963 6.67323 0.355315 255 0 255 
-0.938921 -0.50481 6.69107 0.410291 255 0 255 
-0.934555 -0.497442 6.70898 0.534314 255 0 255 
-0.946297 -0.519455 6.65602 0.329292 255 0 255 
-0.914696 -0.488055 6.73643 0.517461 255 0 255 
-0.910457 -0.474589 6.76167 0.46495 255 0 255 
-0.917831 -0.457209 6.78419 0.414959 255 0 255 
-0.936444 -0.473044 6.75353 0.473881 255 0 255 
-0.942468 -0.486304 6.72857 0.52943 255 0 255 
-0.963306 -0.61487 6.53689 0.317471 255 0 255 
-0.947826 -0.605868 6.54765 0.471613 255 0 255 
-0.99384 -0.608472 6.53689 0.36197 255 0 255 
-0.979194 -0.618367 6.53055 0.316636 255 0 255 
-0.99615 -0.62935 6.51743 0.342753 255 0 255 
-0.948961 -0.625365 6.53162 0.373426 255 0 255 
-0.991115 -0.593195 6.55056 0.384539 255 0 255 
-1.03481 -0.590217 6.53534 0.335562 255 0 255 
-1.02322 -0.606706 6.52535 0.383309 255 0 255 
-1.05195 -0.598355 6.52135 0.405882 255 0 255 
-1.01869 -0.583297 6.54803 0.42111 255 0 255 
-1.05575 -0.613713 6.50539 0.308297 255 0 255 
-1.02578 -0.621346 6.51186 0.363182 255 0 255 
-1.04334 -0.628851 6.49708 0.286787 255 0 255 
