ply
format ascii 1.0
comment VCGLIB generated
element vertex 1013
property float x
property float y
property float z
property uchar red
property uchar green
property uchar blue
property float quality
end_header
-0.682250 -0.142718 6.641750 255 90 0 0.442535
-0.692006 -0.147797 6.627640 255 119 0 0.375760
-0.702948 -0.151301 6.612480 255 119 0 0.376984
-0.710969 -0.129416 6.630490 255 127 0 0.363981
-0.721487 -0.134540 6.614690 255 75 0 0.471991
-0.729637 -0.112806 6.633150 255 78 0 0.464055
-0.720050 -0.107861 6.650130 255 127 0 0.358700
-0.740006 -0.119497 6.616400 255 134 0 0.346817
-0.725204 -0.168905 6.574820 255 75 0 0.472753
-0.744484 -0.152874 6.574880 255 82 0 0.456635
-0.755868 -0.131550 6.589450 255 60 0 0.510028
-0.774706 -0.117907 6.589760 255 41 0 0.561288
-0.800113 -0.120249 6.575120 255 90 0 0.438587
-0.817177 -0.112958 6.573500 255 104 0 0.405914
-0.809567 -0.104927 6.589940 255 82 0 0.455983
-0.833606 -0.106242 6.570700 255 78 0 0.466685
-0.826827 -0.097688 6.588220 255 97 0 0.420807
-0.789008 -0.175711 6.481960 255 104 0 0.409197
-0.805829 -0.168176 6.474220 255 75 0 0.472528
-0.823108 -0.158948 6.471360 255 116 0 0.381116
-0.838391 -0.149667 6.462540 255 116 0 0.382891
-0.740869 -0.209365 6.514390 255 108 0 0.401592
-0.774244 -0.187007 6.494290 255 127 0 0.363409
-0.749945 -0.203517 6.486720 255 127 0 0.358780
-0.699918 -0.217002 6.561590 255 82 0 0.461032
-0.682525 -0.240525 6.568310 255 75 0 0.476991
-0.670821 -0.275480 6.570800 255 71 0 0.480958
-0.656248 -0.304440 6.586180 255 56 0 0.519610
-0.690747 -0.252432 6.552910 255 67 0 0.488527
-0.707062 -0.230728 6.543910 255 112 0 0.388058
-0.645406 -0.326609 6.609750 255 53 0 0.531500
-0.644290 -0.355307 6.625530 255 75 0 0.473918
-0.653212 -0.386071 6.631170 255 97 0 0.423122
-0.658154 -0.409226 6.644990 255 138 0 0.339919
-0.654245 -0.363561 6.612880 255 101 0 0.416581
-0.654940 -0.336514 6.597580 255 67 0 0.493313
-0.669254 -0.416894 6.627980 255 149 0 0.320689
-0.664703 -0.395389 6.616800 255 123 0 0.369886
-0.661682 -0.371792 6.603770 255 82 0 0.461021
-0.661942 -0.345593 6.589550 255 67 0 0.492143
-0.663673 -0.315405 6.576270 255 60 0 0.511734
-0.678899 -0.288082 6.557190 255 64 0 0.503646
-0.708200 -0.243805 6.529190 255 119 0 0.377418
-0.693883 -0.264431 6.540170 255 97 0 0.425366
-0.667283 -0.323439 6.566100 255 56 0 0.522262
-0.664568 -0.352588 6.579400 255 49 0 0.543207
-0.703578 -0.251026 6.515240 255 112 0 0.389929
-0.756099 -0.465409 6.783200 255 93 0 0.430732
-0.745654 -0.466804 6.765160 255 49 0 0.537118
-0.752019 -0.474577 6.750660 255 53 0 0.530236
-0.738580 -0.474653 6.732170 255 49 0 0.540942
-0.773584 -0.487917 6.736360 219 0 0 0.717491
-0.714121 -0.461570 6.743760 255 67 0 0.496996
-0.698797 -0.460541 6.726940 255 90 0 0.437496
-0.708899 -0.455408 6.755760 255 27 0 0.603359
-0.703573 -0.448077 6.767670 255 101 0 0.414174
-0.759366 -0.488814 6.707180 255 64 0 0.504090
-0.776000 -0.497119 6.705290 223 0 0 0.704520
-0.741311 -0.481050 6.708260 255 30 0 0.595355
-0.747145 -0.487881 6.680750 255 53 0 0.527767
-0.764976 -0.496971 6.678160 255 56 0 0.516465
-0.782217 -0.506181 6.675740 255 82 0 0.457667
-0.728487 -0.479136 6.682310 255 97 0 0.425549
-0.709434 -0.470179 6.683290 255 71 0 0.480538
-0.703865 -0.466251 6.705400 255 82 0 0.453416
-0.658760 -0.419515 6.676890 255 123 0 0.369908
-0.671121 -0.434716 6.693680 255 138 0 0.338127
-0.651765 -0.414125 6.695010 255 97 0 0.424093
-0.664138 -0.429374 6.711790 255 90 0 0.443709
-0.684303 -0.448361 6.710290 255 108 0 0.400248
-0.690719 -0.453201 6.689930 255 127 0 0.359164
-0.679330 -0.439468 6.674190 255 134 0 0.347714
-0.642854 -0.403708 6.715520 255 82 0 0.458097
-0.654359 -0.416989 6.733750 255 75 0 0.474621
-0.636794 -0.394614 6.736370 255 64 0 0.500685
-0.668496 -0.426806 6.753530 255 93 0 0.429512
-0.671963 -0.434387 6.742390 255 67 0 0.494493
-0.676320 -0.440828 6.731070 255 45 0 0.545914
-0.659174 -0.423427 6.723500 255 104 0 0.407120
-0.768869 -0.502068 6.661510 255 112 0 0.388949
-0.786781 -0.512432 6.657910 255 104 0 0.410529
-0.755715 -0.497942 6.647990 255 167 0 0.289539
-0.774207 -0.508439 6.643990 255 145 0 0.328439
-0.792473 -0.519618 6.639910 255 86 0 0.447501
-0.734558 -0.484068 6.660020 255 86 0 0.447214
-0.716108 -0.474677 6.662120 255 130 0 0.352541
-0.761893 -0.506952 6.627160 255 101 0 0.415709
-0.796152 -0.528398 6.623630 255 101 0 0.411329
-0.742706 -0.495473 6.632060 255 145 0 0.325255
-0.724121 -0.483625 6.636230 255 145 0 0.329355
-0.680698 -0.432714 6.636130 255 167 0 0.290836
-0.693047 -0.447531 6.642790 255 182 0 0.266866
-0.705762 -0.462374 6.648900 255 145 0 0.324736
-0.672084 -0.426826 6.651860 255 130 0 0.354911
-0.696920 -0.456237 6.673450 255 123 0 0.368464
-0.686885 -0.443121 6.656720 255 141 0 0.330158
-0.683970 -0.444301 6.611980 255 186 0 0.258197
-0.698873 -0.457344 6.620520 255 178 0 0.267453
-0.712786 -0.474743 6.620810 255 175 0 0.274579
-0.726092 -0.492354 6.620510 255 190 0 0.251164
-0.781923 -0.527999 6.608540 255 101 0 0.414358
-0.798642 -0.541621 6.604230 255 127 0 0.361487
-0.745151 -0.505041 6.615070 255 153 0 0.315223
-0.937393 -0.573891 6.581030 255 134 0 0.350330
-0.964778 -0.563577 6.584690 255 130 0 0.357609
-0.948516 -0.558310 6.595080 255 171 0 0.279997
-0.932351 -0.552883 6.605230 255 141 0 0.331037
-0.991528 -0.554313 6.589340 255 149 0 0.319857
-0.993922 -0.566802 6.575810 255 138 0 0.339882
-0.967258 -0.576561 6.571810 255 119 0 0.373093
-0.996788 -0.579983 6.562590 255 101 0 0.414295
-0.942657 -0.540462 6.620860 255 167 0 0.287125
-0.952510 -0.528366 6.636560 255 167 0 0.290368
-0.924944 -0.535343 6.634100 255 182 0 0.264731
-0.969757 -0.533381 6.623290 255 153 0 0.311676
-0.986777 -0.540422 6.609120 255 141 0 0.335387
-0.959816 -0.546642 6.606950 255 153 0 0.315546
-1.026400 -0.531351 6.598090 255 171 0 0.282173
-1.018630 -0.549349 6.581300 255 130 0 0.352615
-1.010670 -0.527183 6.612050 255 145 0 0.329302
-0.995244 -0.523776 6.625890 255 145 0 0.325564
-1.021400 -0.562269 6.567490 255 90 0 0.437647
-1.036800 -0.567405 6.555080 255 153 0 0.312440
-0.817214 -0.563877 6.582590 255 234 0 0.193958
-0.835715 -0.568086 6.580640 255 186 0 0.259442
-0.853985 -0.572601 6.579290 255 182 0 0.263468
-0.871566 -0.576902 6.578470 255 156 0 0.309552
-0.817801 -0.548320 6.598170 255 171 0 0.279149
-0.835195 -0.545291 6.606820 255 164 0 0.292712
-0.853035 -0.555546 6.597710 255 182 0 0.266037
-0.870324 -0.563840 6.593340 255 175 0 0.277053
-0.905041 -0.574922 6.579350 255 138 0 0.341556
-0.922777 -0.585364 6.568650 255 149 0 0.318123
-0.939711 -0.590639 6.563700 255 119 0 0.375950
-0.887879 -0.566702 6.588780 255 178 0 0.270627
-0.923490 -0.601689 6.553980 255 153 0 0.312173
-0.905843 -0.595780 6.560000 255 160 0 0.297855
-0.888414 -0.595753 6.561130 255 156 0 0.309599
-0.951032 -0.668481 6.495720 255 138 0 0.340182
-0.966624 -0.677948 6.480260 255 134 0 0.349290
-0.984932 -0.681728 6.469060 255 130 0 0.355695
-1.001000 -0.691181 6.452070 255 141 0 0.333991
-0.977568 -0.697038 6.454120 255 164 0 0.296825
-0.958986 -0.693000 6.467160 255 108 0 0.403193
-0.943344 -0.684078 6.483490 255 123 0 0.368888
-1.023230 -0.680171 6.451480 255 149 0 0.317951
-1.039250 -0.685446 6.433090 255 156 0 0.304653
-1.056790 -0.685383 6.421750 255 175 0 0.273550
-1.072790 -0.690602 6.403580 255 182 0 0.262587
-1.069500 -0.701412 6.388970 255 156 0 0.306006
-1.051150 -0.701167 6.401980 255 190 0 0.253232
-1.032780 -0.700821 6.415080 255 123 0 0.367993
-1.016950 -0.695728 6.433610 255 130 0 0.357422
-1.055970 -0.726712 6.353000 255 119 0 0.373930
-1.036480 -0.726116 6.368010 255 130 0 0.356962
-1.021630 -0.719439 6.389690 255 101 0 0.415280
-1.002130 -0.719512 6.404450 255 141 0 0.333129
-0.987270 -0.713915 6.426670 255 104 0 0.405315
-0.977878 -0.725770 6.412320 255 104 0 0.405154
-1.011300 -0.706917 6.419060 255 138 0 0.342469
-1.044520 -0.713368 6.384340 255 149 0 0.320994
-1.062910 -0.714088 6.371160 255 149 0 0.316557
-0.958806 -0.721638 6.427110 255 93 0 0.431016
-0.944712 -0.711770 6.447960 255 101 0 0.419270
-0.925806 -0.708257 6.462470 255 104 0 0.408365
-0.968375 -0.709732 6.440130 255 134 0 0.345135
-0.882846 -0.466724 6.781180 251 16 0 0.629352
-0.874955 -0.477135 6.763190 255 56 0 0.517927
-0.879585 -0.488801 6.739130 255 60 0 0.512966
-0.869723 -0.497902 6.720820 255 75 0 0.470786
-0.901116 -0.500039 6.712400 255 71 0 0.488247
-0.848939 -0.488201 6.747040 255 19 0 0.626816
-0.837407 -0.497665 6.728170 255 71 0 0.488043
-0.843951 -0.478188 6.767550 178 0 0 0.836099
-0.837116 -0.468923 6.786430 205 0 0 0.750120
-0.906492 -0.507693 6.694530 255 78 0 0.467954
-0.912057 -0.515228 6.677220 255 104 0 0.404669
-0.878691 -0.512108 6.684940 255 82 0 0.457866
-0.884313 -0.519358 6.667860 255 86 0 0.445810
-0.889623 -0.526424 6.650960 255 149 0 0.322616
-0.917099 -0.522358 6.660150 255 164 0 0.291152
-0.855231 -0.524367 6.659330 255 71 0 0.483192
-0.849705 -0.517454 6.675860 255 78 0 0.466807
-0.845002 -0.510942 6.692830 255 123 0 0.367661
-0.873816 -0.505167 6.702500 255 78 0 0.465008
-0.840658 -0.504394 6.710170 255 123 0 0.371917
-0.810255 -0.502626 6.700170 255 41 0 0.556261
-0.806140 -0.491804 6.732500 187 0 0 0.809550
-0.814780 -0.507954 6.683370 255 101 0 0.416556
-0.819703 -0.514131 6.666790 255 119 0 0.377067
-0.780136 -0.473728 6.770170 237 4 0 0.669544
-0.812821 -0.477015 6.770240 201 0 0 0.762280
-0.908469 -0.532781 6.638040 255 193 0 0.249735
-0.913603 -0.544059 6.618420 255 171 0 0.282780
-0.897346 -0.541807 6.622430 255 193 0 0.247860
-0.880209 -0.539837 6.626620 255 175 0 0.275066
-0.860301 -0.533723 6.639880 255 119 0 0.374860
-0.901683 -0.555300 6.601170 255 153 0 0.310452
-0.919713 -0.564452 6.591130 255 149 0 0.318514
-0.885045 -0.553265 6.605340 255 190 0 0.254368
-0.867771 -0.551677 6.609850 255 141 0 0.331389
-0.815267 -0.534376 6.618170 255 119 0 0.375462
-0.849364 -0.540554 6.619720 255 134 0 0.349550
-0.824433 -0.521689 6.648800 255 75 0 0.476788
-0.842929 -0.527750 6.644370 255 112 0 0.392372
-0.989741 -0.449047 6.746260 255 127 0 0.363627
-0.985427 -0.464717 6.727080 255 141 0 0.331234
-0.993768 -0.475360 6.704900 255 160 0 0.299807
-0.988322 -0.488059 6.688470 255 123 0 0.365815
-1.014890 -0.480945 6.680840 255 141 0 0.335772
-0.967115 -0.482220 6.714160 255 112 0 0.391089
-0.961550 -0.495390 6.696630 255 93 0 0.427907
-0.959347 -0.470976 6.736940 255 108 0 0.399344
-0.951953 -0.456362 6.762830 255 138 0 0.337712
-1.020280 -0.488876 6.664450 255 145 0 0.326155
-1.025320 -0.496948 6.647950 255 123 0 0.365670
-0.998631 -0.503810 6.655610 255 123 0 0.371136
-1.016620 -0.508513 6.635020 255 127 0 0.358647
-0.990256 -0.515539 6.642540 255 138 0 0.342480
-0.971935 -0.511156 6.662550 255 123 0 0.369827
-0.993669 -0.495994 6.672120 255 134 0 0.344073
-0.966829 -0.503358 6.679270 255 138 0 0.338764
-0.942157 -0.512630 6.669850 255 134 0 0.344428
-0.937145 -0.505204 6.686780 255 119 0 0.379403
-0.931661 -0.497393 6.704220 255 78 0 0.470223
-0.947385 -0.520382 6.652960 255 156 0 0.303533
-0.909537 -0.488445 6.731580 255 78 0 0.461945
-0.903872 -0.476366 6.755560 255 101 0 0.412170
-0.911463 -0.461789 6.775770 255 116 0 0.384121
-0.931942 -0.474450 6.746620 255 104 0 0.403892
-0.939130 -0.486397 6.722430 255 82 0 0.455580
-0.971731 -0.613205 6.537010 255 164 0 0.292678
-0.956110 -0.604688 6.547670 255 93 0 0.428543
-1.001830 -0.607138 6.536320 255 145 0 0.328891
-0.987547 -0.616490 6.530510 255 164 0 0.293701
-1.004360 -0.626597 6.517500 255 149 0 0.318983
-0.957757 -0.622880 6.531750 255 138 0 0.342763
-0.998929 -0.592911 6.549330 255 134 0 0.349714
-1.042190 -0.589094 6.533360 255 156 0 0.307386
-1.030830 -0.604693 6.524530 255 134 0 0.346022
-1.059150 -0.596068 6.519730 255 127 0 0.362173
-1.026080 -0.583042 6.545870 255 119 0 0.374506
-1.062710 -0.610421 6.504470 255 171 0 0.282843
-1.033290 -0.618446 6.511480 255 141 0 0.332905
-1.050380 -0.625010 6.496730 255 178 0 0.267970
-1.067910 -0.631522 6.481430 255 178 0 0.270411
-1.020700 -0.632798 6.504100 255 145 0 0.328808
-1.054280 -0.644616 6.474760 255 216 0 0.215225
-1.070990 -0.644659 6.465490 255 216 0 0.214432
-1.037630 -0.644849 6.483940 255 223 0 0.206442
-1.040750 -0.657603 6.468290 255 208 0 0.225054
-1.057480 -0.657066 6.458930 248 245 0 0.178996
-1.074440 -0.656898 6.449250 255 216 0 0.216255
-1.024420 -0.657727 6.477440 255 153 0 0.315676
-1.007900 -0.658334 6.486940 255 160 0 0.302111
-1.075470 -0.668430 6.433420 255 190 0 0.250797
-1.058050 -0.674259 6.436950 255 201 0 0.234758
-1.040370 -0.674295 6.448290 255 216 0 0.217246
-1.006100 -0.675347 6.469080 255 153 0 0.313376
-0.970562 -0.660901 6.496370 255 145 0 0.326086
-0.954969 -0.651927 6.509230 255 186 0 0.258196
-0.989233 -0.659257 6.491530 255 149 0 0.317334
-0.972746 -0.638000 6.516190 255 171 0 0.284192
-0.989570 -0.641776 6.507720 255 149 0 0.318951
-1.023380 -0.742413 6.344440 255 138 0 0.339181
-1.044370 -0.742441 6.328350 255 153 0 0.315339
-1.002400 -0.742630 6.360780 255 104 0 0.407541
-0.990569 -0.757454 6.335990 255 101 0 0.412478
-1.012060 -0.757632 6.319890 255 123 0 0.365331
-1.033520 -0.757903 6.304320 255 160 0 0.300420
-0.975349 -0.750331 6.364710 255 97 0 0.423565
-0.948523 -0.758283 6.368150 255 93 0 0.434997
-0.963222 -0.742034 6.390330 255 97 0 0.425850
-0.990017 -0.733698 6.386440 255 104 0 0.408174
-1.024860 -0.767444 6.290950 255 145 0 0.328224
-1.002180 -0.767840 6.307570 255 116 0 0.381491
-0.993636 -0.777273 6.293800 255 112 0 0.392632
-1.016560 -0.777004 6.277570 255 127 0 0.363090
-0.970470 -0.777910 6.310360 255 97 0 0.425709
-0.984548 -0.787310 6.280420 255 86 0 0.448312
-0.961360 -0.787946 6.296570 255 104 0 0.404705
-1.007910 -0.787134 6.264560 255 93 0 0.428435
-0.938066 -0.788519 6.312870 255 123 0 0.365264
-0.916568 -0.788724 6.328180 255 138 0 0.343496
-0.948524 -0.777727 6.325770 255 108 0 0.400663
-0.927083 -0.778068 6.341250 255 116 0 0.384738
-0.959209 -0.767111 6.338590 255 78 0 0.461599
-0.980769 -0.767447 6.323020 255 112 0 0.389495
-0.937930 -0.767977 6.354570 255 86 0 0.448421
-0.833649 -0.774295 6.395130 255 112 0 0.393038
-0.853837 -0.777747 6.378540 255 101 0 0.413432
-0.865541 -0.767315 6.391720 255 101 0 0.413571
-0.845423 -0.764218 6.408830 255 97 0 0.419467
-0.885686 -0.770859 6.375030 255 101 0 0.416316
-0.877180 -0.757513 6.405250 255 97 0 0.421759
-0.896867 -0.760643 6.388140 255 101 0 0.415306
-0.908435 -0.750778 6.401500 255 97 0 0.424391
-0.857204 -0.754479 6.422330 255 104 0 0.404999
-0.888477 -0.747600 6.418520 255 71 0 0.479259
-0.869001 -0.745289 6.435730 255 93 0 0.432411
-0.917017 -0.764602 6.371900 255 97 0 0.425633
-0.928307 -0.754241 6.384630 255 93 0 0.428853
-0.906346 -0.774193 6.358020 255 93 0 0.434368
-0.895448 -0.784387 6.344590 255 123 0 0.370292
-0.874484 -0.780827 6.361340 255 97 0 0.425767
-0.904578 -0.731594 6.439140 255 90 0 0.442264
-0.885554 -0.728617 6.454200 255 130 0 0.357764
-0.923638 -0.735195 6.423880 255 86 0 0.444961
-0.943414 -0.738410 6.407030 255 108 0 0.396122
-0.624958 -0.234537 6.470240 255 34 0 0.584821
-0.636758 -0.214003 6.450880 255 101 0 0.415034
-0.653935 -0.195302 6.435030 255 104 0 0.410616
-0.663706 -0.175353 6.419620 255 97 0 0.422362
-0.678840 -0.156088 6.406590 255 108 0 0.399417
-0.682681 -0.177957 6.423730 255 90 0 0.441992
-0.672578 -0.197836 6.438530 255 56 0 0.516485
-0.654895 -0.216164 6.453260 255 53 0 0.528080
-0.642638 -0.236594 6.471770 255 27 0 0.597561
-0.675540 -0.136684 6.390100 255 90 0 0.440645
-0.691652 -0.119177 6.378510 255 123 0 0.370878
-0.700605 -0.097630 6.366370 255 153 0 0.310350
-0.716643 -0.076614 6.356000 255 171 0 0.280505
-0.721146 -0.104015 6.370570 255 156 0 0.303840
-0.711973 -0.124285 6.382740 255 138 0 0.343028
-0.695631 -0.140845 6.394280 255 119 0 0.375056
-0.703414 -0.161165 6.413620 255 123 0 0.372499
-0.742954 -0.087388 6.362230 255 149 0 0.322550
-0.151091 -0.895612 6.277950 255 78 0 0.462245
-0.164433 -0.885907 6.303470 255 53 0 0.531657
-0.189595 -0.880794 6.325070 255 56 0 0.520762
-0.203389 -0.877704 6.352870 255 49 0 0.541828
-0.228860 -0.878081 6.376340 255 41 0 0.564375
-0.205790 -0.877625 6.387670 255 75 0 0.477870
-0.226504 -0.878325 6.341760 255 60 0 0.513771
-0.252128 -0.879453 6.365150 255 45 0 0.547400
-0.212452 -0.881231 6.313340 255 53 0 0.527787
-0.198296 -0.886881 6.286010 255 60 0 0.512405
-0.173398 -0.896417 6.265940 255 49 0 0.541586
-0.195831 -0.897238 6.253730 255 56 0 0.516510
-0.218698 -0.875101 6.416190 255 49 0 0.543769
-0.243349 -0.872408 6.439370 255 38 0 0.575387
-0.256542 -0.868716 6.468000 255 67 0 0.494372
-0.280999 -0.861711 6.489610 255 78 0 0.469272
-0.257858 -0.861975 6.501540 255 64 0 0.497618
-0.279875 -0.868536 6.456490 255 86 0 0.444844
-0.304629 -0.861966 6.477550 255 75 0 0.473697
-0.266646 -0.872145 6.427760 255 49 0 0.545341
-0.253548 -0.875599 6.399390 255 34 0 0.582022
-0.352007 -0.862950 6.452080 255 45 0 0.548522
-0.338906 -0.869178 6.424740 255 64 0 0.504472
-0.313882 -0.873568 6.403670 255 53 0 0.528445
-0.300595 -0.877125 6.375530 255 41 0 0.562613
-0.275461 -0.879847 6.353110 255 49 0 0.537686
-0.299051 -0.881352 6.341220 255 53 0 0.526812
-0.277240 -0.876767 6.388010 255 60 0 0.514342
-0.290250 -0.872775 6.415990 255 53 0 0.531747
-0.303365 -0.868972 6.444070 255 56 0 0.517868
-0.328230 -0.862190 6.464710 255 56 0 0.520211
-0.284470 -0.881270 6.311940 255 53 0 0.534261
-0.258553 -0.882822 6.289490 255 41 0 0.561087
-0.244203 -0.888427 6.261650 255 45 0 0.553844
-0.218529 -0.897874 6.241240 255 60 0 0.514599
-0.241425 -0.899647 6.229050 255 56 0 0.516898
-0.221339 -0.887801 6.274220 255 60 0 0.512093
-0.235419 -0.882283 6.301610 255 53 0 0.530482
-0.249528 -0.879796 6.329960 255 38 0 0.571319
-0.267817 -0.889807 6.249420 255 53 0 0.527978
-0.282086 -0.883974 6.277200 255 41 0 0.564808
-0.308670 -0.882402 6.299580 255 34 0 0.575800
-0.323223 -0.882490 6.328700 255 75 0 0.473251
-0.347304 -0.883320 6.315780 255 34 0 0.578018
-0.332723 -0.883458 6.286730 255 53 0 0.529641
-0.306151 -0.884866 6.264470 255 49 0 0.539178
-0.291672 -0.890519 6.236200 255 41 0 0.557366
-0.265216 -0.900189 6.215950 255 49 0 0.542550
-0.289210 -0.901717 6.203210 255 56 0 0.520480
-0.324933 -0.878848 6.363630 255 67 0 0.495127
-0.338006 -0.874548 6.391210 255 49 0 0.538977
-0.363561 -0.870176 6.412190 255 45 0 0.548968
-0.376436 -0.863507 6.438980 255 56 0 0.518384
-0.400906 -0.864367 6.425860 255 34 0 0.576738
-0.387747 -0.871560 6.399340 255 78 0 0.464070
-0.362377 -0.875714 6.378510 255 53 0 0.533802
-0.348950 -0.880039 6.350770 255 71 0 0.487696
-0.447515 -0.866476 6.401540 255 45 0 0.550922
-0.434193 -0.873801 6.374970 255 60 0 0.510438
-0.409317 -0.878024 6.353950 255 41 0 0.556275
-0.395511 -0.881800 6.325690 255 53 0 0.531436
-0.370281 -0.884153 6.303430 255 53 0 0.534878
-0.393278 -0.885157 6.290900 255 34 0 0.584461
-0.372707 -0.880777 6.338340 255 38 0 0.569261
-0.386005 -0.877174 6.366250 255 82 0 0.456517
-0.411122 -0.873149 6.387490 255 56 0 0.518364
-0.424192 -0.865456 6.413660 255 60 0 0.510746
-0.378898 -0.885569 6.261950 255 56 0 0.523847
-0.352777 -0.887013 6.239490 255 49 0 0.542079
-0.338144 -0.892202 6.211280 255 41 0 0.560084
-0.312240 -0.902622 6.190830 255 53 0 0.527098
-0.335445 -0.903799 6.178200 255 56 0 0.524605
-0.315201 -0.891606 6.223930 255 60 0 0.510709
-0.329661 -0.886144 6.252020 255 45 0 0.547923
-0.355945 -0.884634 6.274630 255 38 0 0.571846
-0.360025 -0.893515 6.199570 255 67 0 0.497294
-0.374346 -0.887938 6.227640 255 45 0 0.547705
-0.399104 -0.886009 6.251070 255 30 0 0.588827
-0.413511 -0.885452 6.279750 255 45 0 0.554689
-0.433720 -0.886503 6.268620 246 12 0 0.650646
-0.419194 -0.886329 6.239560 255 56 0 0.521922
-0.394537 -0.888540 6.216560 255 53 0 0.531028
-0.380136 -0.894179 6.188340 255 56 0 0.521385
-0.355702 -0.904374 6.166950 255 64 0 0.502452
-0.375993 -0.905148 6.155800 255 56 0 0.524947
-0.417239 -0.882780 6.314160 255 38 0 0.571326
-0.430895 -0.878617 6.342440 255 60 0 0.511291
-0.454394 -0.874454 6.364520 255 45 0 0.550376
-0.467531 -0.866978 6.390770 255 64 0 0.506437
-0.487644 -0.867253 6.379940 255 41 0 0.559702
-0.474594 -0.875041 6.353510 255 45 0 0.547478
-0.451158 -0.879252 6.331590 255 30 0 0.593831
-0.437463 -0.882631 6.302790 255 38 0 0.572828
-0.523967 -0.868107 6.360120 255 38 0 0.571769
-0.511125 -0.875743 6.333450 246 12 0 0.643858
-0.488627 -0.881501 6.311070 255 23 0 0.618153
-0.474946 -0.884048 6.282330 255 30 0 0.587437
-0.452087 -0.886928 6.258510 255 19 0 0.620528
-0.470496 -0.887161 6.248300 255 38 0 0.574573
-0.456758 -0.883450 6.292520 237 4 0 0.666818
-0.470373 -0.880092 6.320990 255 49 0 0.541662
-0.492880 -0.875706 6.343860 255 45 0 0.552407
-0.505744 -0.867529 6.369960 255 41 0 0.555543
-0.455922 -0.886962 6.219090 255 27 0 0.600396
-0.432286 -0.889215 6.195520 255 38 0 0.565643
-0.417605 -0.894646 6.167090 255 67 0 0.489538
-0.394476 -0.906074 6.145620 255 82 0 0.457166
-0.412665 -0.906157 6.135150 255 64 0 0.503020
-0.399457 -0.894921 6.177750 255 60 0 0.511255
-0.413799 -0.888958 6.205710 255 64 0 0.502270
-0.437660 -0.886732 6.229480 255 41 0 0.560968
-0.867405 -0.721555 6.469650 255 112 0 0.392935
-0.849232 -0.714690 6.484530 255 127 0 0.360005
-0.832333 -0.731869 6.467340 255 119 0 0.374132
-0.850724 -0.738277 6.451770 255 127 0 0.363475
-0.822255 -0.716805 6.491310 255 127 0 0.362327
-0.795701 -0.719814 6.499180 255 141 0 0.335176
-0.812325 -0.701755 6.511120 255 141 0 0.334398
-0.838963 -0.698442 6.503470 255 123 0 0.366757
-0.839456 -0.748684 6.439300 255 108 0 0.402535
-0.827580 -0.758015 6.425690 255 123 0 0.365366
-0.809651 -0.752483 6.442910 255 127 0 0.362483
-0.815696 -0.767914 6.412190 255 116 0 0.387105
-0.797674 -0.761742 6.429190 255 149 0 0.320004
-0.785844 -0.771575 6.415430 255 119 0 0.375058
-0.803800 -0.777854 6.398250 255 116 0 0.385794
-0.780316 -0.756568 6.446500 255 149 0 0.322664
-0.768087 -0.766174 6.432770 255 164 0 0.293466
-0.750435 -0.760905 6.450060 255 153 0 0.310346
-0.761939 -0.750742 6.463150 255 145 0 0.326774
-0.791445 -0.746091 6.459080 255 141 0 0.331501
-0.773308 -0.740537 6.475690 255 130 0 0.351442
-0.802594 -0.736199 6.471580 255 127 0 0.362866
-0.821084 -0.742127 6.455350 255 134 0 0.347291
-0.784587 -0.729951 6.487730 255 156 0 0.308631
-0.684507 -0.718873 6.528710 255 116 0 0.381488
-0.696684 -0.707614 6.536900 255 141 0 0.331006
-0.712328 -0.718633 6.520850 255 160 0 0.297179
-0.724446 -0.706725 6.527970 255 141 0 0.335271
-0.709013 -0.694924 6.543280 255 138 0 0.340083
-0.740278 -0.718977 6.513080 255 167 0 0.289904
-0.736895 -0.695013 6.534500 255 138 0 0.338776
-0.752423 -0.706973 6.519810 255 141 0 0.333191
-0.764456 -0.694369 6.525860 255 130 0 0.354587
-0.721095 -0.682525 6.549220 255 112 0 0.393463
-0.748640 -0.681705 6.539180 255 108 0 0.396609
-0.732962 -0.669585 6.554020 255 104 0 0.404068
-0.768209 -0.718635 6.505740 255 160 0 0.299588
-0.780093 -0.706950 6.512520 255 138 0 0.343487
-0.756822 -0.729651 6.494530 255 156 0 0.307679
-0.745372 -0.740078 6.482260 255 138 0 0.338670
-0.728960 -0.729257 6.501280 255 153 0 0.314702
-0.717411 -0.739460 6.488480 255 134 0 0.348465
-0.733932 -0.750164 6.469300 255 141 0 0.333480
-0.700933 -0.729195 6.508670 255 127 0 0.360575
-0.764661 -0.662911 6.546630 255 97 0 0.421141
-0.748145 -0.651299 6.557720 255 93 0 0.431290
-0.780994 -0.674755 6.535840 255 108 0 0.399709
-0.796456 -0.688452 6.523320 255 134 0 0.346499
-0.457173 -0.194966 6.568080 255 71 0 0.486442
-0.446109 -0.171622 6.559140 255 67 0 0.489999
-0.433291 -0.192023 6.584330 255 71 0 0.483152
-0.434477 -0.148229 6.549550 255 49 0 0.537635
-0.422292 -0.168544 6.575850 255 71 0 0.486534
-0.410394 -0.145353 6.565460 255 60 0 0.509301
-0.409496 -0.190371 6.599420 255 75 0 0.472476
-0.422349 -0.125147 6.537990 255 49 0 0.538858
-0.410152 -0.102091 6.526350 255 41 0 0.558708
-0.436655 -0.102467 6.508840 255 45 0 0.545435
-0.448887 -0.126250 6.519710 255 45 0 0.545840
-0.461132 -0.149355 6.530900 255 56 0 0.523710
-0.463085 -0.104664 6.489870 255 53 0 0.531069
-0.395781 -0.168787 6.591600 255 75 0 0.477866
-0.384096 -0.189737 6.613910 255 82 0 0.455829
-0.381884 -0.147510 6.582320 255 56 0 0.517416
-0.370326 -0.169370 6.604470 255 82 0 0.457754
-0.356234 -0.149109 6.593770 255 97 0 0.427308
-0.358822 -0.191452 6.625200 255 82 0 0.458015
-0.367423 -0.128044 6.569840 255 71 0 0.484476
-0.352555 -0.107237 6.556660 255 56 0 0.519653
-0.381445 -0.103817 6.542580 255 60 0 0.514406
-0.396530 -0.124475 6.555440 255 53 0 0.528568
-0.336418 -0.037372 6.463420 255 119 0 0.372859
-0.353176 -0.035400 6.455620 255 108 0 0.397187
-0.355606 -0.053774 6.480510 255 93 0 0.427496
-0.371910 -0.051447 6.472310 255 104 0 0.409179
-0.370107 -0.033373 6.447570 255 127 0 0.363458
-0.374122 -0.069857 6.497070 255 90 0 0.438128
-0.388240 -0.049604 6.463300 255 116 0 0.382103
-0.390292 -0.067737 6.487870 255 97 0 0.426813
-0.406592 -0.066225 6.478230 255 104 0 0.406128
-0.386466 -0.031959 6.439200 255 130 0 0.354111
-0.404772 -0.048512 6.454470 255 116 0 0.384591
-0.403039 -0.031037 6.430440 255 153 0 0.313013
-0.392146 -0.085727 6.512230 255 53 0 0.528259
-0.408403 -0.084282 6.502540 255 45 0 0.554624
-0.363504 -0.088169 6.527430 255 64 0 0.501110
-0.345035 -0.071939 6.511040 255 82 0 0.458886
-0.418177 -0.030502 6.422420 255 134 0 0.344325
-0.433562 -0.048601 6.438600 255 108 0 0.401747
-0.433263 -0.030272 6.414250 255 130 0 0.352538
-0.433474 -0.066934 6.462630 255 86 0 0.452346
-0.448168 -0.049794 6.428710 255 123 0 0.365213
-0.448258 -0.067799 6.452770 255 101 0 0.412252
-0.463354 -0.068337 6.442780 255 116 0 0.383410
-0.448011 -0.031265 6.405460 255 134 0 0.344857
-0.463282 -0.050240 6.420240 255 127 0 0.361185
-0.463175 -0.032402 6.397380 255 127 0 0.359146
-0.448300 -0.086039 6.476660 255 60 0 0.508719
-0.463319 -0.086708 6.466500 255 71 0 0.484736
-0.532224 -0.210710 6.505400 255 75 0 0.472682
-0.527250 -0.188087 6.494480 255 82 0 0.457202
-0.515739 -0.206768 6.520450 255 75 0 0.475550
-0.521315 -0.164707 6.483400 255 78 0 0.463187
-0.510071 -0.183252 6.508870 255 78 0 0.463634
-0.504283 -0.159087 6.497080 255 71 0 0.479715
-0.498970 -0.202965 6.534550 255 71 0 0.479492
-0.514757 -0.140524 6.470300 255 82 0 0.459134
-0.507680 -0.114667 6.457570 255 86 0 0.450509
-0.526604 -0.120328 6.445260 255 101 0 0.415409
-0.533812 -0.145307 6.457900 255 82 0 0.454625
-0.540090 -0.169373 6.469500 255 71 0 0.481171
-0.546054 -0.125383 6.433800 255 112 0 0.394898
-0.490870 -0.179151 6.524990 255 71 0 0.479644
-0.478083 -0.198756 6.551710 255 71 0 0.485219
-0.482443 -0.154546 6.514400 255 64 0 0.501756
-0.469911 -0.174090 6.541850 255 71 0 0.487161
-0.472849 -0.129988 6.502240 255 56 0 0.516547
-0.485382 -0.109436 6.473660 255 67 0 0.488875
-0.495326 -0.134373 6.485790 255 71 0 0.488068
-0.487118 -0.055232 6.407110 255 108 0 0.395407
-0.488086 -0.036299 6.385490 255 119 0 0.377659
-0.485619 -0.074183 6.428370 255 90 0 0.442897
-0.510848 -0.078176 6.415180 255 104 0 0.407145
-0.512176 -0.059349 6.394760 255 119 0 0.372578
-0.513494 -0.039333 6.375060 255 134 0 0.349313
-0.496925 -0.094242 6.443520 255 86 0 0.445411
-0.532573 -0.064443 6.385490 255 134 0 0.344092
-0.535448 -0.043949 6.367660 255 145 0 0.327051
-0.530129 -0.083623 6.404540 255 116 0 0.380454
-0.551800 -0.088955 6.395410 255 130 0 0.352803
-0.554588 -0.068818 6.378120 255 156 0 0.308007
-0.557355 -0.048278 6.360750 255 160 0 0.299518
-0.537949 -0.104985 6.418610 255 116 0 0.382323
-0.518849 -0.099081 6.430260 255 104 0 0.409092
-0.633047 -0.191976 6.433480 255 108 0 0.398503
-0.616449 -0.209723 6.451520 255 97 0 0.423690
-0.606007 -0.229769 6.471130 255 71 0 0.483601
-0.635332 -0.171253 6.417750 255 112 0 0.394829
-0.636561 -0.148325 6.403190 255 104 0 0.409755
-0.658398 -0.152542 6.403490 255 104 0 0.408160
-0.596843 -0.205669 6.454870 255 101 0 0.415785
-0.587921 -0.224755 6.474720 255 60 0 0.509850
-0.605203 -0.186869 6.436950 255 104 0 0.406140
-0.606137 -0.165395 6.421730 255 101 0 0.412605
-0.606661 -0.140997 6.407780 255 67 0 0.488450
-0.635642 -0.063218 6.349060 255 175 0 0.278537
-0.635862 -0.087330 6.362280 255 167 0 0.286208
-0.653219 -0.065468 6.348770 255 167 0 0.287450
-0.636389 -0.109474 6.375670 255 134 0 0.344502
-0.653424 -0.089787 6.361900 255 156 0 0.306142
-0.653834 -0.111550 6.374550 255 112 0 0.393954
-0.670946 -0.067053 6.349430 255 156 0 0.307067
-0.636687 -0.129817 6.389120 255 75 0 0.471368
-0.614065 -0.123892 6.392030 255 104 0 0.404784
-0.677658 -0.093428 6.363310 255 141 0 0.333595
-0.694926 -0.070935 6.352060 255 149 0 0.322845
-0.530454 -0.702965 6.600370 255 56 0 0.523262
-0.532658 -0.675742 6.616540 255 56 0 0.516600
-0.541286 -0.649772 6.627530 255 86 0 0.449724
-0.541476 -0.621297 6.639050 255 86 0 0.447442
-0.547474 -0.593094 6.644270 255 82 0 0.461395
-0.532267 -0.589477 6.651170 255 82 0 0.453853
-0.556841 -0.624194 6.631580 255 64 0 0.500543
-0.563329 -0.596681 6.636820 255 45 0 0.553746
-0.558347 -0.652509 6.619130 255 53 0 0.533675
-0.558525 -0.679476 6.603290 255 71 0 0.485808
-0.548683 -0.705011 6.590710 255 78 0 0.465201
-0.567396 -0.707127 6.581320 255 60 0 0.509689
-0.526560 -0.556227 6.648890 255 67 0 0.492803
-0.526726 -0.523060 6.642410 237 4 0 0.668691
-0.519622 -0.486756 6.636750 214 0 0 0.733047
-0.518249 -0.452240 6.628540 178 0 0 0.837971
-0.538874 -0.492955 6.631310 205 0 0 0.754111
-0.548680 -0.528931 6.635790 233 1 0 0.681735
-0.548850 -0.561801 6.640590 255 27 0 0.599793
-0.548143 -0.462924 6.619550 192 0 0 0.788908
-0.559831 -0.499184 6.625280 233 1 0 0.685207
-0.565119 -0.533400 6.630300 255 38 0 0.573994
-0.575204 -0.568340 6.629390 255 60 0 0.509881
-0.582575 -0.601112 6.627150 255 56 0 0.523121
-0.593790 -0.630849 6.611810 255 75 0 0.471964
-0.588264 -0.657216 6.602200 255 41 0 0.564016
-0.590572 -0.683602 6.586370 255 64 0 0.498734
-0.583572 -0.708875 6.572490 255 56 0 0.525272
-0.600027 -0.710522 6.564010 255 67 0 0.497321
-0.574351 -0.681508 6.595340 255 71 0 0.480331
-0.572797 -0.626879 6.623230 255 34 0 0.582057
-0.531842 -0.725470 6.570700 255 56 0 0.519166
-0.533228 -0.748663 6.541310 255 45 0 0.547996
-0.550338 -0.727348 6.561790 255 64 0 0.501723
-0.552095 -0.749954 6.532580 255 60 0 0.512790
-0.534918 -0.772711 6.512490 255 38 0 0.574952
-0.536222 -0.797344 6.483980 255 27 0 0.603592
-0.516278 -0.796793 6.493790 255 27 0 0.605113
-0.514942 -0.771597 6.522140 255 34 0 0.579291
-0.513780 -0.747425 6.551610 255 41 0 0.555428
-0.496372 -0.796183 6.503910 255 27 0 0.606676
-0.568298 -0.728840 6.552010 255 49 0 0.543326
-0.569515 -0.751025 6.522680 255 53 0 0.531546
-0.584731 -0.730375 6.543830 255 49 0 0.539461
-0.585776 -0.752156 6.514410 255 45 0 0.553647
-0.570771 -0.773909 6.493820 255 38 0 0.569297
-0.571672 -0.797675 6.465270 255 38 0 0.568348
-0.553985 -0.797631 6.474680 255 27 0 0.605618
-0.553254 -0.773493 6.503530 255 38 0 0.571500
-0.526684 -0.852590 6.389800 255 53 0 0.529349
-0.529809 -0.835475 6.420240 255 49 0 0.543019
-0.508482 -0.852031 6.399700 255 38 0 0.570275
-0.511814 -0.835757 6.430750 255 38 0 0.566021
-0.532943 -0.816772 6.451560 255 41 0 0.561673
-0.550705 -0.817186 6.442590 255 27 0 0.600908
-0.547612 -0.836165 6.411500 255 38 0 0.568276
-0.489417 -0.852151 6.409790 255 49 0 0.542927
-0.491447 -0.834776 6.440000 255 41 0 0.562766
-0.469284 -0.851759 6.420610 255 53 0 0.533915
-0.471550 -0.834767 6.451290 255 38 0 0.569282
-0.493877 -0.816427 6.471650 255 30 0 0.587949
-0.513851 -0.816649 6.461720 255 30 0 0.588813
-0.611145 -0.858090 6.342660 255 23 0 0.612812
-0.636270 -0.844571 6.356320 255 27 0 0.599835
-0.648306 -0.826285 6.381580 255 27 0 0.604801
-0.673379 -0.811348 6.395550 255 53 0 0.529573
-0.647458 -0.804216 6.418910 255 30 0 0.591307
-0.674686 -0.834359 6.359030 255 49 0 0.540624
-0.700207 -0.819566 6.372980 255 56 0 0.517216
-0.661193 -0.849875 6.337020 255 64 0 0.499006
-0.647262 -0.864165 6.315190 255 41 0 0.557287
-0.656427 -0.780235 6.445500 255 30 0 0.586955
-0.672469 -0.792440 6.426350 255 75 0 0.474046
-0.681642 -0.769544 6.453170 255 75 0 0.474456
-0.665477 -0.758952 6.473470 255 45 0 0.549942
-0.698010 -0.781144 6.433840 255 97 0 0.425967
-0.691040 -0.748791 6.480970 255 71 0 0.483796
-0.707510 -0.759663 6.461320 255 86 0 0.449171
-0.674929 -0.738402 6.501380 255 45 0 0.551231
-0.724143 -0.770622 6.441770 255 108 0 0.399737
-0.724601 -0.788392 6.410360 255 127 0 0.361977
-0.698780 -0.799876 6.403000 255 82 0 0.460565
-0.791244 -0.792589 6.379210 255 93 0 0.435256
-0.777095 -0.805146 6.362470 255 104 0 0.408398
-0.760348 -0.800843 6.376610 255 104 0 0.407806
-0.763298 -0.818298 6.346590 255 104 0 0.403500
-0.746678 -0.813968 6.360470 255 116 0 0.383829
-0.732958 -0.827489 6.344410 255 97 0 0.426542
-0.749416 -0.831631 6.330910 255 93 0 0.433719
-0.730109 -0.809993 6.374390 255 108 0 0.399410
-0.716584 -0.823242 6.358420 255 101 0 0.414125
-0.742318 -0.794344 6.393240 255 141 0 0.331371
-0.754911 -0.779546 6.412800 255 127 0 0.360996
-0.772995 -0.785671 6.395750 255 123 0 0.366593
-0.735821 -0.848562 6.309040 255 108 0 0.398304
-0.720582 -0.860909 6.290110 255 127 0 0.364714
-0.705532 -0.859495 6.300940 255 93 0 0.431008
-0.704938 -0.871779 6.270580 255 97 0 0.422372
-0.690068 -0.870071 6.281400 255 134 0 0.346966
-0.675235 -0.869147 6.292630 255 90 0 0.439459
-0.689000 -0.855224 6.314880 255 67 0 0.494464
-0.702858 -0.839572 6.336630 255 75 0 0.477666
-0.719322 -0.843852 6.322590 255 78 0 0.462982
-0.434346 -0.692244 6.642710 255 45 0 0.555161
-0.437818 -0.718082 6.614030 255 34 0 0.576568
-0.459368 -0.694831 6.632200 255 49 0 0.544473
-0.441403 -0.743763 6.585350 255 27 0 0.600677
-0.462977 -0.719655 6.603520 255 34 0 0.581973
-0.466711 -0.744991 6.574550 255 19 0 0.618449
-0.484403 -0.697294 6.621340 255 45 0 0.545663
-0.444849 -0.769542 6.556110 255 23 0 0.610860
-0.448215 -0.794663 6.527090 255 27 0 0.606518
-0.422997 -0.794142 6.539800 255 27 0 0.604866
-0.419650 -0.768677 6.568700 255 23 0 0.610902
-0.416387 -0.742469 6.597990 255 27 0 0.603020
-0.397721 -0.793778 6.552060 255 27 0 0.603059
-0.487210 -0.721583 6.591830 255 30 0 0.593669
-0.507323 -0.700074 6.611190 255 41 0 0.561776
-0.490049 -0.746096 6.562170 255 30 0 0.592726
-0.510664 -0.723512 6.581380 255 41 0 0.557298
-0.493233 -0.771070 6.532630 255 34 0 0.583071
-0.472246 -0.795634 6.515530 255 27 0 0.606972
-0.469506 -0.770293 6.544610 255 23 0 0.609275
-0.446991 -0.851071 6.431410 255 45 0 0.546015
-0.447059 -0.833935 6.462230 255 34 0 0.584567
-0.424066 -0.850619 6.444260 255 45 0 0.554718
-0.424188 -0.833608 6.475400 255 45 0 0.554191
-0.447354 -0.814830 6.493790 255 34 0 0.584624
-0.471590 -0.815654 6.482750 255 27 0 0.606786
-0.399655 -0.850040 6.456460 255 45 0 0.548262
-0.398411 -0.832972 6.487240 255 45 0 0.552575
-0.375365 -0.849321 6.469920 255 53 0 0.527769
-0.374415 -0.832766 6.501360 255 49 0 0.541220
-0.397813 -0.814174 6.519190 255 34 0 0.579685
-0.423293 -0.814471 6.506910 255 34 0 0.582785
-0.463840 -0.222834 6.573970 255 71 0 0.484336
-0.470527 -0.250713 6.579610 255 64 0 0.497519
-0.484707 -0.225968 6.557680 255 71 0 0.487398
-0.491234 -0.252995 6.563500 255 64 0 0.506530
-0.476469 -0.279564 6.585600 255 53 0 0.533430
-0.482690 -0.308453 6.592860 255 34 0 0.578051
-0.463693 -0.305728 6.606520 255 45 0 0.553428
-0.457204 -0.275713 6.599930 255 60 0 0.513484
-0.450542 -0.246778 6.593900 255 71 0 0.487982
-0.444395 -0.301940 6.620100 255 41 0 0.561099
-0.503054 -0.229516 6.542770 255 71 0 0.486642
-0.506818 -0.256132 6.550030 255 60 0 0.513525
-0.520080 -0.232295 6.528150 255 67 0 0.497171
-0.522510 -0.257975 6.536660 255 49 0 0.538938
-0.509155 -0.283217 6.559530 255 41 0 0.563938
-0.510588 -0.312545 6.571460 255 34 0 0.584660
-0.496801 -0.310276 6.581770 255 19 0 0.621648
-0.494742 -0.281105 6.571550 255 41 0 0.559087
-0.499651 -0.446052 6.634210 228 0 0 0.694958
-0.496931 -0.411767 6.619250 192 0 0 0.795568
-0.489974 -0.375473 6.608000 201 0 0 0.765822
-0.482178 -0.408374 6.625510 228 0 0 0.690444
-0.475156 -0.372085 6.616430 233 1 0 0.676996
-0.484017 -0.442578 6.639070 210 0 0 0.742707
-0.485559 -0.341418 6.599420 219 0 0 0.715683
-0.498890 -0.343170 6.589680 233 1 0 0.683045
-0.503267 -0.377797 6.599790 205 0 0 0.752506
-0.466419 -0.439258 6.646320 246 12 0 0.642470
-0.465090 -0.405729 6.633590 223 0 0 0.702016
-0.456828 -0.369913 6.627380 251 16 0 0.632323
-0.446125 -0.401520 6.642390 255 23 0 0.612572
-0.438393 -0.365744 6.637260 255 23 0 0.614161
-0.447255 -0.435162 6.654080 233 1 0 0.676571
-0.450102 -0.334953 6.623180 255 23 0 0.617304
-0.468855 -0.338334 6.610630 255 34 0 0.578804
-0.637346 -0.285128 6.508770 246 12 0 0.642286
-0.632487 -0.312242 6.528410 255 27 0 0.598591
-0.618162 -0.342740 6.548860 242 8 0 0.655151
-0.617216 -0.312183 6.527570 219 0 0 0.712463
-0.643232 -0.259964 6.489380 255 23 0 0.614098
-0.616900 -0.405499 6.578280 255 53 0 0.535196
-0.621516 -0.433569 6.590410 255 104 0 0.410865
-0.628073 -0.460687 6.600610 255 90 0 0.436766
-0.610816 -0.374768 6.563800 228 0 0 0.693038
-0.590508 -0.470812 6.608030 255 19 0 0.625817
-0.584899 -0.438840 6.594820 228 0 0 0.690429
-0.587420 -0.407137 6.579990 246 12 0 0.646806
-0.587312 -0.373889 6.564430 237 4 0 0.663938
-0.595580 -0.341751 6.548980 210 0 0 0.734944
-0.604212 -0.437215 6.592470 255 49 0 0.539778
-0.610201 -0.466902 6.604180 255 23 0 0.613418
-0.594271 -0.309141 6.527630 192 0 0 0.792175
-0.609893 -0.282336 6.507060 228 0 0 0.686341
-0.620497 -0.257630 6.487970 255 23 0 0.616964
-0.569822 -0.401772 6.580360 214 0 0 0.722589
-0.567408 -0.435424 6.597190 255 23 0 0.608442
-0.573508 -0.469550 6.612430 192 0 0 0.796357
-0.565307 -0.366469 6.565150 219 0 0 0.721671
-0.563650 -0.332072 6.550540 223 0 0 0.707732
-0.579486 -0.338076 6.549380 233 1 0 0.677826
-0.551370 -0.430460 6.600270 210 0 0 0.747020
-0.548904 -0.394563 6.583340 196 0 0 0.773781
-0.545548 -0.358018 6.568320 205 0 0 0.747823
-0.544913 -0.322964 6.553980 255 19 0 0.629119
-0.573762 -0.244483 6.493920 255 30 0 0.593136
-0.570545 -0.270228 6.511220 237 4 0 0.668949
-0.590750 -0.249997 6.490060 255 19 0 0.625557
-0.567205 -0.299221 6.529930 214 0 0 0.725354
-0.553149 -0.293143 6.533570 237 4 0 0.673622
-0.592632 -0.277441 6.507240 223 0 0 0.698161
-0.611667 -0.500258 6.608570 255 27 0 0.605550
-0.633689 -0.528702 6.606400 255 60 0 0.509095
-0.631508 -0.495412 6.603950 255 75 0 0.479025
-0.655355 -0.555941 6.601200 246 12 0 0.646181
-0.675825 -0.581803 6.595000 255 60 0 0.513574
-0.661115 -0.592662 6.596930 255 75 0 0.472336
-0.641646 -0.566566 6.603100 246 12 0 0.642257
-0.620971 -0.538774 6.608360 223 0 0 0.698689
-0.645967 -0.602736 6.598190 255 34 0 0.584808
-0.656621 -0.512261 6.601450 255 64 0 0.506579
-0.687637 -0.568611 6.594430 255 71 0 0.480135
-0.735104 -0.629519 6.567170 255 130 0 0.352218
-0.720612 -0.607375 6.576540 255 123 0 0.369802
-0.706965 -0.626601 6.572960 255 130 0 0.355173
-0.720369 -0.648090 6.562820 255 104 0 0.409790
-0.698306 -0.594784 6.585630 255 116 0 0.386401
-0.699712 -0.666203 6.559080 255 101 0 0.415453
-0.690402 -0.636939 6.574160 255 90 0 0.439960
-0.688374 -0.679422 6.554900 255 112 0 0.390018
-0.678701 -0.650202 6.570430 255 119 0 0.374133
-0.667172 -0.662904 6.565780 255 64 0 0.498173
-0.676284 -0.691068 6.548160 255 119 0 0.372533
-0.668329 -0.620141 6.585610 255 90 0 0.439723
-0.657126 -0.633875 6.582160 255 56 0 0.519979
-0.684457 -0.609881 6.584480 255 86 0 0.448501
-0.503956 -0.482694 6.640350 219 0 0 0.718856
-0.510418 -0.518770 6.647260 255 27 0 0.602899
-0.506184 -0.551141 6.656150 255 49 0 0.541457
-0.511531 -0.585057 6.659180 255 71 0 0.483730
-0.491523 -0.580569 6.666350 255 71 0 0.483271
-0.487754 -0.547124 6.662120 255 49 0 0.542061
-0.491811 -0.514586 6.653160 237 4 0 0.667610
-0.487275 -0.479310 6.645870 237 4 0 0.668608
-0.522300 -0.617442 6.648010 255 64 0 0.506018
-0.522138 -0.646635 6.636560 255 75 0 0.478291
-0.509243 -0.672355 6.627180 255 67 0 0.495865
-0.487537 -0.669112 6.636470 255 64 0 0.503214
-0.500511 -0.642479 6.645960 255 67 0 0.492288
-0.501781 -0.613423 6.656320 255 71 0 0.483359
-0.439063 -0.662655 6.656670 255 53 0 0.526708
-0.454223 -0.634487 6.664230 255 67 0 0.489131
-0.456651 -0.604421 6.672430 255 67 0 0.495917
-0.469174 -0.575776 6.674040 255 60 0 0.513142
-0.446704 -0.570963 6.681030 255 53 0 0.531492
-0.479503 -0.608675 6.664900 255 71 0 0.483464
-0.477891 -0.638492 6.655230 255 75 0 0.477509
-0.462937 -0.665664 6.647190 255 60 0 0.509190
-0.443972 -0.537497 6.675670 255 49 0 0.541975
-0.451012 -0.505393 6.665800 251 16 0 0.633667
-0.448453 -0.470735 6.659510 251 16 0 0.636583
-0.467753 -0.474984 6.652150 237 4 0 0.664940
-0.471918 -0.510361 6.659190 255 38 0 0.572345
-0.465444 -0.542022 6.669150 255 45 0 0.552894
0.019558 0.016977 6.422760 255 112 0 0.389068
0.038914 0.017175 6.431510 255 112 0 0.388544
0.026574 0.006943 6.453090 255 97 0 0.421804
0.007017 0.007409 6.444400 255 123 0 0.371855
0.046345 0.006646 6.461800 255 97 0 0.421920
0.014007 -0.001558 6.475290 255 112 0 0.390114
0.033583 -0.002423 6.484080 255 93 0 0.431385
0.020871 -0.010283 6.506710 255 101 0 0.411915
-0.005614 -0.000613 6.466790 255 112 0 0.389533
0.001124 -0.008713 6.498400 255 104 0 0.410205
-0.018384 -0.007790 6.489670 255 123 0 0.371154
0.053365 -0.003449 6.492440 255 93 0 0.431622
0.040443 -0.011384 6.515360 255 90 0 0.438194
0.060288 -0.012899 6.523780 255 90 0 0.438505
0.074638 -0.005042 6.501730 255 93 0 0.430250
0.067434 0.006115 6.471360 255 97 0 0.421266
0.088496 0.005627 6.481010 255 101 0 0.418784
0.081114 0.017404 6.451170 255 104 0 0.409893
0.060011 0.017196 6.441130 255 104 0 0.410871
0.102237 0.017722 6.461350 255 104 0 0.407570
-0.031379 -0.018687 6.511980 255 104 0 0.407530
-0.013539 -0.019032 6.520400 255 104 0 0.409875
-0.026822 -0.029393 6.542990 255 93 0 0.433112
-0.044617 -0.028817 6.534470 255 104 0 0.405812
-0.008764 -0.030187 6.551050 255 90 0 0.436830
-0.040035 -0.038588 6.565120 255 93 0 0.431356
-0.022364 -0.040021 6.573060 255 93 0 0.434918
-0.035471 -0.048586 6.594760 255 93 0 0.432002
-0.057521 -0.038663 6.556410 255 93 0 0.429190
-0.052954 -0.048588 6.585910 255 93 0 0.428726
-0.070227 -0.048611 6.577310 255 97 0 0.426731
-0.004375 -0.040834 6.581530 255 90 0 0.439210
-0.017815 -0.049866 6.603430 255 90 0 0.436186
0.000115 -0.051488 6.611730 255 90 0 0.440420
0.015047 -0.042887 6.590340 255 90 0 0.443201
0.010699 -0.031352 6.560090 255 90 0 0.440823
0.030131 -0.033233 6.568460 255 90 0 0.444079
0.025875 -0.021594 6.537670 255 90 0 0.440572
0.006112 -0.020259 6.529010 255 90 0 0.437678
0.045406 -0.022956 6.546110 255 90 0 0.442607
0.070244 -0.045922 6.617180 255 82 0 0.457653
0.087324 -0.036120 6.595210 255 82 0 0.455023
0.067048 -0.034426 6.586400 255 86 0 0.451273
0.104718 -0.026355 6.572840 255 86 0 0.447093
0.084358 -0.024890 6.563870 255 86 0 0.445859
0.100980 -0.014339 6.542080 255 90 0 0.436405
0.121533 -0.015156 6.550990 255 93 0 0.434738
0.064025 -0.023503 6.554890 255 86 0 0.444388
0.080652 -0.013664 6.532910 255 90 0 0.437799
0.048733 -0.033991 6.577270 255 86 0 0.447465
0.033492 -0.043863 6.599260 255 86 0 0.447645
0.052023 -0.044962 6.608220 255 86 0 0.452518
0.036627 -0.054490 6.630100 255 86 0 0.450432
0.018377 -0.052546 6.621010 255 86 0 0.445286
0.054969 -0.056153 6.639010 255 82 0 0.455789
0.135874 -0.004290 6.530490 255 101 0 0.418956
0.151008 0.008339 6.512120 255 108 0 0.402427
0.129363 0.007430 6.501150 255 104 0 0.409071
0.165427 0.021322 6.494820 255 112 0 0.389930
0.144134 0.020385 6.483280 255 108 0 0.397190
0.122573 0.019232 6.471830 255 104 0 0.403304
0.108886 0.006421 6.491000 255 101 0 0.414480
0.095021 -0.004790 6.511360 255 97 0 0.427131
0.115483 -0.004544 6.520960 255 97 0 0.423205
0.201822 0.000834 6.097500 255 90 0 0.439364
0.192840 0.009161 6.114270 255 97 0 0.427457
0.216066 0.009385 6.125740 255 86 0 0.445063
0.206928 0.016996 6.142580 255 86 0 0.446481
0.183562 0.016779 6.131220 255 93 0 0.428497
0.229878 0.016574 6.154140 255 78 0 0.469112
0.197291 0.023668 6.159900 255 82 0 0.454365
0.220400 0.023628 6.171210 255 108 0 0.398101
0.210419 0.029842 6.188750 255 127 0 0.361124
0.173847 0.023443 6.148630 255 93 0 0.435210
0.187300 0.029777 6.177670 255 97 0 0.419792
0.163768 0.029278 6.166500 255 82 0 0.458936
0.243157 0.023052 6.182570 255 141 0 0.333512
0.233422 0.029708 6.200140 255 149 0 0.316622
0.256323 0.029183 6.211630 255 167 0 0.289924
0.266104 0.022450 6.194640 255 156 0 0.306616
0.252598 0.015972 6.165970 255 112 0 0.395214
0.275309 0.015119 6.178100 255 141 0 0.335015
0.261596 0.008457 6.149690 255 67 0 0.490519
0.238899 0.009107 6.137760 255 78 0 0.465570
0.247693 0.001081 6.121580 255 75 0 0.471119
0.284291 0.007375 6.161930 255 108 0 0.402014
0.270448 0.000369 6.133580 255 71 0 0.487692
0.293162 -0.000561 6.145780 255 60 0 0.514942
0.224945 0.001188 6.109480 255 82 0 0.454906
0.153205 0.032235 6.185630 255 119 0 0.372566
0.176143 0.032925 6.196040 255 108 0 0.397033
0.165518 0.035765 6.215320 255 138 0 0.337261
0.142744 0.035059 6.204850 255 116 0 0.384923
0.188130 0.036218 6.225710 255 119 0 0.374026
0.154969 0.038675 6.234430 255 160 0 0.302448
0.177557 0.039194 6.245020 255 153 0 0.311221
0.132542 0.038130 6.223920 255 134 0 0.344335
0.200232 0.039450 6.255950 255 104 0 0.409980
0.223278 0.039474 6.267440 255 101 0 0.417956
0.211271 0.036394 6.237140 255 119 0 0.379791
0.234227 0.036295 6.248790 255 116 0 0.387193
0.222355 0.033274 6.218550 255 134 0 0.349662
0.199211 0.033191 6.207190 255 127 0 0.362088
0.245400 0.032966 6.230070 255 138 0 0.340906
0.294189 0.039874 6.304750 255 93 0 0.429195
0.306188 0.036177 6.286140 255 93 0 0.430422
0.281702 0.036651 6.272960 255 116 0 0.385388
0.318016 0.031986 6.267820 255 93 0 0.431879
0.293489 0.032813 6.254760 255 116 0 0.385925
0.305238 0.028332 6.236880 255 116 0 0.386513
0.329640 0.027157 6.250090 255 93 0 0.432942
0.269056 0.033115 6.241910 255 141 0 0.336324
0.280797 0.029040 6.224150 255 141 0 0.335675
0.257986 0.036649 6.260710 255 112 0 0.389260
0.247057 0.039913 6.279580 255 97 0 0.426942
0.270582 0.040073 6.292210 255 93 0 0.432342
0.339098 0.019537 6.233320 255 86 0 0.445058
0.348630 0.011358 6.217480 255 104 0 0.408227
0.324077 0.012980 6.203850 255 101 0 0.418685
0.357857 0.003042 6.201730 255 116 0 0.384188
0.333432 0.004796 6.188190 255 108 0 0.402048
0.342576 -0.002919 6.172510 255 86 0 0.444856
0.367079 -0.004781 6.185830 255 101 0 0.418453
0.308777 0.006204 6.174780 255 97 0 0.420873
0.317954 -0.001611 6.159020 255 75 0 0.475500
0.299716 0.014322 6.190830 255 119 0 0.376513
0.290385 0.022021 6.207240 255 130 0 0.353171
0.314844 0.020923 6.220120 255 108 0 0.403046
-0.058559 -0.888881 6.325610 255 86 0 0.452437
-0.071615 -0.879527 6.349730 255 60 0 0.515714
-0.096751 -0.875505 6.370270 255 53 0 0.535074
-0.110142 -0.873433 6.397430 255 71 0 0.483377
-0.135521 -0.874666 6.420420 255 60 0 0.508840
-0.111808 -0.872392 6.430880 255 75 0 0.471052
-0.133930 -0.875403 6.387130 255 64 0 0.500389
-0.159257 -0.876158 6.409510 255 41 0 0.563334
-0.120334 -0.877206 6.358970 255 82 0 0.454560
-0.106721 -0.882781 6.332790 255 45 0 0.546235
-0.081729 -0.891269 6.313840 255 67 0 0.497015
-0.105235 -0.892750 6.301740 255 45 0 0.549720
-0.124637 -0.870305 6.458970 255 41 0 0.559790
-0.149718 -0.869128 6.482860 246 12 0 0.642482
-0.162664 -0.865244 6.511470 255 49 0 0.540887
-0.187718 -0.859773 6.534560 255 53 0 0.531340
-0.164319 -0.857974 6.545150 255 41 0 0.558806
-0.186203 -0.866152 6.500960 255 60 0 0.514096
-0.211167 -0.860517 6.523330 255 56 0 0.524116
-0.173321 -0.870400 6.472180 255 60 0 0.513571
-0.160185 -0.873131 6.443610 255 23 0 0.616912
-0.233283 -0.867982 6.479600 255 45 0 0.552967
-0.219963 -0.872036 6.450680 255 49 0 0.540227
-0.195298 -0.874096 6.427300 255 53 0 0.527407
-0.182524 -0.877207 6.398500 255 53 0 0.529122
-0.196552 -0.871278 6.461520 255 56 0 0.523434
-0.209700 -0.866978 6.489910 255 41 0 0.563069
-0.234546 -0.861532 6.512660 255 49 0 0.545235
-0.180567 -0.877244 6.364720 255 75 0 0.476630
-0.166729 -0.879829 6.336550 255 30 0 0.587971
-0.141464 -0.884425 6.315510 255 49 0 0.537117
-0.128186 -0.894317 6.289870 255 60 0 0.509434
-0.143613 -0.878293 6.347720 255 45 0 0.546845
