ply
format ascii 1.0
comment VCGLIB generated
element vertex 1009
property float x
property float y
property float z
property uchar red
property uchar green
property uchar blue
property float quality
end_header
0.091335 -0.959232 5.749690 255 60 0 0.513747
0.115255 -0.938749 5.731470 255 56 0 0.524252
0.109565 -0.951976 5.761780 255 67 0 0.493921
0.134000 -0.855225 5.680560 255 41 0 0.561871
0.129689 -0.883925 5.695930 255 49 0 0.536252
0.144927 -0.877839 5.710790 255 53 0 0.528478
0.148910 -0.848969 5.695820 255 60 0 0.512963
0.131749 -0.908400 5.719620 255 56 0 0.516653
0.115303 -0.916432 5.705530 255 53 0 0.534371
0.163780 -0.840965 5.712820 255 71 0 0.482884
0.160082 -0.869864 5.726510 255 71 0 0.485714
0.174477 -0.862308 5.743980 255 75 0 0.476637
0.177443 -0.832709 5.731170 255 71 0 0.485181
0.162956 -0.893621 5.749170 255 67 0 0.489776
0.147493 -0.901644 5.734100 255 64 0 0.502003
0.194332 -0.948643 5.891570 255 78 0 0.467171
0.196148 -0.933049 5.862130 255 78 0 0.465114
0.175597 -0.953821 5.877130 255 56 0 0.523359
0.177828 -0.938895 5.847260 255 67 0 0.488324
0.196942 -0.917149 5.833950 255 75 0 0.476556
0.196990 -0.900416 5.806400 255 75 0 0.477061
0.213407 -0.892242 5.824200 255 53 0 0.531846
0.213954 -0.910260 5.850640 255 86 0 0.448045
0.213790 -0.926863 5.878200 255 93 0 0.431212
0.230761 -0.883533 5.842010 255 53 0 0.530960
0.156436 -0.958664 5.862720 255 53 0 0.535363
0.159834 -0.944663 5.832350 255 75 0 0.476250
0.136748 -0.963035 5.849750 255 56 0 0.524093
0.162735 -0.930408 5.802300 255 78 0 0.469625
0.181062 -0.908124 5.789190 255 78 0 0.469235
0.179824 -0.923783 5.818000 255 82 0 0.460232
0.191929 -0.823498 5.749510 255 49 0 0.543442
0.188953 -0.852892 5.761660 255 67 0 0.492139
0.204127 -0.844051 5.780580 255 53 0 0.526715
0.207622 -0.814885 5.768270 255 56 0 0.517421
0.192925 -0.876718 5.783840 255 71 0 0.481441
0.178021 -0.885666 5.766180 255 71 0 0.482226
0.225033 -0.805464 5.786620 255 60 0 0.512339
0.221155 -0.834482 5.799150 255 56 0 0.520411
0.239949 -0.826058 5.817290 255 45 0 0.551295
0.244063 -0.796361 5.804500 255 71 0 0.480438
0.225922 -0.858939 5.820910 255 45 0 0.545424
0.208742 -0.868153 5.802640 255 71 0 0.487162
0.320578 -0.772747 5.856140 255 71 0 0.484750
0.315402 -0.798140 5.871300 255 101 0 0.417093
0.298402 -0.829719 5.878470 255 67 0 0.488613
0.292370 -0.858747 5.891500 255 67 0 0.496681
0.270320 -0.867054 5.875950 255 75 0 0.474891
0.276054 -0.837946 5.863450 255 45 0 0.549639
0.292921 -0.805241 5.858080 255 60 0 0.512017
0.298223 -0.778384 5.843050 255 75 0 0.476743
0.293465 -0.878494 5.916720 255 30 0 0.596586
0.282980 -0.901599 5.934740 255 53 0 0.532304
0.261945 -0.929014 5.944670 255 60 0 0.507297
0.241269 -0.935340 5.929290 255 71 0 0.486259
0.261508 -0.909829 5.918810 255 53 0 0.534513
0.271496 -0.886446 5.901240 255 93 0 0.429207
0.212670 -0.943949 5.906980 255 104 0 0.407346
0.232221 -0.921539 5.894660 255 82 0 0.457113
0.231697 -0.902986 5.867900 255 64 0 0.499914
0.249993 -0.875327 5.859590 255 38 0 0.568222
0.250765 -0.894897 5.885080 255 78 0 0.464624
0.245218 -0.851091 5.839110 255 53 0 0.531613
0.260864 -0.818595 5.834530 255 64 0 0.497703
0.264536 -0.788380 5.821810 255 60 0 0.514663
0.216272 -0.155281 5.713640 255 90 0 0.438702
0.221222 -0.185994 5.706500 255 97 0 0.427278
0.203634 -0.190849 5.696330 255 86 0 0.444810
0.207836 -0.222135 5.690370 255 71 0 0.483452
0.225167 -0.217658 5.700170 255 78 0 0.463320
0.189981 -0.226738 5.680560 255 78 0 0.468718
0.211245 -0.252792 5.684840 255 67 0 0.491822
0.193940 -0.256582 5.674960 255 64 0 0.506140
0.198776 -0.284922 5.669000 255 64 0 0.498075
0.228387 -0.248714 5.694490 255 38 0 0.566297
0.215829 -0.281568 5.678540 255 49 0 0.536807
0.232408 -0.278537 5.688490 255 60 0 0.507171
0.176524 -0.259529 5.665240 255 60 0 0.510334
0.181593 -0.287332 5.659250 255 56 0 0.517952
0.164259 -0.289587 5.649980 255 56 0 0.520801
0.158173 -0.261714 5.655510 255 45 0 0.551234
0.171456 -0.230050 5.670390 255 41 0 0.558829
0.152802 -0.233064 5.660210 255 67 0 0.494743
0.166033 -0.198941 5.675360 255 71 0 0.487397
0.184986 -0.194991 5.685880 255 49 0 0.540707
0.179210 -0.163419 5.692250 255 82 0 0.461140
0.147144 -0.202539 5.665020 255 97 0 0.426875
0.160072 -0.167787 5.681570 255 97 0 0.421359
0.141055 -0.172168 5.670740 255 86 0 0.444925
0.198021 -0.159135 5.702980 255 64 0 0.501282
0.235502 -0.309937 5.684740 255 86 0 0.450210
0.220219 -0.313259 5.676290 255 101 0 0.411559
0.224268 -0.343178 5.673270 255 112 0 0.389308
0.239333 -0.340140 5.681700 255 90 0 0.441741
0.209308 -0.345462 5.664940 255 130 0 0.357053
0.228022 -0.371567 5.671210 255 130 0 0.353835
0.213108 -0.373405 5.663750 255 119 0 0.374279
0.243109 -0.368773 5.678800 255 75 0 0.470432
0.197451 -0.375525 5.656570 255 138 0 0.337588
0.180898 -0.375792 5.648860 255 112 0 0.394733
0.192573 -0.347336 5.656090 255 86 0 0.447115
0.175587 -0.348451 5.648000 255 104 0 0.404126
0.186766 -0.317953 5.657710 255 78 0 0.465651
0.203617 -0.315768 5.666910 255 75 0 0.471349
0.169706 -0.319640 5.648600 255 86 0 0.447654
0.116124 -0.377220 5.615570 255 153 0 0.311632
0.133426 -0.377506 5.624880 255 160 0 0.298276
0.126848 -0.351039 5.622240 255 164 0 0.296015
0.109533 -0.351051 5.613300 255 141 0 0.334915
0.144055 -0.350730 5.631800 255 134 0 0.350602
0.119477 -0.323266 5.621020 255 145 0 0.325750
0.136527 -0.322379 5.630660 255 134 0 0.347167
0.129438 -0.293293 5.630250 255 112 0 0.392083
0.102279 -0.324480 5.611230 255 123 0 0.367188
0.112016 -0.295364 5.620410 255 108 0 0.396735
0.094568 -0.296564 5.610590 255 82 0 0.461486
0.153785 -0.321698 5.640100 255 101 0 0.414708
0.146848 -0.291324 5.640110 255 112 0 0.391297
0.159903 -0.349961 5.639730 255 123 0 0.366656
0.165319 -0.376788 5.640890 255 127 0 0.359832
0.149272 -0.377442 5.632730 255 130 0 0.352915
0.087061 -0.270788 5.614240 255 97 0 0.420438
0.105325 -0.269341 5.625090 255 71 0 0.481272
0.098333 -0.242005 5.628120 255 86 0 0.444668
0.079860 -0.243829 5.618060 255 112 0 0.391078
0.117008 -0.240047 5.638920 255 60 0 0.509161
0.091413 -0.214043 5.631780 255 116 0 0.384323
0.110268 -0.210796 5.642720 255 86 0 0.450799
0.102809 -0.181267 5.647550 255 112 0 0.395332
0.072843 -0.216569 5.621370 255 138 0 0.341511
0.084188 -0.185051 5.635950 255 130 0 0.356479
0.065565 -0.188363 5.624570 255 127 0 0.358219
0.129027 -0.207275 5.654080 255 60 0 0.506931
0.121708 -0.177058 5.659160 255 90 0 0.444020
0.134922 -0.236714 5.649410 255 82 0 0.461261
0.140533 -0.264583 5.644840 255 82 0 0.457016
0.122919 -0.267217 5.635010 255 93 0 0.428349
0.351510 -0.157898 5.778330 255 86 0 0.447987
0.354775 -0.186550 5.768960 255 75 0 0.478405
0.336630 -0.190234 5.758900 255 71 0 0.479457
0.356503 -0.216975 5.760060 255 64 0 0.503172
0.337827 -0.221206 5.750180 255 64 0 0.503655
0.338494 -0.252983 5.741910 255 67 0 0.491454
0.357150 -0.249112 5.751680 255 60 0 0.516007
0.319130 -0.225712 5.740610 255 75 0 0.471522
0.319893 -0.257188 5.732580 255 64 0 0.501063
0.301544 -0.261506 5.723800 255 64 0 0.505081
0.299559 -0.230235 5.731030 255 64 0 0.498243
0.317137 -0.194072 5.748280 255 71 0 0.481614
0.297625 -0.198726 5.738300 255 82 0 0.453176
0.313876 -0.164489 5.756790 255 93 0 0.430018
0.332802 -0.160949 5.767530 255 86 0 0.449277
0.327749 -0.133047 5.776370 255 108 0 0.399130
0.294677 -0.168464 5.746480 255 90 0 0.439620
0.308962 -0.136537 5.765720 255 104 0 0.404377
0.289870 -0.140120 5.755180 255 104 0 0.408694
0.346319 -0.129773 5.787220 255 101 0 0.419215
0.356587 -0.284104 5.747280 255 60 0 0.514684
0.355904 -0.317286 5.741710 255 64 0 0.503889
0.338707 -0.321226 5.732900 255 67 0 0.496996
0.355378 -0.349167 5.737370 255 71 0 0.483803
0.338658 -0.352477 5.728420 255 64 0 0.497558
0.322134 -0.355433 5.719860 255 93 0 0.432039
0.304854 -0.358423 5.711060 255 108 0 0.396159
0.320741 -0.324818 5.723780 255 67 0 0.488492
0.303042 -0.327930 5.714740 255 104 0 0.406231
0.319925 -0.291779 5.728020 255 71 0 0.481052
0.338105 -0.288009 5.737410 255 60 0 0.510944
0.301893 -0.295618 5.719330 255 78 0 0.464759
0.259240 -0.366971 5.686910 255 108 0 0.403087
0.255725 -0.337669 5.689760 255 71 0 0.482130
0.272191 -0.335031 5.698750 255 119 0 0.377200
0.252656 -0.306589 5.693370 255 67 0 0.491921
0.269385 -0.303160 5.702110 255 71 0 0.481186
0.267216 -0.270326 5.705710 255 60 0 0.510886
0.249862 -0.274480 5.697030 255 56 0 0.517842
0.286154 -0.299259 5.710770 255 90 0 0.436771
0.284361 -0.265945 5.714620 255 34 0 0.579244
0.287806 -0.331373 5.706520 255 116 0 0.384150
0.289536 -0.361891 5.702840 255 134 0 0.347372
0.274280 -0.364597 5.694620 255 97 0 0.426096
0.247066 -0.244319 5.703610 255 60 0 0.512303
0.243952 -0.213036 5.709560 255 41 0 0.559230
0.262409 -0.208769 5.719200 255 67 0 0.494678
0.240258 -0.181470 5.716250 255 71 0 0.480777
0.258796 -0.177007 5.726150 255 64 0 0.506673
0.253679 -0.147100 5.733800 255 90 0 0.437778
0.235225 -0.151102 5.723580 255 93 0 0.435093
0.277171 -0.172892 5.736370 255 82 0 0.454056
0.271806 -0.143428 5.744290 255 67 0 0.495236
0.280072 -0.203574 5.728490 255 67 0 0.493277
0.282177 -0.234860 5.721560 255 49 0 0.535747
0.264710 -0.239630 5.712510 255 45 0 0.552674
0.195669 -0.009921 6.070190 255 116 0 0.386108
0.205127 -0.021137 6.053790 255 108 0 0.396111
0.183974 -0.021317 6.042160 255 127 0 0.359317
0.214886 -0.031152 6.036510 255 130 0 0.353572
0.193726 -0.031437 6.024840 255 112 0 0.387669
0.203898 -0.039398 6.006540 255 130 0 0.354746
0.225050 -0.038993 6.018090 255 108 0 0.401159
0.172087 -0.031875 6.013220 255 138 0 0.342936
0.182363 -0.040071 5.994880 255 127 0 0.364041
0.160518 -0.040982 5.982970 255 156 0 0.306352
0.150319 -0.032590 6.001780 255 127 0 0.360656
0.162166 -0.021515 6.030990 255 116 0 0.387268
0.140209 -0.022207 6.019730 255 123 0 0.366791
0.152342 -0.010023 6.048060 255 130 0 0.356684
0.174155 -0.009909 6.059090 255 112 0 0.388410
0.130301 -0.010536 6.036860 255 138 0 0.340634
0.235588 -0.046175 5.998960 255 127 0 0.364166
0.246510 -0.049822 5.978800 255 116 0 0.385680
0.225486 -0.050627 5.966940 255 130 0 0.357786
0.258010 -0.049794 5.957180 255 119 0 0.377074
0.237066 -0.050797 5.945190 255 101 0 0.412777
0.249242 -0.049070 5.922500 255 123 0 0.370527
0.270118 -0.047697 5.934580 255 101 0 0.413473
0.215726 -0.052351 5.933090 255 123 0 0.365463
0.228033 -0.050868 5.910380 255 112 0 0.391110
0.206446 -0.052777 5.898440 255 141 0 0.334239
0.193954 -0.053888 5.921340 255 119 0 0.375517
0.203910 -0.051744 5.955330 255 104 0 0.408523
0.182092 -0.053342 5.943340 255 123 0 0.372423
0.192834 -0.047647 5.975830 255 112 0 0.388774
0.214464 -0.046672 5.987450 255 119 0 0.372979
0.171030 -0.048938 5.963860 255 138 0 0.342453
0.127844 -0.058495 5.851500 255 104 0 0.407442
0.115538 -0.058604 5.874090 255 108 0 0.402624
0.135403 -0.057248 5.884990 255 116 0 0.386327
0.123479 -0.055921 5.906740 255 119 0 0.377925
0.103674 -0.056951 5.895500 255 112 0 0.393918
0.143246 -0.054960 5.918210 255 134 0 0.346807
0.112292 -0.051388 5.927770 255 123 0 0.369944
0.131869 -0.050533 5.939610 255 116 0 0.380117
0.121029 -0.042051 5.959590 255 123 0 0.371846
0.092558 -0.052126 5.916170 255 116 0 0.384934
0.101413 -0.043140 5.947810 255 112 0 0.388285
0.081931 -0.043935 5.936020 255 119 0 0.379505
0.151502 -0.049581 5.951260 255 123 0 0.368750
0.140876 -0.041369 5.971240 255 138 0 0.340537
0.162831 -0.053688 5.930660 255 130 0 0.356040
0.174574 -0.054909 5.909100 255 153 0 0.315137
0.155019 -0.055964 5.896820 255 130 0 0.354159
0.167333 -0.055291 5.874760 255 108 0 0.398929
0.186909 -0.053804 5.886440 255 123 0 0.365450
0.147731 -0.056876 5.862990 255 101 0 0.416557
0.071413 -0.034957 5.955950 255 130 0 0.355982
0.090952 -0.034526 5.966910 255 127 0 0.364026
0.080856 -0.023429 5.985940 255 138 0 0.340775
0.061280 -0.024182 5.975040 255 130 0 0.355917
0.100520 -0.022962 5.996620 255 138 0 0.340108
0.071221 -0.011770 6.004130 255 138 0 0.340962
0.090841 -0.011192 6.014670 255 130 0 0.355873
0.051673 -0.012654 5.993540 255 149 0 0.321231
0.110528 -0.010953 6.025400 255 123 0 0.367515
0.120416 -0.022342 6.008210 255 134 0 0.349884
0.130521 -0.032909 5.990290 255 156 0 0.306953
0.110589 -0.033624 5.978580 255 138 0 0.336735
0.190713 -0.134366 5.714600 255 101 0 0.412972
0.172035 -0.138130 5.703730 255 108 0 0.402053
0.163512 -0.116653 5.716430 255 130 0 0.356688
0.153094 -0.142479 5.692880 255 104 0 0.407573
0.144797 -0.120457 5.705500 255 116 0 0.386487
0.125791 -0.124635 5.694520 255 108 0 0.396310
0.133964 -0.146911 5.682040 255 101 0 0.413198
0.135098 -0.102190 5.719430 255 127 0 0.363519
0.116548 -0.105901 5.708180 255 116 0 0.385621
0.106279 -0.090240 5.723550 255 123 0 0.369602
0.124584 -0.086920 5.734480 255 119 0 0.373430
0.153456 -0.098915 5.730190 255 123 0 0.365368
0.142675 -0.084000 5.745690 255 130 0 0.353782
0.171624 -0.095606 5.740950 255 134 0 0.348229
0.181777 -0.113476 5.726900 255 127 0 0.362323
0.199647 -0.110393 5.737510 255 134 0 0.348023
0.160628 -0.081063 5.756720 255 149 0 0.321321
0.189474 -0.092782 5.751880 255 153 0 0.315027
0.178430 -0.078229 5.767810 255 171 0 0.284376
0.208750 -0.131297 5.724980 255 101 0 0.412450
0.114866 -0.151325 5.671250 255 123 0 0.367349
0.095862 -0.156171 5.659310 255 116 0 0.383351
0.087927 -0.133400 5.672680 255 130 0 0.356594
0.076985 -0.160721 5.647550 255 123 0 0.366744
0.068899 -0.138347 5.660800 255 123 0 0.370030
0.050516 -0.142432 5.648500 255 130 0 0.355214
0.058384 -0.164943 5.635950 255 130 0 0.351086
0.060762 -0.117867 5.674700 255 127 0 0.364292
0.042167 -0.122305 5.662400 255 127 0 0.364962
0.033349 -0.104331 5.677450 255 123 0 0.372321
0.051420 -0.100952 5.688920 255 123 0 0.371566
0.079322 -0.113909 5.685950 255 127 0 0.362861
0.069797 -0.097359 5.700470 255 123 0 0.370177
0.097950 -0.109830 5.697090 255 127 0 0.361397
0.106800 -0.129058 5.683530 255 130 0 0.356490
0.088145 -0.093838 5.712010 255 123 0 0.369226
-0.009049 -0.069700 5.762080 255 116 0 0.384588
0.007766 -0.068503 5.773310 255 116 0 0.382543
0.019419 -0.074273 5.752650 255 119 0 0.379743
0.036833 -0.072438 5.763700 255 119 0 0.379091
0.024929 -0.067178 5.784730 255 116 0 0.380879
0.048552 -0.078575 5.742850 255 119 0 0.373997
0.054286 -0.070587 5.774600 255 119 0 0.379380
0.066096 -0.076271 5.753550 255 119 0 0.374468
0.083504 -0.073939 5.763990 255 119 0 0.376211
0.042294 -0.065465 5.795790 255 116 0 0.380273
0.071434 -0.068423 5.785300 255 116 0 0.381241
0.059143 -0.064168 5.806950 255 116 0 0.381485
0.077511 -0.083640 5.733360 255 123 0 0.369430
0.094933 -0.080940 5.743560 255 123 0 0.370610
0.059560 -0.086528 5.721170 255 123 0 0.369565
0.041474 -0.089684 5.709230 255 123 0 0.370396
0.030739 -0.080955 5.730410 255 119 0 0.374337
0.013227 -0.083159 5.717930 255 119 0 0.375191
0.023568 -0.092513 5.697300 255 123 0 0.371108
0.002129 -0.075916 5.739670 255 116 0 0.381020
0.076209 -0.062425 5.817750 255 116 0 0.386812
0.088648 -0.066476 5.797160 255 127 0 0.363185
0.106201 -0.064489 5.807930 255 123 0 0.368851
0.093420 -0.060916 5.828750 255 112 0 0.392819
0.118815 -0.069054 5.787020 255 145 0 0.328031
0.123687 -0.062557 5.818770 255 119 0 0.375128
0.136507 -0.066601 5.797420 255 141 0 0.333516
0.154115 -0.064208 5.807910 255 119 0 0.375650
0.110741 -0.059696 5.840120 255 108 0 0.399893
0.141120 -0.060709 5.829700 255 104 0 0.406446
0.148810 -0.072718 5.777150 255 167 0 0.287003
0.166430 -0.070155 5.787360 255 141 0 0.330947
0.130925 -0.075370 5.765930 255 149 0 0.321971
0.113013 -0.078061 5.754730 255 130 0 0.352604
0.101081 -0.071452 5.775450 255 127 0 0.358733
-0.068734 -0.018419 5.924470 255 104 0 0.411190
-0.051571 -0.017696 5.934020 255 141 0 0.331287
-0.041530 -0.028324 5.913870 255 119 0 0.379392
-0.034379 -0.016828 5.943590 255 149 0 0.322763
-0.024359 -0.027723 5.923590 255 141 0 0.333123
-0.006837 -0.027074 5.933370 255 127 0 0.364130
-0.016960 -0.015769 5.953270 255 138 0 0.341806
-0.014065 -0.037796 5.903590 255 123 0 0.369812
0.003299 -0.037289 5.913270 255 130 0 0.351852
0.014011 -0.045597 5.892600 255 123 0 0.365384
-0.003019 -0.046210 5.882130 255 123 0 0.367889
-0.030836 -0.038397 5.893030 255 119 0 0.374312
-0.019894 -0.046732 5.871680 255 123 0 0.371925
-0.047311 -0.038998 5.882400 255 119 0 0.379997
-0.057999 -0.029084 5.903410 255 112 0 0.394367
-0.074280 -0.029770 5.892820 255 101 0 0.412498
-0.036566 -0.047040 5.861250 255 119 0 0.376875
-0.063530 -0.039439 5.871870 255 112 0 0.394677
-0.052713 -0.047275 5.850810 255 116 0 0.382075
-0.084937 -0.019440 5.913800 255 93 0 0.430421
-0.000312 -0.014443 5.964170 255 127 0 0.362873
0.016945 -0.013701 5.974110 255 149 0 0.320896
0.026645 -0.024935 5.955410 255 123 0 0.370300
0.034381 -0.013048 5.983860 255 141 0 0.332725
0.043944 -0.024501 5.965260 255 141 0 0.333020
0.053966 -0.035263 5.946160 255 119 0 0.373443
0.064913 -0.044507 5.924940 255 119 0 0.373817
0.036942 -0.035997 5.935100 255 123 0 0.369437
0.047694 -0.044746 5.914050 255 123 0 0.369554
0.020173 -0.036608 5.924210 255 123 0 0.367295
0.009740 -0.025964 5.944370 255 130 0 0.353289
0.030773 -0.045110 5.903550 255 123 0 0.366903
0.098411 -0.059225 5.863760 255 112 0 0.395262
0.081161 -0.060075 5.852050 255 112 0 0.388008
0.069457 -0.057670 5.874430 255 116 0 0.380905
0.064189 -0.061197 5.840740 255 116 0 0.382116
0.052517 -0.058377 5.862660 255 119 0 0.375571
0.035713 -0.059023 5.851100 255 123 0 0.371907
0.047246 -0.062227 5.829490 255 119 0 0.377334
0.041424 -0.053117 5.884210 255 123 0 0.369776
0.024572 -0.053730 5.872110 255 123 0 0.367200
0.058410 -0.052811 5.894690 255 119 0 0.373553
0.075496 -0.052518 5.905350 255 119 0 0.378688
0.086603 -0.057283 5.884980 255 116 0 0.387114
0.029905 -0.063353 5.819850 255 119 0 0.377038
0.012966 -0.064276 5.808540 255 119 0 0.378312
0.001344 -0.060428 5.831150 255 119 0 0.375053
-0.003901 -0.065329 5.797030 255 116 0 0.380753
-0.015359 -0.061039 5.819760 255 119 0 0.378281
-0.031583 -0.061609 5.808000 255 116 0 0.382175
-0.020476 -0.066090 5.785300 255 116 0 0.383821
-0.026334 -0.055088 5.841540 255 119 0 0.376437
-0.042270 -0.055495 5.829940 255 116 0 0.380952
-0.009584 -0.054862 5.851830 255 123 0 0.372350
0.007553 -0.054301 5.861990 255 123 0 0.368976
0.018499 -0.059774 5.841230 255 119 0 0.372772
0.282699 -0.048050 5.911820 255 130 0 0.356649
0.294092 -0.048643 5.889010 255 130 0 0.352772
0.274163 -0.050284 5.876820 255 145 0 0.324306
0.305133 -0.050788 5.866780 255 153 0 0.313862
0.285083 -0.053048 5.855030 255 130 0 0.356242
0.295149 -0.059621 5.835020 255 145 0 0.328332
0.315270 -0.057147 5.846460 255 141 0 0.335241
0.264957 -0.055711 5.843510 255 134 0 0.343890
0.275122 -0.062532 5.823670 255 112 0 0.393999
0.254795 -0.065920 5.812420 255 108 0 0.399816
0.243704 -0.058806 5.832220 255 101 0 0.416913
0.253043 -0.052719 5.865360 255 112 0 0.390590
0.231755 -0.055255 5.854010 255 104 0 0.410364
0.240612 -0.051826 5.888110 255 108 0 0.399843
0.261725 -0.049805 5.899880 255 123 0 0.369135
0.219199 -0.053663 5.876290 255 116 0 0.380124
0.324738 -0.070572 5.829390 255 145 0 0.328187
0.332803 -0.087100 5.813200 255 119 0 0.374042
0.314031 -0.090505 5.802260 255 119 0 0.376524
0.339794 -0.107393 5.799660 255 112 0 0.392173
0.321232 -0.110636 5.788820 255 112 0 0.394181
0.302382 -0.114061 5.778100 255 127 0 0.360559
0.282358 -0.117334 5.767170 255 119 0 0.375605
0.294052 -0.093425 5.791310 255 116 0 0.380190
0.273945 -0.096974 5.780270 255 134 0 0.344867
0.284901 -0.076423 5.806650 255 116 0 0.381247
0.304922 -0.073351 5.818000 255 119 0 0.372536
0.264717 -0.079815 5.795460 255 112 0 0.388611
0.228159 -0.127871 5.735100 255 116 0 0.385210
0.219135 -0.106966 5.747920 255 112 0 0.391572
0.238035 -0.103695 5.758430 255 127 0 0.360354
0.208943 -0.089425 5.762260 255 130 0 0.355058
0.227947 -0.086262 5.773130 255 123 0 0.372100
0.216942 -0.071613 5.789590 255 119 0 0.376553
0.197815 -0.074796 5.778600 255 141 0 0.334985
0.246671 -0.083219 5.783970 255 138 0 0.342836
0.236082 -0.068555 5.800790 255 104 0 0.403483
0.256023 -0.100219 5.769210 255 123 0 0.372228
0.264452 -0.120705 5.756170 255 104 0 0.405014
0.246408 -0.124086 5.745450 255 97 0 0.426905
0.186222 -0.067020 5.797850 255 119 0 0.379771
0.173976 -0.061441 5.818770 255 101 0 0.414482
0.193577 -0.059147 5.829960 255 97 0 0.424229
0.160820 -0.058447 5.840950 255 97 0 0.422413
0.180536 -0.056688 5.852400 255 93 0 0.430490
0.200098 -0.054969 5.863840 255 101 0 0.413120
0.212923 -0.056919 5.841710 255 93 0 0.430621
0.224767 -0.061188 5.820650 255 101 0 0.416195
0.205470 -0.064083 5.809360 255 104 0 0.410853
0.054723 -0.219305 5.609570 255 104 0 0.409332
0.061903 -0.246005 5.606560 255 119 0 0.373429
0.043825 -0.248042 5.595180 255 93 0 0.427548
0.069057 -0.272433 5.603300 255 116 0 0.384344
0.051223 -0.274020 5.592540 255 130 0 0.353790
0.058745 -0.298621 5.589160 255 138 0 0.341274
0.076676 -0.297825 5.599820 255 134 0 0.350597
0.033234 -0.275070 5.582180 255 112 0 0.393782
0.040786 -0.299388 5.579150 255 141 0 0.336599
0.022853 -0.299825 5.570160 255 116 0 0.385531
0.013922 -0.276644 5.572230 255 130 0 0.352017
0.024368 -0.250159 5.584580 255 116 0 0.384522
0.005224 -0.252180 5.574380 255 134 0 0.348422
0.015644 -0.225071 5.586960 255 138 0 0.342688
0.035035 -0.222495 5.598140 255 112 0 0.389618
0.025694 -0.197156 5.600950 255 123 0 0.367927
-0.003554 -0.227530 5.576660 255 160 0 0.301979
0.006598 -0.200299 5.589780 255 138 0 0.336672
-0.012174 -0.203502 5.578980 255 145 0 0.326653
0.045276 -0.193040 5.612700 255 123 0 0.367440
0.086340 -0.324660 5.601910 255 116 0 0.385358
0.093592 -0.351626 5.603740 255 141 0 0.331864
0.077284 -0.351264 5.595610 255 134 0 0.349880
0.100228 -0.376748 5.606960 255 141 0 0.332119
0.083897 -0.376810 5.598080 255 160 0 0.300523
0.067713 -0.376229 5.589470 255 164 0 0.292618
0.049072 -0.376046 5.580060 255 149 0 0.318422
0.059005 -0.351403 5.585710 255 167 0 0.288293
0.040451 -0.350931 5.577090 255 141 0 0.334164
0.050075 -0.325372 5.582400 255 164 0 0.291538
0.068208 -0.325684 5.591700 255 149 0 0.319909
0.031972 -0.325425 5.573100 255 130 0 0.354624
-0.011236 -0.376043 5.546080 255 175 0 0.275241
0.005149 -0.375180 5.555930 255 164 0 0.295918
-0.005585 -0.351677 5.552650 255 178 0 0.270177
-0.022116 -0.353083 5.543890 255 171 0 0.282897
0.010948 -0.350849 5.561640 255 149 0 0.319861
-0.015964 -0.328128 5.549410 255 182 0 0.266611
0.000556 -0.326816 5.557380 255 171 0 0.281646
-0.009341 -0.302699 5.551890 255 164 0 0.295770
-0.032148 -0.329778 5.540470 255 160 0 0.302497
-0.025472 -0.304593 5.543590 255 160 0 0.297735
-0.041661 -0.306782 5.534990 255 156 0 0.307478
0.017138 -0.325724 5.565600 255 141 0 0.333813
0.006541 -0.301280 5.560770 255 160 0 0.299349
0.025713 -0.350936 5.569540 255 149 0 0.322929
0.034323 -0.375607 5.572000 255 145 0 0.328378
0.019683 -0.375413 5.563850 255 149 0 0.321075
-0.055668 -0.284010 5.533740 255 108 0 0.396929
-0.033286 -0.282271 5.544760 255 145 0 0.326911
-0.047935 -0.259082 5.544230 255 112 0 0.388279
-0.069548 -0.261104 5.532150 255 119 0 0.378290
-0.025885 -0.257403 5.555690 255 123 0 0.366136
-0.062034 -0.235961 5.542810 255 127 0 0.364444
-0.040531 -0.233502 5.554850 255 116 0 0.385316
-0.054894 -0.210418 5.554070 255 130 0 0.357000
-0.083078 -0.238559 5.529640 255 156 0 0.307313
-0.075734 -0.213353 5.541010 255 156 0 0.306695
-0.096221 -0.216234 5.527020 255 204 0 0.228913
-0.018769 -0.230734 5.566510 255 127 0 0.364169
-0.033900 -0.207286 5.566230 255 130 0 0.350749
-0.010298 -0.254756 5.564870 255 145 0 0.324506
-0.001978 -0.278280 5.562970 255 141 0 0.335324
-0.017807 -0.279961 5.554300 255 160 0 0.299233
-0.092125 -0.269595 5.515490 255 141 0 0.331771
-0.079409 -0.292128 5.518770 255 104 0 0.409543
-0.065565 -0.314245 5.519620 255 101 0 0.418949
-0.089148 -0.322309 5.502660 255 130 0 0.356479
-0.103158 -0.306977 5.499310 255 123 0 0.369779
-0.104305 -0.280213 5.505610 255 141 0 0.333313
-0.116425 -0.290882 5.494920 255 141 0 0.334428
-0.117084 -0.264538 5.500020 255 138 0 0.339728
-0.105598 -0.253798 5.510810 255 160 0 0.300977
-0.118364 -0.238221 5.505190 255 197 0 0.239840
-0.129294 -0.275159 5.489430 255 116 0 0.382673
-0.129876 -0.248750 5.493940 255 178 0 0.269780
-0.141524 -0.259288 5.482920 255 204 0 0.232832
-0.107122 -0.227364 5.516430 255 193 0 0.247789
-0.044097 -0.357293 5.529100 255 101 0 0.416274
-0.033403 -0.379756 5.531050 255 112 0 0.388401
-0.056120 -0.385405 5.514170 255 119 0 0.373373
-0.067951 -0.364763 5.511090 255 156 0 0.305945
-0.067291 -0.339968 5.516600 255 156 0 0.309844
-0.090289 -0.398429 5.484790 255 182 0 0.265724
-0.093840 -0.375955 5.489350 255 156 0 0.308469
-0.105391 -0.357637 5.484350 255 167 0 0.286038
-0.107526 -0.332874 5.486570 255 141 0 0.333552
-0.125209 -0.343778 5.469660 255 149 0 0.318287
-0.087439 -0.346993 5.500650 255 153 0 0.313029
-0.073196 -0.390860 5.500170 255 171 0 0.280721
-0.139675 -0.330181 5.465790 255 138 0 0.340530
-0.144504 -0.309101 5.469910 255 141 0 0.335117
-0.158504 -0.295509 5.464090 255 127 0 0.360896
-0.161723 -0.274073 5.465950 255 149 0 0.321227
-0.181573 -0.288817 5.446710 255 130 0 0.351181
-0.121446 -0.317356 5.483280 255 134 0 0.349755
0.037902 -0.169225 5.625320 255 134 0 0.345746
0.018294 -0.173869 5.612740 255 123 0 0.368232
0.010391 -0.151723 5.626250 255 130 0 0.355319
-0.000799 -0.178031 5.600870 255 127 0 0.358286
-0.008466 -0.156376 5.613470 255 123 0 0.371009
-0.026641 -0.160823 5.601530 255 127 0 0.359175
-0.019065 -0.181685 5.589090 255 138 0 0.341927
-0.016697 -0.136064 5.627950 255 123 0 0.372351
-0.034884 -0.140721 5.614950 255 119 0 0.375074
-0.043283 -0.121437 5.629980 255 116 0 0.385934
-0.024734 -0.117599 5.641800 255 116 0 0.382653
0.002459 -0.131756 5.639230 255 123 0 0.369751
-0.006058 -0.113520 5.653610 255 119 0 0.378637
0.022110 -0.127216 5.650860 255 123 0 0.366926
0.030243 -0.147015 5.637130 255 130 0 0.354884
0.013217 -0.109001 5.665430 255 119 0 0.374855
-0.039091 -0.184038 5.581910 255 145 0 0.326499
-0.059892 -0.187925 5.568690 255 127 0 0.357978
-0.065899 -0.165964 5.585290 255 149 0 0.318873
-0.080339 -0.191371 5.555010 255 138 0 0.342589
-0.086043 -0.169977 5.570820 255 138 0 0.343077
-0.105660 -0.172999 5.556210 255 153 0 0.311412
-0.100383 -0.194185 5.540670 255 171 0 0.281439
-0.092471 -0.148891 5.588940 255 160 0 0.301510
-0.112102 -0.152522 5.573310 255 160 0 0.300339
-0.118886 -0.132252 5.592440 255 164 0 0.296414
-0.100676 -0.130272 5.601900 255 156 0 0.307198
-0.073688 -0.146563 5.597580 255 141 0 0.331709
-0.082068 -0.127721 5.611210 255 138 0 0.339905
-0.054594 -0.143731 5.606110 255 127 0 0.358526
-0.046515 -0.163568 5.593140 255 138 0 0.343319
-0.062937 -0.124779 5.620520 255 123 0 0.368481
-0.154096 -0.081161 5.682650 255 130 0 0.351324
-0.136380 -0.080181 5.691950 255 145 0 0.325031
-0.126786 -0.090229 5.669040 255 149 0 0.321195
-0.108611 -0.088484 5.677890 255 134 0 0.345906
-0.118405 -0.078680 5.700860 255 134 0 0.349112
-0.099201 -0.099714 5.655560 255 138 0 0.341174
-0.090087 -0.086530 5.686720 255 119 0 0.376289
-0.080385 -0.097032 5.664050 255 123 0 0.371446
-0.061164 -0.094076 5.672360 255 112 0 0.390412
-0.100360 -0.077260 5.709930 255 119 0 0.379758
-0.071519 -0.084067 5.695390 255 108 0 0.395625
-0.082004 -0.075610 5.719020 255 108 0 0.399320
-0.071069 -0.109769 5.642480 255 123 0 0.367678
-0.051833 -0.106539 5.650440 255 116 0 0.386378
-0.090273 -0.112571 5.632450 255 130 0 0.355708
-0.108989 -0.115166 5.622420 255 141 0 0.331814
-0.117715 -0.101930 5.645020 255 141 0 0.335296
-0.136022 -0.103575 5.634280 255 145 0 0.323428
-0.127277 -0.117174 5.612180 255 153 0 0.310398
-0.144918 -0.091874 5.658120 255 138 0 0.337778
-0.064709 -0.074531 5.729400 255 112 0 0.395338
-0.054350 -0.082330 5.708460 255 112 0 0.391163
-0.036047 -0.080370 5.718530 255 116 0 0.386993
-0.046787 -0.073187 5.739910 255 112 0 0.391069
-0.025544 -0.088851 5.697880 255 116 0 0.380876
-0.017097 -0.078265 5.728900 255 116 0 0.383305
-0.006422 -0.086120 5.707800 255 119 0 0.377269
-0.028125 -0.071620 5.750870 255 116 0 0.387324
0.003608 -0.096042 5.687640 255 119 0 0.373326
-0.015442 -0.099772 5.675110 255 119 0 0.377198
-0.033801 -0.103370 5.662860 255 116 0 0.381786
-0.043718 -0.091619 5.685210 255 116 0 0.385469
-0.164470 -0.074346 5.705370 255 134 0 0.350469
-0.146957 -0.073759 5.714360 255 130 0 0.351812
-0.157447 -0.067080 5.736830 255 127 0 0.363086
-0.175121 -0.067639 5.727910 255 127 0 0.361836
-0.139901 -0.066587 5.745760 255 123 0 0.367754
-0.167974 -0.060068 5.758790 255 123 0 0.366464
-0.150134 -0.059506 5.767950 255 130 0 0.351214
-0.160443 -0.050872 5.789880 255 153 0 0.311233
-0.185577 -0.060213 5.749970 255 108 0 0.397019
-0.178219 -0.051496 5.780580 255 119 0 0.376822
-0.196283 -0.051717 5.771440 255 86 0 0.446504
-0.132411 -0.058648 5.777100 255 153 0 0.314045
-0.142600 -0.050085 5.799060 255 164 0 0.292453
-0.124758 -0.049119 5.808500 255 186 0 0.257374
-0.114479 -0.057856 5.786750 255 164 0 0.296167
-0.122092 -0.065818 5.754990 255 130 0 0.354110
-0.104031 -0.065081 5.764400 255 138 0 0.337627
-0.111281 -0.071848 5.732460 255 112 0 0.387820
-0.129182 -0.072778 5.723400 255 119 0 0.373236
-0.093158 -0.070676 5.741620 255 119 0 0.374960
-0.207344 -0.044578 5.792240 255 123 0 0.371462
-0.189323 -0.043978 5.801960 255 86 0 0.452786
-0.200592 -0.036240 5.823300 255 123 0 0.369412
-0.218679 -0.036962 5.813430 255 160 0 0.298241
-0.182828 -0.035286 5.832900 255 101 0 0.415012
-0.212005 -0.028023 5.844540 255 130 0 0.354598
-0.193974 -0.026943 5.854140 255 134 0 0.347743
-0.230361 -0.028786 5.834800 255 134 0 0.344797
-0.175907 -0.025389 5.863720 255 97 0 0.427121
-0.157601 -0.023977 5.872800 255 93 0 0.427534
-0.164712 -0.034310 5.842050 255 119 0 0.376657
-0.146636 -0.033059 5.851270 255 127 0 0.363905
-0.153599 -0.042561 5.820560 255 141 0 0.331945
-0.171515 -0.043354 5.811200 255 130 0 0.352585
-0.135608 -0.041534 5.829840 255 160 0 0.301831
-0.103294 -0.020812 5.903160 255 93 0 0.430029
-0.092707 -0.030851 5.882290 255 104 0 0.410674
-0.110945 -0.031854 5.871540 255 104 0 0.404316
-0.082069 -0.040199 5.861340 255 112 0 0.391589
-0.100424 -0.040782 5.850610 255 123 0 0.372235
-0.089736 -0.048594 5.829290 255 141 0 0.330504
-0.071291 -0.047989 5.840170 255 127 0 0.362411
-0.118055 -0.041258 5.839920 255 141 0 0.331664
-0.107475 -0.049055 5.818720 255 164 0 0.293757
-0.129059 -0.032520 5.861280 255 112 0 0.388655
-0.139880 -0.023204 5.882770 255 97 0 0.422850
-0.121882 -0.022028 5.892940 255 97 0 0.425328
-0.060497 -0.056348 5.818030 255 127 0 0.361330
-0.050052 -0.062840 5.796320 255 127 0 0.362252
-0.068239 -0.063745 5.784680 255 145 0 0.329216
-0.039396 -0.067617 5.773960 255 127 0 0.363216
-0.057714 -0.068901 5.762660 255 123 0 0.367029
-0.075487 -0.069792 5.751330 255 123 0 0.371071
-0.086328 -0.064566 5.774410 255 141 0 0.333695
-0.096925 -0.057663 5.796940 255 164 0 0.292560
-0.079098 -0.057142 5.807280 255 145 0 0.329216
-0.164928 -0.092133 5.652230 255 130 0 0.352023
-0.155897 -0.104341 5.628570 255 156 0 0.307970
-0.175874 -0.104237 5.622340 255 123 0 0.369597
-0.147291 -0.117711 5.606790 255 167 0 0.285133
-0.167188 -0.117671 5.600430 255 145 0 0.328435
-0.159128 -0.132225 5.580070 255 149 0 0.318829
-0.138966 -0.132532 5.586720 255 171 0 0.282346
-0.187977 -0.117239 5.593120 255 123 0 0.371277
-0.179928 -0.131634 5.572550 255 149 0 0.319517
-0.201807 -0.130519 5.564240 255 123 0 0.370902
-0.208471 -0.117799 5.584620 255 167 0 0.289642
-0.195048 -0.105195 5.614810 255 141 0 0.329873
-0.215590 -0.105741 5.606230 255 156 0 0.307378
-0.202579 -0.094270 5.637560 255 130 0 0.351836
-0.183503 -0.093384 5.645110 255 138 0 0.339918
-0.191131 -0.083778 5.668910 255 130 0 0.351205
-0.222709 -0.094674 5.629110 255 119 0 0.375172
-0.210188 -0.084448 5.661520 255 127 0 0.364422
-0.230106 -0.084700 5.653360 255 82 0 0.456093
-0.172487 -0.082614 5.675910 255 153 0 0.315071
-0.136242 -0.146164 5.569270 255 153 0 0.315096
-0.130068 -0.166210 5.551720 255 153 0 0.310721
-0.154696 -0.159022 5.546600 255 145 0 0.324270
-0.124768 -0.187217 5.535920 255 167 0 0.290661
-0.148936 -0.179363 5.530320 255 156 0 0.307238
-0.144153 -0.200601 5.515490 255 186 0 0.256855
-0.120116 -0.208556 5.522260 255 190 0 0.253076
-0.174067 -0.171518 5.523180 255 141 0 0.332017
-0.169011 -0.191947 5.508160 255 175 0 0.273711
-0.194754 -0.183246 5.499580 255 153 0 0.311663
-0.195937 -0.169701 5.513810 255 160 0 0.300508
-0.175555 -0.158026 5.538130 255 156 0 0.303946
-0.197594 -0.156362 5.529420 255 145 0 0.325439
-0.177661 -0.144491 5.554850 255 149 0 0.319324
-0.156695 -0.145607 5.562420 255 160 0 0.297337
-0.199579 -0.143346 5.546360 255 130 0 0.355900
-0.294641 -0.170787 5.474340 255 108 0 0.395686
-0.295250 -0.159426 5.489390 255 134 0 0.348481
-0.269739 -0.160285 5.496640 255 156 0 0.304865
-0.270557 -0.149645 5.511990 255 153 0 0.315501
-0.296483 -0.148839 5.504850 255 156 0 0.305301
-0.245587 -0.150829 5.519220 255 153 0 0.314172
-0.271266 -0.139204 5.528470 255 149 0 0.319775
-0.246702 -0.139948 5.535140 255 153 0 0.313683
-0.247655 -0.129477 5.552100 255 167 0 0.285281
-0.297334 -0.138604 5.521450 255 138 0 0.336978
-0.272419 -0.128604 5.545640 255 130 0 0.354730
-0.298722 -0.127986 5.539000 255 127 0 0.362495
-0.223033 -0.140860 5.541620 255 186 0 0.259369
-0.224268 -0.129990 5.558350 255 178 0 0.271087
-0.221242 -0.153514 5.524680 255 127 0 0.361022
-0.219290 -0.166509 5.508410 255 156 0 0.307981
-0.244152 -0.163250 5.502760 255 127 0 0.358184
-0.242789 -0.176184 5.486510 255 141 0 0.336068
-0.218058 -0.179513 5.493200 255 153 0 0.315785
-0.268189 -0.173196 5.480510 255 112 0 0.389302
-0.304467 -0.117598 5.558410 255 141 0 0.330854
-0.279979 -0.116057 5.566500 255 130 0 0.356737
-0.286084 -0.106060 5.586730 255 141 0 0.332883
-0.310447 -0.107707 5.578840 255 123 0 0.368635
-0.262660 -0.104682 5.594740 255 108 0 0.401132
-0.291957 -0.096659 5.607910 255 123 0 0.367732
-0.268188 -0.095475 5.616110 255 145 0 0.327936
-0.273402 -0.086916 5.637970 255 153 0 0.315229
-0.316610 -0.097943 5.599810 255 138 0 0.337499
-0.297203 -0.087823 5.629760 255 145 0 0.328604
-0.322265 -0.088864 5.621200 255 119 0 0.375681
-0.245781 -0.094218 5.623790 255 90 0 0.441116
-0.251044 -0.086095 5.646120 255 149 0 0.321991
-0.238431 -0.105238 5.600720 255 138 0 0.342446
-0.231184 -0.117363 5.578800 255 175 0 0.274348
-0.255126 -0.116735 5.572630 255 153 0 0.314934
-0.248107 -0.030160 5.827040 255 145 0 0.327304
-0.236406 -0.038359 5.805520 255 160 0 0.301353
-0.254521 -0.039314 5.797480 255 112 0 0.391382
-0.224994 -0.045951 5.784380 255 171 0 0.280196
-0.242994 -0.046928 5.776610 255 134 0 0.344702
-0.231666 -0.053947 5.756170 255 141 0 0.333350
-0.213839 -0.053040 5.763860 255 130 0 0.353449
-0.261397 -0.047469 5.768650 255 108 0 0.397571
-0.249861 -0.054476 5.748240 255 141 0 0.330387
-0.268984 -0.054789 5.739740 255 101 0 0.414354
-0.280019 -0.048094 5.759570 255 153 0 0.315166
-0.272549 -0.040355 5.788680 255 145 0 0.323465
-0.291161 -0.041054 5.779550 255 153 0 0.314699
-0.283833 -0.032715 5.809350 255 127 0 0.359445
-0.265643 -0.031611 5.818340 255 164 0 0.296191
-0.302629 -0.033515 5.799980 255 130 0 0.352138
-0.204240 -0.060787 5.743080 255 90 0 0.436675
-0.193599 -0.068458 5.720960 255 130 0 0.351260
-0.212128 -0.068997 5.713930 255 86 0 0.446791
-0.183017 -0.075550 5.698480 255 153 0 0.310714
-0.201503 -0.076525 5.691570 255 127 0 0.363550
-0.220528 -0.076768 5.683960 255 86 0 0.448166
-0.239501 -0.077500 5.675190 255 141 0 0.332861
-0.230148 -0.069875 5.705780 255 134 0 0.350015
-0.249083 -0.070247 5.697010 255 160 0 0.303144
-0.239911 -0.062478 5.727150 255 134 0 0.349423
-0.221893 -0.061849 5.735350 255 130 0 0.351408
-0.258846 -0.062807 5.718580 255 134 0 0.348910
-0.330350 -0.081686 5.641500 255 149 0 0.316607
-0.306817 -0.079853 5.651200 255 138 0 0.341566
-0.314882 -0.072940 5.672160 255 171 0 0.281290
-0.338261 -0.074497 5.662330 255 167 0 0.289213
-0.292412 -0.071702 5.681510 255 119 0 0.379417
-0.323243 -0.065842 5.693190 255 153 0 0.310821
-0.300844 -0.064661 5.702570 255 156 0 0.307458
-0.309205 -0.057439 5.722990 255 164 0 0.291218
-0.346320 -0.067266 5.683370 255 190 0 0.251921
-0.331394 -0.058637 5.714030 255 167 0 0.287148
-0.354332 -0.059827 5.704360 255 156 0 0.304642
-0.279803 -0.063342 5.711460 255 108 0 0.398659
-0.288219 -0.056181 5.731940 255 164 0 0.291071
-0.270011 -0.071080 5.689620 255 153 0 0.312940
-0.260521 -0.078613 5.667840 255 175 0 0.276612
-0.283092 -0.079145 5.659450 255 153 0 0.314057
-0.364062 -0.053458 5.724050 255 149 0 0.319791
-0.342248 -0.051809 5.734220 255 149 0 0.316448
-0.351982 -0.045286 5.753660 255 175 0 0.272730
-0.373803 -0.046878 5.743470 255 164 0 0.295036
-0.331062 -0.043602 5.763440 255 130 0 0.355976
-0.361939 -0.038285 5.773050 255 197 0 0.243112
-0.341352 -0.036620 5.782810 255 178 0 0.270640
-0.383275 -0.040001 5.762640 255 182 0 0.266160
-0.321872 -0.034901 5.792210 255 127 0 0.363892
-0.310653 -0.042398 5.771880 255 164 0 0.296008
-0.299416 -0.049450 5.751840 255 186 0 0.260982
-0.320209 -0.050664 5.743280 255 160 0 0.300861
-0.345098 -0.091947 5.614170 255 127 0 0.363461
-0.352857 -0.085161 5.632960 255 119 0 0.379640
-0.375446 -0.088407 5.626470 255 123 0 0.365405
-0.367912 -0.095249 5.607540 255 112 0 0.390503
-0.383126 -0.081481 5.644960 255 123 0 0.370865
-0.398203 -0.092083 5.619270 255 119 0 0.376115
-0.405187 -0.085102 5.638600 255 138 0 0.343470
-0.427441 -0.088965 5.631370 255 141 0 0.333986
-0.390281 -0.099287 5.601200 255 119 0 0.372922
-0.420185 -0.096184 5.613070 255 127 0 0.365051
-0.412697 -0.103448 5.594730 255 116 0 0.381066
-0.412570 -0.077837 5.657330 255 130 0 0.350785
-0.434851 -0.081789 5.650490 255 153 0 0.310389
-0.442189 -0.074412 5.669570 255 138 0 0.339617
-0.420163 -0.070014 5.677990 255 171 0 0.279425
-0.390881 -0.073934 5.665590 255 175 0 0.276420
-0.398478 -0.066254 5.686370 255 178 0 0.270070
-0.368584 -0.070388 5.674390 255 178 0 0.269467
-0.360837 -0.077800 5.653240 255 160 0 0.299470
-0.376014 -0.062808 5.695540 255 193 0 0.246134
-0.434049 -0.109836 5.589860 255 130 0 0.353512
-0.440966 -0.102952 5.606840 255 134 0 0.347181
-0.462038 -0.109599 5.602200 255 141 0 0.330690
-0.455099 -0.116747 5.585440 255 141 0 0.331532
-0.468974 -0.102559 5.619380 255 156 0 0.309798
-0.482967 -0.116752 5.598300 255 149 0 0.321074
-0.489763 -0.109462 5.615000 255 156 0 0.304668
-0.510813 -0.116851 5.611290 255 156 0 0.307122
-0.475797 -0.124036 5.581600 255 175 0 0.278179
-0.503191 -0.124140 5.594940 255 186 0 0.259452
-0.496113 -0.131651 5.578600 255 204 0 0.229727
-0.497310 -0.102246 5.632250 255 171 0 0.280230
-0.517853 -0.109284 5.628190 255 167 0 0.286447
-0.525036 -0.101893 5.645330 255 193 0 0.249310
-0.505015 -0.094334 5.650810 255 190 0 0.252856
-0.476663 -0.095041 5.637660 255 171 0 0.280356
-0.484454 -0.087433 5.656370 255 182 0 0.264112
-0.455989 -0.088242 5.643580 255 167 0 0.287901
-0.448382 -0.095626 5.625070 255 149 0 0.320793
-0.463450 -0.080813 5.662420 255 164 0 0.292421
-0.531829 -0.075479 5.703240 255 164 0 0.293830
-0.511441 -0.068177 5.710450 255 153 0 0.315484
-0.502142 -0.074919 5.692040 255 204 0 0.230408
-0.490563 -0.061439 5.717990 255 149 0 0.319602
-0.481458 -0.068015 5.699870 255 171 0 0.282216
-0.460644 -0.061669 5.707310 255 175 0 0.276261
-0.469226 -0.055083 5.725940 255 141 0 0.335926
-0.472588 -0.074573 5.680630 255 190 0 0.253826
-0.451328 -0.068075 5.688760 255 149 0 0.320690
-0.493278 -0.081095 5.674300 255 208 0 0.224489
-0.514255 -0.088111 5.668490 255 216 0 0.215595
-0.523105 -0.081715 5.685970 255 167 0 0.285133
-0.543211 -0.088968 5.680380 255 171 0 0.278919
-0.534188 -0.095285 5.663070 255 167 0 0.286072
-0.551461 -0.082256 5.697660 255 134 0 0.345237
-0.447402 -0.050961 5.734280 255 160 0 0.300066
-0.425585 -0.047003 5.743530 255 145 0 0.326619
-0.416345 -0.053791 5.724540 255 190 0 0.254241
-0.404340 -0.043252 5.753300 255 164 0 0.292278
-0.394839 -0.050185 5.734130 255 153 0 0.310507
-0.385212 -0.056710 5.714800 255 182 0 0.261227
-0.407315 -0.060046 5.705850 255 182 0 0.263337
-0.429348 -0.063881 5.697170 255 171 0 0.282806
-0.438329 -0.057542 5.715880 255 164 0 0.296534
-0.005901 -0.671865 5.058890 255 123 0 0.370845
0.017755 -0.673742 5.052930 255 141 0 0.334774
0.032619 -0.684167 5.040910 255 164 0 0.294788
0.056012 -0.686765 5.035700 255 186 0 0.260047
0.039617 -0.704548 5.022750 255 186 0 0.257259
0.015178 -0.701346 5.028220 255 171 0 0.279768
0.000192 -0.690518 5.039930 255 134 0 0.348663
-0.024727 -0.688546 5.044760 255 112 0 0.389758
-0.040286 -0.679488 5.056940 255 97 0 0.426893
-0.058677 -0.694775 5.044840 255 93 0 0.430771
0.088163 -0.681577 5.035430 255 175 0 0.278172
0.111753 -0.685186 5.027870 255 208 0 0.225213
0.095886 -0.703699 5.014470 255 197 0 0.239038
0.071888 -0.699455 5.021680 255 167 0 0.288199
0.084584 -0.759184 4.983100 255 208 0 0.224550
0.066483 -0.744592 4.995300 255 230 0 0.198356
0.041660 -0.740672 5.002830 255 201 0 0.234784
0.024508 -0.725821 5.014380 255 190 0 0.255377
0.009581 -0.746533 5.005820 255 186 0 0.259429
0.056956 -0.718727 5.011650 255 182 0 0.261210
0.081179 -0.723055 5.003680 255 190 0 0.250229
-0.015721 -0.742539 5.013040 255 153 0 0.311199
-0.032619 -0.729262 5.022790 255 141 0 0.334457
-0.058082 -0.726314 5.028150 255 134 0 0.345169
-0.075268 -0.713954 5.037300 255 138 0 0.336901
-0.091821 -0.732971 5.029810 255 116 0 0.384701
-0.041460 -0.707112 5.035100 255 149 0 0.320356
-0.016770 -0.709536 5.029840 255 156 0 0.307659
0.000023 -0.722472 5.020320 255 167 0 0.289429
0.084340 -0.804560 4.967630 255 182 0 0.262299
0.074328 -0.825314 4.967450 255 216 0 0.216214
0.064407 -0.845657 4.966510 255 216 0 0.217424
0.044327 -0.925184 4.978830 255 193 0 0.245844
0.013754 -0.923310 4.986510 255 193 0 0.247349
-0.012939 -0.911292 4.992220 255 160 0 0.299673
-0.041764 -0.909477 4.999020 255 134 0 0.349666
-0.067817 -0.896834 5.003970 255 75 0 0.477414
-0.073106 -0.917780 5.007290 255 82 0 0.460096
-0.036568 -0.888744 4.995870 255 108 0 0.402850
-0.062637 -0.875979 5.000780 255 56 0 0.525694
-0.008437 -0.891592 4.988570 255 171 0 0.282357
0.019921 -0.894524 4.981320 255 178 0 0.271769
0.047287 -0.906484 4.975240 255 178 0 0.271848
0.050669 -0.887396 4.970870 255 175 0 0.277406
-0.101615 -0.914942 5.012760 255 56 0 0.516526
-0.126554 -0.900527 5.017360 255 56 0 0.516616
-0.154982 -0.896982 5.023070 255 75 0 0.470753
-0.179952 -0.881253 5.027680 255 104 0 0.410977
-0.188562 -0.903800 5.029640 255 86 0 0.452679
-0.147892 -0.874473 5.020970 255 82 0 0.454797
-0.172399 -0.859188 5.025220 255 93 0 0.427733
-0.120254 -0.878658 5.014780 255 93 0 0.433611
-0.092946 -0.882726 5.008660 255 64 0 0.505557
-0.150222 -0.813993 5.023070 255 112 0 0.387976
-0.124066 -0.818792 5.016880 255 104 0 0.404691
-0.102526 -0.834376 5.011530 255 138 0 0.341163
-0.075904 -0.838908 5.004880 255 138 0 0.342566
-0.053508 -0.853908 4.999270 255 78 0 0.467764
-0.044237 -0.831193 4.997140 255 141 0 0.329861
-0.084828 -0.861030 5.006610 255 78 0 0.468691
-0.112403 -0.856732 5.012850 255 93 0 0.427961
-0.139446 -0.852427 5.019100 255 93 0 0.428000
-0.161129 -0.836552 5.024750 255 134 0 0.347667
-0.017138 -0.835105 4.989640 255 127 0 0.361461
0.006392 -0.849370 4.983120 255 141 0 0.334527
0.033554 -0.852997 4.975530 255 186 0 0.256145
0.057693 -0.866866 4.968830 255 212 0 0.222194
0.026390 -0.873996 4.978080 255 186 0 0.258294
-0.002009 -0.871019 4.985380 255 178 0 0.269827
-0.030228 -0.868075 4.992810 255 104 0 0.404921
-0.117670 -0.729471 5.034060 255 60 0 0.515007
-0.134234 -0.717263 5.041560 255 145 0 0.328672
-0.161198 -0.714250 5.046110 255 156 0 0.307804
-0.178388 -0.702612 5.055360 255 160 0 0.302856
-0.196508 -0.718706 5.049600 255 153 0 0.314336
-0.142313 -0.696717 5.053440 255 138 0 0.338673
-0.160288 -0.685675 5.063260 255 119 0 0.377150
-0.116760 -0.699550 5.048930 255 127 0 0.363625
-0.091535 -0.701815 5.044900 255 53 0 0.531727
-0.217390 -0.714849 5.053540 255 119 0 0.375636
-0.228043 -0.703963 5.060770 255 178 0 0.267946
-0.248365 -0.701788 5.064840 255 145 0 0.325467
-0.229644 -0.687076 5.074920 255 149 0 0.317255
-0.209860 -0.688481 5.069380 255 156 0 0.307487
-0.189896 -0.691463 5.064630 255 116 0 0.384109
-0.180909 -0.668806 5.086920 255 116 0 0.387047
-0.160825 -0.670218 5.080730 255 153 0 0.314196
-0.140577 -0.671767 5.075310 255 116 0 0.381610
-0.211558 -0.674549 5.087570 255 127 0 0.361147
-0.104554 -0.665288 5.076570 255 108 0 0.398773
-0.080211 -0.667670 5.071240 255 78 0 0.464003
-0.064434 -0.677705 5.060950 255 38 0 0.569634
-0.098480 -0.682331 5.058770 255 90 0 0.437601
-0.124291 -0.680282 5.063550 255 97 0 0.426978
-0.176523 -0.808971 5.028050 255 108 0 0.398221
-0.196478 -0.793026 5.034420 255 149 0 0.319775
-0.223314 -0.787120 5.038100 255 182 0 0.262625
-0.241982 -0.772547 5.041780 255 178 0 0.269307
-0.256034 -0.791228 5.039490 255 186 0 0.259417
-0.209011 -0.767789 5.038840 255 156 0 0.309668
-0.227994 -0.753352 5.042280 255 123 0 0.372174
-0.182136 -0.773784 5.034060 255 134 0 0.347882
-0.156065 -0.778833 5.028780 255 86 0 0.451617
-0.136761 -0.793488 5.023820 255 127 0 0.358416
-0.123115 -0.772366 5.023640 255 104 0 0.404152
-0.276563 -0.786245 5.040200 255 153 0 0.311293
-0.289481 -0.772565 5.042940 255 160 0 0.301848
-0.310093 -0.767803 5.044230 255 138 0 0.343443
-0.324209 -0.754050 5.047610 255 123 0 0.367846
-0.338937 -0.772027 5.044190 255 123 0 0.371082
-0.295967 -0.750273 5.047470 255 134 0 0.345283
-0.309967 -0.736849 5.050860 255 138 0 0.342583
-0.275840 -0.754466 5.045810 255 153 0 0.314755
-0.255803 -0.758726 5.044410 255 141 0 0.334104
-0.265163 -0.716706 5.057500 255 127 0 0.360140
-0.245458 -0.720298 5.054430 255 127 0 0.361994
-0.232723 -0.732123 5.049140 255 138 0 0.343029
-0.212068 -0.736389 5.046000 255 134 0 0.345036
-0.260978 -0.736991 5.049290 255 134 0 0.349357
-0.281159 -0.733005 5.051410 255 130 0 0.351386
-0.293521 -0.721347 5.057350 255 127 0 0.359021
-0.177788 -0.731903 5.042140 255 127 0 0.362400
-0.151444 -0.736146 5.037210 255 104 0 0.408380
-0.133216 -0.749452 5.031300 255 64 0 0.499738
-0.107573 -0.753116 5.027150 255 112 0 0.390018
-0.166981 -0.754668 5.034610 255 104 0 0.408577
-0.193754 -0.749700 5.039950 255 116 0 0.382201
-0.074028 -0.746350 5.023450 255 127 0 0.362573
-0.048412 -0.749838 5.017220 255 134 0 0.344119
-0.030337 -0.763998 5.009310 255 138 0 0.342828
-0.004502 -0.766890 5.002580 255 164 0 0.291187
-0.018827 -0.788006 4.998530 255 141 0 0.334919
-0.045381 -0.784588 5.005300 255 141 0 0.335481
-0.063657 -0.770364 5.013450 255 130 0 0.356423
-0.089610 -0.766772 5.019770 255 104 0 0.407084
0.027827 -0.761148 4.997270 255 182 0 0.261691
0.052929 -0.765159 4.989550 255 230 0 0.195296
0.071790 -0.779787 4.979900 255 227 0 0.201696
0.058639 -0.800450 4.975380 255 216 0 0.215408
0.039913 -0.785618 4.985110 255 216 0 0.214716
0.013833 -0.781477 4.993190 255 156 0 0.308942
0.042939 -0.831792 4.974780 255 204 0 0.230867
0.016248 -0.828070 4.982230 255 164 0 0.292916
-0.004764 -0.814070 4.990680 255 149 0 0.321475
-0.031459 -0.810062 4.997900 255 123 0 0.368655
0.027665 -0.806904 4.983260 255 193 0 0.249794
-0.064438 -0.816582 5.004510 255 127 0 0.365122
-0.091434 -0.812726 5.011050 255 119 0 0.378864
-0.110665 -0.797909 5.017600 255 130 0 0.351905
-0.078073 -0.791253 5.011820 255 145 0 0.329710
-0.526149 -0.694194 5.089430 255 164 0 0.294074
-0.548605 -0.700229 5.093050 255 156 0 0.304419
-0.550226 -0.716552 5.086930 255 145 0 0.325537
-0.571002 -0.706240 5.096020 255 145 0 0.323187
-0.572986 -0.722956 5.090170 255 167 0 0.288802
-0.595748 -0.729213 5.092400 255 182 0 0.261169
-0.574573 -0.739770 5.084570 255 186 0 0.259046
-0.593832 -0.711904 5.098120 255 160 0 0.299753
-0.616026 -0.718352 5.100200 255 186 0 0.259247
-0.589495 -0.693712 5.103810 255 156 0 0.309183
-0.566325 -0.688448 5.101730 255 153 0 0.311969
-0.544182 -0.682677 5.098630 255 167 0 0.288778
-0.561765 -0.671279 5.108430 255 160 0 0.298586
-0.595069 -0.749808 5.090270 255 178 0 0.270047
-0.591088 -0.768857 5.087660 255 160 0 0.302979
-0.614986 -0.759979 5.095870 255 160 0 0.299498
-0.611299 -0.779063 5.093510 255 171 0 0.280505
-0.630635 -0.789631 5.099310 255 182 0 0.263402
