ply
format ascii 1.0
comment VCGLIB generated
element vertex 989
property float x
property float y
property float z
property uchar red
property uchar green
property uchar blue
property float quality
end_header
-0.633896 0.035161 6.230460 255 164 0 0.715509
-0.611769 0.016438 6.262410 167 255 80 0.816405
-0.641740 0.008730 6.265500 177 255 71 0.811068
-0.653251 0.018721 6.249420 255 230 0 0.759727
-0.665200 0.028700 6.233130 255 130 0 0.690344
-0.615945 0.003953 6.279350 122 255 126 0.840945
-0.620289 -0.009435 6.295760 87 255 161 0.857718
-0.595298 -0.004383 6.295830 103 255 145 0.850331
-0.590119 0.007423 6.278740 103 255 145 0.850345
-0.679677 0.013940 6.251630 255 178 0 0.726407
-0.693512 0.020753 6.235630 255 119 0 0.681400
-0.666235 0.006798 6.266950 255 223 0 0.755318
-0.694497 -0.000538 6.270220 255 204 0 0.742848
-0.708136 0.006262 6.254950 255 153 0 0.706898
-0.722873 0.012565 6.237670 255 104 0 0.667422
-0.667061 -0.004897 6.283430 216 255 32 0.787595
-0.668170 -0.015581 6.298800 187 255 61 0.805534
-0.643763 -0.013183 6.297510 113 255 135 0.844313
-0.643016 -0.001749 6.281590 151 255 96 0.824665
-0.625827 -0.055695 6.338260 16 249 232 0.890146
-0.609932 -0.066773 6.354350 29 255 219 0.884054
-0.624021 -0.040895 6.324570 16 249 232 0.889804
-0.607556 -0.053234 6.339820 38 255 209 0.879337
-0.605562 -0.038720 6.325820 35 255 213 0.881662
-0.591958 -0.062678 6.356870 42 255 206 0.878392
-0.622340 -0.025556 6.310080 35 255 213 0.881434
-0.645473 -0.029587 6.311610 45 255 203 0.876631
-0.647054 -0.045153 6.325320 0 229 248 0.896011
-0.586455 -0.047697 6.341820 58 255 190 0.871023
-0.571897 -0.058917 6.360380 71 255 177 0.865096
-0.581204 -0.031743 6.327250 64 255 184 0.868389
-0.566411 -0.043809 6.345670 80 255 167 0.860076
-0.575754 -0.014913 6.311790 90 255 158 0.856513
-0.600355 -0.021760 6.310970 51 255 196 0.873601
-0.604453 0.072892 6.082320 228 0 0 0.541099
-0.637388 0.069120 6.069730 187 0 0 0.478324
-0.601007 0.073603 6.106650 223 0 0 0.535855
-0.633822 0.070672 6.094900 187 0 0 0.481066
-0.630068 0.071278 6.119390 192 0 0 0.482894
-0.666437 0.065962 6.081880 164 0 0 0.423918
-0.597629 0.072845 6.130700 219 0 0 0.533498
-0.594857 0.071512 6.154500 210 0 0 0.517579
-0.578966 0.071622 6.148580 255 23 0 0.583201
-0.581866 0.073131 6.124930 255 30 0 0.590309
-0.563274 0.072077 6.142430 255 56 0 0.623057
-0.566037 0.073113 6.119220 255 67 0 0.632178
-0.584765 0.073522 6.100860 255 38 0 0.600072
-0.547725 0.071595 6.136780 255 101 0 0.665790
-0.664996 0.066352 6.101890 173 0 0 0.445575
-0.696965 0.056173 6.086410 187 0 0 0.475868
-0.663259 0.065802 6.121820 178 0 0 0.460384
-0.695496 0.056833 6.106390 192 0 0 0.484259
-0.693641 0.056895 6.126130 187 0 0 0.480313
-0.726793 0.044973 6.090960 210 0 0 0.518544
-0.661612 0.064609 6.141440 178 0 0 0.456606
-0.660040 0.062432 6.161060 178 0 0 0.461958
-0.627659 0.067543 6.157590 192 0 0 0.484060
-0.628960 0.069998 6.138720 187 0 0 0.481437
-0.600882 0.050113 6.210150 255 112 0 0.676113
-0.598633 0.057578 6.191520 255 82 0 0.649043
-0.568742 0.051770 6.208810 255 175 0 0.722484
-0.566150 0.059307 6.190630 255 145 0 0.701065
-0.596383 0.064969 6.173310 255 27 0 0.586949
-0.629077 0.060771 6.176780 228 0 0 0.545316
-0.630444 0.053346 6.195610 255 45 0 0.608092
-0.538774 0.054328 6.202160 255 230 0 0.757968
-0.518636 0.054670 6.199210 222 255 26 0.783531
-0.536319 0.060354 6.178890 255 227 0 0.756755
-0.499286 0.055578 6.196470 190 255 58 0.802791
-0.515966 0.059790 6.175880 222 255 26 0.784691
-0.534110 0.065910 6.155210 255 197 0 0.737792
-0.549353 0.066226 6.160990 255 145 0 0.700472
-0.564719 0.066152 6.166850 255 93 0 0.658704
-0.551306 0.060043 6.184680 255 178 0 0.725113
-0.874456 -0.052876 6.256990 255 223 0 0.755449
-0.884884 -0.053327 6.238370 242 253 6 0.772113
-0.855366 -0.035988 6.245570 255 134 0 0.694470
-0.895793 -0.053738 6.219510 255 223 0 0.754071
-0.906397 -0.054433 6.201140 255 197 0 0.738531
-0.921096 -0.064789 6.212800 219 255 29 0.785366
-0.909891 -0.064811 6.231370 209 255 38 0.791283
-0.841055 -0.024710 6.238170 255 71 0 0.635925
-0.857042 -0.030521 6.220980 255 123 0 0.682757
-0.843297 -0.020895 6.214970 255 78 0 0.643006
-0.827500 -0.014553 6.232010 255 27 0 0.586022
-0.866037 -0.032471 6.200970 255 149 0 0.703308
-0.875434 -0.034417 6.181760 255 175 0 0.723108
-0.891114 -0.043933 6.191140 255 178 0 0.724603
-0.881392 -0.042747 6.211310 255 193 0 0.736109
-0.945687 -0.081889 6.120020 145 255 103 0.827703
-0.935706 -0.074632 6.139560 129 255 119 0.836511
-0.963214 -0.089891 6.134570 145 255 103 0.827904
-0.925516 -0.068044 6.159780 161 255 87 0.820024
-0.952304 -0.083450 6.154880 138 255 109 0.831201
-0.942183 -0.076701 6.175020 171 255 77 0.814671
-0.979932 -0.098039 6.150220 145 255 103 0.829149
-0.915584 -0.060934 6.180230 219 255 29 0.786801
-0.900011 -0.051568 6.169960 225 255 22 0.782079
-0.908900 -0.059232 6.149970 158 255 90 0.821782
-0.968616 -0.091594 6.168200 151 255 96 0.825410
-0.994795 -0.104112 6.167850 135 255 113 0.834421
-0.957216 -0.085861 6.187230 151 255 96 0.824857
-0.983241 -0.098246 6.186630 135 255 113 0.834306
-0.946067 -0.080328 6.206090 174 255 74 0.811885
-0.931649 -0.070741 6.193640 193 255 55 0.801680
-0.742712 0.035490 6.091590 255 34 0 0.594418
-0.726664 0.044067 6.109340 228 0 0 0.540487
-0.742429 0.034946 6.109580 255 49 0 0.611412
-0.758237 0.025719 6.092060 255 86 0 0.651328
-0.726300 0.042668 6.127460 242 8 0 0.558117
-0.758399 0.025536 6.110310 255 104 0 0.668133
-0.742362 0.033676 6.128050 255 60 0 0.626240
-0.758123 0.024440 6.128800 255 108 0 0.671655
-0.773409 0.015723 6.092550 255 160 0 0.713801
-0.773677 0.015886 6.111010 255 171 0 0.720829
-0.788540 0.006481 6.093670 255 216 0 0.750398
-0.726193 0.040580 6.145750 246 12 0 0.567883
-0.742526 0.032159 6.146330 255 49 0 0.615448
-0.726391 0.037941 6.163920 246 12 0 0.564142
-0.709873 0.044739 6.163430 223 0 0 0.535668
-0.709983 0.047475 6.145350 223 0 0 0.540343
-0.693464 0.051041 6.162540 205 0 0 0.511616
-0.693574 0.054251 6.144290 201 0 0 0.502629
-0.710395 0.050253 6.127130 201 0 0 0.505479
-0.676660 0.056822 6.162030 192 0 0 0.486706
-0.802961 -0.003431 6.094520 209 255 38 0.791373
-0.802775 -0.002464 6.112350 222 255 26 0.784151
-0.818130 -0.012796 6.095450 177 255 71 0.811591
-0.787873 0.007951 6.129690 255 190 0 0.732157
-0.817674 -0.012115 6.113260 171 255 77 0.815303
-0.802285 -0.001946 6.130510 235 255 13 0.775324
-0.833041 -0.022819 6.095800 135 255 113 0.833403
-0.848449 -0.031973 6.097060 113 255 135 0.845761
-0.787260 0.007320 6.166450 255 127 0 0.686242
-0.772831 0.016085 6.147310 255 134 0 0.694419
-0.757345 0.023566 6.164890 255 56 0 0.619868
-0.723687 0.019778 6.219340 255 78 0 0.645750
-0.724314 0.026115 6.201140 255 64 0 0.630053
-0.694021 0.028660 6.218040 255 101 0 0.664542
-0.694737 0.035209 6.199660 255 64 0 0.627930
-0.725193 0.032552 6.182620 255 41 0 0.603170
-0.756374 0.018373 6.183690 255 78 0 0.645181
-0.755187 0.012506 6.202990 255 97 0 0.660332
-0.663316 0.037215 6.214800 255 90 0 0.656157
-0.661846 0.045867 6.196870 255 60 0 0.625597
-0.631909 0.043887 6.212890 255 116 0 0.677498
-0.660715 0.054200 6.179180 228 0 0 0.545160
-0.677218 0.048968 6.180130 251 16 0 0.570005
-0.693721 0.043551 6.181230 255 27 0 0.585105
-0.678213 0.040613 6.198370 255 64 0 0.629327
-0.752271 -0.117799 5.779930 0 0 228 0.975462
-0.739186 -0.106977 5.787590 0 0 228 0.975456
-0.716816 -0.099557 5.780500 0 0 242 0.971912
-0.704012 -0.087940 5.788440 0 1 255 0.964742
-0.681903 -0.080290 5.782190 0 37 255 0.954870
-0.700039 -0.071222 5.811250 0 49 255 0.951507
-0.686113 -0.096524 5.759570 0 1 255 0.964755
-0.663717 -0.089672 5.753050 0 29 255 0.956939
-0.700034 -0.107079 5.753200 0 0 255 0.969696
-0.713757 -0.116910 5.747180 0 0 251 0.970160
-0.735874 -0.123534 5.753950 0 0 251 0.970341
-0.719779 -0.129879 5.728190 0 5 255 0.964317
-0.685218 -0.059587 5.819600 0 89 255 0.940587
-0.675738 -0.065029 5.803590 0 77 255 0.943681
-0.660537 -0.053475 5.811970 0 109 255 0.934878
-0.670496 -0.047802 5.827950 0 121 255 0.930371
-0.650742 -0.059377 5.795970 0 85 255 0.941144
-0.644914 -0.041622 5.820650 0 149 255 0.922254
-0.635159 -0.047896 5.804730 0 133 255 0.927053
-0.654785 -0.035594 5.836390 0 189 255 0.909401
-0.624995 -0.053760 5.789110 0 109 255 0.934474
-0.631994 -0.069517 5.767170 0 69 255 0.945934
-0.657396 -0.074899 5.774360 0 61 255 0.948784
-0.579372 -0.085276 5.708660 0 69 255 0.946097
-0.605702 -0.088891 5.718340 0 37 255 0.954845
-0.623025 -0.098125 5.712740 0 29 255 0.957532
-0.647474 -0.101197 5.722700 0 21 255 0.959738
-0.631116 -0.112448 5.692610 0 33 255 0.956557
-0.639207 -0.086254 5.743300 0 33 255 0.956363
-0.623086 -0.076341 5.750370 0 45 255 0.952311
-0.606122 -0.066376 5.757520 0 77 255 0.944140
-0.597060 -0.073280 5.740570 0 61 255 0.948349
-0.646533 -0.122020 5.688300 0 17 255 0.961100
-0.668765 -0.126442 5.696840 0 0 255 0.966234
-0.683333 -0.135073 5.692600 0 9 255 0.963015
-0.705435 -0.139085 5.701430 0 17 255 0.960074
-0.690913 -0.148408 5.675450 0 45 255 0.952787
-0.697821 -0.125759 5.719120 0 0 255 0.965879
-0.683757 -0.115943 5.725200 0 0 255 0.967791
-0.669515 -0.105679 5.731660 0 0 255 0.965461
-0.650268 -0.019077 5.859460 51 255 196 0.874650
-0.635329 -0.008325 5.870000 80 255 167 0.860090
-0.646547 -0.004268 5.883940 106 255 142 0.847921
-0.661761 -0.015359 5.873210 74 255 174 0.863663
-0.631492 0.006694 5.895070 161 255 87 0.819331
-0.658312 -0.000467 5.897970 138 255 109 0.832054
-0.642948 0.010915 5.909220 184 255 64 0.807607
-0.654110 0.014865 5.923490 216 255 32 0.788977
-0.672548 -0.011647 5.887460 84 255 164 0.858893
-0.669311 0.003161 5.912110 158 255 90 0.821888
-0.683917 -0.008279 5.901660 106 255 142 0.848138
-0.626873 0.021868 5.920750 238 255 9 0.773088
-0.638185 0.026125 5.934940 255 212 0 0.747842
-0.621429 0.036687 5.946950 255 160 0 0.713343
-0.608304 0.031757 5.931250 255 216 0 0.749695
-0.613781 0.016557 5.904920 190 255 58 0.803209
-0.595045 0.026096 5.915250 225 255 22 0.783076
-0.600147 0.011065 5.889270 148 255 100 0.826531
-0.618066 0.001509 5.879360 113 255 135 0.844753
-0.581509 0.020126 5.899410 161 255 87 0.819404
-0.682389 0.004476 5.924680 167 255 80 0.816211
-0.707755 -0.008256 5.923750 96 255 151 0.852857
-0.680979 0.017198 5.948040 245 249 3 0.770027
-0.706000 0.004132 5.946400 161 255 87 0.820223
-0.703853 0.016254 5.968720 248 245 0 0.768445
-0.730437 -0.009384 5.944990 84 255 164 0.859269
-0.678349 0.029452 5.970910 255 156 0 0.710934
-0.675081 0.041570 5.994420 255 64 0 0.630644
-0.662101 0.040984 5.982760 255 86 0 0.652832
-0.665328 0.028697 5.959100 255 182 0 0.727406
-0.648813 0.040067 5.971240 255 108 0 0.672850
-0.651870 0.027770 5.947300 255 193 0 0.734952
-0.667606 0.016137 5.935680 232 255 16 0.778258
-0.635484 0.038498 5.959150 255 138 0 0.695352
-0.611056 0.064999 6.031380 255 38 0 0.600282
-0.596552 0.063200 6.018610 255 82 0 0.646936
-0.615193 0.056996 6.003740 255 82 0 0.648042
-0.581263 0.060788 6.005330 255 123 0 0.684231
-0.600106 0.054824 5.990420 255 116 0 0.678937
-0.584178 0.052001 5.976720 255 167 0 0.716821
-0.565311 0.057906 5.991350 255 167 0 0.717797
-0.618631 0.047478 5.975530 255 123 0 0.684820
-0.603164 0.044687 5.961270 255 167 0 0.716819
-0.632452 0.048935 5.987090 255 97 0 0.661806
-0.645560 0.050179 5.998670 255 67 0 0.632014
-0.628319 0.058184 6.014730 255 53 0 0.617725
-0.641874 0.058946 6.025920 251 16 0 0.573616
-0.658662 0.050985 6.010280 255 34 0 0.598074
-0.624871 0.065858 6.041710 233 1 0 0.550006
-0.552427 0.052876 5.975510 255 227 0 0.756757
-0.538013 0.046682 5.957240 203 255 45 0.796407
-0.558309 0.041129 5.944490 213 255 35 0.790171
-0.523302 0.039765 5.939030 138 255 109 0.832624
-0.543376 0.034299 5.926220 145 255 103 0.827933
-0.563376 0.027700 5.913750 148 255 100 0.826715
-0.576798 0.033945 5.929620 216 255 32 0.788886
-0.590134 0.039514 5.945420 255 219 0 0.752260
-0.571342 0.046902 5.960650 255 216 0 0.750947
-0.730341 0.000049 5.963860 145 255 103 0.828590
-0.754618 -0.018663 5.957470 16 249 232 0.889950
-0.729396 0.009311 5.982300 216 255 32 0.787421
-0.754226 -0.009570 5.975860 67 255 180 0.866444
-0.753753 -0.000244 5.994450 148 255 100 0.826520
-0.778726 -0.027779 5.969650 0 189 255 0.910205
-0.728707 0.018632 6.001200 255 186 0 0.731589
-0.727571 0.027733 6.019980 255 101 0 0.666179
-0.701736 0.035314 6.007430 255 78 0 0.645062
-0.702897 0.025995 5.987940 255 164 0 0.715040
-0.792684 -0.029863 5.988760 0 165 255 0.917513
-0.804817 -0.044060 5.976760 0 77 255 0.943854
-0.780576 -0.015339 6.001130 51 255 196 0.874756
-0.806712 -0.032196 6.006530 0 177 255 0.914040
-0.818975 -0.045968 5.994280 0 101 255 0.937185
-0.831167 -0.059110 5.982430 0 29 255 0.956733
-0.794037 -0.018004 6.018920 35 255 213 0.881376
-0.781776 -0.003527 6.031520 158 255 90 0.821461
-0.767849 -0.001972 6.013360 142 255 106 0.830549
-0.755091 0.011917 6.025790 255 238 0 0.762420
-0.727247 0.041233 6.073030 246 12 0 0.568449
-0.727515 0.037117 6.055240 255 41 0 0.604506
-0.697652 0.052915 6.068440 205 0 0 0.510048
-0.698091 0.049009 6.050490 223 0 0 0.538905
-0.727655 0.032671 6.037800 255 67 0 0.635191
-0.755193 0.016703 6.042970 255 197 0 0.736875
-0.754950 0.021406 6.059990 255 156 0 0.708647
-0.668738 0.061231 6.060340 192 0 0 0.486486
-0.670862 0.055616 6.038740 223 0 0 0.540052
-0.686417 0.045997 6.022820 255 34 0 0.595874
-0.965069 -0.098436 6.106110 80 255 167 0.860625
-0.992730 -0.116767 6.102260 58 255 190 0.871615
-1.011460 -0.132402 6.089100 38 255 209 0.879703
-1.039260 -0.149349 6.086230 125 255 122 0.838838
-1.021080 -0.145555 6.067870 9 241 238 0.892914
-1.028970 -0.136388 6.108630 67 255 180 0.867071
-1.056820 -0.153133 6.105020 142 255 106 0.830916
-1.009830 -0.122789 6.119660 67 255 180 0.867066
-0.990935 -0.108081 6.130610 109 255 138 0.846434
-1.039630 -0.166339 6.056970 16 249 232 0.889015
-1.047280 -0.164715 6.071070 51 255 196 0.874534
-1.065960 -0.184718 6.059510 6 237 242 0.893663
-1.058220 -0.186715 6.045960 0 213 255 0.901657
-1.074400 -0.182825 6.073100 35 255 213 0.881898
-1.085530 -0.203756 6.048360 0 229 248 0.896844
-1.093520 -0.201312 6.061500 38 255 209 0.879461
-1.113330 -0.219629 6.049760 64 255 184 0.867774
-1.077250 -0.206308 6.035690 0 177 255 0.912990
-1.104620 -0.222846 6.037460 3 233 245 0.894807
-1.095140 -0.226696 6.025350 0 141 255 0.924131
-1.101520 -0.199413 6.074790 67 255 180 0.867193
-1.121830 -0.216935 6.062840 119 255 129 0.841818
-1.130120 -0.214632 6.076110 158 255 90 0.822479
-1.092980 -0.184908 6.090710 100 255 148 0.850732
-1.065450 -0.167865 6.088610 93 255 155 0.855213
-1.130350 -0.192761 6.122740 203 255 45 0.795453
-1.105090 -0.180705 6.117250 151 255 96 0.825644
-1.094380 -0.167051 6.134660 148 255 100 0.826981
-1.070360 -0.153472 6.128500 158 255 90 0.822402
-1.080800 -0.167363 6.111640 125 255 122 0.837874
-1.118150 -0.197669 6.095590 155 255 93 0.824098
-1.143950 -0.209332 6.100710 255 238 0 0.764022
-1.057310 -0.140753 6.152470 164 255 84 0.818291
-1.031550 -0.126937 6.151120 103 255 145 0.850099
-1.020650 -0.118366 6.168100 109 255 138 0.846528
-1.005740 -0.112783 6.150160 113 255 135 0.845158
-1.044460 -0.140099 6.127960 145 255 103 0.828862
-0.846488 -0.069513 5.984590 0 5 255 0.963502
-0.861886 -0.079704 5.986700 0 0 255 0.967131
-0.837846 -0.052412 6.009120 0 97 255 0.937300
-0.853364 -0.063272 6.011270 0 53 255 0.950214
-0.868989 -0.073451 6.012670 0 41 255 0.954033
-0.878054 -0.089823 5.988770 0 0 255 0.969296
-0.893933 -0.099492 5.990550 0 0 255 0.968785
-0.843396 -0.045768 6.036210 0 173 255 0.915015
-0.827202 -0.035868 6.034740 0 193 255 0.907714
-0.811658 -0.025448 6.033760 6 237 242 0.893668
-0.910126 -0.110518 5.992190 0 0 237 0.972938
-0.926990 -0.121265 5.994210 0 0 233 0.974628
-0.902162 -0.092896 6.015660 0 57 255 0.949704
-0.918583 -0.104006 6.016720 0 37 255 0.954513
-0.935555 -0.115064 6.018170 0 33 255 0.956052
-0.943389 -0.131817 5.996530 0 0 237 0.973182
-0.960744 -0.142782 5.998340 0 0 242 0.971866
-0.909350 -0.086923 6.039890 0 121 255 0.930996
-0.892592 -0.076975 6.039250 0 133 255 0.927489
-0.876242 -0.066918 6.038390 0 133 255 0.927472
-0.885347 -0.083305 6.013760 0 37 255 0.954654
-0.859462 -0.056363 6.037330 0 141 255 0.924320
-0.846358 -0.038590 6.066160 16 249 232 0.890120
-0.830520 -0.029806 6.065100 32 255 216 0.882133
-0.815554 -0.020230 6.064120 67 255 180 0.866966
-0.862192 -0.049584 6.066530 0 205 255 0.904770
-0.878524 -0.060588 6.067520 0 181 255 0.912694
-0.785067 0.001610 6.061960 200 255 48 0.798360
-0.770216 0.011512 6.061000 255 223 0 0.753371
-0.798337 -0.011893 6.047830 93 255 155 0.854255
-0.758286 -0.104350 5.811980 0 0 210 0.979539
-0.770412 -0.115877 5.802990 0 0 205 0.981007
-0.746023 -0.092077 5.821050 0 0 233 0.974515
-0.763996 -0.089958 5.843820 0 0 214 0.978635
-0.775980 -0.102171 5.834780 0 0 201 0.982205
-0.788240 -0.114162 5.825480 0 0 196 0.982911
-0.743004 -0.077883 5.841720 0 0 255 0.968472
-0.740129 -0.063052 5.862460 0 29 255 0.957105
-0.720256 -0.066861 5.836890 0 41 255 0.954399
-0.722821 -0.081516 5.815960 0 1 255 0.964982
-0.796890 -0.104973 5.854530 0 0 173 0.987392
-0.808626 -0.117418 5.844160 0 0 173 0.987522
-0.785526 -0.091948 5.864490 0 0 196 0.982571
-0.805091 -0.095310 5.882450 0 0 178 0.986804
-0.816617 -0.108126 5.872250 0 0 164 0.989900
-0.828664 -0.120679 5.862320 0 0 164 0.989837
-0.784109 -0.080076 5.883580 0 0 210 0.979439
-0.782490 -0.067710 5.902170 0 0 251 0.970769
-0.761395 -0.065148 5.882740 0 0 255 0.966179
-0.762971 -0.077937 5.863320 0 0 228 0.975049
-0.733597 -0.023288 5.924540 0 217 255 0.900746
-0.736194 -0.036951 5.904080 0 129 255 0.927919
-0.710180 -0.022472 5.902640 0 229 248 0.895770
-0.712761 -0.036307 5.881920 0 153 255 0.920515
-0.738452 -0.050342 5.883420 0 65 255 0.947665
-0.759483 -0.052594 5.903010 0 37 255 0.954856
-0.756981 -0.039676 5.922890 0 97 255 0.937556
-0.688565 -0.024902 5.878880 9 241 238 0.892450
-0.677393 -0.028247 5.864640 0 217 255 0.900190
-0.692993 -0.041130 5.856170 0 145 255 0.923409
-0.666348 -0.031882 5.850570 0 197 255 0.906398
-0.682102 -0.044428 5.842040 0 133 255 0.926736
-0.696550 -0.056612 5.833710 0 81 255 0.942099
-0.716881 -0.052094 5.859360 0 77 255 0.943345
-0.839501 -0.116860 5.884710 0 0 155 0.991568
-0.851126 -0.129636 5.874490 0 0 151 0.992360
-0.828208 -0.103563 5.894800 0 0 164 0.989366
-0.850339 -0.112409 5.905830 0 0 160 0.990904
-0.862120 -0.125566 5.896140 0 0 151 0.992544
-0.873869 -0.138231 5.885770 0 0 155 0.991898
-0.828153 -0.094646 5.910350 0 0 178 0.986308
-0.828056 -0.085546 5.926010 0 0 205 0.980491
-0.805301 -0.076927 5.914720 0 0 205 0.980313
-0.805245 -0.086199 5.898380 0 0 192 0.983616
-0.887599 -0.138687 5.904480 0 0 151 0.992823
-0.898469 -0.151053 5.894870 0 0 151 0.993253
-0.876922 -0.126105 5.914090 0 0 155 0.991693
-0.901377 -0.138789 5.922430 0 0 155 0.991782
-0.912273 -0.151307 5.913110 0 0 151 0.992724
-0.923347 -0.163621 5.903410 0 0 155 0.992147
-0.890599 -0.126214 5.931490 0 0 169 0.989197
-0.879890 -0.113047 5.941160 0 0 187 0.984877
-0.865081 -0.112931 5.923860 0 0 164 0.989329
-0.853415 -0.099478 5.933820 0 0 178 0.986346
-0.817196 -0.058600 5.965300 0 13 255 0.962124
-0.829842 -0.072528 5.954380 0 0 242 0.972596
-0.803711 -0.058305 5.947310 0 1 255 0.964713
-0.791189 -0.043401 5.958340 0 73 255 0.944354
-0.816037 -0.072423 5.936510 0 0 228 0.975663
-0.841589 -0.086258 5.944060 0 0 205 0.981105
-0.855658 -0.086890 5.961360 0 0 223 0.976097
-0.867478 -0.100118 5.950800 0 0 201 0.981941
-0.767875 -0.033677 5.946470 0 129 255 0.928066
-0.781304 -0.048244 5.936220 0 49 255 0.951523
-0.782338 -0.058154 5.919670 0 5 255 0.963844
-0.897104 -0.901055 5.854820 0 129 255 0.928132
-0.877105 -0.899674 5.869260 0 165 255 0.917371
-0.890021 -0.887950 5.891980 0 165 255 0.917556
-0.869448 -0.886851 5.904170 32 255 216 0.882841
-0.856999 -0.899423 5.882630 0 221 255 0.898924
-0.883097 -0.875978 5.925550 51 255 196 0.873813
-0.849081 -0.886820 5.916170 106 255 142 0.849063
-0.862496 -0.875540 5.936540 151 255 96 0.824813
-0.842041 -0.876838 5.947270 245 249 3 0.770764
-0.836610 -0.899638 5.895180 42 255 206 0.877686
-0.828704 -0.887471 5.927590 213 255 35 0.790972
-0.816618 -0.900795 5.907470 142 255 106 0.830093
-0.876938 -0.867079 5.956710 135 255 113 0.834267
-0.856309 -0.868625 5.966920 187 255 61 0.805095
-0.871658 -0.862845 5.986730 132 255 116 0.835922
-0.891117 -0.861490 5.974680 84 255 164 0.859702
-0.896105 -0.867502 5.944380 51 255 196 0.873501
-0.910000 -0.860627 5.962650 35 255 213 0.881476
-0.914993 -0.868755 5.931470 0 181 255 0.911537
-0.902347 -0.877696 5.912160 0 177 255 0.913247
-0.921043 -0.881246 5.897520 0 101 255 0.937159
-0.928592 -0.861631 5.950600 0 169 255 0.916118
-0.933620 -0.872470 5.918200 0 93 255 0.939182
-0.947311 -0.863762 5.938960 0 93 255 0.939211
-0.908833 -0.890849 5.876170 0 113 255 0.933723
-0.793553 -0.899480 5.919860 213 255 35 0.789670
-0.806101 -0.885538 5.941290 255 190 0 0.733155
-0.782873 -0.884593 5.953020 255 101 0 0.665445
-0.770811 -0.898869 5.932400 255 201 0 0.741240
-0.796695 -0.874548 5.973990 255 97 0 0.661732
-0.760631 -0.884745 5.965010 255 53 0 0.615822
-0.774109 -0.875296 5.985710 255 45 0 0.610768
-0.748567 -0.898247 5.944550 255 134 0 0.693375
-0.789099 -0.869904 6.007230 255 112 0 0.675115
-0.804581 -0.867930 6.027430 238 255 9 0.773994
-0.810963 -0.868720 5.993380 255 138 0 0.695054
-0.826631 -0.865325 6.013260 242 253 6 0.770775
-0.833483 -0.868162 5.979940 255 182 0 0.728213
-0.819065 -0.875107 5.960610 255 160 0 0.711542
-0.848998 -0.863958 5.999770 180 255 67 0.809375
-0.887027 -0.873377 6.109750 213 255 35 0.790899
-0.865973 -0.873922 6.090250 32 255 216 0.883140
-0.888397 -0.867839 6.074170 0 185 255 0.911007
-0.909964 -0.866325 6.093430 116 255 132 0.843796
-0.867326 -0.867228 6.054750 0 105 255 0.935518
-0.911021 -0.861459 6.058860 0 129 255 0.928820
-0.889669 -0.862370 6.039550 0 105 255 0.934975
-0.911512 -0.857942 6.024930 0 117 255 0.932446
-0.931961 -0.859186 6.078130 32 255 216 0.883108
-0.932290 -0.855743 6.044050 0 105 255 0.935020
-0.952972 -0.853140 6.063240 0 217 255 0.900480
-0.868640 -0.862335 6.020200 19 253 229 0.888096
-0.891251 -0.860298 6.005940 0 229 248 0.896032
-0.846325 -0.865056 6.033970 22 255 226 0.887215
-0.823976 -0.868829 6.048280 58 255 190 0.870710
-0.844629 -0.871338 6.069200 0 101 255 0.936663
-0.969865 -0.846755 6.049950 0 161 255 0.918720
-0.950228 -0.850597 6.032250 0 97 255 0.937937
-0.967275 -0.846501 6.019470 0 97 255 0.937612
-0.986585 -0.841370 6.037170 0 149 255 0.922614
-0.948344 -0.851611 6.001810 0 109 255 0.934062
-0.984618 -0.843387 6.007210 0 113 255 0.933545
-0.965549 -0.849170 5.989070 0 101 255 0.936126
-0.982839 -0.848144 5.976440 0 109 255 0.934913
-1.003980 -0.837427 6.025060 0 153 255 0.920880
-1.002060 -0.840951 5.995340 0 137 255 0.926068
-1.021760 -0.833784 6.013310 0 173 255 0.914742
-0.947096 -0.855187 5.970880 0 125 255 0.929068
-0.964317 -0.855581 5.957510 0 89 255 0.940009
-0.928792 -0.855704 5.982300 0 169 255 0.915460
-0.910235 -0.857283 5.993990 0 217 255 0.900968
-0.930018 -0.853932 6.013110 0 117 255 0.931481
-0.939451 -0.168260 5.920800 0 0 151 0.993007
-0.949247 -0.180027 5.911760 0 0 151 0.992810
-0.930381 -0.156667 5.929690 0 0 155 0.991757
-0.955831 -0.172738 5.937770 0 0 155 0.991600
-0.965766 -0.184848 5.928770 0 0 155 0.991684
-0.975941 -0.196951 5.919810 0 0 160 0.990603
-0.946626 -0.161027 5.946080 0 0 160 0.991212
-0.937528 -0.149478 5.954170 0 0 169 0.988653
-0.919118 -0.144163 5.938470 0 0 160 0.990709
-0.908407 -0.131490 5.947620 0 0 164 0.989485
-0.994250 -0.204988 5.935300 0 0 173 0.988246
-1.012960 -0.212792 5.950230 0 0 187 0.984494
-1.016340 -0.226456 5.929770 0 0 192 0.984279
-0.991669 -0.192002 5.955110 0 0 173 0.987548
-0.981822 -0.179634 5.963630 0 0 173 0.987573
-0.949161 -0.145947 5.976790 0 0 196 0.982484
-0.932394 -0.135415 5.974310 0 0 196 0.983013
-0.915960 -0.124776 5.971870 0 0 192 0.983327
-0.958026 -0.157734 5.968840 0 0 183 0.985963
-0.978658 -0.166091 5.982420 0 0 201 0.982022
-0.969705 -0.154372 5.990540 0 0 219 0.977566
-0.887101 -0.106500 5.965940 0 0 210 0.980150
-0.897841 -0.119047 5.956830 0 0 187 0.984777
-1.137700 -0.191465 6.532210 133 0 0 0.259051
-1.157100 -0.201551 6.512690 133 0 0 0.258220
-1.133750 -0.199607 6.553360 133 0 0 0.280664
-1.153270 -0.209697 6.535250 128 0 0 0.246421
-1.149270 -0.217673 6.556410 128 0 0 0.229579
-1.172920 -0.220879 6.514780 128 0 0 0.209739
-1.129750 -0.208584 6.573030 137 0 0 0.300975
-1.125300 -0.217605 6.592720 142 0 0 0.351825
-1.110990 -0.199686 6.588240 146 0 0 0.361633
-1.115480 -0.190785 6.568790 142 0 0 0.329599
-1.166070 -0.229557 6.538650 133 0 0 0.259068
-1.182850 -0.243560 6.519660 133 0 0 0.275709
-1.158830 -0.238984 6.561300 133 0 0 0.279116
-1.175760 -0.252070 6.543490 133 0 0 0.280413
-1.168410 -0.261317 6.566350 133 0 0 0.294225
-1.192150 -0.267034 6.523770 137 0 0 0.324915
-1.151570 -0.248515 6.583040 133 0 0 0.284396
-1.144260 -0.258929 6.603870 137 0 0 0.320031
-1.134680 -0.237773 6.598380 146 0 0 0.363003
-1.142140 -0.227690 6.577860 137 0 0 0.298786
-1.094850 -0.243095 6.662260 210 0 0 0.516785
-1.105340 -0.235839 6.637560 187 0 0 0.479071
-1.085170 -0.223080 6.659390 214 0 0 0.522657
-1.096360 -0.216059 6.632980 187 0 0 0.473942
-1.115510 -0.226932 6.614620 178 0 0 0.454624
-1.125150 -0.247285 6.620480 160 0 0 0.409701
-1.115540 -0.255936 6.642790 169 0 0 0.434509
-1.073270 -0.202893 6.658290 210 0 0 0.515248
-1.081750 -0.197838 6.630830 196 0 0 0.491963
-1.059240 -0.181721 6.659840 192 0 0 0.483153
-1.089760 -0.190273 6.606720 169 0 0 0.442204
-1.103890 -0.208358 6.610280 173 0 0 0.445737
-1.021440 -0.792418 6.233180 90 255 158 0.855658
-1.008420 -0.806197 6.219870 164 255 84 0.818603
-1.033000 -0.799043 6.205260 164 255 84 0.818172
-1.045560 -0.785683 6.218360 96 255 151 0.853290
-1.019740 -0.812118 6.191100 229 255 19 0.779440
-1.057410 -0.791994 6.190790 190 255 58 0.804206
-1.043600 -0.804633 6.177080 232 255 16 0.777230
-1.067160 -0.797175 6.163760 255 238 0 0.762427
-1.070150 -0.779197 6.204080 145 255 103 0.828282
-1.081440 -0.784535 6.177200 235 255 13 0.776293
-1.095020 -0.772155 6.189980 225 255 22 0.781407
-1.028880 -0.817103 6.162240 255 227 0 0.756570
-1.052290 -0.808818 6.148790 255 238 0 0.763780
-1.036170 -0.819735 6.133120 245 249 3 0.769243
-1.013710 -0.827118 6.147980 255 227 0 0.756841
-1.005660 -0.823898 6.177540 255 212 0 0.747155
-0.990662 -0.834550 6.163080 255 178 0 0.726085
-0.981459 -0.830366 6.193310 255 178 0 0.724768
-0.995331 -0.818353 6.206680 238 255 9 0.774404
-0.966450 -0.842431 6.179070 255 112 0 0.673828
-1.119520 -0.758537 6.175020 209 255 38 0.792234
-1.100740 -0.777615 6.162660 255 238 0 0.764073
-1.126460 -0.762896 6.147690 248 245 0 0.767298
-1.145180 -0.742943 6.159220 219 255 29 0.785956
-1.105870 -0.781843 6.134550 255 227 0 0.756421
-1.153470 -0.746527 6.131640 255 212 0 0.747585
-1.132710 -0.765731 6.119560 255 227 0 0.756714
-1.161720 -0.747481 6.104030 255 182 0 0.728871
-1.172530 -0.725930 6.142400 255 227 0 0.756637
-1.183040 -0.727697 6.114840 255 127 0 0.688073
-1.202110 -0.707650 6.125290 255 90 0 0.654192
-1.110610 -0.784079 6.106290 245 249 3 0.769461
-1.139120 -0.766284 6.092190 242 253 6 0.771791
-1.114480 -0.784692 6.078970 190 255 58 0.803835
-1.092800 -0.795071 6.092010 180 255 67 0.809179
-1.089890 -0.793483 6.120590 242 253 6 0.772875
-1.072720 -0.804091 6.105470 190 255 58 0.804470
-1.070630 -0.801519 6.134760 242 253 6 0.771409
-1.086070 -0.790037 6.149160 255 238 0 0.764230
-1.054100 -0.811987 6.119190 213 255 35 0.789796
-1.026100 -0.829526 6.043010 0 213 255 0.902057
-1.008500 -0.834638 6.055190 0 221 255 0.898896
-1.030330 -0.826893 6.072820 74 255 174 0.863296
-0.991642 -0.840780 6.067770 29 255 219 0.884729
-1.013080 -0.832999 6.085620 106 255 142 0.848796
-0.996130 -0.839752 6.099070 164 255 84 0.818532
-0.974802 -0.847115 6.081060 77 255 171 0.862761
-1.033920 -0.824122 6.102490 180 255 67 0.809956
-1.016810 -0.830380 6.116220 216 255 32 0.787737
-1.051810 -0.815909 6.089420 129 255 119 0.837335
-1.071100 -0.807459 6.076410 119 255 129 0.841910
-1.048710 -0.818689 6.060270 38 255 209 0.879281
-1.068050 -0.810761 6.048270 42 255 206 0.879045
-1.092050 -0.797936 6.064710 119 255 129 0.841903
-1.044660 -0.822474 6.031520 0 217 255 0.900975
-0.952481 -0.855782 6.095820 164 255 84 0.818029
-0.930784 -0.862613 6.111460 242 253 6 0.770899
-0.950714 -0.857002 6.128880 255 160 0 0.713563
-0.907837 -0.870139 6.127630 255 149 0 0.703096
-0.928019 -0.863898 6.145180 255 78 0 0.645913
-0.947051 -0.855164 6.162280 255 71 0 0.638871
-0.971308 -0.846570 6.146080 255 149 0 0.704994
-0.994435 -0.838372 6.130850 255 227 0 0.756073
-0.973791 -0.847936 6.113490 229 255 19 0.780427
-1.199430 -0.656841 6.250630 171 255 77 0.814323
-1.178860 -0.676837 6.248400 109 255 138 0.846047
-1.198700 -0.667787 6.222270 164 255 84 0.817717
-1.159420 -0.697258 6.246350 119 255 129 0.842192
-1.178460 -0.688305 6.220820 129 255 119 0.836299
-1.158880 -0.708127 6.219070 129 255 119 0.837346
-1.198660 -0.679394 6.195950 213 255 35 0.790646
-1.139900 -0.716463 6.244240 135 255 113 0.834007
-1.120360 -0.734311 6.241940 155 255 93 0.822622
-1.125220 -0.720605 6.267000 151 255 96 0.824735
-1.145020 -0.702066 6.269660 138 255 109 0.831879
-1.164770 -0.682540 6.272540 138 255 109 0.831380
-1.131050 -0.706958 6.294460 213 255 35 0.791031
-1.199420 -0.687320 6.178380 255 223 0 0.754792
-1.173380 -0.704188 6.194860 171 255 77 0.815374
-1.172900 -0.712355 6.177720 206 255 42 0.794028
-1.200730 -0.694859 6.160950 255 160 0 0.712937
-1.147360 -0.728138 6.193910 151 255 96 0.824368
-1.173100 -0.719595 6.160500 251 241 0 0.765451
-1.146610 -0.735882 6.176790 196 255 51 0.799203
-1.201650 -0.701665 6.143060 255 116 0 0.677173
-1.121380 -0.750487 6.192600 187 255 61 0.804940
-1.101610 -0.762444 6.203350 196 255 51 0.799020
-1.127580 -0.741042 6.205350 164 255 84 0.818866
-1.108470 -0.753074 6.215900 184 255 64 0.807559
-1.133540 -0.731518 6.217620 145 255 103 0.828630
-1.153170 -0.718365 6.206350 142 255 106 0.830604
-1.114350 -0.743763 6.228460 167 255 80 0.816334
-1.027900 -0.782653 6.246980 42 255 206 0.878584
-1.036260 -0.772218 6.259090 6 237 242 0.893558
-1.058380 -0.766936 6.245450 42 255 206 0.878845
-1.044230 -0.762790 6.271700 0 221 255 0.898651
-1.066170 -0.757229 6.257460 25 255 222 0.884917
-1.074040 -0.747758 6.269830 25 255 222 0.885764
-1.052100 -0.753681 6.284550 0 229 248 0.896137
-1.089200 -0.751569 6.243960 87 255 161 0.857142
-1.097110 -0.741570 6.255890 87 255 161 0.857090
-1.083040 -0.760564 6.230630 103 255 145 0.850094
-1.076440 -0.769645 6.217340 109 255 138 0.846337
-1.052150 -0.776151 6.231970 64 255 184 0.868395
-1.060230 -0.740145 6.310350 55 255 193 0.872155
-1.080220 -0.735362 6.296930 84 255 164 0.858915
-1.090950 -0.719027 6.322070 142 255 106 0.830340
-1.071600 -0.724367 6.335590 135 255 113 0.833470
-1.105520 -0.721846 6.295870 145 255 103 0.828228
-1.169770 -0.222910 6.110680 255 156 0 0.710715
-1.182920 -0.242278 6.095420 255 156 0 0.708884
-1.156700 -0.228518 6.085870 229 255 19 0.780975
-1.168280 -0.248337 6.071700 203 255 45 0.796193
-1.194990 -0.262213 6.081230 255 134 0 0.691642
-1.206400 -0.283158 6.067370 255 119 0 0.680157
-1.219140 -0.273703 6.091510 228 0 0 0.545375
-1.206910 -0.253601 6.105680 255 19 0 0.575887
-1.193280 -0.234333 6.121790 255 60 0 0.623954
-1.230320 -0.265200 6.116660 160 0 0 0.409352
-1.144390 -0.236559 6.062010 116 255 132 0.843570
-1.135370 -0.239982 6.049580 42 255 206 0.879098
-1.158450 -0.260449 6.048580 64 255 184 0.868352
-1.126030 -0.243979 6.037200 0 185 255 0.910406
-1.148020 -0.265158 6.036380 0 181 255 0.911889
-1.137950 -0.270706 6.023670 0 113 255 0.932589
-1.116370 -0.248696 6.024870 0 109 255 0.934453
-1.170390 -0.286636 6.034520 25 255 222 0.884953
-1.159590 -0.291965 6.022290 0 149 255 0.922081
-1.181780 -0.313097 6.020910 42 255 206 0.879008
-1.194800 -0.297090 6.043880 203 255 45 0.796730
-1.181740 -0.272010 6.057830 196 255 51 0.800682
-1.244650 -0.387570 6.024710 255 71 0 0.637210
-1.235440 -0.361660 6.034940 255 127 0 0.686011
-1.255750 -0.373013 6.049500 219 0 0 0.533137
-1.225840 -0.334974 6.046230 255 153 0 0.705922
-1.246830 -0.347070 6.060440 255 19 0 0.576777
-1.237990 -0.321198 6.070350 251 16 0 0.571704
-1.266810 -0.360150 6.075650 155 0 0 0.394889
-1.216820 -0.308728 6.056600 255 149 0 0.705044
-1.204210 -0.324114 6.032990 171 255 77 0.815078
-1.213790 -0.351546 6.021330 196 255 51 0.800216
-1.259820 -0.335639 6.085030 155 0 0 0.395664
-1.278220 -0.350141 6.099470 128 0 0 0.220635
-1.251380 -0.311387 6.095060 155 0 0 0.403971
-1.270250 -0.325999 6.108920 128 0 0 0.232074
-1.260910 -0.302215 6.118940 133 0 0 0.259167
-1.287220 -0.341212 6.124120 128 0 0 0.077503
-1.241750 -0.287711 6.105160 155 0 0 0.394445
-1.229440 -0.297026 6.081070 237 4 0 0.554645
-1.285780 -0.519378 6.187150 255 141 0 0.699995
-1.291840 -0.496506 6.178430 255 90 0 0.655585
-1.294810 -0.478142 6.157560 255 38 0 0.599983
-1.299440 -0.455448 6.148090 196 0 0 0.497802
-1.299920 -0.437299 6.126200 151 0 0 0.384575
-1.306000 -0.429232 6.151680 137 0 0 0.321692
-1.294810 -0.464123 6.122200 214 0 0 0.521892
-1.294180 -0.445675 6.099330 169 0 0 0.438207
-1.291760 -0.486598 6.130880 255 45 0 0.607310
-1.287970 -0.509480 6.139380 255 90 0 0.656615
-1.284440 -0.527923 6.161050 255 134 0 0.692226
-1.284300 -0.536823 6.133570 255 78 0 0.645735
-1.303920 -0.406352 6.143420 133 0 0 0.266865
-1.295860 -0.388648 6.123910 133 0 0 0.278007
-1.290170 -0.367012 6.117540 128 0 0 0.233018
-1.280450 -0.376012 6.093010 137 0 0 0.320552
-1.287630 -0.396964 6.099020 146 0 0 0.356939
-1.293120 -0.418771 6.105620 151 0 0 0.383845
-1.255660 -0.406185 6.027820 255 30 0 0.593223
-1.270040 -0.419252 6.045420 210 0 0 0.515985
-1.278360 -0.439726 6.050610 183 0 0 0.472607
-1.288760 -0.455479 6.070390 169 0 0 0.435887
-1.281520 -0.467637 6.043100 183 0 0 0.468366
-1.285820 -0.429178 6.078760 169 0 0 0.439794
-1.278770 -0.407473 6.072550 173 0 0 0.451381
-1.270760 -0.386422 6.067230 164 0 0 0.431739
-1.283280 -0.488378 6.049550 183 0 0 0.468597
-1.286150 -0.504818 6.071890 219 0 0 0.530220
-1.285470 -0.526707 6.079190 246 12 0 0.565657
-1.285160 -0.543902 6.101710 255 23 0 0.583948
-1.282290 -0.552899 6.071130 210 0 0 0.518425
-1.286970 -0.518371 6.110540 255 38 0 0.599549
-1.289430 -0.495377 6.101790 242 8 0 0.563312
-1.291300 -0.472092 6.093120 187 0 0 0.475013
-1.204090 -0.211540 6.207170 210 0 0 0.515945
-1.218210 -0.226667 6.191600 178 0 0 0.455730
-1.197400 -0.212617 6.183380 255 27 0 0.584940
-1.210870 -0.227323 6.169080 214 0 0 0.527622
-1.232140 -0.241683 6.177370 160 0 0 0.406905
-1.245540 -0.256843 6.163270 133 0 0 0.287776
-1.249960 -0.254843 6.186030 133 0 0 0.276013
-1.236230 -0.239596 6.200360 142 0 0 0.346690
-1.189990 -0.215055 6.159940 255 53 0 0.617513
-1.203610 -0.231902 6.144890 255 23 0 0.579510
-1.180100 -0.217544 6.136020 255 97 0 0.661372
-1.216900 -0.248757 6.130310 205 0 0 0.509681
-1.238370 -0.261040 6.139030 142 0 0 0.343100
-1.224930 -0.244398 6.153850 173 0 0 0.452871
-1.278700 -0.319631 6.131860 128 0 0 0.106773
-1.292800 -0.335905 6.145300 128 0 0 0.026244
-1.268650 -0.298342 6.141290 128 0 0 0.175814
-1.283680 -0.314266 6.154070 128 0 0 0.111109
-1.272980 -0.293168 6.164410 128 0 0 0.161840
-1.297160 -0.330656 6.167650 128 0 0 0.000000
-1.257560 -0.277705 6.151610 128 0 0 0.248365
-1.249750 -0.281377 6.128510 137 0 0 0.317258
-1.287380 -0.310922 6.176920 128 0 0 0.117758
-1.298910 -0.327089 6.188970 128 0 0 0.040019
-1.277130 -0.291666 6.186620 128 0 0 0.187979
-1.289080 -0.307223 6.198610 128 0 0 0.114977
-1.266040 -0.271904 6.197710 128 0 0 0.238834
-1.262000 -0.274206 6.174610 128 0 0 0.229210
-1.276740 -0.542163 6.181770 255 216 0 0.749640
-1.268460 -0.565149 6.175770 248 245 0 0.766940
-1.276010 -0.551305 6.155050 255 171 0 0.720704
-1.268000 -0.574817 6.148620 255 208 0 0.744888
-1.259870 -0.589103 6.169410 248 245 0 0.768032
-1.251440 -0.613668 6.162860 255 208 0 0.745594
-1.249930 -0.603777 6.190900 209 255 38 0.791956
-1.258550 -0.579812 6.197210 190 255 58 0.804398
-1.267080 -0.556638 6.203480 184 255 64 0.806574
-1.250100 -0.593749 6.217960 187 255 61 0.805426
-1.279120 -0.558533 6.124170 255 75 0 0.641088
-1.274250 -0.579932 6.114350 255 60 0 0.624171
-1.279430 -0.566180 6.092350 237 4 0 0.556282
-1.273350 -0.588739 6.084720 255 19 0 0.576464
-1.268880 -0.602317 6.106060 255 34 0 0.597532
-1.262240 -0.625311 6.098450 242 8 0 0.560902
-1.260120 -0.622869 6.114850 255 45 0 0.607195
-1.265280 -0.600328 6.122950 255 119 0 0.681223
-1.257080 -0.620089 6.130850 255 116 0 0.678970
-1.262440 -0.597115 6.139320 255 164 0 0.715034
-1.270980 -0.577594 6.131370 255 134 0 0.691946
-1.253670 -0.617154 6.147270 255 164 0 0.715118
-1.215740 -0.684920 6.133800 255 134 0 0.693782
-1.213800 -0.678540 6.152140 255 186 0 0.731736
-1.227830 -0.661596 6.142900 255 182 0 0.727413
-1.212430 -0.671025 6.170170 242 253 6 0.772041
-1.225660 -0.654197 6.161390 232 255 16 0.778462
-1.223790 -0.646148 6.179870 155 255 93 0.823731
-1.211000 -0.662868 6.188060 161 255 87 0.820026
-1.239430 -0.637709 6.152510 255 212 0 0.748488
-1.237490 -0.629729 6.171410 196 255 51 0.800218
-1.241980 -0.641119 6.137010 255 167 0 0.718978
-1.244730 -0.643918 6.121600 255 104 0 0.668719
-1.229820 -0.664567 6.127570 255 149 0 0.705070
-1.232170 -0.666682 6.112790 255 108 0 0.672981
-1.247460 -0.645849 6.105650 255 82 0 0.649599
-1.217260 -0.686921 6.118690 255 123 0 0.683771
-1.210290 -0.651895 6.214580 122 255 126 0.839408
-1.223600 -0.635685 6.207050 122 255 126 0.840036
-1.223500 -0.625010 6.234380 109 255 138 0.847290
-1.210960 -0.641015 6.242440 109 255 138 0.846207
-1.236470 -0.614610 6.212460 122 255 126 0.839647
-0.906608 -0.252388 7.013450 128 0 0 0.000000
-0.921824 -0.266733 6.983850 128 0 0 0.000000
-0.930038 -0.287893 6.956180 128 0 0 0.000000
-0.942855 -0.273856 6.953740 128 0 0 0.000000
-0.910405 -0.282666 6.983200 128 0 0 0.000000
-0.918039 -0.303076 6.957370 128 0 0 0.000000
-0.895818 -0.268521 7.011140 128 0 0 0.000000
-0.881639 -0.312631 6.981300 128 0 0 0.000000
-0.869093 -0.300718 7.004570 128 0 0 0.000000
-0.883310 -0.285073 7.007530 128 0 0 0.000000
-0.897169 -0.297674 6.981630 128 0 0 0.000000
-0.902377 -0.317041 6.956920 128 0 0 0.000000
-1.106800 -0.447739 6.610430 255 123 0 0.683642
-1.107840 -0.430814 6.623930 255 53 0 0.619223
-1.101950 -0.423643 6.639730 242 8 0 0.561450
-1.102220 -0.407393 6.651830 187 0 0 0.482083
-1.088430 -0.425826 6.658290 201 0 0 0.499360
-1.116440 -0.405374 6.633360 233 1 0 0.547842
-1.117210 -0.389316 6.645330 183 0 0 0.466975
-1.123580 -0.412132 6.616990 255 38 0 0.598268
-1.131080 -0.418848 6.599120 255 104 0 0.669962
-1.130020 -0.435860 6.585220 255 219 0 0.751005
-1.148260 -0.416320 6.576620 255 164 0 0.714502
-1.080610 -0.418245 6.676570 160 0 0 0.412901
-1.078500 -0.402138 6.691040 155 0 0 0.405361
-1.068850 -0.392618 6.710030 142 0 0 0.349545
-1.063410 -0.371842 6.729750 142 0 0 0.350963
-1.052120 -0.388060 6.736770 137 0 0 0.312560
-1.080750 -0.375946 6.703510 155 0 0 0.404602
-1.074990 -0.355803 6.722570 142 0 0 0.343915
-1.091140 -0.384504 6.684760 160 0 0 0.411364
-1.100710 -0.391472 6.666790 173 0 0 0.451521
-1.088320 -0.320300 6.710900 146 0 0 0.371455
-1.102350 -0.329729 6.687740 151 0 0 0.379959
-1.110310 -0.346432 6.672230 155 0 0 0.404900
-1.121850 -0.352167 6.654240 160 0 0 0.415984
-1.127660 -0.368336 6.639170 178 0 0 0.458426
-1.138120 -0.347146 6.632370 160 0 0 0.406945
-1.111890 -0.373046 6.661030 169 0 0 0.439409
-1.101680 -0.365767 6.678570 160 0 0 0.406821
-1.090870 -0.358029 6.697030 151 0 0 0.388294
-1.081620 -0.337946 6.716720 146 0 0 0.370584
-1.148080 -0.352307 6.616000 164 0 0 0.423913
-1.150790 -0.369647 6.602470 219 0 0 0.529058
-1.160320 -0.375283 6.583420 255 23 0 0.583289
-1.162480 -0.393217 6.567950 255 101 0 0.666371
-1.177130 -0.369658 6.558920 255 41 0 0.603426
-1.146390 -0.398724 6.591570 255 56 0 0.621887
-1.137930 -0.391797 6.610140 251 16 0 0.570513
-1.130320 -0.385023 6.626820 201 0 0 0.506594
-0.970028 -0.213756 6.944720 128 0 0 0.000000
-0.953835 -0.198371 6.978210 128 0 0 0.000000
-0.955457 -0.176396 6.974230 128 0 0 0.000000
-0.971334 -0.198585 6.941820 128 0 0 0.000000
-0.972593 -0.184041 6.938840 128 0 0 0.000000
-0.950468 -0.142572 6.973910 128 0 0 0.000000
-0.969088 -0.167352 6.937730 128 0 0 0.000000
-0.954323 -0.159746 6.973740 128 0 0 0.000000
-0.949068 -0.214038 6.979890 128 0 0 0.000000
-0.964903 -0.228556 6.947290 128 0 0 0.000000
-0.960239 -0.244232 6.949280 128 0 0 0.000000
-0.944285 -0.229342 6.981610 128 0 0 0.000000
-0.927421 -0.213059 7.015420 128 0 0 0.000000
-0.931940 -0.251989 6.983460 128 0 0 0.000000
-0.916345 -0.236620 7.014140 128 0 0 0.000000
-0.951288 -0.258761 6.951620 128 0 0 0.000000
-1.072640 -0.305550 6.742600 137 0 0 0.298199
-1.058330 -0.282094 6.772320 128 0 0 0.246234
-1.043990 -0.268874 6.801200 128 0 0 0.150729
-1.030640 -0.249470 6.824780 128 0 0 0.035767
-1.029510 -0.264978 6.829610 128 0 0 0.005112
-1.045520 -0.253693 6.795590 128 0 0 0.179702
-1.032260 -0.233938 6.820280 128 0 0 0.000000
-1.059580 -0.265571 6.767080 133 0 0 0.263351
-1.074520 -0.279192 6.735410 142 0 0 0.350987
-1.089900 -0.301847 6.705800 160 0 0 0.407467
-1.091940 -0.283961 6.699780 155 0 0 0.402920
-1.015410 -0.252930 6.856250 128 0 0 0.000000
-1.001570 -0.232956 6.882500 128 0 0 0.000000
-0.986550 -0.220274 6.911460 128 0 0 0.000000
-0.988158 -0.205651 6.907860 128 0 0 0.000000
-1.003020 -0.217800 6.878800 128 0 0 0.000000
-1.017370 -0.229590 6.850440 128 0 0 0.000000
-0.984102 -0.173310 6.903040 128 0 0 0.000000
-1.000960 -0.194366 6.873370 128 0 0 0.000000
-1.013410 -0.197778 6.842870 128 0 0 0.000000
-1.028750 -0.217528 6.816410 128 0 0 0.021128
-1.016860 -0.214466 6.846130 128 0 0 0.000000
-0.987065 -0.189560 6.905180 128 0 0 0.000000
-1.041560 -0.220528 6.786280 128 0 0 0.242851
-1.057280 -0.240191 6.760100 137 0 0 0.298321
-1.069570 -0.243134 6.727730 155 0 0 0.400906
-1.087680 -0.264947 6.695860 178 0 0 0.454496
-1.073610 -0.261893 6.730750 146 0 0 0.368354
-1.044490 -0.236985 6.790660 128 0 0 0.179654
-0.957480 -0.287088 6.926180 128 0 0 0.000000
-0.964705 -0.305984 6.903300 128 0 0 0.000000
-0.978935 -0.318695 6.877960 128 0 0 0.000000
-0.985889 -0.337601 6.856570 128 0 0 0.066460
-1.000120 -0.324817 6.849970 128 0 0 0.068397
-0.965215 -0.332092 6.883620 128 0 0 0.000000
-0.972244 -0.351523 6.862180 128 0 0 0.034561
-0.951627 -0.320240 6.907030 128 0 0 0.000000
-0.938096 -0.308318 6.930810 128 0 0 0.000000
-1.013680 -0.337459 6.826050 128 0 0 0.190325
-1.019200 -0.356802 6.805540 128 0 0 0.231740
-1.031200 -0.374695 6.775380 133 0 0 0.294015
-1.036100 -0.400072 6.746930 142 0 0 0.329089
-1.016340 -0.385521 6.786430 133 0 0 0.262657
-1.020480 -0.412751 6.756630 133 0 0 0.295249
-1.004650 -0.369725 6.813720 128 0 0 0.225178
-0.992118 -0.356989 6.836700 128 0 0 0.203085
-0.980494 -0.406126 6.804480 137 0 0 0.316089
-0.968763 -0.393036 6.827850 133 0 0 0.282259
-0.966022 -0.374688 6.846900 128 0 0 0.220960
-0.953611 -0.362493 6.868180 128 0 0 0.092630
-0.987922 -0.381879 6.820940 133 0 0 0.285586
-0.999828 -0.395844 6.795770 133 0 0 0.295090
-1.000810 -0.419538 6.769280 137 0 0 0.322269
-0.931945 -0.357558 6.892130 128 0 0 0.000000
-0.919427 -0.346548 6.913070 128 0 0 0.000000
-0.915252 -0.328727 6.933770 128 0 0 0.000000
-0.936223 -0.333301 6.911090 128 0 0 0.000000
-0.949523 -0.344945 6.888020 128 0 0 0.000000
-0.983354 -0.235549 6.914820 128 0 0 0.000000
-0.998308 -0.248387 6.885950 128 0 0 0.000000
-1.010210 -0.268238 6.860450 128 0 0 0.000000
-1.024150 -0.280198 6.834110 128 0 0 0.000600
-1.019140 -0.295414 6.839100 128 0 0 0.000000
-1.004900 -0.283274 6.864720 128 0 0 0.000000
-0.992889 -0.263468 6.889910 128 0 0 0.000000
-0.978058 -0.250298 6.917950 128 0 0 0.000000
-1.040670 -0.284895 6.806200 128 0 0 0.149439
-1.054520 -0.297932 6.778860 128 0 0 0.207838
-1.066310 -0.322384 6.749170 137 0 0 0.303481
-1.060060 -0.339210 6.755070 137 0 0 0.303158
-1.049100 -0.313755 6.784490 128 0 0 0.215951
-1.035450 -0.300078 6.811270 128 0 0 0.138881
-1.043930 -0.361827 6.766990 137 0 0 0.296946
-1.031410 -0.343406 6.798150 128 0 0 0.210668
-1.023210 -0.322470 6.820390 128 0 0 0.183315
-1.009580 -0.309965 6.844440 128 0 0 0.048586
-1.041280 -0.328860 6.791120 128 0 0 0.207120
-0.990631 -0.305140 6.872840 128 0 0 0.000000
-0.976209 -0.292356 6.898420 128 0 0 0.000000
-0.966223 -0.272214 6.923340 128 0 0 0.000000
-0.985555 -0.278097 6.894030 128 0 0 0.000000
-1.055090 -0.408097 6.717480 142 0 0 0.351749
-1.064250 -0.417467 6.698010 146 0 0 0.366178
-1.064330 -0.432833 6.683810 169 0 0 0.432519
-1.071940 -0.440747 6.665340 201 0 0 0.500818
-1.055570 -0.455972 6.672270 183 0 0 0.472910
-1.048170 -0.447912 6.690600 160 0 0 0.412811
-1.048060 -0.431851 6.705850 151 0 0 0.383453
-1.038700 -0.421114 6.726440 146 0 0 0.357699
-1.085800 -0.440600 6.646380 237 4 0 0.556226
-1.091620 -0.447736 6.630630 255 60 0 0.624739
-1.088300 -0.463233 6.617700 255 104 0 0.670057
-1.070610 -0.478919 6.624630 255 101 0 0.664737
-1.074280 -0.463261 6.637770 255 38 0 0.600663
-1.068980 -0.455566 6.653590 219 0 0 0.529119
-1.038350 -0.496728 6.634280 255 108 0 0.672004
-1.044370 -0.482868 6.647720 255 41 0 0.604367
-1.039800 -0.474926 6.663820 228 0 0 0.544058
-1.035260 -0.467137 6.679750 196 0 0 0.493250
-1.017600 -0.464652 6.702530 164 0 0 0.421493
-1.009370 -0.454949 6.722740 151 0 0 0.380421
-1.010270 -0.437364 6.740930 146 0 0 0.370567
-1.029680 -0.444199 6.713630 151 0 0 0.379242
-1.149770 -0.529319 6.495370 129 255 119 0.836171
-1.168430 -0.527482 6.478510 180 255 67 0.809718
-1.139990 -0.546825 6.492470 158 255 90 0.822074
-1.158320 -0.544564 6.475880 174 255 74 0.813094
-1.148440 -0.561697 6.473500 206 255 42 0.794825
-1.177370 -0.542110 6.458520 232 255 16 0.778721
-1.130050 -0.564409 6.489760 193 255 55 0.801815
-1.120070 -0.581963 6.487190 255 238 0 0.763374
-1.113320 -0.565928 6.504980 193 255 55 0.801670
-1.165910 -0.559565 6.456820 235 255 13 0.776961
-1.183930 -0.556229 6.439510 255 219 0 0.751281
-1.154150 -0.576985 6.455680 255 230 0 0.758196
-1.171860 -0.573488 6.438300 255 212 0 0.747951
-1.159730 -0.590642 6.437360 255 190 0 0.732077
-1.189910 -0.569442 6.420680 255 175 0 0.722315
-1.142390 -0.594211 6.454090 255 182 0 0.728484
-1.130320 -0.611372 6.452490 255 145 0 0.700626
-1.125420 -0.596993 6.469930 255 178 0 0.724787
-1.137240 -0.579518 6.471540 251 241 0 0.765577
-1.077520 -0.622086 6.483180 255 212 0 0.747338
-1.091970 -0.609116 6.484670 255 234 0 0.761098
-1.073870 -0.607282 6.498890 229 255 19 0.780737
-1.087840 -0.593608 6.500710 209 255 38 0.791449
-1.105990 -0.595367 6.486300 251 241 0 0.764804
-1.111070 -0.610198 6.469040 255 186 0 0.730809
-1.096670 -0.623460 6.467940 255 182 0 0.727603
-1.066800 -0.583219 6.523460 158 255 90 0.821456
-1.079340 -0.569442 6.526240 164 255 84 0.817414
-1.097540 -0.571562 6.511510 174 255 74 0.812674
-1.170700 -0.352243 6.575170 214 0 0 0.526797
