ply
format ascii 1.0
comment VCGLIB generated
element vertex 999
property float x
property float y
property float z
property uchar red
property uchar green
property uchar blue
property float quality
end_header
-0.180023 -0.991905 6.068580 161 255 87 0.819984
-0.152740 -1.001810 6.050340 251 241 0 0.766445
-0.182909 -0.978325 6.100700 51 255 196 0.874532
-0.207074 -0.979426 6.087090 32 255 216 0.883328
-0.331887 -0.918639 6.146660 67 255 180 0.866637
-0.327800 -0.935193 6.116190 0 157 255 0.920420
-0.352220 -0.918759 6.135390 87 255 161 0.858160
-0.348334 -0.935566 6.105180 0 173 255 0.914933
-0.324013 -0.952542 6.086160 0 65 255 0.947122
-0.320459 -0.970018 6.056350 0 101 255 0.936732
-0.300169 -0.969636 6.067810 0 113 255 0.932923
-0.303909 -0.951535 6.097600 0 61 255 0.948886
-0.371662 -0.920115 6.124690 84 255 164 0.858892
-0.366863 -0.936275 6.094560 0 185 255 0.911181
-0.390250 -0.920621 6.114530 93 255 155 0.854101
-0.385490 -0.936194 6.084400 0 205 255 0.904729
-0.362045 -0.953862 6.065280 0 81 255 0.943151
-0.357401 -0.972256 6.036430 0 117 255 0.932009
-0.338851 -0.971025 6.046420 0 105 255 0.935826
-0.343487 -0.952767 6.075390 0 73 255 0.945033
-0.295717 -1.022590 5.937140 161 255 87 0.820934
-0.302182 -1.012570 5.967550 148 255 100 0.826661
-0.277328 -1.021630 5.946970 171 255 77 0.814162
-0.308367 -0.999465 5.997190 103 255 145 0.850127
-0.283924 -1.011250 5.977460 155 255 93 0.824457
-0.290385 -0.998276 6.007250 106 255 142 0.848269
-0.259016 -1.020520 5.956820 190 255 58 0.803251
-0.314481 -0.985377 6.026690 0 217 255 0.900468
-0.333041 -0.985834 6.016700 0 209 255 0.903638
-0.327013 -1.000730 5.987630 74 255 174 0.864025
-0.264793 -1.010350 5.987510 164 255 84 0.818222
-0.239243 -1.018990 5.967580 203 255 45 0.795741
-0.269983 -0.998143 6.018240 135 255 113 0.834086
-0.244800 -1.008900 5.998700 216 255 32 0.788635
-0.275159 -0.983954 6.048570 13 245 235 0.891196
-0.295438 -0.984134 6.037260 0 225 251 0.898228
-0.362624 -1.071300 5.537080 148 255 100 0.827865
-0.342517 -1.071120 5.555880 225 255 22 0.782849
-0.315506 -1.070520 5.547510 255 219 0 0.752231
-0.294121 -1.073040 5.566710 255 86 0 0.653502
-0.321473 -1.072900 5.575280 255 186 0 0.731325
-0.300081 -1.075220 5.594360 255 75 0 0.639609
-0.351606 -1.069570 5.585320 177 255 71 0.811735
-0.371865 -1.069410 5.566340 100 255 148 0.851438
-0.267027 -1.066380 5.552730 255 119 0 0.682345
-0.244318 -1.059600 5.554550 255 167 0 0.718605
-0.221182 -1.053200 5.555890 255 127 0 0.687984
-0.198026 -1.051490 5.569310 255 67 0 0.633862
-0.221750 -1.062010 5.579850 255 19 0 0.577383
-0.197860 -1.060750 5.592890 201 0 0 0.506357
-0.247035 -1.066660 5.580190 255 45 0 0.610427
-0.272029 -1.070940 5.580750 255 78 0 0.644346
-0.209408 -1.066410 5.669510 192 0 0 0.483723
-0.238752 -1.065780 5.670360 255 56 0 0.622030
-0.231729 -1.070160 5.651090 210 0 0 0.515025
-0.260941 -1.069020 5.651540 255 82 0 0.649663
-0.268172 -1.064360 5.670610 255 186 0 0.730781
-0.254526 -1.072100 5.632270 233 1 0 0.547344
-0.289934 -1.067720 5.651760 255 204 0 0.743989
-0.283539 -1.071440 5.632580 255 93 0 0.659298
-0.312245 -1.070300 5.632650 255 219 0 0.751432
-0.296870 -1.063370 5.670750 167 255 80 0.816823
-0.318711 -1.067070 5.651810 187 255 61 0.806160
-0.325490 -1.063320 5.670930 67 255 180 0.867608
-0.277411 -1.073990 5.613120 255 38 0 0.601235
-0.305990 -1.073190 5.613600 255 130 0 0.690556
-0.251633 -1.071510 5.613260 237 4 0 0.554895
-0.225833 -1.067890 5.612900 210 0 0 0.520713
-0.228433 -1.069390 5.631960 205 0 0 0.511202
-0.202415 -1.066410 5.631300 178 0 0 0.456445
-0.199660 -1.064230 5.612120 178 0 0 0.457574
-0.205420 -1.067410 5.650490 169 0 0 0.438422
-0.351232 -1.060320 5.666540 0 165 255 0.917772
-0.344616 -1.064650 5.646860 58 255 190 0.871271
-0.370495 -1.061090 5.642620 0 141 255 0.925215
-0.377086 -1.057240 5.661990 0 45 255 0.953003
-0.364170 -1.065040 5.623300 25 255 222 0.885558
-0.396140 -1.058280 5.638370 0 29 255 0.957839
-0.389679 -1.062180 5.619130 0 129 255 0.928537
-0.402561 -1.055710 5.657780 0 0 255 0.968075
-0.383093 -1.066320 5.600010 13 245 235 0.891118
-0.357530 -1.067900 5.604420 119 255 129 0.841861
-0.331789 -1.070370 5.608870 238 255 9 0.775020
-0.338095 -1.067560 5.627850 155 255 93 0.823634
0.079609 -0.588328 5.573750 0 153 255 0.921354
0.069305 -0.563142 5.569760 0 113 255 0.933823
0.069696 -0.538574 5.576210 0 101 255 0.936957
0.060157 -0.513953 5.571300 0 77 255 0.943516
0.063504 -0.488364 5.574440 0 61 255 0.949036
0.039348 -0.488759 5.556430 0 33 255 0.955876
0.083413 -0.513840 5.589990 0 113 255 0.933490
0.087651 -0.488091 5.591910 0 85 255 0.941990
0.091261 -0.537328 5.594400 0 129 255 0.928111
0.099629 -0.560688 5.598280 0 137 255 0.925623
0.098333 -0.585724 5.592620 0 145 255 0.923907
0.117191 -0.583063 5.610800 0 161 255 0.919178
0.027318 -0.465260 5.554340 0 37 255 0.955473
0.040902 -0.465504 5.564480 0 57 255 0.949773
0.029900 -0.440845 5.561210 0 41 255 0.954452
0.016043 -0.440989 5.551490 0 33 255 0.956125
0.044002 -0.440832 5.570530 0 45 255 0.952977
0.019759 -0.415593 5.556970 0 5 255 0.963871
0.033896 -0.415516 5.566300 0 9 255 0.963554
0.024626 -0.388958 5.561080 0 0 251 0.970928
0.005419 -0.415863 5.547920 0 5 255 0.963681
0.010316 -0.389352 5.551930 0 0 246 0.972056
-0.004265 -0.389984 5.543440 0 0 242 0.973053
0.048191 -0.415338 5.575400 0 9 255 0.962742
0.039155 -0.388618 5.570020 0 0 255 0.969631
0.053522 -0.388558 5.579110 0 0 255 0.967930
0.069724 -0.439677 5.586620 0 45 255 0.952865
0.065851 -0.464782 5.581370 0 61 255 0.948408
0.117794 -0.388161 5.615750 0 5 255 0.964546
0.122658 -0.414505 5.620110 0 17 255 0.961025
0.114162 -0.439787 5.615500 0 49 255 0.951446
0.120515 -0.464132 5.617400 0 77 255 0.944032
0.114214 -0.487696 5.609920 0 101 255 0.937252
0.140560 -0.487218 5.627400 0 101 255 0.936858
0.093419 -0.464942 5.600170 0 77 255 0.943632
0.084848 -0.440070 5.597060 0 49 255 0.951416
0.076744 -0.414548 5.593370 0 17 255 0.960339
0.092643 -0.414850 5.602810 0 17 255 0.960394
0.085735 -0.388422 5.597550 0 0 255 0.966811
0.069625 -0.388570 5.588170 0 0 255 0.967575
0.101610 -0.388248 5.606980 0 0 255 0.966157
0.144874 -0.510955 5.632570 0 137 255 0.925575
0.137775 -0.534759 5.630330 0 169 255 0.916852
0.143013 -0.556569 5.634290 0 177 255 0.913082
0.137707 -0.580430 5.628940 0 177 255 0.913933
0.158676 -0.577432 5.646540 0 185 255 0.911013
0.120978 -0.559565 5.617400 0 169 255 0.916480
0.114330 -0.536119 5.612030 0 153 255 0.921663
0.107393 -0.512381 5.606950 0 129 255 0.928060
0.017720 -0.596788 5.509230 255 112 0 0.676627
0.004950 -0.571090 5.504620 203 255 45 0.796675
-0.000590 -0.545827 5.509240 0 133 255 0.927494
-0.013205 -0.521381 5.505840 0 0 255 0.966635
-0.016836 -0.495111 5.509110 0 0 237 0.973633
-0.033217 -0.498471 5.494610 0 0 228 0.975834
0.002403 -0.518288 5.520970 0 0 255 0.965767
-0.000701 -0.492053 5.523380 0 0 255 0.969597
0.014685 -0.542965 5.524020 0 49 255 0.952088
0.027017 -0.567829 5.527200 6 237 242 0.894167
0.031941 -0.594659 5.523780 242 253 6 0.772719
0.045743 -0.592519 5.538720 129 255 119 0.836595
-0.046707 -0.476614 5.492640 0 0 205 0.980503
-0.051257 -0.451661 5.498000 0 0 219 0.977613
-0.063238 -0.429251 5.493970 0 0 205 0.980628
-0.065002 -0.403247 5.496030 0 0 201 0.981833
-0.081837 -0.408996 5.480970 0 0 192 0.984038
-0.046435 -0.423904 5.509830 0 0 242 0.972784
-0.047973 -0.397358 5.510700 0 0 214 0.978588
-0.034715 -0.447454 5.512990 0 0 251 0.970414
-0.022131 -0.470887 5.515160 0 0 246 0.972119
-0.005317 -0.443286 5.537260 0 33 255 0.956390
0.006973 -0.467055 5.538760 0 13 255 0.961549
0.019193 -0.490422 5.540290 0 9 255 0.963448
-0.027262 -0.420110 5.524390 0 0 255 0.968866
-0.026406 -0.393428 5.527540 0 0 228 0.975473
0.039226 -0.514824 5.554110 0 53 255 0.951330
0.049786 -0.539510 5.557880 0 77 255 0.943787
0.051907 -0.565129 5.553010 0 105 255 0.935556
0.063201 -0.590575 5.556330 0 189 255 0.910500
0.031297 -0.541106 5.540660 0 53 255 0.950356
0.019861 -0.516275 5.536420 0 21 255 0.960262
-0.084481 -0.589842 5.425730 201 0 0 0.505478
-0.111734 -0.542565 5.417750 255 238 0 0.762594
-0.091112 -0.559390 5.428620 255 160 0 0.711888
-0.070611 -0.576712 5.438810 255 64 0 0.628312
-0.057310 -0.602123 5.440990 160 0 0 0.419809
-0.039398 -0.625014 5.449430 128 0 0 0.241058
-0.149178 -0.513529 5.402690 67 255 180 0.867132
-0.170193 -0.469056 5.391110 0 105 255 0.936368
-0.152555 -0.484379 5.405710 0 53 255 0.950267
-0.133872 -0.498018 5.417000 0 113 255 0.933484
-0.123418 -0.520613 5.417380 74 255 174 0.863589
-0.136643 -0.440494 5.426770 0 0 255 0.967113
-0.124019 -0.460542 5.433780 0 0 196 0.982678
-0.116326 -0.484524 5.434620 0 0 219 0.977924
-0.101270 -0.502895 5.438490 0 61 255 0.948437
-0.090153 -0.524424 5.436760 38 255 209 0.880428
-0.141647 -0.474250 5.416470 0 0 255 0.969401
-0.147957 -0.449188 5.413840 0 33 255 0.956094
-0.065357 -0.539333 5.452620 151 255 96 0.825412
-0.054256 -0.565640 5.452930 255 101 0 0.666024
-0.038328 -0.588138 5.458880 246 12 0 0.564340
-0.026223 -0.614402 5.462090 151 0 0 0.374550
-0.068753 -1.031140 5.759980 178 0 0 0.462130
-0.055746 -1.022390 5.732140 155 0 0 0.400914
-0.085353 -1.036520 5.749280 169 0 0 0.440720
-0.042745 -1.012570 5.704150 160 0 0 0.410221
-0.073006 -1.028020 5.721800 160 0 0 0.417779
-0.059885 -1.018040 5.694020 164 0 0 0.423409
-0.102600 -1.040990 5.738340 169 0 0 0.442184
-0.030172 -1.000090 5.676490 173 0 0 0.452262
-0.018752 -0.985064 5.648760 178 0 0 0.462629
-0.004113 -0.979684 5.656670 160 0 0 0.416944
-0.016068 -0.994794 5.684610 151 0 0 0.386354
-0.028915 -1.006980 5.712760 151 0 0 0.381465
0.009824 -0.974242 5.664870 151 0 0 0.375500
-0.087197 -1.032730 5.712670 164 0 0 0.424643
-0.117269 -1.045750 5.728950 164 0 0 0.428150
-0.102605 -1.036720 5.703980 169 0 0 0.440317
-0.079272 -1.024360 5.682680 183 0 0 0.466993
-0.132873 -1.048750 5.719820 178 0 0 0.457301
-0.056621 -1.009350 5.660710 187 0 0 0.475445
-0.043393 -0.993504 5.635790 187 0 0 0.478796
0.018996 -0.865992 5.574000 128 0 0 0.129751
0.010130 -0.898800 5.591720 137 0 0 0.324049
0.001070 -0.930154 5.609350 160 0 0 0.413270
0.036167 -0.858823 5.583090 128 0 0 0.180225
-0.008177 -0.958905 5.628590 201 0 0 0.499267
-0.027209 -0.965441 5.619270 214 0 0 0.521301
0.030839 -0.890677 5.601860 142 0 0 0.331777
0.025218 -0.920732 5.621460 160 0 0 0.408158
0.051585 -0.852965 5.591780 128 0 0 0.209778
0.046825 -0.884169 5.611160 137 0 0 0.307945
0.018235 -0.948779 5.642610 178 0 0 0.458479
-0.089265 -1.030880 5.787110 255 60 0 0.625794
-0.118752 -1.032150 5.808640 255 227 0 0.757511
-0.138515 -1.032880 5.835570 164 255 84 0.818049
-0.166892 -1.035980 5.856530 138 255 109 0.832382
-0.147937 -1.033860 5.867960 164 255 84 0.818572
-0.157300 -1.035510 5.824050 142 255 106 0.830151
-0.185976 -1.037900 5.845100 96 255 151 0.853992
-0.136739 -1.035440 5.797410 245 249 3 0.769005
-0.115065 -1.037870 5.770500 255 60 0 0.624345
-0.166358 -1.030060 5.896250 132 255 116 0.835149
-0.194496 -1.026080 5.918860 100 255 148 0.851057
-0.212304 -1.022600 5.946190 161 255 87 0.820552
-0.232317 -1.023960 5.935300 125 255 122 0.838765
-0.214065 -1.028100 5.907540 77 255 171 0.862231
-0.195445 -1.032180 5.879520 55 255 193 0.873115
-0.277685 -1.027550 5.909770 67 255 180 0.866247
-0.250704 -1.030360 5.886790 0 225 251 0.898671
-0.231303 -1.034440 5.858690 0 193 255 0.908792
-0.203170 -1.039200 5.834970 45 255 203 0.877597
-0.220525 -1.040400 5.824600 3 233 245 0.895642
-0.214150 -1.033230 5.868870 13 245 235 0.891082
-0.232813 -1.029200 5.896870 29 255 219 0.884737
-0.250888 -1.025480 5.924550 103 255 145 0.850346
-0.199067 -1.040540 5.798180 84 255 164 0.859902
-0.169518 -1.041230 5.776790 222 255 26 0.783855
-0.147067 -1.044680 5.750850 255 71 0 0.636111
-0.131791 -1.041660 5.760130 255 60 0 0.627561
-0.153566 -1.038480 5.786700 245 249 3 0.770600
-0.174243 -1.037750 5.813480 116 255 132 0.844383
-0.374341 -1.034520 5.866740 84 255 164 0.859147
-0.374343 -1.038660 5.834690 0 193 255 0.908930
-0.401922 -1.035790 5.856790 113 255 135 0.845672
-0.402165 -1.039750 5.824600 0 213 255 0.902509
-0.374506 -1.041770 5.802250 0 57 255 0.949274
-0.374044 -1.044820 5.769340 0 0 255 0.969601
-0.338355 -1.043390 5.777060 0 0 246 0.971251
-0.339003 -1.039250 5.810060 0 21 255 0.959418
-0.339532 -1.035760 5.842390 0 121 255 0.931454
-0.302824 -1.043350 5.784790 0 13 255 0.961564
-0.437050 -1.038170 5.846760 200 255 48 0.798994
-0.454535 -1.038230 5.840300 216 255 32 0.787807
-0.445341 -1.042060 5.814610 87 255 161 0.857453
-0.472188 -1.038780 5.834010 235 255 13 0.775624
-0.462970 -1.042450 5.808230 106 255 142 0.847905
-0.453323 -1.044670 5.782000 0 209 255 0.903521
-0.439272 -1.045120 5.754160 0 33 255 0.956749
-0.431790 -1.043270 5.786880 0 125 255 0.929578
-0.417775 -1.044430 5.759290 0 0 255 0.967681
-0.410015 -1.042340 5.791840 0 85 255 0.941947
-0.423653 -1.040610 5.819620 35 255 213 0.881905
-0.396075 -1.044340 5.764160 0 0 251 0.970373
-0.414315 -1.051340 5.682250 0 0 196 0.982802
-0.389020 -1.052080 5.686560 0 0 223 0.976674
-0.400973 -1.048940 5.711370 0 0 201 0.982128
-0.363343 -1.053880 5.690840 0 13 255 0.962186
-0.375647 -1.049220 5.715410 0 0 214 0.978898
-0.349998 -1.050600 5.719550 0 0 255 0.968764
-0.337584 -1.056480 5.695280 0 101 255 0.936535
-0.387664 -1.046570 5.740440 0 0 210 0.980125
-0.362291 -1.046780 5.744270 0 0 219 0.977366
-0.409439 -1.046120 5.735270 0 0 210 0.979957
-0.430914 -1.046220 5.730210 0 0 223 0.976399
-0.422675 -1.048220 5.706260 0 0 196 0.983022
-0.290794 -1.057560 5.698880 51 255 196 0.874140
-0.313781 -1.052230 5.727360 0 89 255 0.940995
-0.261990 -1.057930 5.698660 180 255 67 0.809608
-0.285222 -1.051410 5.727070 0 181 255 0.912636
-0.256307 -1.051060 5.726430 55 255 193 0.873296
-0.233128 -1.058200 5.698160 255 182 0 0.727317
-0.308212 -1.047340 5.755970 0 41 255 0.954658
-0.279980 -1.045470 5.755250 0 69 255 0.946032
0.017849 -1.002570 5.816440 196 0 0 0.495742
-0.001428 -1.006030 5.844330 255 71 0 0.638048
-0.032470 -1.011910 5.864960 255 201 0 0.740204
-0.051093 -1.016020 5.891700 235 255 13 0.776187
-0.080526 -1.022500 5.910680 222 255 26 0.784560
-0.057003 -1.018750 5.925320 248 245 0 0.768185
-0.074605 -1.020800 5.877170 225 255 22 0.782671
-0.103997 -1.026360 5.895920 196 255 51 0.799886
-0.055384 -1.017710 5.850140 255 190 0 0.733489
-0.036006 -1.015240 5.822520 255 86 0 0.652705
-0.004883 -1.009460 5.802130 187 0 0 0.479989
-0.027692 -1.016350 5.787390 205 0 0 0.512972
-0.074629 -1.016940 5.952560 229 255 19 0.780802
-0.103949 -1.016320 5.972690 206 255 42 0.793401
-0.120897 -1.014090 5.998870 229 255 19 0.779483
-0.144894 -1.016230 5.985440 216 255 32 0.787801
-0.127699 -1.019010 5.958550 167 255 80 0.816141
-0.110207 -1.021790 5.931020 180 255 67 0.808665
-0.191042 -1.020450 5.958860 174 255 74 0.812257
-0.173305 -1.023860 5.931440 125 255 122 0.838972
-0.144115 -1.026170 5.910430 135 255 113 0.833304
-0.125889 -1.030070 5.881950 187 255 61 0.805315
-0.150726 -1.021510 5.944870 155 255 93 0.823198
-0.168028 -1.018660 5.971500 200 255 48 0.797242
-0.118600 -1.029390 5.848640 184 255 64 0.807294
-0.099202 -1.027410 5.821600 255 234 0 0.761062
-0.069034 -1.023770 5.801390 255 86 0 0.653123
-0.047943 -1.023960 5.773660 192 0 0 0.485359
-0.077758 -1.022800 5.835610 255 219 0 0.753011
-0.096543 -1.025570 5.862390 209 255 38 0.792295
0.086693 -0.614156 5.580510 0 173 255 0.914761
0.085914 -0.643157 5.579670 158 255 90 0.822159
0.093629 -0.671551 5.586230 255 197 0 0.739174
0.092969 -0.703618 5.585020 246 12 0 0.567864
0.107367 -0.699353 5.601200 255 178 0 0.725293
0.078841 -0.675380 5.570000 255 49 0 0.614007
0.078314 -0.707452 5.569250 155 0 0 0.395090
0.070891 -0.646147 5.562190 255 145 0 0.701338
0.062946 -0.618112 5.554470 190 255 58 0.803741
0.108880 -0.729262 5.612000 255 130 0 0.689010
0.103530 -0.763912 5.614710 255 19 0 0.578946
0.105173 -0.796572 5.625010 210 0 0 0.515192
0.099146 -0.832513 5.628550 151 0 0 0.378812
0.113754 -0.825888 5.642830 192 0 0 0.486556
0.090693 -0.803282 5.610740 155 0 0 0.396987
0.083425 -0.838937 5.615410 137 0 0 0.308675
0.089347 -0.769439 5.599370 160 0 0 0.413461
0.087990 -0.736904 5.588110 169 0 0 0.440469
0.057807 -0.815334 5.582580 128 0 0 0.207208
0.064073 -0.778369 5.574720 133 0 0 0.265432
0.063060 -0.743965 5.562080 133 0 0 0.253643
0.066403 -0.710301 5.556400 137 0 0 0.319644
0.054908 -0.712679 5.543510 128 0 0 0.219823
0.074593 -0.741106 5.574240 142 0 0 0.330454
0.075896 -0.774331 5.586140 137 0 0 0.306527
0.076931 -0.808199 5.597980 137 0 0 0.305528
0.070300 -0.844969 5.604740 137 0 0 0.315218
0.046811 -0.681003 5.533730 133 0 0 0.290687
0.044426 -0.650659 5.531920 183 0 0 0.469552
0.034794 -0.622298 5.523730 251 16 0 0.570288
0.048338 -0.620671 5.538790 255 156 0 0.710004
0.056954 -0.648627 5.546380 246 12 0 0.564773
0.064959 -0.677906 5.554090 183 0 0 0.467663
-0.053357 -0.676660 5.429980 128 0 0 0.000000
-0.040395 -0.700110 5.443450 128 0 0 0.000000
-0.029423 -0.726848 5.459060 128 0 0 0.000000
-0.019149 -0.753555 5.477920 128 0 0 0.000000
-0.043124 -0.667241 5.441490 128 0 0 0.000000
-0.030332 -0.692309 5.455630 128 0 0 0.000000
-0.015762 -0.717266 5.474460 128 0 0 0.000000
-0.003843 -0.744600 5.494060 128 0 0 0.000000
-0.017973 -0.879020 5.551430 128 0 0 0.010914
-0.016339 -0.846273 5.534340 128 0 0 0.000000
-0.016071 -0.814456 5.516440 128 0 0 0.000000
-0.031320 -0.879699 5.536250 128 0 0 0.000000
-0.029413 -0.847271 5.519030 128 0 0 0.000000
-0.016880 -0.782931 5.497250 128 0 0 0.000000
-0.005028 -0.776350 5.509230 128 0 0 0.000000
-0.042912 -0.877710 5.520430 128 0 0 0.000000
-0.031096 -0.817401 5.498530 128 0 0 0.000000
-0.003527 -0.807032 5.527350 128 0 0 0.000000
0.007398 -0.768117 5.518480 128 0 0 0.000000
0.008184 -0.735969 5.503390 128 0 0 0.000000
0.009296 -0.801300 5.536830 128 0 0 0.000000
0.001290 -0.838749 5.548100 128 0 0 0.000000
-0.004041 -0.874834 5.561400 128 0 0 0.069220
-0.020276 -0.681589 5.466530 128 0 0 0.000000
-0.033623 -0.656312 5.452980 128 0 0 0.030935
-0.021281 -0.645639 5.464500 128 0 0 0.141873
-0.008629 -0.672208 5.477380 128 0 0 0.026456
-0.000981 -0.704392 5.488290 128 0 0 0.000000
-0.005122 -0.633596 5.479660 128 0 0 0.217958
0.002817 -0.663253 5.487660 128 0 0 0.147004
0.014105 -0.693116 5.500400 128 0 0 0.000000
0.019703 -0.727763 5.511490 128 0 0 0.000000
0.027478 -0.756911 5.532040 128 0 0 0.016613
0.021875 -0.793794 5.544190 128 0 0 0.016359
0.018946 -0.830525 5.558290 128 0 0 0.000000
-0.037054 -0.912251 5.564670 128 0 0 0.228047
-0.058931 -0.941639 5.569240 164 0 0 0.425037
-0.078298 -0.971588 5.581410 246 12 0 0.565771
-0.100046 -0.997881 5.584940 255 49 0 0.615182
-0.092664 -1.002350 5.601710 255 41 0 0.606317
-0.085107 -0.966525 5.564700 201 0 0 0.505429
-0.107415 -0.992050 5.567950 255 53 0 0.619245
-0.071525 -0.938871 5.549740 133 0 0 0.283095
-0.049069 -0.910416 5.546130 128 0 0 0.126878
-0.119971 -1.024730 5.618410 255 41 0 0.605699
-0.118935 -1.018940 5.600040 255 53 0 0.618923
-0.146744 -1.038780 5.616900 255 34 0 0.597137
-0.148672 -1.042340 5.635810 237 4 0 0.553688
-0.145651 -1.033780 5.598190 255 30 0 0.593693
-0.175227 -1.055520 5.633670 196 0 0 0.494229
-0.173642 -1.051350 5.614990 233 1 0 0.549746
-0.178573 -1.056330 5.652900 205 0 0 0.513489
-0.171774 -1.047670 5.595780 246 12 0 0.564911
-0.153172 -1.029360 5.580220 255 90 0 0.656259
-0.126875 -1.014070 5.582820 255 101 0 0.665456
-0.153328 -1.018420 5.557160 255 130 0 0.689503
-0.132140 -1.002860 5.554150 255 67 0 0.635248
-0.110493 -0.985648 5.550920 223 0 0 0.538234
-0.175646 -1.040480 5.574980 255 90 0 0.654606
-0.074700 -0.930859 5.533880 128 0 0 0.152480
-0.092683 -0.959140 5.542470 160 0 0 0.416879
0.062811 -0.876860 5.621390 142 0 0 0.336693
0.054155 -0.908387 5.638510 160 0 0 0.412076
0.068746 -0.902156 5.648550 155 0 0 0.405194
0.076699 -0.870802 5.631530 155 0 0 0.392506
0.051114 -0.935013 5.662100 155 0 0 0.391033
0.046883 -0.959294 5.686710 133 0 0 0.263925
0.028542 -0.967016 5.675820 142 0 0 0.334229
0.032993 -0.942784 5.651180 164 0 0 0.423146
0.093265 -0.863180 5.645010 164 0 0 0.423738
0.087111 -0.893624 5.662190 160 0 0 0.415159
0.102506 -0.886475 5.675410 160 0 0 0.412615
0.108570 -0.856614 5.658640 173 0 0 0.448322
0.087163 -0.919271 5.687140 133 0 0 0.290160
0.085909 -0.942549 5.713100 128 0 0 0.147456
0.066814 -0.951174 5.699550 128 0 0 0.187682
0.068552 -0.927875 5.673430 146 0 0 0.371053
0.025732 -0.993665 5.783590 169 0 0 0.440921
0.033556 -0.983980 5.751100 146 0 0 0.362764
0.003075 -1.001120 5.769670 173 0 0 0.449101
0.010681 -0.992015 5.737420 155 0 0 0.399894
0.040445 -0.972869 5.718560 133 0 0 0.296714
0.060909 -0.965099 5.731560 133 0 0 0.251960
0.053539 -0.976554 5.764260 146 0 0 0.359802
-0.017260 -1.008270 5.756620 169 0 0 0.441170
-0.007489 -0.999296 5.725740 155 0 0 0.395936
-0.038438 -1.015910 5.743180 169 0 0 0.438735
0.001862 -0.987985 5.694930 146 0 0 0.362260
0.020181 -0.980779 5.706030 137 0 0 0.310646
0.381197 -0.148418 5.798080 205 0 0 0.512222
0.400526 -0.145923 5.808760 205 0 0 0.510237
0.403533 -0.173621 5.797800 255 64 0 0.631093
0.419905 -0.143678 5.819530 210 0 0 0.514929
0.422911 -0.171435 5.808830 255 67 0 0.632177
0.442243 -0.169260 5.820020 255 71 0 0.638994
0.439402 -0.141230 5.830440 201 0 0 0.504693
0.425392 -0.200183 5.798430 255 193 0 0.736157
0.444886 -0.197937 5.809740 255 212 0 0.747276
0.446808 -0.227170 5.799510 158 255 90 0.821391
0.428338 -0.229549 5.789310 171 255 77 0.814890
0.407085 -0.202451 5.788240 255 227 0 0.757040
0.409754 -0.232001 5.779470 177 255 71 0.810261
0.388663 -0.205152 5.778430 255 223 0 0.754248
0.385343 -0.176176 5.787860 255 75 0 0.639990
0.367126 -0.179035 5.778120 255 82 0 0.649040
0.390791 -0.235038 5.769840 167 255 80 0.816612
0.370056 -0.207937 5.768860 255 230 0 0.760090
0.371744 -0.238185 5.760690 148 255 100 0.826433
0.362994 -0.151334 5.788350 214 0 0 0.527241
0.458836 -0.138626 5.839980 187 0 0 0.482330
0.479609 -0.136066 5.850500 183 0 0 0.472382
0.480941 -0.164326 5.839670 255 56 0 0.621883
0.500282 -0.133552 5.860980 178 0 0 0.461794
0.501468 -0.162123 5.850650 255 56 0 0.619800
0.502569 -0.190832 5.840220 255 190 0 0.733320
0.504739 -0.220489 5.830370 171 255 77 0.814861
0.483351 -0.193190 5.830000 255 190 0 0.734207
0.485655 -0.222488 5.819730 151 255 96 0.824880
0.464137 -0.195559 5.819740 255 197 0 0.738646
0.461595 -0.166766 5.829790 255 60 0 0.626972
0.466332 -0.224650 5.809380 167 255 80 0.817339
0.497361 -0.344962 5.802070 0 137 255 0.926030
0.498493 -0.316427 5.807830 0 113 255 0.933699
0.479992 -0.318116 5.799110 0 113 255 0.933464
0.478861 -0.346687 5.793760 0 129 255 0.928396
0.481609 -0.287455 5.804220 0 157 255 0.920393
0.461561 -0.319683 5.790450 0 125 255 0.930199
0.463054 -0.289490 5.795760 0 153 255 0.921862
0.444407 -0.291588 5.787510 0 137 255 0.925636
0.460205 -0.348975 5.785490 0 133 255 0.926883
0.442783 -0.322204 5.782260 0 113 255 0.933849
0.441268 -0.351673 5.777580 0 125 255 0.930294
0.464479 -0.257660 5.801410 29 255 219 0.884129
0.445854 -0.260100 5.792990 19 253 229 0.887930
0.484308 -0.255319 5.811320 32 255 216 0.883287
0.503659 -0.253083 5.821680 6 237 242 0.893406
0.501686 -0.284718 5.813840 0 153 255 0.921255
0.423865 -0.353697 5.768680 0 137 255 0.925925
0.423774 -0.324906 5.772750 0 125 255 0.929906
0.406280 -0.327235 5.763870 0 137 255 0.926141
0.406416 -0.356282 5.759890 0 145 255 0.923238
0.406516 -0.296906 5.768310 0 145 255 0.923366
0.388785 -0.329534 5.754930 0 137 255 0.926709
0.388707 -0.299800 5.759740 0 141 255 0.925497
0.371144 -0.302365 5.751000 0 153 255 0.921738
0.388674 -0.358977 5.751570 0 145 255 0.923223
0.370920 -0.332876 5.746850 0 121 255 0.931275
0.371316 -0.361438 5.742990 0 145 255 0.923611
0.389263 -0.268122 5.764200 0 217 255 0.900681
0.371371 -0.271381 5.755940 0 197 255 0.907122
0.408346 -0.265305 5.773520 0 229 248 0.896811
0.427186 -0.262489 5.783120 3 233 245 0.895117
0.425479 -0.294288 5.777840 0 145 255 0.923867
0.232578 -0.008828 6.094020 0 0 205 0.981339
0.255215 -0.008761 6.106010 0 0 214 0.979144
0.263988 -0.017769 6.089770 0 9 255 0.962959
0.277858 -0.008970 6.117970 0 0 228 0.976099
0.286492 -0.017911 6.101840 0 25 255 0.958173
0.309207 -0.018345 6.114010 0 45 255 0.952535
0.300486 -0.009849 6.130200 0 0 246 0.971976
0.295470 -0.025483 6.084860 0 105 255 0.936366
0.318116 -0.025771 6.096980 0 125 255 0.929297
0.327492 -0.031376 6.079200 0 165 255 0.918000
0.305346 -0.031471 6.066750 0 141 255 0.924697
0.273470 -0.025704 6.072580 0 89 255 0.940953
0.283307 -0.031746 6.054600 0 125 255 0.930086
0.251359 -0.026366 6.060420 0 81 255 0.942667
0.241798 -0.018284 6.077640 0 1 255 0.965534
0.219281 -0.018705 6.065510 0 0 255 0.967625
0.261155 -0.032548 6.042350 0 117 255 0.931775
0.228778 -0.026973 6.048320 0 69 255 0.945986
0.238707 -0.033337 6.030190 0 109 255 0.934710
0.210068 -0.009187 6.081840 0 0 192 0.983931
0.324588 -0.010276 6.143150 0 0 255 0.967862
0.349077 -0.011299 6.156490 0 13 255 0.962311
0.357418 -0.019550 6.140000 0 97 255 0.937935
0.373604 -0.013105 6.169710 0 41 255 0.953955
0.381982 -0.021007 6.153240 0 141 255 0.924493
0.390781 -0.027358 6.135870 0 217 255 0.900249
0.400351 -0.031849 6.117770 9 241 238 0.893275
0.366483 -0.026403 6.122930 0 177 255 0.913716
0.376025 -0.031385 6.104910 0 205 255 0.904716
0.342287 -0.025844 6.109970 0 149 255 0.922897
0.333176 -0.018742 6.126930 0 69 255 0.946137
0.351750 -0.031211 6.092030 0 181 255 0.912295
0.427575 -0.037508 6.056560 0 133 255 0.927683
0.404071 -0.038529 6.044710 0 117 255 0.931721
0.393636 -0.038488 6.065610 0 161 255 0.919363
0.380572 -0.039679 6.032700 0 101 255 0.936649
0.370263 -0.039209 6.053400 0 141 255 0.924464
0.346784 -0.040165 6.041230 0 137 255 0.926518
0.357333 -0.040691 6.020500 0 89 255 0.940035
0.360255 -0.036473 6.073100 0 197 255 0.907523
0.336833 -0.037110 6.060800 0 185 255 0.910730
0.384588 -0.036155 6.085890 0 217 255 0.901246
0.408871 -0.036266 6.098600 9 241 238 0.892972
0.417878 -0.038034 6.078170 0 177 255 0.913973
0.334925 -0.041418 6.008410 0 61 255 0.948486
0.313545 -0.042244 5.996280 0 49 255 0.952156
0.302345 -0.041348 6.016880 0 101 255 0.936684
0.292071 -0.043228 5.984170 0 29 255 0.957157
0.280993 -0.042250 6.004700 0 89 255 0.940740
0.259300 -0.043564 5.992620 0 85 255 0.941505
0.270366 -0.044969 5.972260 0 29 255 0.957708
0.270435 -0.038666 6.023980 0 141 255 0.925331
0.248747 -0.039758 6.011910 0 133 255 0.926942
0.292525 -0.037810 6.036280 0 149 255 0.922821
0.314631 -0.037280 6.048480 0 165 255 0.917484
0.324409 -0.040653 6.029220 0 117 255 0.932290
-0.056280 -0.900320 6.295550 100 255 148 0.851489
-0.053883 -0.913815 6.266170 55 255 193 0.872280
-0.079762 -0.902934 6.283790 96 255 151 0.852646
-0.077640 -0.915997 6.254240 48 255 200 0.876145
-0.051810 -0.929365 6.237370 32 255 216 0.883007
-0.049556 -0.947932 6.209480 74 255 174 0.864239
-0.026549 -0.943637 6.222050 90 255 158 0.856753
-0.028998 -0.925114 6.250120 0 221 255 0.899094
-0.031432 -0.909917 6.278960 9 241 238 0.892127
-0.003831 -0.938694 6.234320 84 255 164 0.859769
-0.102510 -0.904961 6.271100 103 255 145 0.849976
-0.099530 -0.918937 6.241350 0 209 255 0.903449
-0.125605 -0.906193 6.259250 58 255 190 0.871549
-0.096883 -0.935358 6.212420 0 141 255 0.924766
-0.071818 -0.950880 6.196750 32 255 216 0.882965
-0.074670 -0.932685 6.225280 0 181 255 0.912450
-0.036418 -0.990277 6.118890 255 116 0 0.677114
-0.009868 -0.998346 6.100770 242 8 0 0.561715
-0.040659 -0.978152 6.150000 255 208 0 0.745720
-0.014175 -0.986970 6.132410 255 78 0 0.645478
-0.018852 -0.973928 6.163370 255 182 0 0.729196
0.012410 -0.995373 6.114200 201 0 0 0.502542
-0.045208 -0.962794 6.179970 132 255 116 0.835614
-0.067695 -0.966622 6.167510 155 255 93 0.823112
0.008422 -0.983780 6.145280 255 41 0 0.604165
0.034498 -0.991284 6.127510 183 0 0 0.467622
0.004308 -0.969626 6.175510 255 167 0 0.719065
0.030486 -0.978809 6.158390 255 27 0 0.586863
0.026274 -0.964744 6.188410 255 153 0 0.706873
0.056808 -0.987268 6.140460 164 0 0 0.429076
0.000236 -0.954935 6.205100 216 255 32 0.787668
-0.022874 -0.959127 6.192740 161 255 87 0.820776
0.128823 -0.840016 6.378500 142 0 0 0.340626
0.141614 -0.848447 6.355720 155 0 0 0.400644
0.115559 -0.859122 6.344800 255 30 0 0.589695
0.102416 -0.849855 6.367160 214 0 0 0.523621
0.141278 -0.865763 6.328370 255 49 0 0.613480
0.141408 -0.886263 6.301610 213 255 35 0.789567
0.166920 -0.873947 6.312930 255 78 0 0.645179
0.167059 -0.854150 6.339950 160 0 0 0.408119
0.077754 -0.861777 6.357130 255 153 0 0.708281
0.091114 -0.872013 6.334530 255 238 0 0.763988
0.066189 -0.882786 6.324630 96 255 151 0.853217
0.052488 -0.872189 6.347070 177 255 71 0.810445
0.092352 -0.891036 6.307990 55 255 193 0.873430
0.093630 -0.912302 6.281130 0 197 255 0.907126
0.117516 -0.900216 6.291570 22 255 226 0.887656
0.116187 -0.878076 6.317910 245 249 3 0.769651
0.150742 -0.963038 6.187260 210 0 0 0.519826
0.147863 -0.944677 6.216780 255 156 0 0.709420
0.173948 -0.951744 6.198530 255 53 0 0.619637
0.145219 -0.925393 6.245510 119 255 129 0.841630
0.170816 -0.932675 6.227930 248 245 0 0.767224
0.168155 -0.911787 6.256280 142 255 106 0.830995
0.196764 -0.938443 6.209480 255 153 0 0.708483
0.143116 -0.905699 6.273720 64 255 184 0.868098
0.119270 -0.918429 6.263420 29 255 219 0.884689
0.121299 -0.936466 6.234710 184 255 64 0.807492
0.194383 -0.918616 6.238460 225 255 22 0.781613
0.220676 -0.924696 6.221210 255 190 0 0.732530
0.193418 -0.898987 6.267350 255 227 0 0.756931
0.218955 -0.905399 6.250710 255 171 0 0.719780
0.179995 -0.886353 6.290360 255 175 0 0.723690
0.027996 -0.881343 6.336300 84 255 164 0.859552
0.041859 -0.892241 6.313670 9 241 238 0.892644
0.016773 -0.899371 6.302580 0 225 251 0.897992
0.003126 -0.887929 6.325210 55 255 193 0.872358
0.043195 -0.909617 6.285880 0 177 255 0.914255
0.044466 -0.927480 6.258040 35 255 213 0.881932
0.069248 -0.920731 6.269830 0 221 255 0.899380
0.067731 -0.901698 6.297220 0 181 255 0.911984
-0.020603 -0.893656 6.313700 55 255 193 0.873501
-0.006996 -0.905617 6.290630 3 233 245 0.895426
-0.005368 -0.921389 6.262210 0 225 251 0.897711
0.020332 -0.933514 6.246490 67 255 180 0.866323
0.018483 -0.915732 6.274340 0 201 255 0.906179
0.053773 -0.974497 6.170650 242 8 0 0.561662
0.080390 -0.982937 6.152630 155 0 0 0.396011
0.050686 -0.959620 6.200110 255 127 0 0.688116
0.076914 -0.968261 6.182820 255 27 0 0.586944
0.074018 -0.953318 6.212270 255 164 0 0.714191
0.103467 -0.977305 6.164560 160 0 0 0.414192
0.047545 -0.943622 6.229280 180 255 67 0.809293
0.023279 -0.949515 6.217500 206 255 42 0.793404
0.101116 -0.962870 6.194430 255 23 0 0.579974
0.127175 -0.971035 6.176240 169 0 0 0.438658
0.098224 -0.945694 6.223480 255 230 0 0.759154
0.124469 -0.955350 6.205850 255 64 0 0.628640
0.095962 -0.929080 6.252400 74 255 174 0.863650
0.071460 -0.936493 6.241090 129 255 119 0.836470
0.166109 -0.968479 6.161540 164 0 0 0.429353
0.193313 -0.968481 6.141780 146 0 0 0.366768
0.208548 -0.970399 6.115470 137 0 0 0.300036
0.235527 -0.966135 6.095580 133 0 0 0.260921
0.212890 -0.974890 6.082180 128 0 0 0.199791
0.230870 -0.959964 6.127960 155 0 0 0.396190
0.256899 -0.952304 6.107930 164 0 0 0.425289
0.215714 -0.957026 6.153220 196 0 0 0.494453
0.200684 -0.952850 6.178810 246 12 0 0.566238
0.226681 -0.966493 6.055950 133 0 0 0.270265
0.252364 -0.953499 6.037600 142 0 0 0.336739
0.266707 -0.942175 6.012550 146 0 0 0.353848
0.288758 -0.931957 6.027380 164 0 0 0.422666
0.274966 -0.943018 6.051730 155 0 0 0.402012
0.261039 -0.952075 6.076540 146 0 0 0.371227
0.331458 -0.907398 6.056940 201 0 0 0.506421
0.317941 -0.917196 6.080600 219 0 0 0.531784
0.293196 -0.931964 6.097290 214 0 0 0.522609
0.279451 -0.938755 6.121650 214 0 0 0.525002
0.296343 -0.929854 6.065900 196 0 0 0.497519
0.310424 -0.919463 6.042070 196 0 0 0.496567
0.275849 -0.931405 6.153380 255 27 0 0.584555
0.261261 -0.928611 6.178080 255 75 0 0.639531
0.235058 -0.931743 6.196550 255 119 0 0.681735
0.238093 -0.942884 6.165170 255 34 0 0.596849
0.253218 -0.945607 6.139890 219 0 0 0.533698
0.166166 -0.554870 5.651680 0 193 255 0.909118
0.162078 -0.533204 5.646390 0 169 255 0.916303
0.171065 -0.509869 5.649780 0 141 255 0.924813
0.167471 -0.485838 5.644150 0 97 255 0.937567
0.194003 -0.484149 5.660890 0 93 255 0.939378
0.196057 -0.507556 5.665920 0 117 255 0.931712
0.186551 -0.531177 5.662710 0 165 255 0.916985
0.189186 -0.552625 5.667260 0 189 255 0.909275
0.180878 -0.575001 5.663330 0 209 255 0.903293
0.203167 -0.572552 5.679730 0 217 255 0.900381
0.148892 -0.463714 5.635430 0 69 255 0.946379
0.143508 -0.439409 5.632190 0 45 255 0.952876
0.158641 -0.438812 5.641940 0 45 255 0.953397
0.138459 -0.414353 5.628390 0 21 255 0.959634
0.154065 -0.413483 5.637710 0 13 255 0.961737
0.149468 -0.387402 5.632550 0 21 255 0.959969
0.133582 -0.388082 5.624130 0 1 255 0.964697
0.169411 -0.412991 5.646450 0 21 255 0.959393
0.165233 -0.386458 5.641280 0 25 255 0.958307
0.180731 -0.385648 5.649400 0 45 255 0.953318
0.186816 -0.436557 5.656960 0 41 255 0.954700
0.176396 -0.461893 5.651730 0 69 255 0.946793
0.242762 -0.379659 5.679140 0 121 255 0.931292
0.244115 -0.406479 5.682330 0 81 255 0.943391
0.231075 -0.433556 5.679190 0 45 255 0.952597
0.232693 -0.457781 5.681720 0 61 255 0.948849
0.221029 -0.482268 5.675510 0 93 255 0.939718
0.247998 -0.480061 5.690910 0 89 255 0.940801
0.204753 -0.460546 5.667350 0 57 255 0.950021
0.202038 -0.435814 5.664420 0 41 255 0.954184
0.199567 -0.410518 5.660520 0 45 255 0.953538
0.214969 -0.409290 5.668100 0 53 255 0.950880
0.212329 -0.383179 5.663780 0 93 255 0.939564
0.196892 -0.384280 5.656440 0 57 255 0.949385
0.227825 -0.381366 5.671300 0 105 255 0.935969
0.248182 -0.503781 5.695860 0 109 255 0.935146
0.236708 -0.528186 5.692310 0 129 255 0.928702
0.237797 -0.549717 5.696890 0 161 255 0.918644
0.226936 -0.571091 5.694620 0 193 255 0.908700
0.251051 -0.569805 5.708790 0 177 255 0.913962
0.213585 -0.551013 5.683150 0 185 255 0.911622
0.211609 -0.529601 5.677730 0 145 255 0.923235
0.222567 -0.506082 5.681110 0 117 255 0.931987
0.386779 -0.388632 5.750500 0 129 255 0.928934
0.404107 -0.386381 5.758850 0 137 255 0.926326
0.402057 -0.415222 5.758800 0 129 255 0.929101
0.421453 -0.384246 5.767880 0 117 255 0.932677
0.419263 -0.413337 5.767210 0 117 255 0.932385
0.436423 -0.411896 5.776180 0 105 255 0.935213
0.438707 -0.382206 5.776460 0 113 255 0.933479
0.417499 -0.441079 5.767710 0 121 255 0.930513
0.434794 -0.439835 5.776230 0 121 255 0.931404
0.433209 -0.467027 5.777120 0 137 255 0.926113
0.416945 -0.467615 5.769840 0 137 255 0.925754
0.401143 -0.442626 5.760520 0 125 255 0.929681
0.400599 -0.468493 5.762010 0 141 255 0.924850
0.384869 -0.443741 5.753030 0 121 255 0.930953
0.385732 -0.416811 5.751590 0 133 255 0.927487
0.369217 -0.418860 5.744090 0 125 255 0.930097
0.384129 -0.469330 5.755050 0 129 255 0.928228
0.368470 -0.445533 5.746410 0 105 255 0.936068
0.367654 -0.470312 5.747740 0 133 255 0.927325
0.370299 -0.390694 5.743000 0 117 255 0.932158
0.456253 -0.380507 5.783940 0 117 255 0.932072
0.474688 -0.378282 5.792170 0 121 255 0.931372
0.471237 -0.408604 5.790810 0 121 255 0.930669
0.493308 -0.376241 5.800190 0 117 255 0.932270
0.489723 -0.406628 5.798680 0 129 255 0.929058
0.486594 -0.436180 5.796970 0 137 255 0.926020
0.485067 -0.464047 5.796930 0 181 255 0.912723
0.469196 -0.437581 5.790320 0 117 255 0.932177
0.467894 -0.464920 5.790270 0 157 255 0.919564
0.451963 -0.438683 5.783080 0 129 255 0.928888
0.453915 -0.410319 5.783420 0 113 255 0.933394
0.450569 -0.465814 5.783780 0 161 255 0.919075
0.474316 -0.546371 5.809340 0 189 255 0.909983
0.455420 -0.569557 5.806520 3 233 245 0.895288
0.460431 -0.520354 5.799300 0 153 255 0.921214
0.441232 -0.544779 5.797450 0 169 255 0.916174
0.427519 -0.519090 5.787200 0 133 255 0.927724
0.422253 -0.567768 5.794490 0 205 255 0.904589
0.446499 -0.493979 5.788930 0 129 255 0.928692
0.463836 -0.493442 5.795640 0 137 255 0.926099
0.481134 -0.493192 5.801840 0 145 255 0.923201
0.477727 -0.520434 5.805720 0 161 255 0.918715
0.408161 -0.543824 5.784280 0 157 255 0.919901
0.390996 -0.566826 5.780380 0 189 255 0.909570
0.394081 -0.518766 5.773340 0 117 255 0.932199
0.376435 -0.543375 5.770730 0 133 255 0.927409
0.362666 -0.519469 5.759840 0 105 255 0.936016
0.359902 -0.566159 5.766020 0 173 255 0.915364
0.380594 -0.494576 5.760870 0 105 255 0.935467
0.397315 -0.494147 5.767910 0 113 255 0.933563
0.413950 -0.494044 5.774880 0 125 255 0.929616
0.410849 -0.518968 5.780260 0 129 255 0.928750
0.345324 -0.543213 5.755370 0 121 255 0.930933
0.331026 -0.566172 5.751140 0 153 255 0.920633
0.331599 -0.520613 5.744190 0 97 255 0.937679
0.316780 -0.544459 5.740580 0 117 255 0.932775
0.303253 -0.522640 5.730150 0 101 255 0.937121
0.302810 -0.566935 5.737020 0 157 255 0.920177
0.318133 -0.497911 5.732060 0 85 255 0.941419
0.305710 -0.474716 5.719840 0 101 255 0.937452
0.336549 -0.472002 5.733250 0 121 255 0.931008
0.349253 -0.496202 5.747100 0 97 255 0.937895
0.288630 -0.545571 5.725250 0 125 255 0.930232
0.276499 -0.568179 5.722700 0 169 255 0.916550
0.275049 -0.524168 5.713840 0 121 255 0.930847
0.262697 -0.547630 5.711140 0 137 255 0.926592
0.275526 -0.501477 5.709880 0 93 255 0.939266
0.276669 -0.477450 5.704940 0 97 255 0.938233
0.258693 -0.377569 5.686070 0 145 255 0.923236
0.274540 -0.402706 5.695520 0 125 255 0.930387
0.274312 -0.375655 5.693920 0 145 255 0.924305
0.274327 -0.428603 5.698560 0 85 255 0.941390
0.290146 -0.401054 5.703340 0 133 255 0.927971
0.290012 -0.427301 5.706040 0 93 255 0.938942
0.305779 -0.425591 5.714170 0 97 255 0.938174
0.289777 -0.373422 5.701720 0 157 255 0.920336
0.305669 -0.398886 5.711320 0 133 255 0.927079
0.305274 -0.371350 5.710210 0 141 255 0.924469
0.289908 -0.452081 5.708840 0 93 255 0.938957
0.305459 -0.451291 5.717300 0 85 255 0.942185
0.260743 -0.454986 5.695220 0 73 255 0.944897
0.321630 -0.368744 5.717520 0 157 255 0.919581
0.337426 -0.394489 5.725880 0 157 255 0.920483
0.338108 -0.366343 5.725670 0 165 255 0.917441
0.336385 -0.421953 5.727390 0 133 255 0.926973
0.353811 -0.392883 5.734470 0 125 255 0.929973
0.352761 -0.420268 5.735750 0 125 255 0.929873
0.354657 -0.364051 5.734330 0 157 255 0.919894
0.351749 -0.446759 5.737870 0 113 255 0.933228
0.371817 -0.590114 5.779590 0 229 248 0.897002
0.383822 -0.613205 5.792540 45 255 203 0.876747
0.402527 -0.591193 5.793720 9 241 238 0.892387
0.414397 -0.615148 5.805920 77 255 171 0.862960
0.395877 -0.636739 5.803550 113 255 135 0.844944
0.407757 -0.659795 5.814620 203 255 45 0.795592
0.379338 -0.657868 5.802450 174 255 74 0.812795
0.367185 -0.634749 5.790600 77 255 171 0.862892
0.355049 -0.611246 5.778950 3 233 245 0.895547
0.350623 -0.655424 5.791600 122 255 126 0.839838
0.433535 -0.592408 5.807330 29 255 219 0.884965
0.444581 -0.617800 5.819070 87 255 161 0.857384
0.466365 -0.595059 5.819400 42 255 206 0.879001
0.456299 -0.642253 5.828370 177 255 71 0.810568
0.437584 -0.662848 5.826110 255 230 0 0.758144
0.425989 -0.639021 5.816650 161 255 87 0.819467
0.417907 -0.726334 5.857140 255 112 0 0.674326
0.423812 -0.704733 5.845850 255 167 0 0.717263
0.396088 -0.702083 5.835820 255 190 0 0.734020
0.390723 -0.724078 5.847050 255 134 0 0.693700
0.415850 -0.682145 5.830770 251 241 0 0.766431
0.445740 -0.685662 5.840600 255 175 0 0.724304
0.364232 -0.722801 5.837470 255 164 0 0.716423
0.368484 -0.700422 5.825640 255 227 0 0.757131
0.342002 -0.698960 5.815860 235 255 13 0.775709
0.338421 -0.722354 5.827280 255 190 0 0.732421
0.359346 -0.677684 5.809420 184 255 64 0.808319
0.387680 -0.679791 5.819690 222 255 26 0.785027
0.185831 -0.960475 5.922300 128 0 0 0.242110
0.170959 -0.970939 5.949020 133 0 0 0.294897
0.144673 -0.982659 5.969710 142 0 0 0.338212
0.128661 -0.990778 5.997480 137 0 0 0.316089
0.101407 -0.999747 6.018560 137 0 0 0.311680
0.122938 -0.995997 6.031820 128 0 0 0.230282
0.107046 -0.994087 5.984390 155 0 0 0.395722
0.079303 -1.002180 6.005600 155 0 0 0.404202
0.123647 -0.986565 5.956330 146 0 0 0.370369
0.139958 -0.978004 5.928840 142 0 0 0.336532
0.165934 -0.965655 5.908260 133 0 0 0.257703
0.145249 -0.970821 5.894730 137 0 0 0.313630
0.106151 -0.996360 6.059980 133 0 0 0.283456
0.078291 -0.996744 6.081370 146 0 0 0.362409
0.062101 -0.993627 6.108100 155 0 0 0.405369
0.039800 -0.996940 6.095140 183 0 0 0.469913
0.056190 -1.000070 6.068210 164 0 0 0.430445
0.073275 -1.000610 6.040590 164 0 0 0.424509
-0.015951 -1.004420 6.060860 255 67 0 0.632605
0.011772 -1.004980 6.041190 255 49 0 0.615385
0.028513 -1.005860 6.013880 255 27 0 0.585606
0.056955 -1.004440 5.992480 196 0 0 0.498221
0.034763 -1.007070 5.979060 255 23 0 0.582349
0.050880 -1.003480 6.027390 192 0 0 0.488910
0.033966 -1.002470 6.054990 210 0 0 0.516748
0.017619 -1.000200 6.081570 219 0 0 0.528680
0.051906 -1.000750 5.951670 255 38 0 0.601227
0.080255 -0.993204 5.930210 219 0 0 0.530528
0.097306 -0.986069 5.902400 187 0 0 0.475894
0.124839 -0.975994 5.880860 142 0 0 0.351120
0.103651 -0.980685 5.867780 151 0 0 0.389489
0.118664 -0.982032 5.915650 160 0 0 0.416229
0.102025 -0.990009 5.943340 178 0 0 0.459446
0.084984 -0.997068 5.971290 187 0 0 0.480167
-0.038798 -1.006740 6.046920 255 108 0 0.672596
-0.022069 -1.009180 6.020260 255 101 0 0.665244
-0.045454 -1.010940 6.006720 255 178 0 0.725968
-0.061974 -1.008960 6.033110 255 149 0 0.705157
-0.016589 -1.011000 5.986370 255 141 0 0.699129
-0.010868 -1.012550 5.952600 255 153 0 0.707498
0.011958 -1.010030 5.965820 255 82 0 0.649927
0.006135 -1.008520 6.000100 255 75 0 0.639387
-0.085176 -1.011410 6.018850 255 193 0 0.735331
-0.068406 -1.013970 5.992400 255 212 0 0.747935
-0.051529 -1.014720 5.965860 255 223 0 0.754490
-0.034034 -1.015550 5.938820 255 204 0 0.743409
0.021040 -1.001190 5.857060 255 60 0 0.624904
0.039794 -0.996787 5.829320 192 0 0 0.488325
0.002556 -1.005490 5.884780 255 160 0 0.711993
0.024700 -1.000960 5.898380 255 145 0 0.701889
0.043068 -0.996177 5.870360 255 49 0 0.613491
0.061300 -0.991013 5.842340 187 0 0 0.481817
-0.004452 -1.008440 5.918750 255 197 0 0.737723
-0.027735 -1.011920 5.905540 251 241 0 0.766070
0.065315 -0.992111 5.882580 242 8 0 0.561295
0.082669 -0.985868 5.854760 164 0 0 0.427585
0.047366 -0.997534 5.910830 255 78 0 0.644223
0.029719 -1.003730 5.938440 255 116 0 0.678331
0.119677 -0.790314 5.641030 255 71 0 0.638875
0.118429 -0.758087 5.630740 255 178 0 0.724923
0.124514 -0.724478 5.629240 55 255 193 0.873351
0.122658 -0.694608 5.618770 25 255 222 0.885242
0.137802 -0.689328 5.636580 9 241 238 0.893252
0.139143 -0.718325 5.646550 25 255 222 0.885088
0.133925 -0.752341 5.647450 125 255 122 0.839493
0.134869 -0.783705 5.657090 245 249 3 0.770732
0.128544 -0.819118 5.658580 242 8 0 0.558217
0.143483 -0.811954 5.674970 255 90 0 0.655616
0.108672 -0.668060 5.604390 0 225 251 0.897529
0.101626 -0.639538 5.597710 0 169 255 0.916206
0.104249 -0.611292 5.600140 0 153 255 0.920923
0.121626 -0.607510 5.617910 0 165 255 0.917563
0.118535 -0.635825 5.616040 0 169 255 0.916015
0.124221 -0.663185 5.621850 0 197 255 0.907454
0.160308 -0.600585 5.654690 0 221 255 0.899647
0.153991 -0.627516 5.653320 0 225 251 0.897671
0.157312 -0.653509 5.659490 0 221 255 0.898829
0.153880 -0.683546 5.655360 0 213 255 0.901656
0.170215 -0.677685 5.673900 6 237 242 0.894652
0.140923 -0.658647 5.641370 0 197 255 0.907336
0.135550 -0.631592 5.634800 0 189 255 0.909714
0.140797 -0.604621 5.637310 0 201 255 0.906293
0.171345 -0.705209 5.683430 16 249 232 0.889926
0.165106 -0.738827 5.683420 38 255 209 0.880605
0.166197 -0.769390 5.692060 145 255 103 0.828671
0.159548 -0.805028 5.691940 255 145 0 0.703159
0.174833 -0.797036 5.709530 255 223 0 0.755306
0.150716 -0.776739 5.674880 190 255 58 0.803768
0.149606 -0.745774 5.665060 80 255 167 0.860378
0.155215 -0.712152 5.665330 0 221 255 0.899061
0.191868 -0.966053 5.962600 133 0 0 0.256299
0.206034 -0.954667 5.936790 133 0 0 0.251117
0.177122 -0.975679 5.989160 133 0 0 0.257799
0.197914 -0.970485 6.002470 128 0 0 0.237616
0.212436 -0.959969 5.976500 133 0 0 0.265097
0.226269 -0.948317 5.951240 133 0 0 0.270356
0.172360 -0.982019 6.022980 128 0 0 0.199598
0.167279 -0.987424 6.056900 128 0 0 0.122786
0.145420 -0.992110 6.044380 128 0 0 0.171238
0.150148 -0.986955 6.010360 133 0 0 0.254939
0.233557 -0.953430 5.990760 133 0 0 0.296106
0.247176 -0.941780 5.965950 133 0 0 0.287329
0.219857 -0.964360 6.015830 133 0 0 0.266151
0.205080 -0.974035 6.042640 128 0 0 0.216963
0.190182 -0.982027 6.069490 128 0 0 0.139424
0.143382 -0.976412 6.150190 146 0 0 0.364942
0.158990 -0.980076 6.123460 133 0 0 0.291695
0.135489 -0.986350 6.111860 128 0 0 0.238329
0.119411 -0.982462 6.138520 142 0 0 0.341546
0.163167 -0.984951 6.090460 128 0 0 0.181638
0.186100 -0.978761 6.102890 128 0 0 0.226780
0.096672 -0.987803 6.126500 142 0 0 0.336994
0.112934 -0.991031 6.099380 133 0 0 0.275127
0.129123 -0.992441 6.072060 128 0 0 0.228924
0.343713 -0.589207 5.765400 0 185 255 0.911278
0.327710 -0.610930 5.765840 0 221 255 0.899268
0.338976 -0.633106 5.778810 55 255 193 0.872536
0.323690 -0.654569 5.780270 106 255 142 0.848391
0.311787 -0.632344 5.766850 45 255 203 0.877441
0.296919 -0.654254 5.768710 103 255 145 0.849750
0.299000 -0.610450 5.752920 0 229 248 0.896954
0.315004 -0.588943 5.751320 0 185 255 0.910896
0.333117 -0.676547 5.798800 164 255 84 0.818028
0.316869 -0.699573 5.804870 229 255 19 0.781240
0.314299 -0.723981 5.815350 255 201 0 0.741710
0.312329 -0.749931 5.824990 255 186 0 0.731167
0.288910 -0.753382 5.811490 255 216 0 0.750841
0.289987 -0.726064 5.802310 255 223 0 0.754544
0.291179 -0.700364 5.792740 238 255 9 0.774483
0.306870 -0.676425 5.787170 161 255 87 0.820536
0.245709 -0.764477 5.780220 203 255 45 0.796961
0.245738 -0.735336 5.772090 206 255 42 0.793930
0.256875 -0.705851 5.771370 213 255 35 0.790004
0.257702 -0.680231 5.761260 193 255 55 0.802291
0.272276 -0.655597 5.756100 119 255 129 0.842528
0.248418 -0.657824 5.742490 135 255 113 0.834041
0.281817 -0.677743 5.775140 180 255 67 0.808600
0.267717 -0.730452 5.788060 235 255 13 0.775685
0.267063 -0.758660 5.796510 242 253 6 0.772877
0.247856 -0.634487 5.735310 116 255 132 0.843907
0.261022 -0.611766 5.733610 38 255 209 0.879567
0.262128 -0.590359 5.724620 0 221 255 0.899918
0.288101 -0.589509 5.738070 0 193 255 0.907996
0.284908 -0.632218 5.755070 74 255 174 0.864476
0.182696 -0.761913 5.710630 119 255 129 0.842880
0.181325 -0.731553 5.702040 48 255 200 0.875702
0.188788 -0.699209 5.702290 51 255 196 0.873859
0.188144 -0.672198 5.692180 35 255 213 0.880945
0.206533 -0.666860 5.709660 84 255 164 0.859911
0.206267 -0.692736 5.719740 116 255 132 0.843714
0.198404 -0.724345 5.720120 90 255 158 0.856791
0.199121 -0.753583 5.728530 113 255 135 0.845895
0.190913 -0.788500 5.727660 213 255 35 0.791019
0.207799 -0.779988 5.745430 187 255 61 0.805744
0.175824 -0.648786 5.678510 32 255 216 0.882325
0.173018 -0.623339 5.671550 38 255 209 0.879593
0.181568 -0.597749 5.672470 13 245 235 0.890601
0.202724 -0.594782 5.688370 22 255 226 0.886428
0.192980 -0.619501 5.689010 67 255 180 0.866999
0.194556 -0.643902 5.695610 87 255 161 0.858589
0.238013 -0.591830 5.711710 9 241 238 0.892047
0.237049 -0.613385 5.720370 74 255 174 0.864451
