ply
format ascii 1.0
comment Seamless Cloth Simulation with High Geometric Fidelitycomment Thu Feb  7 11:43:59 2019
element vertex 1181
property float x
property float y
property float z
property uchar red
property uchar green
property uchar blue
end_header
-1.09288 -0.152236 6.57905 166 196 254 
-1.09045 -0.157279 6.60256 195 213 243 
-1.11267 -0.165521 6.55661 129 164 251 
-1.03579 -0.107858 6.62371 217 220 225 
-1.01591 -0.0959592 6.64631 172 200 253 
-1.03637 -0.104659 6.60134 235 212 199 
-1.01641 -0.0926562 6.62395 205 217 237 
-1.03691 -0.101536 6.57868 232 214 203 
-1.05774 -0.113699 6.55513 164 195 254 
-1.05716 -0.116708 6.5778 215 220 228 
-1.07288 -0.114591 6.49886 124 160 249 
-1.0928 -0.125063 6.47865 112 147 243 
-1.07462 -0.119353 6.51741 123 158 249 
-1.09453 -0.129729 6.49724 124 160 249 
-1.09623 -0.134404 6.51573 120 156 247 
-1.11448 -0.140007 6.47705 116 151 246 
-1.07631 -0.124016 6.53594 124 160 249 
-1.05602 -0.10895 6.53659 131 167 252 
-1.11406 -0.14644 6.49705 122 157 248 
-1.13286 -0.158074 6.4776 123 158 249 
-1.11361 -0.152801 6.51701 118 153 246 
-1.13237 -0.164441 6.4976 126 161 250 
-1.13194 -0.17075 6.5175 119 154 247 
-1.15124 -0.175996 6.47812 144 178 254 
-1.11312 -0.15911 6.53687 118 153 246 
-1.09578 -0.140733 6.53566 119 154 247 
-1.00633 -0.0908405 6.66929 147 181 255 
-0.996801 -0.0857656 6.69217 172 200 253 
-1.01615 -0.100935 6.69176 174 201 253 
-1.02566 -0.10595 6.66895 147 181 255 
-0.996978 -0.0883839 6.71478 205 217 237 
-0.997191 -0.0909694 6.73729 210 219 232 
-0.978639 -0.0757436 6.7374 211 219 231 
-0.978405 -0.0730738 6.71483 204 217 238 
-1.04174 -0.124975 6.67012 149 183 255 
-1.0317 -0.119897 6.69292 171 199 253 
-1.02994 -0.124231 6.71623 200 215 240 
-1.01272 -0.109841 6.73835 210 219 232 
-1.01441 -0.105415 6.71512 204 217 238 
-0.992812 -0.10253 6.8065 176 203 252 
-0.994242 -0.0986932 6.78349 236 210 196 
-0.978605 -0.0842754 6.8051 163 194 255 
-0.980017 -0.080292 6.78203 184 208 249 
-0.995704 -0.0948716 6.76045 223 220 218 
-1.01123 -0.113583 6.76146 220 221 222 
-0.961514 -0.065219 6.78227 168 198 254 
-0.960798 -0.0628628 6.75989 228 217 211 
-0.979333 -0.0780395 6.75977 227 218 212 
-1.18897 -0.174822 6.31994 153 186 255 
-1.19849 -0.189158 6.3108 100 133 236 
-1.18705 -0.174096 6.30225 106 139 239 
-1.20798 -0.20352 6.30163 110 144 242 
-1.19661 -0.188381 6.29309 108 142 241 
-1.20616 -0.202769 6.2839 110 144 242 
-1.18512 -0.173292 6.28456 107 141 240 
-1.21756 -0.217887 6.29244 108 142 241 
-1.22706 -0.232323 6.28319 108 142 241 
-1.22794 -0.230897 6.30161 107 141 240 
-1.21842 -0.216485 6.31081 127 163 250 
-1.20896 -0.202063 6.31995 210 219 232 
-1.22881 -0.229429 6.31995 190 211 246 
-1.19393 -0.189216 6.27463 110 144 242 
-1.18054 -0.173379 6.26567 107 141 240 
-1.20268 -0.205145 6.26467 111 145 243 
-1.18933 -0.189269 6.25568 111 145 243 
-1.19816 -0.205148 6.24565 112 147 243 
-1.17587 -0.173391 6.24669 110 144 242 
-1.21146 -0.221078 6.25465 111 145 243 
-1.22022 -0.237064 6.24455 111 145 243 
-1.22366 -0.234757 6.26394 110 144 242 
-1.21501 -0.218703 6.2739 111 145 243 
-1.25262 -0.313262 6.25261 108 142 241 
-1.24638 -0.292933 6.26031 108 142 241 
-1.25468 -0.308263 6.2723 107 141 240 
-1.23999 -0.272694 6.26798 110 144 242 
-1.24835 -0.287975 6.27997 110 144 242 
-1.24197 -0.26772 6.28761 108 142 241 
-1.25658 -0.303215 6.29197 107 141 240 
-1.23356 -0.25251 6.2756 111 145 243 
-1.23015 -0.25491 6.25629 111 145 243 
-1.23667 -0.275051 6.24859 110 144 242 
-1.24975 -0.284698 6.29901 107 141 240 
-1.25628 -0.29902 6.31107 108 142 241 
-1.24288 -0.266215 6.30599 110 144 242 
-1.24945 -0.28049 6.31806 112 147 243 
-1.24246 -0.26206 6.32511 220 221 222 
-1.25587 -0.294787 6.33014 111 145 243 
-1.23582 -0.247809 6.31302 152 185 255 
-1.235 -0.249293 6.29464 107 141 240 
-1.16538 -0.161718 6.25815 106 139 239 
-1.15497 -0.149986 6.26951 106 139 239 
-1.17009 -0.161635 6.27703 106 139 239 
-1.15959 -0.149943 6.28841 107 141 240 
-1.14457 -0.138265 6.28083 104 138 239 
-1.13415 -0.126585 6.29209 170 199 253 
-1.12886 -0.125093 6.27368 102 135 237 
-1.1392 -0.136871 6.26239 103 136 238 
-1.14961 -0.148541 6.25106 104 138 239 
-1.12345 -0.123561 6.25526 102 135 237 
-1.17368 -0.162584 6.2952 106 139 239 
-1.16218 -0.151922 6.30589 106 139 239 
-1.17558 -0.163442 6.3129 120 156 247 
-1.16413 -0.152732 6.32353 244 197 174 
-1.15074 -0.14128 6.31646 96 128 233 
-1.13938 -0.130645 6.32697 155 187 255 
-1.13675 -0.128632 6.30957 100 133 236 
-1.14816 -0.1393 6.29902 103 136 238 
-1.0951 -0.101491 6.31834 147 181 255 
-1.10756 -0.109455 6.30679 171 199 253 
-1.12423 -0.120754 6.32122 127 163 250 
-1.11175 -0.112889 6.33278 167 197 254 
-1.08928 -0.0979588 6.2921 122 157 248 
-1.10066 -0.106503 6.27989 114 148 244 
-1.08323 -0.0954418 6.27477 99 131 235 
-1.09456 -0.104002 6.26252 102 135 237 
-1.11204 -0.11507 6.26763 100 133 236 
-1.11742 -0.116618 6.286 104 138 239 
-1.11207 -0.123847 6.40584 127 163 250 
-1.13613 -0.140817 6.40976 107 141 240 
-1.12661 -0.131196 6.39473 130 165 251 
-1.12162 -0.133448 6.42089 194 213 244 
-1.15063 -0.149176 6.39106 137 172 253 
-1.15644 -0.159446 6.40883 108 142 241 
-1.17028 -0.169027 6.398 149 183 255 
-1.18417 -0.17869 6.38711 166 196 254 
-1.17605 -0.179199 6.41566 151 184 255 
-1.16321 -0.170134 6.42569 183 207 250 
-1.14292 -0.151539 6.4267 148 182 255 
-1.14205 -0.159169 6.45274 163 194 255 
-1.12361 -0.141143 6.45218 162 193 255 
-1.16225 -0.177717 6.45172 129 164 251 
-1.09996 -0.125608 6.45545 208 218 234 
-1.17701 -0.16545 6.33821 153 186 255 
-1.16516 -0.155485 6.34814 137 172 253 
-1.18897 -0.176383 6.34479 209 219 233 
-1.15331 -0.145558 6.35807 167 197 254 
-1.14094 -0.134057 6.35151 205 217 237 
-1.17655 -0.167479 6.36295 170 199 253 
-1.16413 -0.158101 6.37279 155 187 255 
-1.14048 -0.137223 6.376 162 193 255 
-1.10134 -0.113886 6.39126 126 161 250 
-1.11467 -0.121064 6.38079 145 179 254 
-1.10106 -0.10958 6.36777 130 165 251 
-1.12796 -0.126656 6.36242 93 123 230 
-1.09885 -0.105403 6.34358 140 174 254 
-1.11397 -0.116977 6.35698 123 158 249 
-1.01975 -0.0754092 6.2022 126 161 250 
-1.01101 -0.0677775 6.21673 122 157 248 
-1.03306 -0.0776119 6.2189 120 156 247 
-1.00221 -0.0601361 6.23118 120 156 247 
-1.02422 -0.0699572 6.23342 118 153 246 
-1.01534 -0.062233 6.24785 114 148 244 
-1.04616 -0.0796694 6.23568 114 148 244 
-0.993415 -0.0523057 6.2456 130 165 251 
-0.984571 -0.0444975 6.25987 140 174 254 
-0.970959 -0.0404228 6.24644 119 154 247 
-0.979708 -0.0482202 6.23211 124 160 249 
-0.988402 -0.0559943 6.21774 126 161 250 
-0.957174 -0.0361913 6.23312 124 160 249 
-1.03628 -0.0729014 6.24905 110 144 242 
-1.05604 -0.0820056 6.25265 107 141 240 
-1.02637 -0.0660029 6.26239 98 130 234 
-1.04609 -0.0751927 6.26608 142 177 254 
-1.00106 -0.0501374 6.28145 131 167 252 
-1.01098 -0.0571867 6.26834 133 168 252 
-0.948365 -0.0336536 6.29704 131 167 252 
-0.964294 -0.038901 6.2887 145 179 254 
-0.952545 -0.0339724 6.27663 110 144 242 
-0.974414 -0.0417113 6.27431 131 167 252 
-0.929792 -0.0266576 6.27848 124 160 249 
-0.938869 -0.0298736 6.26336 118 153 246 
-0.915916 -0.0213004 6.26778 123 158 249 
-0.924967 -0.0244484 6.2526 123 158 249 
-0.94798 -0.0330809 6.24826 119 154 247 
-0.961743 -0.0372107 6.26155 115 150 245 
-1.07549 -0.0938005 6.25662 106 139 239 
-1.08528 -0.103325 6.24346 107 141 240 
-1.06574 -0.0915864 6.23959 110 144 242 
-1.07548 -0.10105 6.22643 112 147 243 
-1.0951 -0.112782 6.23029 108 142 241 
-1.10487 -0.122287 6.21701 112 147 243 
-1.11428 -0.122976 6.23611 107 141 240 
-1.10441 -0.113475 6.24934 104 138 239 
-1.05477 -0.090848 6.22079 118 153 246 
-1.06339 -0.101994 6.20587 118 153 246 
-1.04161 -0.088761 6.20396 124 160 249 
-1.05018 -0.0998323 6.18895 127 163 250 
-1.07202 -0.113134 6.19082 119 154 247 
-1.08073 -0.124084 6.17575 124 160 249 
-1.09287 -0.123257 6.19641 118 153 246 
-1.08415 -0.112195 6.21145 115 150 245 
-1.13639 -0.183876 6.15971 129 164 251 
-1.12861 -0.168402 6.17411 119 154 247 
-1.14787 -0.179747 6.18273 122 157 248 
-1.12068 -0.15303 6.1885 116 151 246 
-1.1398 -0.164453 6.19717 116 151 246 
-1.13181 -0.149048 6.21153 112 147 243 
-1.15889 -0.175736 6.20583 116 151 246 
-1.11276 -0.137656 6.2028 116 151 246 
-1.10073 -0.138606 6.18216 123 158 249 
-1.10853 -0.154042 6.16786 126 161 250 
-1.15004 -0.162701 6.21829 110 144 242 
-1.16752 -0.174606 6.22625 112 147 243 
-1.14115 -0.14974 6.2307 108 142 241 
-1.15857 -0.161568 6.23867 107 141 240 
-1.13227 -0.136718 6.24305 106 139 239 
-1.12303 -0.136053 6.22386 110 144 242 
-0.787876 -0.0357059 6.35955 126 161 250 
-0.793969 -0.0242558 6.34243 155 187 255 
-0.768628 -0.0287991 6.35334 119 154 247 
-0.800094 -0.0128097 6.32528 172 200 253 
-0.80627 -0.00131827 6.30812 160 192 255 
-0.766275 -0.0157405 6.33413 155 187 255 
-0.747068 -0.0232217 6.3487 124 160 249 
-0.771416 -0.00451155 6.31699 199 215 241 
-0.776635 0.00669482 6.29977 102 135 237 
-0.833326 0.00658359 6.24181 91 122 229 
-0.82648 0.00463445 6.2584 111 145 243 
-0.849075 0.00221341 6.24873 111 145 243 
-0.819708 0.00271866 6.275 126 161 250 
-0.84226 0.000311612 6.26533 120 156 247 
-0.835472 -0.00159252 6.28191 164 195 254 
-0.864803 -0.0021521 6.25566 122 157 248 
-0.812952 0.000747669 6.29158 122 157 248 
-0.790717 0.00673109 6.28531 144 178 254 
-0.863861 -0.007213 6.27585 148 182 255 
-0.855905 -0.00957689 6.29182 122 157 248 
-0.642277 0.0418447 6.2352 159 191 255 
-0.652096 0.0451049 6.2177 159 191 255 
-0.632531 0.0386217 6.25273 134 169 252 
-0.664034 0.0296987 6.25584 138 173 253 
-0.673845 0.032945 6.23838 142 177 254 
-0.683696 0.0361206 6.22085 148 182 255 
-0.638593 0.0309932 6.2718 135 171 253 
-0.644667 0.0233487 6.29073 126 161 250 
-0.616904 0.0279081 6.29014 126 161 250 
-0.610755 0.0355361 6.27112 131 167 252 
-0.701071 0.0259526 6.24054 137 172 253 
-0.712801 0.0270654 6.2241 149 183 255 
-0.689454 0.0248669 6.25697 124 160 249 
-0.718413 0.0158903 6.26015 131 167 252 
-0.730084 0.0169623 6.24374 122 157 248 
-0.74182 0.0179642 6.22733 111 145 243 
-0.69235 0.0192496 6.27495 166 196 254 
-0.695268 0.0136426 6.29285 107 141 240 
-0.669984 0.0184788 6.29181 129 164 251 
-0.666998 0.0241148 6.27385 133 168 252 
-0.654176 -0.0114459 6.3432 115 150 245 
-0.636664 -0.0213097 6.36149 122 157 248 
-0.650984 9.78727e-05 6.32578 118 153 246 
-0.633396 -0.00984297 6.34405 114 148 244 
-0.630142 0.0017014 6.3266 118 153 246 
-0.615938 -0.0196955 6.36237 120 156 247 
-0.647809 0.0117105 6.30831 122 157 248 
-0.673077 0.0068569 6.30933 126 161 250 
-0.676202 -0.00468504 6.32675 119 154 247 
-0.609225 -0.00674376 6.34427 116 151 246 
-0.59301 -0.0190381 6.36418 122 157 248 
-0.602497 0.00620865 6.32607 119 154 247 
-0.58627 -0.00604584 6.346 119 154 247 
-0.595824 0.019363 6.30782 122 157 248 
-0.623531 0.0147632 6.30838 123 158 249 
-0.601308 0.048839 6.06221 140 174 254 
-0.630561 0.0431802 6.05316 232 215 205 
-0.601848 0.0530668 6.08615 137 172 253 
-0.631044 0.0474507 6.07713 179 205 251 
-0.631505 0.0515839 6.10103 187 209 248 
-0.660244 0.0417194 6.06808 179 205 251 
-0.602363 0.057106 6.11006 140 174 254 
-0.602918 0.0610933 6.13389 164 195 254 
-0.586819 0.0612412 6.1266 104 138 239 
-0.586245 0.0572543 6.10274 120 156 247 
-0.570701 0.0613724 6.11926 116 151 246 
-0.570084 0.057369 6.09539 119 154 247 
-0.585676 0.0531551 6.07878 123 158 249 
-0.554572 0.061475 6.11191 116 151 246 
-0.662111 0.0440796 6.08749 190 211 246 
-0.690965 0.0347082 6.07604 188 210 247 
-0.663941 0.0463125 6.10686 194 213 244 
-0.692766 0.0370376 6.09536 197 214 243 
-0.694555 0.0393037 6.11468 129 164 251 
-0.721587 0.0275806 6.08388 131 167 252 
-0.665791 0.0485517 6.12618 198 214 242 
-0.667605 0.0506429 6.14543 126 161 250 
-0.635301 0.0559021 6.1397 189 210 247 
-0.633415 0.0538255 6.1204 193 212 245 
-0.616038 0.055835 6.1944 174 201 253 
-0.611662 0.0576346 6.17431 178 204 251 
-0.583254 0.0592342 6.19156 168 198 254 
-0.578808 0.0610702 6.17143 152 185 255 
-0.607285 0.0594047 6.15415 179 205 251 
-0.639575 0.0541427 6.15987 179 205 251 
-0.643868 0.0524146 6.17997 175 202 252 
-0.550841 0.0611301 6.18289 142 177 254 
-0.528885 0.0618459 6.17896 123 158 249 
-0.546703 0.0613608 6.15688 119 154 247 
-0.50693 0.0625662 6.17499 120 156 247 
-0.524648 0.0619714 6.15289 124 160 249 
-0.542543 0.0614673 6.13075 122 157 248 
-0.55867 0.0614003 6.13811 116 151 246 
-0.57475 0.0612675 6.1454 142 177 254 
-0.56277 0.0612331 6.16414 98 130 234 
-0.901296 -0.0163123 6.25677 110 144 242 
-0.909634 -0.0199369 6.24116 133 168 252 
-0.880125 -0.00836814 6.24421 166 196 254 
-0.917944 -0.0235353 6.22547 103 136 238 
-0.92626 -0.0270537 6.20977 134 169 252 
-0.941824 -0.0316819 6.22136 130 165 251 
-0.933396 -0.0280876 6.23702 124 160 249 
-0.863765 -0.00383966 6.23547 110 144 242 
-0.878472 -0.00991944 6.2222 114 148 244 
-0.862769 -0.00548114 6.21524 118 153 246 
-0.848019 0.000544996 6.22855 107 141 240 
-0.885374 -0.0138157 6.20547 131 167 252 
-0.892329 -0.0176975 6.18871 145 179 254 
-0.909302 -0.0224327 6.19926 137 172 253 
-0.902376 -0.0185232 6.21601 171 199 253 
-0.952152 -0.0636601 6.13906 144 178 254 
-0.94559 -0.0545589 6.15677 148 182 255 
-0.970171 -0.0674942 6.15398 144 178 254 
-0.939082 -0.0454587 6.17448 144 178 254 
-0.963603 -0.0584073 6.17168 142 177 254 
-0.957116 -0.0492185 6.18931 140 174 254 
-0.988151 -0.0711471 6.16883 138 173 253 
-0.932646 -0.0362601 6.19211 142 177 254 
-0.9157 -0.0316281 6.18157 149 183 255 
-0.922122 -0.0408522 6.1639 158 190 255 
-0.980444 -0.0625688 6.185 134 169 252 
-1.00405 -0.0733873 6.18546 131 167 252 
-0.972743 -0.0538339 6.20114 131 167 252 
-0.996237 -0.0647 6.20164 129 164 251 
-0.964985 -0.0450632 6.21713 131 167 252 
-0.949488 -0.0405088 6.20537 138 173 253 
-0.738384 0.0209395 6.08674 126 161 250 
-0.724719 0.0277742 6.10179 124 160 249 
-0.741464 0.0211146 6.10458 111 145 243 
-0.755112 0.0142526 6.08955 147 181 255 
-0.727831 0.0279139 6.1196 110 144 242 
-0.758186 0.0144792 6.10737 111 145 243 
-0.744528 0.0212474 6.12238 110 144 242 
-0.761223 0.0146036 6.1251 127 163 250 
-0.77181 0.00758401 6.09237 144 178 254 
-0.774873 0.00788336 6.11013 100 133 236 
-0.788507 0.000987791 6.09516 144 178 254 
-0.730919 0.0279767 6.1374 108 142 241 
-0.747626 0.0213818 6.14011 127 163 250 
-0.734028 0.0280047 6.15508 108 142 241 
-0.717497 0.0337411 6.15272 102 135 237 
-0.714337 0.0336658 6.13494 107 141 240 
-0.700929 0.0394414 6.15033 106 139 239 
-0.697731 0.0393587 6.1325 120 156 247 
-0.711207 0.0336433 6.11717 104 138 239 
-0.684277 0.0450264 6.14785 100 133 236 
-0.804664 -0.00625816 6.09782 126 161 250 
-0.806616 -0.00531507 6.11515 107 141 240 
-0.820818 -0.013456 6.10046 148 182 255 
-0.792454 0.00279333 6.12985 164 195 254 
-0.822716 -0.0125391 6.11773 141 176 254 
-0.808545 -0.00444431 6.13243 131 167 252 
-0.836944 -0.0206391 6.10311 141 176 254 
-0.853052 -0.0277482 6.10572 135 171 253 
-0.796423 0.00447948 6.16434 233 213 202 
-0.778874 0.00956074 6.14479 124 160 249 
-0.765312 0.0162895 6.15977 178 204 251 
-0.739866 0.0205189 6.20934 164 195 254 
-0.737927 0.0230662 6.19131 184 208 249 
-0.710793 0.0296641 6.20607 178 204 251 
-0.708762 0.032176 6.18801 123 158 249 
-0.735983 0.025574 6.17324 197 214 243 
-0.767162 0.0138197 6.17783 179 205 251 
-0.769027 0.0113268 6.19584 151 184 255 
-0.679657 0.0397422 6.2021 151 184 255 
-0.675631 0.0433618 6.18326 134 169 252 
-0.647966 0.0487145 6.19885 172 200 253 
-0.67162 0.0470115 6.16437 135 171 253 
-0.688242 0.0414338 6.1668 104 138 239 
-0.704816 0.0357894 6.1692 115 150 245 
-0.692212 0.0377763 6.18562 99 131 235 
-0.735926 -0.123139 5.78845 172 200 253 
-0.721118 -0.111332 5.79615 197 214 243 
-0.696881 -0.103695 5.79065 206 217 236 
-0.682037 -0.0918572 5.79835 189 210 247 
-0.657708 -0.0842426 5.7929 170 199 253 
-0.67659 -0.0757789 5.81928 164 195 254 
-0.663151 -0.100279 5.77193 187 209 248 
-0.638761 -0.0926974 5.7664 171 199 253 
-0.678839 -0.111323 5.76586 206 217 236 
-0.694504 -0.122355 5.75977 144 178 254 
-0.718753 -0.129966 5.76531 192 212 245 
-0.701516 -0.136807 5.74213 144 178 254 
-0.660439 -0.0653204 5.82722 102 135 237 
-0.650199 -0.0700504 5.8127 148 182 255 
-0.634 -0.0596173 5.82065 111 145 243 
-0.644262 -0.0548612 5.83518 131 167 252 
-0.623729 -0.0643947 5.8061 149 183 255 
-0.617776 -0.0491938 5.82862 142 177 254 
-0.60748 -0.0539896 5.81409 114 148 244 
-0.62805 -0.0444109 5.84313 134 169 252 
-0.59716 -0.0587616 5.79954 156 188 255 
-0.604734 -0.0729203 5.77963 149 183 255 
-0.631258 -0.0785528 5.78627 175 202 252 
-0.552142 -0.0865696 5.72554 232 214 203 
-0.578308 -0.090448 5.73444 168 198 254 
-0.596046 -0.0998473 5.72909 201 216 239 
-0.622098 -0.103747 5.73801 219 220 223 
-0.605364 -0.114774 5.70956 189 210 247 
-0.612761 -0.0887939 5.75756 175 202 252 
-0.595714 -0.0789276 5.76418 170 199 253 
-0.578621 -0.0690807 5.7708 152 185 255 
-0.569575 -0.0750771 5.75532 148 182 255 
-0.621967 -0.125044 5.70527 204 217 238 
-0.646055 -0.130556 5.71341 207 218 235 
-0.662586 -0.140836 5.70907 166 196 254 
-0.686591 -0.146336 5.71719 145 179 254 
-0.671603 -0.155896 5.6923 137 172 253 
-0.677569 -0.131288 5.73402 174 201 253 
-0.661886 -0.120267 5.74005 205 217 237 
-0.646168 -0.109241 5.74612 156 188 255 
-0.623489 -0.0309017 5.86409 129 164 251 
-0.608832 -0.0223968 5.87343 130 165 251 
-0.620506 -0.0193088 5.88638 131 167 252 
-0.635166 -0.0278374 5.87704 129 164 251 
-0.605845 -0.0108133 5.8957 134 169 252 
-0.632175 -0.0162229 5.8993 133 168 252 
-0.617528 -0.0077249 5.90864 135 171 253 
-0.629166 -0.00465179 5.92156 129 164 251 
-0.646797 -0.0247722 5.89 129 164 251 
-0.643802 -0.0131812 5.91222 126 161 250 
-0.658428 -0.0217418 5.90293 123 158 249 
-0.602849 0.000739854 5.91796 137 172 253 
-0.61449 0.00383181 5.93091 130 165 251 
-0.599801 0.012249 5.9403 138 173 253 
-0.586782 0.00857768 5.92578 145 179 254 
-0.589792 -0.0029395 5.9035 137 172 253 
-0.573705 0.00489819 5.91131 145 179 254 
-0.576698 -0.00662801 5.88899 135 171 253 
-0.592776 -0.0144901 5.88118 133 168 252 
-0.560613 0.00118432 5.89681 144 178 254 
-0.657919 -0.0118431 5.9239 120 156 247 
-0.683922 -0.0206711 5.9234 151 184 255 
-0.657363 -0.00194407 5.94494 118 153 246 
-0.683381 -0.0108096 5.94434 147 181 255 
-0.68279 -0.000965787 5.96531 148 182 255 
-0.709294 -0.0197323 5.94379 124 160 249 
-0.656802 0.00787182 5.96591 116 151 246 
-0.656182 0.0176104 5.98685 127 163 250 
-0.642157 0.0163247 5.97526 129 164 251 
-0.642746 0.00654561 5.95425 120 156 247 
-0.628089 0.0150042 5.9636 129 164 251 
-0.62865 0.00520173 5.94259 122 157 248 
-0.643284 -0.00328919 5.93326 120 156 247 
-0.613978 0.0136465 5.95197 130 165 251 
-0.600559 0.0366428 6.01378 129 164 251 
-0.585108 0.0347547 6.00029 130 165 251 
-0.60034 0.0286129 5.98931 135 171 253 
-0.569622 0.0328008 5.98672 133 168 252 
-0.584835 0.0266707 5.97579 137 172 253 
-0.569295 0.0246843 5.96223 147 181 255 
-0.554071 0.0307991 5.97317 142 177 254 
-0.600068 0.0204693 5.96479 138 173 253 
-0.584562 0.0184849 5.9512 147 181 255 
-0.614224 0.0218437 5.97643 137 172 253 
-0.628294 0.0231719 5.98807 134 169 252 
-0.614425 0.0299496 6.0009 134 169 252 
-0.628456 0.0312386 6.0125 167 197 254 
-0.642319 0.0244744 5.99969 131 167 252 
-0.614613 0.037932 6.02532 122 157 248 
-0.541034 0.0271414 5.95872 152 185 255 
-0.526654 0.0230932 5.94205 153 186 255 
-0.54319 0.0173155 5.93323 156 188 255 
-0.512251 0.0190293 5.9254 155 187 255 
-0.528795 0.0132618 5.91658 155 187 255 
-0.545355 0.00738658 5.90773 153 186 255 
-0.558448 0.0111177 5.92226 156 188 255 
-0.571516 0.0148373 5.93678 156 188 255 
-0.556258 0.0210234 5.94774 156 188 255 
-0.710188 -0.0120333 5.96165 151 184 255 
-0.736403 -0.0253238 5.95657 170 199 253 
-0.711058 -0.00438614 5.97947 156 188 255 
-0.737267 -0.0176774 5.97432 134 169 252 
-0.738114 -0.0100057 5.99211 235 212 199 
-0.763412 -0.030882 5.96926 193 212 245 
-0.71189 0.00320064 5.99726 137 172 253 
-0.712707 0.0107673 6.01506 214 220 229 
-0.684531 0.0142505 6.001 152 185 255 
-0.683665 0.00667745 5.98316 155 187 255 
-0.780468 -0.0315696 5.98878 114 148 244 
-0.792744 -0.0432442 5.97719 144 178 254 
-0.768151 -0.0199015 6.00044 147 181 255 
-0.797416 -0.0322527 6.00822 151 184 255 
-0.809712 -0.0438596 5.99662 120 156 247 
-0.821994 -0.0554597 5.98497 124 160 249 
-0.78508 -0.0206658 6.01986 110 144 242 
-0.772773 -0.00904964 6.03154 183 207 250 
-0.755462 -0.00953926 6.0119 89 119 226 
-0.74282 0.000847726 6.02333 164 195 254 
-0.719393 0.0234714 6.06674 166 196 254 
-0.71717 0.0193009 6.04955 188 210 247 
-0.688747 0.0306105 6.05884 184 208 249 
-0.686478 0.0264066 6.04155 236 211 197 
-0.714953 0.0150588 6.03233 162 193 255 
-0.745018 0.00513769 6.04052 164 195 254 
-0.747177 0.00935029 6.05768 162 193 255 
-0.659274 0.0358327 6.04784 148 182 255 
-0.658258 0.029835 6.02758 163 194 255 
-0.671396 0.0220722 6.01425 131 167 252 
-0.967369 -0.0802343 6.12681 156 188 255 
-0.992083 -0.0970275 6.12453 163 194 255 
-1.00738 -0.113459 6.11229 140 174 254 
-1.03217 -0.129946 6.11011 149 183 255 
-1.01337 -0.129571 6.09007 193 212 245 
-1.02613 -0.113833 6.13225 126 161 250 
-1.05078 -0.1303 6.13005 138 173 253 
-1.0104 -0.0991117 6.14193 174 201 253 
-0.994775 -0.0842012 6.15165 141 176 254 
-1.02854 -0.151691 6.07797 153 186 255 
-1.03708 -0.147596 6.09398 156 188 255 
-1.05228 -0.169598 6.08178 164 195 254 
-1.04369 -0.173707 6.06581 152 185 255 
-1.06082 -0.165398 6.09775 155 187 255 
-1.0675 -0.191562 6.06951 163 194 255 
-1.07604 -0.187345 6.08549 163 194 255 
-1.09127 -0.209246 6.07313 158 190 255 
-1.05881 -0.195823 6.05348 152 185 255 
-1.08259 -0.21362 6.05713 159 191 255 
-1.07377 -0.217983 6.04119 123 158 249 
-1.0845 -0.183117 6.10147 152 185 255 
-1.09982 -0.204953 6.08913 158 190 255 
-1.10827 -0.200641 6.10507 145 179 254 
-1.07954 -0.165494 6.11765 140 174 254 
-1.05585 -0.147782 6.11395 147 181 255 
-1.11511 -0.170644 6.15235 127 163 250 
-1.09374 -0.157292 6.14493 130 165 251 
-1.08726 -0.140684 6.16041 129 164 251 
-1.06587 -0.127262 6.15291 129 164 251 
-1.07228 -0.143875 6.13751 131 167 252 
-1.10108 -0.178915 6.12505 133 168 252 
-1.12252 -0.192308 6.13241 135 171 253 
-1.05765 -0.1111 6.17385 130 165 251 
-1.03456 -0.0978879 6.17206 148 182 255 
-1.02717 -0.0866276 6.18715 131 167 252 
-1.01137 -0.084581 6.17039 130 165 251 
-1.04265 -0.114086 6.15108 155 187 255 
-0.838143 -0.0649484 5.98789 153 186 255 
-0.854241 -0.074442 5.99075 122 157 248 
-0.830895 -0.0487779 6.01391 210 219 232 
-0.846977 -0.0582978 6.01678 152 185 255 
-0.863047 -0.067771 6.01955 149 183 255 
-0.870333 -0.083869 5.9936 141 176 254 
-0.886422 -0.0932306 5.9964 118 153 246 
-0.839667 -0.0422115 6.04273 168 198 254 
-0.822968 -0.0339987 6.03998 149 183 255 
-0.806247 -0.0257256 6.0372 162 193 255 
-0.902465 -0.1039 5.99906 135 171 253 
-0.918529 -0.114465 6.00166 129 164 251 
-0.896163 -0.0860563 6.02481 144 178 254 
-0.912199 -0.09666 6.02742 142 177 254 
-0.928227 -0.107233 6.02994 129 164 251 
-0.934585 -0.124972 6.00426 131 167 252 
-0.950623 -0.135448 6.0068 110 144 242 
-0.90578 -0.0789955 6.05308 115 150 245 
-0.889273 -0.0698585 6.05057 140 174 254 
-0.872759 -0.0606851 6.04799 163 194 255 
-0.879598 -0.0769673 6.02221 145 179 254 
-0.856209 -0.0514944 6.0454 167 197 254 
-0.846414 -0.0349038 6.0743 184 208 249 
-0.830232 -0.0277984 6.07163 184 208 249 
-0.814063 -0.0205965 6.06894 190 211 246 
-0.862914 -0.0441728 6.07689 184 208 249 
-0.879347 -0.0534625 6.07939 185 208 248 
-0.780659 -0.00398199 6.06342 184 208 249 
-0.763978 0.00272813 6.06054 162 193 255 
-0.793465 -0.0148148 6.05029 111 145 243 
-0.74119 -0.107465 5.81792 178 204 251 
-0.755068 -0.120027 5.80877 137 172 253 
-0.727304 -0.0948765 5.82705 135 171 253 
-0.746424 -0.091729 5.84727 148 182 255 
-0.760295 -0.10432 5.83814 166 196 254 
-0.774149 -0.116881 5.829 159 191 255 
-0.72298 -0.0806876 5.84628 141 176 254 
-0.718568 -0.066472 5.86559 141 176 254 
-0.697663 -0.0710977 5.84244 152 185 255 
-0.701972 -0.0853118 5.82318 204 217 238 
-0.782532 -0.105555 5.85534 149 183 255 
-0.795443 -0.11872 5.84517 147 181 255 
-0.769622 -0.092333 5.86547 140 174 254 
-0.790858 -0.0941859 5.88158 124 160 249 
-0.803761 -0.107364 5.87143 133 168 252 
-0.81668 -0.120519 5.86125 133 168 252 
-0.76734 -0.0800223 5.88367 131 167 252 
-0.765034 -0.0676908 5.90185 137 172 253 
-0.741891 -0.0670693 5.88373 135 171 253 
-0.744169 -0.0794151 5.86552 135 171 253 
-0.711675 -0.0313933 5.92426 158 190 255 
-0.714021 -0.0430935 5.90472 144 178 254 
-0.686264 -0.0323889 5.90381 152 185 255 
-0.688602 -0.0440919 5.88421 151 184 255 
-0.716351 -0.0547866 5.88514 142 177 254 
-0.739567 -0.0554094 5.90328 137 172 253 
-0.737211 -0.0437457 5.9228 155 187 255 
-0.663004 -0.0352764 5.88201 127 163 250 
-0.651385 -0.038317 5.86906 127 163 250 
-0.667568 -0.0488084 5.86109 130 165 251 
-0.639729 -0.0413543 5.8561 127 163 250 
-0.655938 -0.0518316 5.84814 124 160 249 
-0.672093 -0.0623222 5.8402 129 164 251 
-0.693148 -0.0576323 5.86333 151 184 255 
-0.82835 -0.114991 5.88249 124 160 249 
-0.840349 -0.128526 5.8719 126 161 250 
-0.816348 -0.101412 5.89304 129 164 251 
-0.839993 -0.10941 5.90362 147 181 255 
-0.851988 -0.12296 5.89305 130 165 251 
-0.863989 -0.136477 5.88245 129 164 251 
-0.816177 -0.0918299 5.90893 145 179 254 
-0.815979 -0.0822616 5.92476 122 157 248 
-0.790544 -0.0750195 5.91334 148 182 255 
-0.790711 -0.0845953 5.89746 138 173 253 
-0.878057 -0.135798 5.901 134 169 252 
-0.888775 -0.149174 5.89056 134 169 252 
-0.867314 -0.122437 5.91145 137 172 253 
-0.892076 -0.135083 5.91947 120 156 247 
-0.902796 -0.148435 5.90901 122 157 248 
-0.913524 -0.161778 5.89854 160 192 255 
-0.881323 -0.121747 5.92991 122 157 248 
-0.870582 -0.10837 5.94034 123 158 249 
-0.855302 -0.108918 5.92202 111 145 243 
-0.843305 -0.0953641 5.93261 162 193 255 
-0.805883 -0.0560503 5.96603 112 147 243 
-0.819027 -0.0688351 5.95494 171 199 253 
-0.789721 -0.0566535 5.94699 156 188 255 
-0.77658 -0.0437586 5.95815 133 168 252 
-0.802852 -0.0694794 5.93589 91 122 229 
-0.831168 -0.0821275 5.94376 110 144 242 
-0.846305 -0.0819657 5.96265 170 199 253 
-0.858449 -0.0951758 5.95151 118 153 246 
-0.750356 -0.0373065 5.94608 110 144 242 
-0.764275 -0.0492736 5.93556 115 150 245 
-0.764673 -0.0584875 5.91874 144 178 254 
-0.920397 -0.894577 5.8505 149 183 255 
-0.901027 -0.901446 5.86369 155 187 255 
-0.91466 -0.892713 5.88451 185 208 248 
-0.895372 -0.899682 5.89763 175 202 252 
-0.88174 -0.90845 5.87684 151 184 255 
-0.909022 -0.890968 5.91838 166 196 254 
-0.876142 -0.906755 5.91074 167 197 254 
-0.889782 -0.897997 5.93147 158 190 255 
-0.87061 -0.905157 5.94454 140 174 254 
-0.862518 -0.915504 5.88993 147 181 255 
-0.85696 -0.91387 5.9238 131 167 252 
-0.843374 -0.922707 5.90301 152 185 255 
-0.903454 -0.88927 5.95212 149 183 255 
-0.884294 -0.896441 5.96519 144 178 254 
-0.897988 -0.88771 5.98577 156 188 255 
-0.915919 -0.881186 5.97054 116 151 246 
-0.921445 -0.882819 5.93687 123 158 249 
-0.933904 -0.874728 5.95534 135 171 253 
-0.939497 -0.8765 5.92163 156 188 255 
-0.927074 -0.884643 5.90314 119 154 247 
-0.945214 -0.878468 5.8878 133 168 252 
-0.951969 -0.868417 5.94009 137 172 253 
-0.957651 -0.870361 5.90634 130 165 251 
-0.970097 -0.862176 5.92485 158 190 255 
-0.932781 -0.886493 5.8692 130 165 251 
-0.821693 -0.929036 5.91721 156 188 255 
-0.836187 -0.919715 5.94004 182 206 250 
-0.814581 -0.926149 5.95423 176 203 252 
-0.800103 -0.93547 5.93137 153 186 255 
-0.829122 -0.916879 5.97701 167 197 254 
-0.793076 -0.93269 5.9684 172 200 253 
-0.807618 -0.923439 5.99119 166 196 254 
-0.778586 -0.941962 5.94553 149 183 255 
-0.822195 -0.914237 6.01388 166 196 254 
-0.835907 -0.905572 6.03449 131 167 252 
-0.842804 -0.908163 5.99766 144 178 254 
-0.856506 -0.899462 6.01825 149 183 255 
-0.863506 -0.902248 5.98143 189 210 247 
-0.849822 -0.910939 5.96077 142 177 254 
-0.877212 -0.893523 6.00201 152 185 255 
-0.900443 -0.867452 6.11369 168 198 254 
-0.884463 -0.877471 6.09512 175 202 252 
-0.90493 -0.870897 6.07741 170 199 253 
-0.920941 -0.860877 6.09598 164 195 254 
-0.88891 -0.880777 6.05871 170 199 253 
-0.925501 -0.864462 6.05967 164 195 254 
-0.909451 -0.874345 6.04102 164 195 254 
-0.930058 -0.86798 6.0233 155 187 255 
-0.941495 -0.854378 6.07824 160 192 255 
-0.946096 -0.858021 6.04193 155 187 255 
-0.962097 -0.84795 6.0605 152 185 255 
-0.893406 -0.884194 6.02228 163 194 255 
-0.914016 -0.877876 6.00457 153 186 255 
-0.872693 -0.890099 6.03852 168 198 254 
-0.85208 -0.896216 6.05478 172 200 253 
-0.868267 -0.886844 6.07501 175 202 252 
-0.979122 -0.840982 6.04366 148 182 255 
-0.963996 -0.851358 6.02669 147 181 255 
-0.981127 -0.844548 6.00988 144 178 254 
-0.996255 -0.834157 6.02682 147 181 255 
-0.965972 -0.85489 5.99285 147 181 255 
-0.998318 -0.837834 5.99304 145 179 254 
-0.983151 -0.848175 5.976 148 182 255 
-1.00039 -0.841537 5.95918 148 182 255 
-1.0135 -0.827406 6.00999 145 179 254 
-1.01561 -0.831114 5.97625 142 177 254 
-1.03081 -0.820655 5.99319 147 181 255 
-0.967993 -0.858505 5.95888 153 186 255 
-0.985248 -0.851907 5.94205 151 184 255 
-0.949925 -0.864832 5.97414 151 184 255 
-0.931949 -0.871305 5.98934 148 182 255 
-0.94798 -0.86138 6.0081 148 182 255 
-0.929403 -0.165382 5.91683 107 141 240 
-0.938119 -0.177679 5.90703 155 187 255 
-0.920696 -0.153091 5.92662 127 163 250 
-0.945248 -0.168927 5.93502 180 205 251 
-0.95398 -0.181202 5.92521 147 181 255 
-0.962691 -0.193485 5.91535 133 168 252 
-0.936532 -0.156666 5.94481 151 184 255 
-0.927787 -0.144437 5.95456 149 183 255 
-0.909944 -0.139801 5.93707 107 141 240 
-0.899207 -0.126478 5.94752 164 195 254 
-0.979666 -0.199744 5.93216 149 183 255 
-0.996641 -0.205917 5.94878 162 193 255 
-0.997741 -0.219283 5.92652 155 187 255 
-0.978555 -0.186482 5.95441 188 210 247 
-0.969829 -0.174242 5.96422 214 220 229 
-0.939254 -0.139924 5.98072 118 153 246 
-0.92319 -0.129408 5.97815 131 167 252 
-0.907129 -0.11884 5.97549 133 168 252 
-0.947554 -0.152132 5.97089 137 172 253 
-0.967267 -0.159746 5.98708 100 133 236 
-0.958956 -0.147584 5.99693 124 160 249 
-0.878528 -0.100805 5.9684 190 211 246 
-0.888873 -0.113642 5.95799 106 139 239 
-1.14866 -0.184486 6.49942 126 161 250 
-1.16607 -0.197617 6.48085 119 154 247 
-1.14609 -0.192858 6.5206 120 156 247 
-1.16344 -0.206127 6.50214 130 165 251 
-1.1608 -0.214502 6.52323 120 156 247 
-1.18084 -0.219294 6.48354 148 182 255 
-1.14348 -0.201342 6.54166 116 151 246 
-1.14084 -0.209908 6.56262 120 156 247 
-1.12677 -0.187699 6.55967 124 160 249 
-1.12935 -0.179239 6.53862 115 150 245 
-1.17531 -0.228942 6.50606 126 161 250 
-1.19017 -0.243899 6.48938 116 151 246 
-1.16975 -0.238676 6.52846 119 154 247 
-1.18456 -0.253595 6.51182 126 161 250 
-1.17895 -0.2633 6.53412 120 156 247 
-1.19934 -0.268625 6.49509 151 184 255 
-1.16422 -0.248397 6.55072 114 148 244 
-1.15868 -0.258153 6.57288 118 153 246 
-1.14981 -0.233966 6.56781 118 153 246 
-1.1553 -0.224235 6.54557 114 148 244 
-1.11879 -0.234044 6.63868 172 200 253 
-1.1261 -0.225984 6.61336 142 177 254 
-1.11051 -0.210213 6.63396 188 210 247 
-1.1178 -0.202197 6.60851 156 188 255 
-1.13346 -0.217932 6.588 130 165 251 
-1.14241 -0.242073 6.5931 127 163 250 
-1.13506 -0.250179 6.61828 135 171 253 
-1.09933 -0.187284 6.63019 206 217 236 
-1.10373 -0.180002 6.60577 174 201 253 
-1.08607 -0.164557 6.62707 218 220 224 
-1.10819 -0.172858 6.58118 148 182 255 
-1.12228 -0.194977 6.5841 140 174 254 
-1.01949 -0.779703 6.24252 172 200 253 
-1.0055 -0.792094 6.22665 153 186 255 
-1.0276 -0.781818 6.20995 149 183 255 
-1.04158 -0.769397 6.22578 151 184 255 
-1.01354 -0.79411 6.19399 151 184 255 
-1.04983 -0.771614 6.19318 145 179 254 
-1.03574 -0.783896 6.17725 144 178 254 
-1.0581 -0.773733 6.16051 135 171 253 
-1.06385 -0.7592 6.20899 153 186 255 
-1.07221 -0.761433 6.17641 137 172 253 
-1.08626 -0.749023 6.19215 148 182 255 
-1.02155 -0.796032 6.16121 145 179 254 
-1.04385 -0.785876 6.14448 137 172 253 
-1.02954 -0.797846 6.12831 140 174 254 
-1.00786 -0.806437 6.14614 147 181 255 
-0.999902 -0.804642 6.17903 151 184 255 
-0.986179 -0.815024 6.16392 152 185 255 
-0.978331 -0.813318 6.19682 155 187 255 
-0.991953 -0.802763 6.21179 155 187 255 
-0.964652 -0.823765 6.18172 156 188 255 
-1.10753 -0.733902 6.17459 168 198 254 
-1.08946 -0.752632 6.15899 135 171 253 
-1.1109 -0.737565 6.14139 162 193 255 
-1.12892 -0.718782 6.15692 182 206 250 
-1.09264 -0.756132 6.12566 140 174 254 
-1.13248 -0.722446 6.12369 179 205 251 
-1.11422 -0.741094 6.10802 174 201 253 
-1.13599 -0.725897 6.09031 184 208 249 
-1.15048 -0.703582 6.13917 197 214 243 
-1.15418 -0.707199 6.1059 185 208 248 
-1.17212 -0.68838 6.12137 155 187 255 
-1.09578 -0.759526 6.09217 145 179 254 
-1.11754 -0.744392 6.07452 180 205 251 
-1.0989 -0.762722 6.05864 160 192 255 
-1.0814 -0.771576 6.07615 129 164 251 
-1.07836 -0.768327 6.10968 133 168 252 
-1.06398 -0.780339 6.09356 135 171 253 
-1.06106 -0.777098 6.12708 135 171 253 
-1.07533 -0.764947 6.14311 134 169 252 
-1.04671 -0.789086 6.11096 140 174 254 
-1.03053 -0.815031 6.02708 149 183 255 
-1.01324 -0.821817 6.04393 149 183 255 
-1.0302 -0.809377 6.06095 145 179 254 
-0.996112 -0.828719 6.06079 151 184 255 
-1.01307 -0.816298 6.07781 148 182 255 
-0.99597 -0.823224 6.09461 149 183 255 
-0.979061 -0.835652 6.07759 151 184 255 
-1.02991 -0.803672 6.0947 145 179 254 
-1.01281 -0.810651 6.11154 147 181 255 
-1.04714 -0.79496 6.07733 142 177 254 
-1.06445 -0.786216 6.0599 140 174 254 
-1.0475 -0.800711 6.04357 145 179 254 
-1.06492 -0.792016 6.02621 163 194 255 
-1.08198 -0.777438 6.0425 163 194 255 
-1.04788 -0.806381 6.00978 182 206 250 
-0.957432 -0.844247 6.09537 153 186 255 
-0.936848 -0.850719 6.11314 159 191 255 
-0.952729 -0.84046 6.13018 156 188 255 
-0.916336 -0.857311 6.13087 162 193 255 
-0.93219 -0.847042 6.14792 160 192 255 
-0.94797 -0.83658 6.1649 159 191 255 
-0.969492 -0.827827 6.14711 155 187 255 
-0.991129 -0.81922 6.12934 151 184 255 
-0.974308 -0.831811 6.11242 152 185 255 
-1.19633 -0.644396 6.27228 138 173 253 
-1.17681 -0.662057 6.26844 144 178 254 
-1.19179 -0.65361 6.24052 152 185 255 
-1.15743 -0.679738 6.26461 142 177 254 
-1.17218 -0.67125 6.23667 152 185 255 
-1.1525 -0.688821 6.2328 144 178 254 
-1.18701 -0.662746 6.2087 148 182 255 
-1.13794 -0.697411 6.26077 138 173 253 
-1.11836 -0.715005 6.2569 110 144 242 
-1.12695 -0.702559 6.28515 156 188 255 
-1.14629 -0.684822 6.28894 135 171 253 
-1.16561 -0.667063 6.29271 131 167 252 
-1.13539 -0.689967 6.31328 137 172 253 
-1.1835 -0.669326 6.18698 158 190 255 
-1.16196 -0.684424 6.20462 193 212 245 
-1.15821 -0.690961 6.1829 197 214 243 
-1.17989 -0.675788 6.16522 162 193 255 
-1.1368 -0.706034 6.20052 187 209 248 
-1.15448 -0.697362 6.16113 204 217 238 
-1.13294 -0.712461 6.17875 189 210 247 
-1.17611 -0.682136 6.1433 166 196 254 
-1.11151 -0.727557 6.19637 180 205 251 
-1.09442 -0.740584 6.20844 138 173 253 
-1.11956 -0.719091 6.2126 110 144 242 
-1.10253 -0.732142 6.22467 149 183 255 
-1.12757 -0.710514 6.22875 153 186 255 
-1.14469 -0.697484 6.21671 99 131 235 
-1.11051 -0.723609 6.24081 171 199 253 
-1.02769 -0.771418 6.25878 123 158 249 
-1.03743 -0.761789 6.27291 151 184 255 
-1.05784 -0.752659 6.25824 123 158 249 
-1.04715 -0.752102 6.28693 149 183 255 
-1.06751 -0.742933 6.27226 151 184 255 
-1.07714 -0.73318 6.28619 130 165 251 
-1.0568 -0.742369 6.30092 131 167 252 
-1.08813 -0.733905 6.25759 126 161 250 
-1.09767 -0.724066 6.27153 213 219 230 
-1.08011 -0.742392 6.24147 190 211 246 
-1.072 -0.750804 6.22526 179 205 251 
-1.04976 -0.761063 6.242 185 208 248 
-1.06777 -0.728136 6.32701 172 200 253 
-1.08594 -0.720889 6.31449 215 220 228 
-1.09872 -0.704393 6.33826 122 157 248 
-1.08056 -0.711663 6.35077 159 191 255 
-1.11064 -0.705449 6.31387 179 205 251 
-1.14338 -0.207784 6.14552 135 171 253 
-1.15026 -0.231702 6.13132 137 172 253 
-1.12935 -0.216219 6.11818 141 176 254 
-1.13604 -0.240211 6.10395 137 172 253 
-1.15695 -0.255748 6.11711 135 171 253 
-1.16348 -0.279947 6.1029 133 168 252 
-1.17612 -0.268588 6.13074 134 169 252 
-1.16937 -0.244517 6.14496 130 165 251 
-1.16248 -0.220508 6.15914 129 164 251 
-1.18822 -0.257254 6.15857 126 161 250 
-1.11683 -0.227259 6.09042 147 181 255 
-1.10823 -0.231648 6.07448 159 191 255 
-1.12521 -0.254015 6.07576 152 185 255 
-1.09957 -0.236047 6.0585 162 193 255 
-1.11649 -0.25849 6.05981 166 196 254 
-1.10768 -0.262999 6.04379 151 184 255 
-1.09077 -0.240493 6.04249 151 184 255 
-1.13334 -0.280961 6.06106 156 188 255 
-1.12455 -0.285491 6.04509 151 184 255 
-1.14131 -0.308006 6.04635 171 199 253 
-1.15257 -0.293952 6.07464 145 179 254 
-1.14437 -0.267009 6.08934 141 176 254 
-1.18601 -0.392452 6.05877 122 157 248 
-1.18063 -0.364199 6.06988 144 178 254 
-1.19657 -0.379006 6.08723 172 200 253 
-1.17507 -0.335994 6.08095 147 181 255 
-1.19116 -0.350782 6.09822 141 176 254 
-1.18553 -0.322653 6.10921 137 172 253 
-1.207 -0.365539 6.11553 135 171 253 
-1.16936 -0.307903 6.09195 140 174 254 
-1.15829 -0.322003 6.06363 148 182 255 
-1.16392 -0.350169 6.05252 145 179 254 
-1.20267 -0.33831 6.12634 133 168 252 
-1.21789 -0.353403 6.14254 126 161 250 
-1.19814 -0.311186 6.13701 131 167 252 
-1.21342 -0.326181 6.15327 124 160 249 
-1.20862 -0.299073 6.16401 126 161 250 
-1.22844 -0.341161 6.16949 120 156 247 
-1.19337 -0.284125 6.14779 131 167 252 
-1.18094 -0.295582 6.11996 137 172 253 
-1.25225 -0.518823 6.21436 103 136 238 
-1.25191 -0.49728 6.20827 152 185 255 
-1.24683 -0.481447 6.18833 229 216 209 
-1.24628 -0.459807 6.18205 110 144 242 
-1.24085 -0.44384 6.16198 145 179 254 
-1.25028 -0.432511 6.18954 108 142 241 
-1.23683 -0.471171 6.1545 163 194 255 
-1.23122 -0.454974 6.13432 137 172 253 
-1.23809 -0.491966 6.15991 152 185 255 
-1.2394 -0.5127 6.16525 151 184 255 
-1.24454 -0.528623 6.18517 205 217 237 
-1.23652 -0.538224 6.15587 142 177 254 
-1.2451 -0.409583 6.18455 180 205 251 
-1.23452 -0.39292 6.16608 189 210 247 
-1.22897 -0.370093 6.16104 110 144 242 
-1.21824 -0.382385 6.13409 155 187 255 
-1.22435 -0.404697 6.13878 144 178 254 
-1.2303 -0.42706 6.1435 195 213 243 
-1.19248 -0.413582 6.06274 207 218 235 
-1.20403 -0.429216 6.08164 175 202 252 
-1.21025 -0.450521 6.08564 152 185 255 
-1.22136 -0.466178 6.10452 213 219 230 
-1.21123 -0.477327 6.07461 122 157 248 
-1.22033 -0.439404 6.11548 164 195 254 
-1.21432 -0.416996 6.11082 147 181 255 
-1.20813 -0.394627 6.10612 215 220 228 
-1.21331 -0.496832 6.0789 149 183 255 
-1.21987 -0.512121 6.09926 198 214 242 
-1.22171 -0.531627 6.10351 167 197 254 
-1.22795 -0.546739 6.12372 162 193 255 
-1.21902 -0.555205 6.0915 141 176 254 
-1.23051 -0.523108 6.13565 178 204 251 
-1.22918 -0.502313 6.1303 156 188 255 
-1.2278 -0.48146 6.12489 156 188 255 
-1.18376 -0.190988 6.23616 115 150 245 
-1.19161 -0.208609 6.22555 114 148 244 
-1.17528 -0.192221 6.21569 118 153 246 
-1.18304 -0.20981 6.20505 118 153 246 
-1.19926 -0.226375 6.21495 114 148 244 
-1.20701 -0.244049 6.20426 118 153 246 
-1.21365 -0.240637 6.22446 114 148 244 
-1.20599 -0.222856 6.23505 111 145 243 
-1.1664 -0.195874 6.19404 123 158 249 
-1.17376 -0.2163 6.18227 123 158 249 
-1.15518 -0.200094 6.17099 130 165 251 
-1.18106 -0.236719 6.17045 123 158 249 
-1.19773 -0.250669 6.18142 122 157 248 
-1.19048 -0.230186 6.19329 118 153 246 
-1.22334 -0.316713 6.17817 120 156 247 
-1.236 -0.332973 6.19146 118 153 246 
-1.21804 -0.292434 6.18686 122 157 248 
-1.2308 -0.308598 6.20015 116 151 246 
-1.22542 -0.284315 6.20882 116 151 246 
-1.24333 -0.324765 6.21341 115 150 245 
-1.21258 -0.268214 6.19558 122 157 248 
-1.20325 -0.274851 6.17274 127 163 250 
-1.23775 -0.302755 6.22126 111 145 243 
-1.24806 -0.319067 6.23303 111 145 243 
-1.23201 -0.280809 6.22903 112 147 243 
-1.2424 -0.297033 6.24086 108 142 241 
-1.22618 -0.258896 6.23681 114 148 244 
-1.21965 -0.262434 6.21666 118 153 246 
-1.2453 -0.540634 6.20542 123 158 249 
-1.23835 -0.56229 6.19631 131 167 252 
-1.23751 -0.550273 6.17614 135 171 253 
-1.23038 -0.571922 6.16696 123 158 249 
-1.23124 -0.584027 6.18716 137 172 253 
-1.22415 -0.605715 6.17798 123 158 249 
-1.22967 -0.597154 6.2094 172 200 253 
-1.23663 -0.575402 6.21855 126 161 250 
-1.24351 -0.553712 6.22765 116 151 246 
-1.23482 -0.588427 6.24065 118 153 246 
-1.23035 -0.558498 6.144 131 167 252 
-1.22419 -0.578753 6.13206 153 186 255 
-1.22169 -0.567034 6.11183 151 184 255 
-1.21539 -0.587164 6.09979 103 136 238 
-1.21793 -0.598953 6.12003 156 188 255 
-1.21152 -0.619214 6.10802 147 181 255 
-1.21479 -0.615953 6.12556 133 168 252 
-1.22113 -0.595674 6.13758 115 150 245 
-1.21801 -0.612576 6.14305 129 164 251 
-1.22423 -0.59228 6.15505 129 164 251 
-1.22731 -0.575381 6.14954 98 130 234 
-1.22111 -0.609174 6.16054 90 120 228 
-1.18543 -0.667814 6.13563 148 182 255 
-1.18912 -0.661522 6.15755 127 163 250 
-1.19847 -0.647191 6.14981 148 182 255 
-1.19278 -0.655053 6.17934 130 165 251 
-1.20206 -0.640744 6.17162 130 165 251 
-1.20551 -0.634221 6.19338 111 145 243 
-1.19624 -0.648465 6.20105 149 183 255 
-1.21133 -0.626501 6.16392 149 183 255 
-1.21483 -0.619954 6.18568 135 171 253 
-1.20825 -0.629908 6.14646 127 163 250 
-1.20503 -0.633226 6.12896 162 193 255 
-1.19518 -0.650552 6.13233 126 161 250 
-1.1918 -0.653859 6.11482 134 169 252 
-1.2017 -0.636518 6.11144 137 172 253 
-1.18202 -0.671086 6.11812 104 138 239 
-1.20134 -0.639611 6.23266 175 202 252 
-1.21104 -0.625616 6.22478 174 201 253 
-1.21546 -0.616381 6.25653 142 177 254 
-1.20585 -0.630398 6.26442 163 194 255 
-1.22298 -0.607008 6.23271 114 148 244 
-0.942464 -0.321129 6.94286 141 176 254 
-0.953031 -0.329765 6.92166 204 217 238 
-0.955066 -0.345438 6.90334 148 182 255 
-0.972206 -0.331589 6.89739 194 213 244 
-0.935959 -0.343711 6.92758 190 211 246 
-0.937922 -0.359374 6.90926 164 195 254 
-0.925791 -0.334594 6.94789 135 171 253 
-0.896546 -0.366406 6.93747 164 195 254 
-0.887023 -0.357041 6.9567 126 161 250 
-0.907214 -0.346561 6.95254 126 161 250 
-0.917355 -0.355583 6.93224 176 203 252 
-0.917093 -0.370078 6.91444 156 188 255 
-1.12447 -0.465075 6.59352 175 202 252 
-1.12414 -0.44712 6.60507 137 172 253 
-1.11599 -0.439173 6.62105 116 151 246 
-1.11553 -0.421259 6.63251 133 168 252 
-1.10002 -0.441292 6.64153 102 135 237 
-1.13158 -0.41919 6.61201 119 154 247 
-1.13111 -0.401291 6.62343 116 151 246 
-1.14068 -0.42608 6.59553 112 147 243 
-1.1498 -0.433006 6.57895 182 206 250 
-1.15018 -0.450968 6.56737 149 183 255 
-1.16776 -0.428931 6.55725 144 178 254 
-1.09034 -0.432223 6.66108 179 205 251 
-1.08756 -0.414219 6.67667 111 145 243 
-1.07782 -0.405093 6.6962 134 169 252 
-1.07491 -0.386986 6.71186 194 213 244 
-1.06114 -0.404863 6.71977 207 218 235 
-1.09168 -0.387237 6.68833 134 169 252 
-1.0887 -0.369173 6.70391 193 212 245 
-1.10224 -0.395273 6.66813 145 179 254 
-1.11277 -0.403259 6.64807 127 163 250 
-1.10689 -0.328859 6.68969 123 158 249 
-1.11842 -0.335483 6.66859 171 199 253 
-1.12456 -0.353588 6.65203 118 153 246 
-1.13604 -0.360142 6.63109 114 148 244 
-1.14205 -0.37824 6.61457 138 173 253 
-1.15298 -0.355271 6.60563 107 141 240 
-1.1252 -0.383191 6.63996 115 150 245 
-1.11455 -0.37514 6.66001 104 138 239 
-1.10391 -0.367149 6.6802 156 188 255 
-1.09778 -0.348988 6.69686 192 212 245 
-1.16284 -0.360751 6.58845 170 199 253 
-1.16659 -0.379152 6.57641 145 179 254 
-1.17643 -0.384668 6.55907 130 165 251 
-1.18008 -0.403117 6.54693 148 182 255 
-1.1925 -0.377373 6.53642 148 182 255 
-1.16414 -0.410462 6.56946 131 167 252 
-1.15495 -0.403551 6.58602 116 151 246 
-1.14576 -0.396646 6.60257 175 202 252 
-1.01517 -0.265364 6.87331 180 205 251 
-1.00452 -0.257601 6.89547 185 208 248 
-1.01128 -0.230438 6.88631 147 181 255 
-1.01955 -0.247041 6.86714 221 221 221 
-1.02393 -0.228787 6.86088 229 216 209 
-1.01326 -0.192333 6.87415 190 211 246 
-1.02354 -0.209192 6.85484 236 211 197 
-1.01371 -0.211878 6.88018 156 188 255 
-0.995973 -0.274864 6.90149 183 207 250 
-1.00657 -0.282598 6.87938 220 221 222 
-0.997941 -0.299921 6.88548 215 220 228 
-0.987169 -0.291692 6.90732 188 210 247 
-0.976494 -0.283448 6.92907 193 212 245 
-0.968014 -0.315417 6.91619 222 220 219 
-0.95741 -0.30667 6.93742 148 182 255 
-0.985058 -0.315726 6.89145 206 217 236 
-1.09521 -0.32105 6.7126 243 199 178 
-1.08569 -0.30356 6.73229 203 216 238 
-1.07405 -0.295858 6.75507 184 208 249 
-1.0645 -0.27853 6.7746 180 205 251 
-1.06042 -0.297842 6.78088 144 178 254 
-1.07818 -0.276568 6.74875 188 210 247 
-1.06858 -0.259216 6.7683 183 207 250 
-1.08975 -0.283377 6.72572 198 214 242 
-1.10134 -0.290272 6.70258 217 220 225 
-1.11096 -0.307708 6.68288 193 212 245 
-1.11504 -0.28666 6.67596 203 216 238 
-1.04904 -0.289689 6.8041 210 219 232 
-1.03997 -0.272333 6.82415 194 213 244 
-1.02863 -0.264295 6.84724 209 219 233 
-1.03309 -0.245947 6.84095 214 220 229 
-1.0442 -0.253552 6.81785 197 214 243 
-1.05534 -0.261176 6.7947 187 209 248 
-1.03454 -0.206956 6.82867 222 220 219 
-1.0459 -0.224337 6.80857 201 216 239 
-1.05606 -0.22105 6.78264 192 212 245 
-1.06745 -0.238568 6.76247 185 208 248 
-1.05724 -0.241749 6.78844 188 210 247 
-1.03487 -0.226564 6.83478 217 220 225 
-1.07849 -0.234967 6.73644 188 210 247 
-1.09067 -0.252111 6.71637 194 213 244 
-1.10107 -0.247101 6.69017 213 219 230 
-1.1133 -0.264365 6.66996 206 217 236 
-1.10285 -0.269378 6.6962 215 220 228 
-1.07957 -0.255672 6.74242 187 209 248 
-0.983378 -0.34056 6.87511 207 218 235 
-0.98585 -0.356637 6.85659 137 172 253 
-0.997078 -0.365715 6.83415 167 197 254 
-0.999543 -0.381829 6.81547 133 168 252 
-1.01723 -0.367831 6.80762 159 191 255 
-0.979495 -0.379785 6.84192 159 191 255 
-0.981895 -0.395906 6.82325 156 188 255 
-0.968456 -0.370591 6.86347 163 194 255 
-0.957456 -0.361459 6.8849 200 215 240 
-1.02817 -0.377013 6.78584 180 205 251 
-1.03016 -0.393343 6.76855 142 177 254 
-1.04108 -0.402599 6.74658 218 220 224 
-1.04299 -0.418993 6.72904 213 219 230 
-1.02302 -0.416809 6.75582 211 219 231 
-1.02485 -0.433196 6.73826 211 219 231 
-1.01224 -0.407468 6.77708 158 190 255 
-1.00145 -0.398165 6.79825 168 198 254 
-0.980183 -0.439329 6.77404 174 201 253 
-0.969764 -0.430104 6.79444 141 176 254 
-0.970378 -0.415645 6.81082 147 181 255 
-0.959984 -0.406474 6.83098 138 173 253 
-0.992063 -0.419653 6.78578 145 179 254 
-1.00279 -0.428957 6.76448 197 214 243 
-1.00219 -0.443466 6.74786 195 213 243 
-0.938069 -0.402656 6.85644 140 174 254 
-0.927531 -0.393533 6.87675 133 168 252 
-0.927529 -0.379121 6.89431 149 183 255 
-0.948917 -0.382854 6.8703 144 178 254 
-0.959903 -0.392002 6.84877 151 184 255 
-1.02224 -0.28263 6.85355 206 217 236 
-1.03349 -0.290724 6.83047 195 213 243 
-1.04058 -0.30803 6.81054 182 206 250 
-1.05189 -0.316175 6.78734 176 203 252 
-1.04334 -0.334593 6.79376 171 199 253 
-1.03192 -0.32588 6.81678 178 204 251 
-1.02492 -0.308549 6.83675 190 211 246 
-1.01356 -0.299893 6.85962 199 215 241 
-1.06755 -0.315598 6.76179 179 205 251 
-1.07911 -0.323305 6.73907 206 217 236 
-1.0862 -0.341163 6.71978 224 219 216 
-1.07731 -0.360479 6.72656 223 220 218 
-1.07031 -0.342584 6.74583 203 216 238 
-1.05894 -0.333983 6.76823 174 201 253 
-1.05676 -0.387217 6.73846 222 220 219 
-1.04574 -0.377922 6.76047 184 208 249 
-1.04132 -0.360371 6.77887 167 197 254 
-1.03026 -0.351193 6.80072 167 197 254 
-1.05915 -0.360697 6.75303 197 214 243 
-1.01243 -0.350846 6.8272 174 201 253 
-1.00113 -0.341711 6.84966 172 200 253 
-0.996327 -0.324739 6.8691 190 211 246 
-1.01409 -0.325496 6.84324 184 208 249 
-1.06156 -0.421528 6.70497 140 174 254 
-1.07126 -0.430619 6.68539 112 147 243 
-1.07155 -0.447208 6.67058 108 142 241 
-1.08118 -0.456258 6.65103 108 142 241 
-1.0624 -0.471314 6.66047 155 187 255 
-1.05301 -0.461823 6.67987 137 172 253 
-1.05277 -0.44522 6.69472 116 151 246 
-1.04334 -0.435668 6.71419 155 187 255 
-1.09812 -0.457322 6.6304 112 147 243 
-1.10623 -0.465251 6.61442 115 150 245 
-1.10426 -0.481317 6.60321 122 157 248 
-1.08472 -0.496953 6.61269 162 193 255 
-1.08672 -0.480888 6.62396 137 172 253 
-1.07928 -0.472311 6.63988 118 153 246 
-1.0488 -0.513132 6.62715 174 201 253 
-1.05337 -0.499194 6.63831 190 211 246 
