ply
format ascii 1.0
comment Author: CloudCompare (TELECOM PARISTECH/EDF R&D)
obj_info Generated by CloudCompare!
element vertex 844
property float x
property float y
property float z
property float nx
property float ny
property float nz
end_header
-1.21314 -0.214168 6.24799 -0.614352 0.749479 -0.246684 
-0.047653 -0.780435 5.01645 -0.25913 0.101847 -0.960458 
-0.665109 -0.195412 6.62627 0.582595 0.548821 -0.599482 
-0.098491 -0.774414 5.02934 -0.233894 0.0477584 -0.971088 
-0.112528 -0.766999 5.03261 -0.182373 0.0388279 -0.982462 
-0.981321 -0.111305 6.71953 -0.810241 0.583203 0.0581784 
-0.965018 -0.098887 6.77859 -0.790988 0.598786 0.125671 
-0.926846 -0.080524 6.86587 -0.622596 0.782092 0.0265827 
-0.936242 -0.087555 6.84946 -0.637467 0.768669 0.0527657 
-0.290254 -0.728995 5.0628 -0.0930399 0.00748597 -0.995634 
-0.372851 -0.706152 5.06586 -0.0419006 -0.127967 -0.990893 
-0.396022 -0.702024 5.06694 -0.0922017 -0.19055 -0.977338 
-0.47126 -0.691079 5.07951 -0.133698 0.464348 -0.875503 
-0.091495 -0.667158 5.37275 0.556473 0.806505 -0.19972 
-0.131726 -0.678665 5.31405 0.191178 0.838472 0.510309 
-0.149148 -0.675187 5.31935 0.334206 0.923651 0.18755 
-0.541654 -0.669031 5.11195 -0.0619114 0.686785 -0.72422 
-1.10698 -0.358807 5.82299 -0.64303 0.435924 -0.629668 
-0.693518 -0.617988 5.19673 -0.313723 0.596877 -0.738455 
-1.11638 -0.341992 5.87724 -0.693374 0.693374 -0.196122 
-1.1196 -0.31846 5.95042 -0.706855 0.706855 -0.0267003 
-0.754258 -0.569292 5.31977 -0.737492 0.557616 -0.381011 
-1.12178 -0.310693 5.97314 -0.597045 0.593662 -0.539539 
-1.15358 -0.293992 6.01324 -0.579627 0.495623 -0.64683 
0.113796 -0.264347 6.86842 -0.832027 0.36786 0.415224 
0.126922 -0.259654 6.88506 -0.64303 0.629668 0.435924 
-1.21623 -0.246467 6.13637 -0.620256 0.720141 -0.310933 
0.941881 -0.668098 5.98219 0.650303 0.0209775 -0.759386 
-1.21759 -0.23466 6.18327 -0.610852 0.757706 -0.229655 
-0.934476 -0.496565 5.47047 0.259238 0.359971 -0.896224 
0.025397 -0.262292 6.81977 -0.049313 0.576258 0.815779 
-0.002058 -0.256685 6.80459 -0.726997 0.367583 0.579964 
0.873191 -0.663598 5.93525 0.178469 -0.375499 -0.909478 
-1.10662 -0.371041 5.77584 -0.534209 0.835708 0.127332 
-0.082814 -0.254103 6.77309 -0.134811 0.4243 0.89543 
0.754534 -0.659297 5.90218 0.347617 0.0374755 -0.936887 
0.721192 -0.657752 5.89691 -0.030878 0.0606912 -0.997679 
-0.123372 -0.252816 6.75746 -0.574601 0.119035 0.809731 
-0.15054 -0.26009 6.73271 -0.747443 -0.188779 0.636938 
0.665478 -0.645978 5.89971 0.0423928 -0.143219 -0.988783 
-0.28803 -0.242711 6.67539 0.599958 0.755092 0.264361 
-0.385024 -0.245855 6.63457 -0.63807 -0.570727 0.516853 
-0.653093 -0.197035 6.63844 0.613974 0.650779 -0.446679 
-0.400794 -0.239786 6.62667 -0.217854 0.0994824 0.970898 
0.404805 -0.623607 5.80716 -0.385701 -0.921175 -0.0516918 
-0.429558 -0.235709 6.61863 -0.198836 0.167646 0.965588 
0.307019 -0.613404 5.78199 0.70066 -0.441033 -0.560861 
-0.497959 -0.245228 6.54742 -0.341302 0.661374 0.667906 
-0.453451 -0.239367 6.59272 -0.907807 0.00914338 0.419289 
0.32288 -0.610513 5.79861 0.568687 -0.4781 -0.66934 
0.280655 -0.618233 5.75086 0.635796 -0.0887496 -0.766738 
-0.609846 -0.242225 6.49612 -0.180317 0.574288 0.798548 
0.256294 -0.619685 5.7342 0.579101 0.0909809 -0.810163 
-1.06643 -0.153272 6.52487 -0.63692 0.722689 0.268427 
0.06044 -0.636302 5.56611 0.846436 0.126747 -0.517186 
-0.090576 -0.650068 5.40388 0.310683 -0.0367747 -0.949802 
-0.991856 -0.117367 6.6853 -0.826964 0.510907 0.234741 
0.028559 -0.646028 5.50782 0.740351 0.107876 -0.663508 
-1.12805 -0.169755 6.43642 -0.584768 0.80091 0.128797 
0.00765 -0.65039 5.48462 0.683379 0.189742 -0.704976 
-1.13891 -0.172331 6.41709 -0.539913 0.815222 0.209541 
-0.671509 -0.225462 6.52153 0.857168 0.456651 -0.238187 
-0.702988 -0.204346 6.5748 0.488465 0.845361 -0.216255 
-0.631466 -0.184716 6.68306 0.693832 0.369059 -0.618379 
-0.687294 -0.200611 6.59975 0.647675 0.395893 -0.650988 
-0.072838 -0.686578 5.30876 0.176465 0.815964 0.550512 
-0.305527 -0.725132 5.06419 0.00309771 -0.0547263 -0.998497 
-0.164456 -0.668679 5.3256 0.450472 0.764983 -0.4603 
0.090956 -0.722902 5.30833 0.120431 0.685415 0.718125 
-0.622016 -0.640741 5.15391 -0.283304 0.638634 -0.715462 
0.016971 -0.705345 5.30591 0.0439715 0.659573 0.750353 
-0.019141 -0.696984 5.30517 0.125447 0.798436 0.588865 
-1.09708 -0.367255 5.79944 -0.664412 0.720167 -0.199788 
1.07753 -0.680327 6.02275 0.343361 -0.211189 -0.915151 
-0.701525 -0.607043 5.21283 0.825329 0.172256 -0.537737 
1.01017 -0.667857 6.01134 -0.33043 -0.466397 -0.820542 
-0.741866 -0.580721 5.28429 -0.684284 0.533708 -0.496901 
0.254837 -0.233432 7.01471 -0.819573 0.49049 0.296175 
-1.12965 -0.330633 5.90374 -0.61793 0.506804 -0.601093 
0.147583 -0.253847 6.90601 -0.678413 0.504203 0.534355 
-0.787308 -0.551692 5.36487 -0.232545 0.398437 -0.887226 
0.14279 -0.244616 6.92469 -0.772557 -0.59985 -0.208174 
0.777031 -0.650058 5.91221 0.382161 -0.00383439 -0.924088 
0.072894 -0.263608 6.81511 -0.113336 0.602005 0.790408 
-0.887547 -0.511967 5.43062 -0.793801 0.43166 -0.428426 
-1.21461 -0.240555 6.1517 -0.611468 0.763173 -0.208983 
-0.016075 -0.26002 6.78642 -0.718795 0.219848 0.659545 
0.553234 -0.633599 5.86453 0.69381 0.540002 -0.476472 
-0.108726 -0.256159 6.76619 -0.390831 0.296545 0.871385 
0.532933 -0.640193 5.82327 0.715443 0.439889 -0.542807 
0.522782 -0.639794 5.8113 0.719032 0.329489 -0.611907 
0.589543 -0.624786 5.90555 -0.267127 -0.272841 -0.92423 
-0.216541 -0.259765 6.65531 -0.467183 0.396055 0.790494 
-0.247101 -0.257957 6.65375 0.198299 0.469656 0.860291 
0.164181 -0.73565 5.28047 0.956594 -0.113849 -0.268265 
-0.486186 -0.683218 5.08911 -0.104879 0.713471 -0.692791 
0.420753 -0.635145 5.77561 -0.481798 -0.858341 -0.176412 
-0.68022 -0.232234 6.49374 0.971281 -0.217376 0.0967512 
0.368698 -0.612238 5.81543 -0.0409473 -0.619857 -0.783646 
-0.473429 -0.245431 6.56055 -0.684846 0.179255 0.706296 
-0.573375 -0.242597 6.50534 -0.250704 0.613358 0.748959 
0.218575 -0.619974 5.69158 0.751859 0.123573 -0.647641 
0.160838 -0.627349 5.63765 0.568569 -0.190539 -0.800265 
0.12763 -0.63037 5.6135 0.560952 -0.293983 -0.773891 
0.114421 -0.627081 5.60461 0.40314 -0.190655 -0.895058 
0.4365 -0.220597 7.15147 -0.524958 0.378685 0.762245 
-0.044428 -0.651422 5.42491 0.540877 -0.182301 -0.821108 
-1.08062 -0.156007 6.49925 -0.646258 0.727627 0.230024 
-0.073301 -0.651955 5.40675 0.266323 -0.339893 -0.901967 
0.265477 -0.231862 7.04251 -0.763819 0.536781 0.358395 
0.191802 -0.231827 6.98965 0.341036 0.880632 0.328911 
0.146738 -0.232991 6.96214 -0.980579 0.10624 0.164855 
-0.699339 -0.203503 6.55858 0.135678 0.972571 0.188935 
-0.656071 -0.183735 6.65536 0.675913 0.484712 -0.555154 
-1.17894 -0.190324 6.34288 -0.601425 0.794688 0.0822092 
-0.647784 -0.177789 6.6695 0.704883 0.404441 -0.582725 
-1.20689 -0.203024 6.28035 -0.705702 0.708475 0.00693224 
-1.19269 -0.19569 6.30591 -0.623246 0.750693 0.219146 
-0.222323 -0.733245 5.05588 -0.074451 0.00104861 -0.997224 
-0.974562 -0.1043 6.74529 -0.756807 0.63644 0.148954 
-0.096919 -0.681702 5.30945 0.195998 0.812861 0.548491 
-0.910486 -0.068192 6.89859 -0.690696 0.719656 -0.070952 
-0.10696 -0.662214 5.35955 0.565508 0.552004 -0.612775 
-0.121745 -0.665486 5.35067 0.375361 0.372246 -0.848845 
-0.101377 -0.658445 5.38076 0.614821 0.771925 -0.161636 
0.076743 -0.710828 5.30368 0.282414 0.725979 0.627054 
-0.515947 -0.666254 5.11315 -0.0125137 0.738307 -0.674348 
0.001357 -0.698765 5.30172 0.110679 0.650794 0.751144 
-0.592633 -0.648637 5.13598 -0.272361 0.699219 -0.660993 
1.09757 -0.675715 6.03083 0.454705 -0.2206 -0.86289 
0.992719 -0.659434 6.01306 -0.113734 -0.311766 -0.943327 
-0.717851 -0.59138 5.25333 -0.436892 0.696037 -0.569787 
0.898075 -0.663044 5.94522 0.609092 -0.0853597 -0.788492 
0.22782 -0.238479 6.98394 0.0445117 0.950007 0.309039 
-1.13039 -0.302316 5.98657 -0.56034 0.503128 -0.657937 
-0.745568 -0.566365 5.30732 -0.766476 0.506102 -0.395443 
-0.751159 -0.558245 5.33087 -0.734085 0.519633 -0.437152 
-1.17102 -0.275846 6.0433 -0.577953 0.503813 -0.641983 
-0.763408 -0.546811 5.35737 -0.55595 0.469135 -0.686172 
-1.19947 -0.256906 6.09303 -0.5046 0.729602 -0.461585 
0.705085 -0.644273 5.89908 -0.073123 -0.0137768 -0.997228 
0.094476 -0.258693 6.83447 -0.682714 0.521681 0.511616 
0.056246 -0.262817 6.81705 0.126643 0.660031 0.740487 
0.013052 -0.254211 6.81297 -0.219571 0.621339 0.752148 
-0.034289 -0.251912 6.77401 -0.125226 0.313738 0.941215 
0.508499 -0.638267 5.79485 0.728382 0.261836 -0.633168 
-0.916314 -0.4884 5.47897 0.0529366 0.438424 -0.897208 
-0.060773 -0.248655 6.77348 0.0169715 0.408622 0.912546 
-0.095726 -0.246381 6.76746 -0.271431 0.41397 0.868881 
0.539606 -0.633697 5.84203 0.675566 0.62271 -0.394769 
0.482305 -0.645008 5.77179 0.500795 -0.170894 -0.848528 
0.441372 -0.637621 5.75961 -0.322169 -0.636243 -0.701001 
0.407292 -0.627551 5.78369 -0.636382 -0.765121 -0.0980174 
-0.308098 -0.233907 6.68332 0.309281 0.754774 0.5785 
-0.356764 -0.231555 6.67299 -0.437167 0.333751 0.835162 
-0.940514 -0.085294 6.82464 -0.53314 0.838207 0.114763 
0.295648 -0.612212 5.76649 0.719117 -0.0441438 -0.693485 
0.26903 -0.610479 5.74273 0.935001 -0.350134 -0.0563886 
-0.648753 -0.234599 6.47886 -0.40906 0.537199 0.737622 
-0.663489 -0.236988 6.47324 -0.497525 0.527678 0.688494 
0.143312 -0.623549 5.62369 0.569258 -0.400956 -0.71776 
0.03639 -0.636447 5.52395 0.83894 0.216941 -0.499116 
0.419912 -0.224991 7.14368 -0.479084 0.345386 0.806962 
0.04702 -0.634643 5.54496 0.878373 0.221451 -0.423581 
0.073383 -0.626825 5.58426 0.634437 -0.0323549 -0.772297 
0.384478 -0.227101 7.11381 -0.674926 0.467257 0.571092 
0.348955 -0.225313 7.08236 -0.505105 0.531955 0.679627 
0.324617 -0.226313 7.0682 -0.4386 0.62538 0.645392 
-0.608197 -0.169208 6.72522 0.944876 0.327408 -0.00373469 
-1.11363 -0.16025 6.44082 -0.564402 0.79816 0.21069 
0.017715 -0.791043 4.99749 -0.451077 0.145555 -0.880536 
-0.013394 -0.779742 5.00785 -0.168754 0.112092 -0.979264 
-0.722997 -0.197769 6.56454 0.473007 0.680261 -0.55992 
-0.61704 -0.173449 6.70636 0.679244 0.376627 -0.629904 
-0.070668 -0.763701 5.02255 -0.228138 0.0920115 -0.969271 
-0.680236 -0.191256 6.61133 0.659839 0.502015 -0.5591 
-1.08874 -0.156288 6.48298 -0.580972 0.762427 0.284915 
-0.955617 -0.092554 6.79964 -0.64844 0.745176 0.155686 
-0.92594 -0.07881 6.83322 -0.509887 0.847852 0.145472 
-0.964783 -0.097845 6.75887 -0.685133 0.72552 0.0649074 
-0.255371 -0.723397 5.05956 -0.0630715 -0.0352773 -0.997385 
-0.310696 -0.707571 5.06249 -0.020906 -0.111132 -0.993586 
-0.410819 -0.69737 5.06767 -0.0778786 0.124373 -0.989175 
-0.426178 -0.694672 5.07116 -0.239237 0.278874 -0.930051 
-0.478761 -0.672853 5.10518 0.00681048 0.832241 -0.554373 
-0.175987 -0.664057 5.312 0.334422 0.931702 0.141751 
0.149348 -0.72507 5.29151 0.424113 0.646981 0.633675 
-0.532854 -0.657345 5.11998 0.0483682 0.501648 -0.863719 
-0.556347 -0.656029 5.1187 0.00916768 0.430881 -0.902362 
-0.668346 -0.613485 5.19309 -0.179489 0.664264 -0.725628 
1.08266 -0.663454 6.02159 0.390867 -0.186058 -0.901446 
-1.11475 -0.329158 5.89096 -0.582595 0.548821 -0.599482 
-1.12603 -0.317771 5.91979 -0.749002 0.66021 -0.0558529 
0.958375 -0.652381 5.99486 0.545109 0.0546511 -0.836582 
0.107741 -0.255612 6.8486 -0.721807 0.556634 0.411282 
-0.794963 -0.536966 5.37498 -0.408693 0.457154 -0.789924 
-0.803669 -0.527411 5.39041 -0.552306 0.592842 -0.586086 
0.82928 -0.651173 5.92429 0.0449098 -0.46679 -0.883227 
-0.831818 -0.519459 5.41413 -0.382149 0.562562 -0.733135 
-1.2063 -0.24647 6.12033 -0.591751 0.73442 -0.332353 
-0.850458 -0.514624 5.42224 0.147261 0.225453 -0.96306 
-0.867627 -0.513121 5.41638 0.117794 0.247238 -0.961768 
-0.897187 -0.491959 5.46964 -0.624964 0.454062 -0.635017 
0.63924 -0.631588 5.89749 -0.0378773 -0.148066 -0.988252 
-0.134972 -0.250868 6.74665 -0.636857 0.061539 0.768522 
0.568604 -0.617682 5.90066 0.550024 0.134188 -0.824298 
-0.169669 -0.249617 6.71078 -0.723389 -0.159237 0.671827 
0.548576 -0.62083 5.87403 0.633161 0.602931 -0.485368 
-0.231455 -0.256154 6.64921 0.141951 0.50195 0.853168 
-0.269637 -0.248424 6.65774 0.445675 0.727329 0.521887 
0.154429 -0.737088 5.2606 0.984316 0.00341381 -0.17638 
-0.447784 -0.68707 5.0791 -0.104888 0.698761 -0.707624 
-0.498876 -0.67232 5.10431 0.0491378 0.826919 -0.560171 
0.233698 -0.609235 5.71777 0.709922 0.272802 -0.6493 
0.051989 -0.625791 5.55821 0.804214 0.209861 -0.556056 
-0.016198 -0.643162 5.46116 0.744836 0.316917 -0.587182 
0.360954 -0.227828 7.09379 -0.555785 0.542271 0.630115 
-0.731686 -0.196771 6.5462 0.338266 0.939047 0.0613841 
0.151749 -0.220517 6.9697 -0.815686 0.286508 0.502563 
0.042094 -0.796009 4.98562 -0.277232 0.229385 -0.933019 
-0.685758 -0.208024 6.53935 0.470668 0.84842 0.242188 
-0.995762 -0.116749 6.66455 -0.844306 0.531391 0.0690668 
-1.14805 -0.174589 6.38237 -0.512172 0.858197 0.0343279 
-1.16223 -0.181126 6.35911 -0.562813 0.821908 0.0878045 
-0.095122 -0.756848 5.02971 -0.231035 0.0946865 -0.968327 
-0.698766 -0.188474 6.59412 0.606755 0.417248 -0.676574 
-0.716179 -0.187171 6.57733 0.648167 0.467283 -0.601271 
-0.173875 -0.744099 5.04848 -0.220604 0.132878 -0.96627 
-1.20384 -0.202646 6.25771 -0.607443 0.760474 -0.229548 
-0.05859 -0.685315 5.29984 0.148957 0.903675 0.401476 
-0.114643 -0.673866 5.30296 0.13761 0.812341 0.566715 
-0.333915 -0.710813 5.06338 0.0230661 -0.106544 -0.99404 
-0.907586 -0.066683 6.88354 -0.612911 0.790005 -0.015219 
-0.460851 -0.678825 5.09107 -0.0943124 0.87978 -0.465932 
-0.14661 -0.652463 5.34193 0.467878 0.319795 -0.823906 
0.157486 -0.738382 5.23826 0.728369 0.489451 0.479496 
-0.891932 -0.057072 6.91443 -0.097728 0.909834 0.4033 
-0.162264 -0.666442 5.3048 0.21691 0.866143 0.450274 
0.124945 -0.719084 5.29475 0.271969 0.797041 0.539221 
-0.186965 -0.657377 5.3206 0.307332 0.457097 -0.834631 
0.091822 -0.710876 5.29756 0.191264 0.775767 0.601334 
0.061151 -0.703737 5.3022 0.276127 0.719846 0.636848 
-1.09221 -0.363536 5.78301 -0.513371 0.846843 0.138947 
-0.573385 -0.648158 5.12801 -0.210191 0.686624 -0.695965 
-1.09222 -0.356292 5.81022 -0.696081 0.492431 -0.522478 
-1.1055 -0.34393 5.83398 -0.698851 0.525389 -0.485359 
-1.10933 -0.336122 5.86316 -0.688092 0.722713 -0.0649144 
1.06424 -0.665679 6.01611 0.231674 -0.186143 -0.954818 
-0.636838 -0.621598 5.1745 -0.140017 0.69105 -0.709116 
-0.652628 -0.61491 5.18687 -0.230324 0.706641 -0.669037 
-0.676523 -0.602736 5.20326 -0.209171 0.618217 -0.757664 
-1.159 -0.282747 6.02731 -0.586053 0.521874 -0.619831 
-0.726593 -0.57772 5.27329 -0.412821 0.674771 -0.61177 
0.923728 -0.657579 5.96611 0.653824 0.233621 -0.719677 
-1.18583 -0.260169 6.07313 -0.501456 0.669166 -0.548415 
0.210239 -0.234667 6.97857 0.226121 0.933979 0.276682 
-0.816615 -0.523564 5.40329 -0.445601 0.491641 -0.74815 
0.123746 -0.250893 6.87183 -0.651457 0.570656 0.499955 
0.736071 -0.645408 5.89802 0.118544 0.00326268 -0.992943 
-0.887742 -0.495097 5.44736 -0.844502 0.404299 -0.351225 
-0.939649 -0.479803 5.47599 0.188699 0.42567 -0.884984 
0.617512 -0.620015 5.89583 -0.143048 -0.178494 -0.973487 
-0.95566 -0.475904 5.48047 -0.20673 0.561999 -0.800887 
-0.977741 -0.473782 5.48038 0.32072 0.38824 -0.863949 
0.539718 -0.622153 5.86038 0.665456 0.60875 -0.431963 
-0.158738 -0.247356 6.725 -0.777218 0.082498 0.6238 
-0.191862 -0.248846 6.693 -0.662262 -0.203176 0.721199 
0.200581 -0.616247 5.67354 0.709022 0.0829861 -0.700287 
0.185224 -0.621223 5.65649 0.723518 0.0296177 -0.689669 
0.39499 -0.617529 5.79453 -0.711093 -0.699507 -0.0709645 
0.385806 -0.6115 5.80769 -0.391199 -0.837385 -0.381772 
-0.340869 -0.226325 6.67761 -0.273591 0.580392 0.767003 
0.344085 -0.604966 5.80602 0.278732 -0.622767 -0.731074 
-0.385789 -0.229775 6.64776 -0.82118 -0.24589 0.514977 
-0.441747 -0.219437 6.6088 -0.752202 0.0890957 0.652882 
-0.46356 -0.236141 6.57278 -0.852802 0.192665 0.485395 
-0.542934 -0.241902 6.51757 -0.29691 0.733447 0.611474 
-0.629515 -0.631681 5.16466 -0.172442 0.639407 -0.749281 
-0.706888 -0.591036 5.24175 -0.579607 0.679828 -0.449321 
0.244746 -0.6069 5.72828 0.574397 0.121931 -0.809445 
-0.587419 -0.236236 6.49675 -0.124968 0.560152 0.81891 
0.099177 -0.617701 5.59656 0.4224 -0.172734 -0.889798 
0.060633 -0.619867 5.57105 0.77104 0.067484 -0.633201 
-0.02421 -0.644752 5.44695 0.806928 0.284706 -0.517504 
0.279766 -0.218615 7.04543 -0.457506 0.648552 0.608332 
-0.981818 -0.107617 6.69493 -0.762033 0.625141 0.168834 
-1.0297 -0.135531 6.58127 -0.788731 0.534814 0.303114 
-0.6802 -0.20532 6.52255 0.8139 0.575616 0.0789498 
-1.04933 -0.144045 6.54208 -0.687161 0.684002 0.24485 
-0.715444 -0.200101 6.54742 -0.050468 0.885236 0.462396 
-1.00257 -0.121025 6.64119 -0.808021 0.550435 0.210055 
0.016532 -0.637466 5.4959 0.735107 0.101648 -0.670288 
-0.68308 -0.176894 6.6269 0.652123 0.551018 -0.520687 
-0.032077 -0.775269 5.01196 -0.277611 0.0865114 -0.95679 
-0.154843 -0.740634 5.04451 -0.200072 0.176534 -0.963746 
-0.198122 -0.729776 5.05435 -0.131506 0.0935943 -0.986887 
-0.91632 -0.07237 6.85584 -0.542351 0.839188 0.0402256 
-0.13348 -0.668036 5.29876 0.134654 0.867287 0.479252 
-0.353721 -0.696012 5.06409 -0.0982355 0.0364244 -0.994496 
-0.463221 -0.668221 5.11148 -0.0527237 0.759507 -0.648359 
-0.119788 -0.651718 5.36316 0.467753 0.830691 -0.301927 
-0.106105 -0.643187 5.39587 0.433142 0.366505 -0.823445 
-0.123714 -0.644425 5.39017 0.165178 0.625859 -0.762245 
-0.204078 -0.655112 5.30694 0.463449 0.884518 -0.0533172 
0.250582 -0.227676 6.99476 -0.804239 0.547994 0.230003 
-0.517406 -0.653739 5.12312 0.0149911 0.541041 -0.840863 
-1.10736 -0.30277 5.96074 -0.699499 0.65468 -0.286523 
-1.10891 -0.307792 5.94233 -0.632167 0.773591 0.0438415 
0.146388 -0.2427 6.89217 -0.880632 0.341036 0.328911 
-1.13207 -0.290554 5.99758 -0.547698 0.524105 -0.652182 
-0.587805 -0.635906 5.14772 -0.226699 0.720746 -0.655082 
0.137504 -0.233925 6.91263 -0.808053 -0.555441 -0.196307 
-1.17348 -0.262555 6.05947 -0.47278 0.69664 -0.539604 
0.140701 -0.22397 6.94676 -0.920802 -0.212712 0.32692 
-0.699085 -0.592631 5.22835 -0.577771 0.671554 -0.463892 
-1.20351 -0.216158 6.2017 -0.635799 0.751676 -0.17534 
-1.20123 -0.236908 6.13266 -0.595792 0.734648 -0.324537 
1.02714 -0.66486 6.00531 -0.0112041 -0.312471 -0.949861 
-1.09835 -0.365619 5.7608 -0.636913 0.749938 -0.178702 
0.972789 -0.649651 6.0044 0.422714 -0.140905 -0.895242 
-0.73731 -0.566622 5.29336 -0.626887 0.559298 -0.542401 
0.93461 -0.653341 5.97837 0.660343 0.233708 -0.713672 
-0.774659 -0.538969 5.36722 -0.294287 0.426793 -0.855127 
-0.107418 -0.236995 6.75815 -0.32968 0.432802 0.839043 
0.806128 -0.647201 5.9197 0.0987756 -0.424318 -0.90011 
0.688869 -0.634425 5.89842 -0.172511 -0.0991021 -0.98001 
0.52822 -0.61818 5.84766 0.650271 0.630314 -0.42409 
-0.368718 -0.221297 6.66151 -0.458334 0.35049 0.816754 
0.555682 -0.613 5.89086 0.663018 0.388552 -0.639871 
-0.509387 -0.238967 6.53166 -0.412948 0.69488 0.588741 
0.425783 -0.628777 5.75877 -0.320573 -0.742634 -0.587986 
-0.677735 -0.227326 6.47343 0.863073 -0.472248 0.179128 
-0.682552 -0.216477 6.50549 0.911524 0.156867 -0.380155 
-0.060079 -0.644262 5.41453 0.54274 -0.156131 -0.825262 
0.00433 -0.635213 5.48596 0.675591 0.166229 -0.718292 
0.409335 -0.215753 7.13222 -0.546115 0.446519 0.708787 
0.264194 -0.22384 7.02693 -0.775551 0.534696 0.33559 
0.178896 -0.22395 6.98454 0.340686 0.850937 0.3998 
-0.734712 -0.187347 6.56149 0.634732 0.463907 -0.617985 
-0.698952 -0.200275 6.53497 0.431721 0.893167 0.125978 
-0.746003 -0.193317 6.53828 0.38581 0.896312 -0.218577 
-0.181863 -0.731038 5.05189 -0.167299 0.147172 -0.97486 
-1.03708 -0.134377 6.55563 -0.783999 0.56404 0.259238 
-0.237264 -0.720944 5.05826 -0.0280639 -0.0384579 -0.998866 
-0.043752 -0.68314 5.292 0.136883 0.877493 0.459639 
-0.095057 -0.674477 5.29465 0.194903 0.929645 0.312686 
-1.1801 -0.187838 6.31275 -0.564371 0.816506 0.12167 
-1.10213 -0.159038 6.46009 -0.506639 0.814073 0.283906 
-0.275695 -0.715864 5.06053 -0.0738673 -0.0584323 -0.995555 
-1.16794 -0.181732 6.33083 -0.592964 0.800717 0.0851213 
-1.19808 -0.207377 6.22657 -0.613976 0.773881 -0.15538 
-0.43004 -0.679301 5.08682 0.0309825 0.887715 -0.459349 
-1.1932 -0.190913 6.28827 -0.641801 0.757414 0.12006 
-0.945874 -0.08463 6.78456 -0.467916 0.883544 0.020111 
-0.934797 -0.080128 6.80044 -0.47335 0.879859 0.0422878 
-0.971026 -0.099213 6.72406 -0.676454 0.735768 0.0324811 
-0.13508 -0.642766 5.37856 0.493883 0.864649 0.091984 
-0.177461 -0.646291 5.32741 0.505061 0.234876 -0.83051 
0.111445 -0.711634 5.29079 0.206529 0.725181 0.656855 
-0.138652 -0.637622 5.39444 -0.104673 0.703222 -0.703222 
-0.482939 -0.660928 5.11766 0.0266322 0.654592 -0.755513 
-0.501603 -0.65651 5.1209 0.00411708 0.6107 -0.791851 
0.046306 -0.695069 5.29679 0.152818 0.739881 0.655151 
0.028994 -0.696447 5.29941 0.0237034 0.626049 0.779424 
-0.022796 -0.685696 5.29377 0.0559623 0.701681 0.71029 
-0.606781 -0.631509 5.15817 -0.203349 0.68766 -0.696974 
1.03845 -0.654229 6.0042 0.273794 -0.248258 -0.929196 
-0.710409 -0.575571 5.26573 -0.411511 0.705683 -0.576776 
-1.11558 -0.315364 5.90565 -0.562034 0.662697 -0.494925 
0.753933 -0.640101 5.90224 0.400735 -0.0275916 -0.915778 
-1.14545 -0.27895 6.01791 -0.539416 0.579999 -0.610436 
-0.92751 -0.470908 5.4844 0.269366 0.427637 -0.862884 
0.221328 -0.232546 6.96653 -0.0226076 0.894995 0.445503 
0.672909 -0.628153 5.8986 0.189816 -0.121934 -0.974219 
0.195308 -0.226173 6.96748 0.381577 0.879286 0.285052 
0.645215 -0.616354 5.89378 -0.00343743 -0.189059 -0.98196 
-1.20196 -0.222269 6.17529 -0.605068 0.755943 -0.249885 
0.490876 -0.629624 5.77891 0.680257 0.220497 -0.699022 
0.086751 -0.253693 6.81561 -0.645392 0.4386 0.62538 
0.049066 -0.251475 6.8064 0.0707146 0.665294 0.743225 
0.033366 -0.248439 6.80639 0.149755 0.679191 0.718521 
0.008941 -0.242565 6.80181 -0.264361 0.599958 0.755092 
0.466974 -0.628491 5.7608 0.478628 -0.189364 -0.857355 
0.407229 -0.62125 5.76735 -0.632121 -0.684661 -0.362854 
-0.138237 -0.233432 6.74142 -0.45574 0.279624 0.845051 
0.365436 -0.603374 5.80157 -0.242698 -0.866779 -0.435651 
-0.179787 -0.240657 6.70325 -0.683033 -0.213156 0.698592 
-0.287269 -0.236603 6.65786 0.565135 0.67246 0.477933 
-0.321467 -0.226907 6.67985 0.104154 0.781889 0.614656 
-0.411989 -0.227031 6.62099 -0.243178 -0.404302 0.881706 
-0.39626 -0.225237 6.63219 -0.790252 -0.32089 0.522045 
-0.481325 -0.236412 6.55049 -0.593076 0.32805 0.735285 
-0.555659 -0.232666 6.5028 -0.322507 0.669324 0.669324 
-0.446778 -0.67395 5.0994 -0.0505259 0.883521 -0.465658 
0.449025 -0.211057 7.15567 -0.5797 0.385919 0.717645 
0.0073 -0.777466 5.00274 -0.280439 0.146258 -0.948663 
-0.047822 -0.764539 5.01813 -0.221526 0.176425 -0.959062 
-0.634969 -0.163892 6.69241 0.738612 0.406319 -0.53792 
-1.0205 -0.128317 6.59372 -0.790752 0.519181 0.324288 
-0.080304 -0.750822 5.02732 -0.185125 0.174768 -0.96705 
-0.115415 -0.745471 5.03462 -0.161943 0.14939 -0.975427 
-0.673351 -0.173023 6.64224 0.684708 0.448142 -0.574755 
-0.138535 -0.739004 5.04209 -0.275522 0.200757 -0.940098 
-0.068034 -0.677825 5.28991 0.268728 0.881247 0.38883 
-1.12025 -0.160277 6.42156 -0.623876 0.753914 0.205894 
-1.13727 -0.165518 6.37365 -0.609947 0.788749 0.0764236 
-0.382653 -0.691819 5.06845 0.0203551 0.511593 -0.858987 
-0.404937 -0.680191 5.08523 -0.055863 0.941877 -0.331281 
-0.40436 -0.673829 5.10573 0.0330893 0.911941 -0.408984 
-0.949297 -0.086699 6.76962 -0.538789 0.841944 0.0289375 
-0.449092 -0.663111 5.11587 0.0498556 0.744985 -0.665216 
-0.149413 -0.663355 5.29495 0.177164 0.877034 0.44657 
-0.181693 -0.657627 5.29916 0.191178 0.838472 0.510309 
0.138957 -0.713189 5.28243 0.193147 0.696875 0.690695 
-0.162655 -0.64775 5.33516 0.408974 0.281264 -0.868119 
-0.543067 -0.643868 5.12636 0.0206458 0.557437 -0.829962 
-0.560349 -0.638206 5.13289 -0.202759 0.663998 -0.719719 
1.10308 -0.661176 6.02954 0.505801 -0.187612 -0.842002 
-0.60322 -0.618525 5.1698 -0.192494 0.657559 -0.728397 
-0.618366 -0.615556 5.17616 -0.219966 0.638058 -0.7379 
-0.636257 -0.609045 5.18742 -0.216247 0.648741 -0.729639 
-1.07971 -0.352918 5.79149 -0.66185 0.6939 -0.28365 
-0.6567 -0.602505 5.19897 -0.18207 0.619649 -0.763469 
-1.10487 -0.335599 5.84693 -0.655082 0.720746 -0.226699 
-1.09889 -0.325568 5.87102 -0.658616 0.723702 -0.206108 
0.909698 -0.649745 5.95531 0.720857 0.0125488 -0.692971 
-0.686288 -0.590971 5.21777 -0.481119 0.578349 -0.658815 
-1.11352 -0.307585 5.92154 -0.577644 0.815415 -0.0377636 
0.848408 -0.650285 5.9231 0.139709 -0.459456 -0.877144 
-1.10859 -0.294546 5.97392 -0.644111 0.573477 -0.506207 
0.787495 -0.634588 5.91353 0.234192 -0.265043 -0.935364 
0.720878 -0.634281 5.898 -0.0984434 0.0387137 -0.994389 
-1.18173 -0.248305 6.08829 -0.470124 0.740651 -0.480021 
0.136454 -0.239627 6.87792 -0.711758 0.346921 0.610776 
-0.860873 -0.499557 5.42151 -0.0418033 0.305291 -0.951341 
-0.87402 -0.495315 5.42952 -0.499307 0.469448 -0.728225 
0.136206 -0.225802 6.92954 -0.951284 -0.225981 0.209743 
-0.890551 -0.478431 5.47324 -0.66767 0.529764 -0.523036 
-1.19845 -0.226331 6.15244 -0.596822 0.775715 -0.205109 
-0.902852 -0.476821 5.48399 -0.33082 0.519403 -0.787895 
0.512724 -0.619434 5.82135 0.658221 0.631693 -0.409523 
0.592724 -0.607495 5.89941 -0.260299 -0.249043 -0.932857 
-0.079793 -0.233833 6.76266 -0.121015 0.451315 0.884121 
0.174049 -0.612018 5.64546 0.676037 0.00138249 -0.736866 
-0.200233 -0.246075 6.67856 -0.947654 0.0239116 0.318402 
-0.207753 -0.24718 6.65889 -0.823352 0.153355 0.54642 
0.312675 -0.598876 5.77884 0.64364 -0.216625 -0.734031 
-0.245638 -0.244795 6.64553 0.182032 0.466179 0.865761 
0.28135 -0.598873 5.75464 0.700318 0.152769 -0.697293 
0.210419 -0.603636 5.6872 0.762427 0.284915 -0.580972 
0.154565 -0.614785 5.63056 0.655785 -0.0738301 -0.751329 
-0.450087 -0.22281 6.59586 -0.887134 0.214034 0.408879 
-0.455398 -0.215015 6.5784 -0.91662 0.180482 0.3567 
-0.616802 -0.227109 6.48562 -0.258231 0.555587 0.790342 
-0.681874 -0.217122 6.48578 0.715958 0.353902 0.601796 
0.158489 -0.721336 5.27144 0.808647 0.267464 -0.523978 
-1.13595 -0.166532 6.39739 -0.584944 0.805568 0.0943458 
-0.42391 -0.670863 5.10692 0.117468 0.890207 -0.44015 
-0.130637 -0.651269 5.35116 0.494925 0.562034 -0.662697 
0.293809 -0.219934 7.05202 -0.0641714 0.600359 0.797152 
-0.617117 -0.156803 6.71745 0.662182 0.484483 -0.571656 
-0.758455 -0.186317 6.5323 0.62271 0.675566 -0.394769 
-0.662042 -0.169266 6.65817 0.697487 0.37254 -0.612148 
-0.692597 -0.178804 6.61205 0.630108 0.603223 -0.488964 
-1.07561 -0.145753 6.48657 -0.679518 0.679518 0.276604 
-1.06653 -0.146282 6.50697 -0.657861 0.686955 0.308726 
-1.00885 -0.119752 6.61564 -0.828983 0.52285 0.198532 
-0.290918 -0.705523 5.06089 -0.0619151 -0.0136423 -0.997988 
-0.325824 -0.697787 5.06183 -0.0510743 0.0662879 -0.996493 
-0.39013 -0.681233 5.08038 -0.109835 0.871546 -0.477853 
-0.389315 -0.675177 5.10202 -0.0258201 0.96272 -0.269266 
-1.18983 -0.198076 6.24003 -0.528553 0.825391 -0.198397 
-1.19133 -0.193644 6.25896 -0.505585 0.836568 -0.21104 
-0.910532 -0.067622 6.83734 -0.535135 0.844446 -0.0232667 
-0.924411 -0.074208 6.81261 -0.495115 0.867486 0.0482703 
-0.221119 -0.645781 5.30054 0.377759 0.925575 -0.0246647 
-0.202591 -0.638773 5.31717 0.571384 0.128451 -0.810568 
-0.896479 -0.06009 6.86802 -0.522664 0.849506 -0.0718487 
-0.154571 -0.630612 5.39269 0.725661 0.633564 -0.268352 
-0.48351 -0.645661 5.12867 -0.0684361 0.493019 -0.867323 
0.014323 -0.685358 5.29277 0.070437 0.613808 0.786307 
-0.878181 -0.053613 6.90617 -0.0946865 0.968327 0.231035 
1.05557 -0.65141 6.01143 0.271607 -0.145838 -0.951294 
0.920852 -0.639422 5.97042 0.681189 0.159298 -0.714566 
-0.698305 -0.577118 5.25239 -0.60486 0.681088 -0.41263 
-0.719168 -0.564987 5.28179 -0.387587 0.598698 -0.700955 
0.877824 -0.646353 5.93057 0.358449 -0.269208 -0.893891 
-0.735397 -0.553468 5.30919 -0.578598 0.710472 -0.400568 
-0.736234 -0.546217 5.32451 -0.717837 0.545424 -0.432692 
-0.683465 -0.224842 6.44998 -0.118321 0.981945 0.147597 
-0.801822 -0.511748 5.40442 -0.358685 0.663322 -0.656771 
0.237912 -0.229869 6.97159 -0.484713 0.750895 0.448565 
-0.830386 -0.505807 5.42444 -0.287128 0.566325 -0.77255 
-1.1532 -0.264168 6.04108 -0.573879 0.567107 -0.590807 
0.121589 -0.240439 6.85237 -0.728375 0.577789 0.368279 
-0.949503 -0.462383 5.48903 -0.174468 0.599259 -0.781313 
-0.972569 -0.456958 5.48914 0.366816 0.565712 -0.738523 
0.109172 -0.244341 6.83618 -0.690358 0.503143 0.519858 
0.538776 -0.603447 5.87847 0.687433 0.183008 -0.702812 
0.530342 -0.610115 5.86304 0.639353 0.612503 -0.464831 
-0.003405 -0.239296 6.79121 -0.635428 0.344667 0.690967 
-0.155655 -0.230284 6.7272 -0.667044 -0.0861173 0.740025 
0.379316 -0.60457 5.79126 -0.603249 -0.769876 -0.208283 
0.330601 -0.596931 5.79381 0.38258 -0.366964 -0.847921 
-0.336631 -0.214162 6.66661 0.00694566 0.712624 0.701511 
0.134056 -0.613375 5.61341 0.559237 -0.078665 -0.825267 
0.034138 -0.621054 5.52623 0.840181 0.207396 -0.501081 
-0.408871 -0.216757 6.63491 -0.311334 -0.611377 0.727522 
0.075206 -0.61069 5.58214 0.501321 -0.276429 -0.819917 
-0.427464 -0.217552 6.62253 -0.551335 -0.36593 0.74975 
-0.528336 -0.234028 6.51552 -0.354642 0.694575 0.625935 
0.024019 -0.626819 5.50962 0.802483 0.203296 -0.560974 
-0.636436 -0.223736 6.47827 -0.25224 0.506028 0.82481 
-0.665013 -0.221571 6.46296 0.129388 0.611248 0.780791 
-1.18999 -0.242614 6.10591 -0.503471 0.741175 -0.444045 
0.382626 -0.213668 7.10109 -0.597448 0.503202 0.624375 
0.364791 -0.212011 7.08341 -0.540454 0.540454 0.644841 
0.33704 -0.214894 7.06459 -0.527643 0.574844 0.625417 
0.314832 -0.217818 7.05181 -0.258084 0.650751 0.714084 
0.048093 -0.781723 4.98756 -0.108531 0.325592 -0.939261 
0.029014 -0.775856 4.99394 -0.323762 0.234547 -0.916606 
-0.034202 -0.757011 5.01547 -0.256765 0.226231 -0.939623 
-0.722709 -0.191318 6.53268 0.0202833 0.869476 0.493559 
-0.757897 -0.186947 6.51547 -0.0225255 0.899696 0.435935 
-0.748952 -0.18018 6.5516 0.67072 0.453279 -0.587089 
-0.641552 -0.149859 6.69353 0.75621 0.387088 -0.52755 
-0.982039 -0.103266 6.67894 -0.715937 0.689257 0.11117 
-0.70592 -0.170397 6.60544 0.634408 0.583924 -0.506517 
-0.209827 -0.71705 5.05736 -0.0628773 0.16965 -0.983496 
-1.05496 -0.139051 6.52081 -0.734756 0.599108 0.318125 
-1.16624 -0.177361 6.3105 -0.581013 0.789503 0.197759 
-0.367668 -0.685973 5.0696 -0.134758 0.579014 -0.804104 
-0.420946 -0.66229 5.1195 0.0797826 0.639712 -0.764463 
-0.144351 -0.636942 5.3656 0.498307 0.849354 -0.174036 
0.157458 -0.731925 5.21969 0.375152 0.719178 0.584844 
0.153045 -0.723502 5.23932 0.996258 -0.0621979 0.0600155 
-0.199915 -0.649576 5.28832 0.175785 0.887644 0.425662 
-0.951985 -0.086173 6.74411 -0.520596 0.849692 0.0836925 
-0.465761 -0.652981 5.12341 0.0370705 0.512122 -0.858113 
0.060911 -0.693546 5.2877 0.166629 0.856739 0.488091 
-0.56414 -0.62934 5.14568 -0.0179175 0.820071 -0.571982 
1.02013 -0.649818 6.00124 -0.186778 -0.321595 -0.928273 
0.996403 -0.644763 6.00547 -0.147465 -0.573474 -0.805842 
-1.08038 -0.353712 5.77055 -0.513864 0.850682 0.110833 
0.893678 -0.639701 5.93965 0.652019 0.0827731 -0.753671 
-1.09604 -0.317047 5.88634 -0.609756 0.689074 -0.391632 
-0.744574 -0.540189 5.34223 -0.664623 0.52665 -0.530015 
0.943631 -0.6374 5.98654 0.510938 -0.148717 -0.846655 
0.820157 -0.637351 5.91469 0.0516042 -0.534173 -0.843799 
0.771653 -0.632419 5.9089 0.229587 -0.235086 -0.94447 
-1.11698 -0.281378 5.99289 -0.583779 0.489567 -0.647709 
0.697053 -0.621526 5.89635 0.0352878 -0.142289 -0.989196 
-1.15683 -0.255187 6.05309 -0.554918 0.625759 -0.548171 
0.611689 -0.605698 5.8937 -0.116723 -0.268857 -0.956081 
0.509954 -0.609041 5.83603 0.634284 0.664094 -0.395807 
0.497897 -0.621847 5.79369 0.706293 0.54343 -0.453689 
-1.18737 -0.226612 6.13524 -0.456343 0.836368 -0.303709 
0.067928 -0.247577 6.80464 -0.0801515 0.490752 0.867605 
-1.08737 -0.359407 5.74634 -0.582197 0.79197 -0.183932 
0.446648 -0.620963 5.7484 0.227031 -0.41103 -0.882899 
0.403971 -0.612826 5.75307 -0.45856 -0.796447 -0.394201 
0.393368 -0.609005 5.77169 -0.634637 -0.729596 -0.254805 
-0.061627 -0.233705 6.76626 -0.0903018 0.35986 0.928626 
0.348049 -0.593472 5.79543 -0.00969977 -0.655427 -0.755196 
0.298226 -0.596691 5.76988 0.527929 0.0287961 -0.8488 
-0.172622 -0.230837 6.71525 -0.504676 -0.265537 0.821457 
0.263667 -0.595364 5.74069 0.494085 0.0802359 -0.865704 
-0.223753 -0.239079 6.64486 -0.242715 -0.193901 0.950522 
-0.312254 -0.218996 6.65973 0.426414 0.769506 0.475427 
-0.387636 -0.213305 6.65033 -0.510228 -0.0483956 0.858676 
-0.081132 -0.638143 5.40038 0.287896 -0.34458 -0.893521 
-0.486274 -0.226302 6.5389 -0.547723 0.544352 0.635358 
-0.506514 -0.227032 6.52188 -0.421099 0.614172 0.667434 
-0.598876 -0.225598 6.48732 -0.094704 0.619218 0.779487 
-0.008129 -0.622106 5.47727 0.65336 0.142688 -0.743479 
0.144147 -0.209089 6.95682 -0.799405 0.0437064 0.599201 
-0.689287 -0.195298 6.51491 0.310657 0.838307 0.448034 
-0.630857 -0.152867 6.70627 0.689074 0.391632 -0.609756 
0.005371 -0.760504 5.00661 -0.326696 0.168214 -0.93004 
-0.650801 -0.152883 6.67899 0.70086 0.366023 -0.612227 
-0.709246 -0.195297 6.52378 0.393482 0.918997 0.0248377 
-0.715941 -0.169616 6.59295 0.667406 0.546365 -0.506018 
-0.114068 -0.728102 5.03756 -0.150349 0.259451 -0.953981 
-0.967907 -0.094633 6.70369 -0.60734 0.786749 0.110292 
-1.02598 -0.123505 6.57148 -0.799785 0.56338 0.207238 
-1.0149 -0.113863 6.58546 -0.786114 0.534175 0.310938 
-0.08852 -0.668207 5.27307 0.0961616 0.893327 0.438998 
-0.105136 -0.666276 5.27726 0.245659 0.927255 0.282578 
-0.124103 -0.661416 5.27476 0.189327 0.954691 0.229609 
-1.04339 -0.130043 6.53333 -0.793348 0.509211 0.333621 
-0.275089 -0.696425 5.06192 0.0315191 0.00915071 -0.999461 
-1.1739 -0.178144 6.29598 -0.610945 0.752294 0.246577 
-1.09913 -0.148044 6.4399 -0.653159 0.71037 0.262217 
-0.358053 -0.673833 5.10886 -0.00124198 0.945148 -0.326641 
-0.370663 -0.667194 5.11909 0.0799139 0.719225 -0.690166 
-1.14982 -0.170414 6.3517 -0.562392 0.822838 0.0815683 
-0.397537 -0.666288 5.11743 0.0125488 0.720857 -0.692971 
-0.117223 -0.628572 5.39487 -0.135942 -0.510149 -0.849275 
-1.0869 -0.148879 6.46859 -0.65559 0.691027 0.304439 
-0.173007 -0.652251 5.2858 0.240319 0.894931 0.375959 
-0.931822 -0.077641 6.78101 -0.463598 0.880695 0.0972287 
0.120658 -0.704161 5.28091 0.315325 0.776308 0.545817 
-0.882522 -0.049701 6.89088 -0.291912 0.95166 0.0955587 
0.076815 -0.697375 5.28766 0.240302 0.749175 0.617245 
0.034695 -0.685269 5.28718 0.288837 0.793906 0.535058 
-0.004789 -0.681923 5.29027 0.0497567 0.643994 0.76341 
-0.507811 -0.642395 5.12909 0.0641386 0.432594 -0.899305 
1.11581 -0.652757 6.0356 0.411124 -0.168777 -0.895819 
1.08787 -0.648263 6.02065 0.395512 -0.151684 -0.905849 
-0.577172 -0.624107 5.15664 -0.237116 0.717629 -0.654817 
-0.587571 -0.616672 5.16722 -0.179643 0.68633 -0.704755 
-1.08493 -0.334749 5.81615 -0.693106 0.408585 -0.593854 
-1.09343 -0.330666 5.83169 -0.708891 0.617632 -0.340594 
-0.688801 -0.579681 5.23315 -0.594486 0.634904 -0.49344 
0.862394 -0.640716 5.92239 0.34672 -0.325523 -0.87967 
-0.701506 -0.56466 5.27305 -0.383372 0.695992 -0.607142 
-0.697555 -0.216952 6.44815 0.874107 0.474596 0.103419 
-1.09756 -0.296065 5.92986 -0.668729 0.743494 -0.0041536 
-1.12598 -0.276777 6.00458 -0.51673 0.567225 -0.641284 
-0.788595 -0.518088 5.38593 -0.511355 0.595738 -0.619365 
-1.1365 -0.266328 6.02273 -0.538861 0.559132 -0.630079 
-0.809466 -0.503956 5.41545 -0.322453 0.682174 -0.656249 
0.223894 -0.224727 6.95282 -0.0369387 0.868743 0.493884 
-0.825245 -0.492164 5.43113 -0.0650317 0.367628 -0.927696 
-1.16775 -0.248149 6.07317 -0.534661 0.675449 -0.507844 
0.177668 -0.214842 6.9666 0.562099 0.744577 0.360069 
0.138125 -0.230146 6.89641 -0.765798 -0.619642 -0.172038 
-0.881061 -0.480069 5.45123 -0.811603 0.471714 -0.344653 
-0.899898 -0.463611 5.49211 -0.325771 0.550441 -0.768692 
0.500003 -0.609917 5.81628 0.658846 0.658846 -0.363104 
-1.18695 -0.216585 6.16131 -0.522133 0.816511 -0.246348 
-1.1893 -0.209515 6.18945 -0.481787 0.842745 -0.240129 
-1.18642 -0.204246 6.20616 -0.499636 0.835783 -0.227663 
0.576917 -0.602543 5.89946 -0.00620043 -0.316222 -0.948665 
0.557623 -0.598006 5.89394 0.48209 -0.147103 -0.863684 
0.51695 -0.598343 5.85819 0.681886 0.480838 -0.551205 
0.040686 -0.234731 6.79289 0.0409659 0.622964 0.781177 
-0.027956 -0.234369 6.77154 -0.366817 0.143658 0.919134 
-0.19621 -0.232851 6.6897 -0.788025 -0.231589 0.570424 
0.24475 -0.589198 5.72894 0.597845 0.0582225 -0.799494 
0.231387 -0.592408 5.71953 0.603636 0.046651 -0.795894 
-0.27283 -0.229514 6.64566 0.22115 0.420037 0.880149 
0.200271 -0.599751 5.67609 0.752118 0.229857 -0.617644 
0.116341 -0.610315 5.6029 0.454638 -0.193999 -0.869292 
0.047144 -0.605512 5.55679 0.819284 0.112451 -0.562254 
-0.048264 -0.633163 5.42031 0.720816 0.0238867 -0.692714 
-0.540454 -0.22733 6.50248 -0.240784 0.671993 0.70032 
-0.570348 -0.22603 6.49127 -0.169147 0.64154 0.748209 
0.437024 -0.203758 7.14332 -0.530534 0.390146 0.752542 
-0.667449 -0.590569 5.21038 -0.16878 0.533226 -0.828965 
0.009607 -0.617848 5.49339 0.726913 0.244407 -0.641765 
-0.034156 -0.621643 5.44744 0.78907 0.241234 -0.564955 
-0.060165 -0.747026 5.02329 -0.207857 0.260165 -0.942926 
-0.77648 -0.182878 6.51024 0.368021 0.924805 -0.0964187 
-0.729886 -0.168687 6.5772 0.599215 0.53845 -0.592464 
-0.194276 -0.70936 5.05665 -0.124373 0.0778786 -0.989175 
-0.044474 -0.668651 5.27626 -0.185182 0.625945 0.757562 
-1.05397 -0.131006 6.50486 -0.73194 0.630765 0.257681 
-0.990322 -0.105589 6.64594 -0.738617 0.628376 0.244106 
-0.157721 -0.656273 5.284 0.264729 0.915701 0.302341 
-0.255453 -0.706493 5.05897 -0.126057 -0.00328846 -0.992018 
-1.01048 -0.11718 6.6004 -0.809821 0.51534 0.280383 
-0.33263 -0.674786 5.11 0.0479944 0.937836 -0.343744 
-1.12601 -0.158591 6.38756 -0.538173 0.839208 0.0780989 
-0.355526 -0.676392 5.08877 0.00319474 0.995694 -0.0926474 
-0.43387 -0.652863 5.12585 0.0435306 0.588365 -0.807423 
-0.158407 -0.629586 5.36553 0.445567 0.862436 -0.240153 
-0.921422 -0.073174 6.79589 -0.470107 0.881959 -0.0338694 
-0.229733 -0.639696 5.28864 0.389739 0.91033 0.139293 
-0.952288 -0.085856 6.72603 -0.521813 0.852249 0.037174 
0.095828 -0.695101 5.28032 0.1268 0.681738 0.720524 
-0.52209 -0.635125 5.13171 0.0540848 0.500631 -0.86397 
-0.537893 -0.629628 5.13574 -0.0984261 0.703673 -0.703673 
-0.622654 -0.601808 5.18885 -0.247553 0.625978 -0.739506 
0.978652 -0.633735 5.99821 0.0774882 -0.502969 -0.860824 
-1.10166 -0.304746 5.90428 -0.556861 0.587327 -0.587327 
0.7148 -0.613439 5.8961 -0.0616516 -0.199461 -0.977964 
-1.09818 -0.282886 5.97409 -0.649151 0.537868 -0.537868 
0.208831 -0.221291 6.95006 0.00123236 -0.311788 0.950151 
0.133012 -0.233016 6.8642 -0.776405 0.55002 0.307692 
-1.17171 -0.237611 6.09356 -0.541519 0.717057 -0.438846 
-0.756848 -0.525661 5.3659 -0.456057 0.525709 -0.718082 
-0.775498 -0.520314 5.37711 -0.316707 0.480576 -0.817767 
-0.840947 -0.49338 5.42769 0.320229 0.0996563 -0.942084 
-0.044434 -0.233701 6.76729 -0.156638 0.177013 0.971664 
0.427579 -0.614118 5.7451 -0.126352 -0.61987 -0.774465 
-0.885377 -0.464292 5.47968 -0.681534 0.473892 -0.557618 
0.184779 -0.601439 5.65805 0.714195 0.175872 -0.677491 
0.163333 -0.598627 5.63808 0.685581 0.206762 -0.698017 
-0.18757 -0.225494 6.70557 -0.64376 -0.304939 0.701844 
0.363209 -0.593186 5.78864 -0.343479 -0.871672 -0.349585 
0.3135 -0.58339 5.77607 0.429617 -0.242696 -0.869786 
0.287492 -0.582125 5.76302 0.690696 0.070952 -0.719656 
0.273995 -0.585734 5.75056 0.708869 0.182984 -0.681191 
0.214637 -0.592028 5.70123 0.786215 0.275727 -0.553029 
-0.468392 -0.225785 6.55709 -0.821212 0.326278 0.468138 
-0.038255 -0.633168 5.43586 0.80437 0.298676 -0.513596 
-0.619371 -0.21097 6.47277 -0.185825 0.545388 0.817326 
-0.371994 -0.677698 5.08275 -0.0676636 0.956226 -0.284698 
-0.156988 -0.635261 5.34881 0.506102 0.766476 -0.395443 
-0.719768 -0.18888 6.50513 0.280737 0.954504 0.100543 
-0.734495 -0.182956 6.5137 0.31592 0.939626 0.13152 
-0.010469 -0.761112 5.00974 -0.16841 0.153215 -0.973737 
-0.775494 -0.174158 6.52657 0.580131 0.607193 -0.542922 
-0.09427 -0.736633 5.03302 -0.138889 0.295307 -0.945253 
-0.157699 -0.724438 5.04822 -0.165776 0.204936 -0.964634 
-0.17253 -0.708407 5.05456 -0.11052 0.219769 -0.969271 
-0.222128 -0.706051 5.05852 0.00319474 0.0926474 -0.995694 
-0.994391 -0.105026 6.63029 -0.744887 0.655679 0.123404 
-0.060428 -0.668657 5.27462 0.0069316 0.697319 0.716727 
-0.145742 -0.656472 5.27428 0.204994 0.955298 0.213033 
-0.301691 -0.690942 5.06225 0.0652952 0.293188 -0.953822 
-0.31748 -0.675519 5.1022 -0.0875871 0.995898 -0.0227078 
-1.17471 -0.188426 6.23837 -0.526538 0.828279 -0.191605 
-1.1742 -0.184479 6.25583 -0.550935 0.811984 -0.192751 
-0.320819 -0.670035 5.11989 0.0381333 0.755605 -0.653916 
-0.333882 -0.685191 5.06618 -0.059253 0.475402 -0.877771 
-0.86351 -0.04954 6.89316 -0.0544608 0.95623 0.287502 
-0.344879 -0.678713 5.07597 -0.0718011 0.943859 -0.322452 
-0.899497 -0.062304 6.8249 -0.515585 0.855623 -0.0456148 
-0.346095 -0.667246 5.11901 0.0528087 0.743604 -0.666532 
0.151205 -0.706743 5.2625 0.951904 0.218004 -0.215296 
-0.896113 -0.060174 6.85151 -0.472993 0.881065 0.00132491 
-0.096363 -0.628868 5.39359 0.348866 -0.469934 -0.810835 
-0.171564 -0.625074 5.35558 0.476264 0.854872 -0.20583 
-1.07649 -0.339843 5.80325 -0.663282 0.423902 -0.616736 
-0.188416 -0.632106 5.32599 0.491943 0.397776 -0.774446 
-1.08825 -0.319479 5.85285 -0.612635 0.783056 -0.107248 
-0.140742 -0.620938 5.39253 -0.139817 -0.52836 -0.837429 
-0.164401 -0.620095 5.38286 0.60504 0.782199 -0.148633 
0.839374 -0.636165 5.91493 0.134973 -0.421969 -0.896507 
-1.1234 -0.263711 6.01338 -0.613327 0.525468 -0.589673 
0.958456 -0.632032 5.99089 0.326607 -0.308711 -0.893323 
-1.14407 -0.250936 6.04474 -0.561646 0.642604 -0.521167 
-0.556092 -0.618472 5.15728 -0.226186 0.744076 -0.628642 
-1.17615 -0.228359 6.11409 -0.504305 0.688603 -0.521059 
0.266401 -0.211088 7.0092 -0.781708 0.560619 0.273203 
-0.647365 -0.584803 5.21042 -0.134896 0.57368 -0.807895 
-1.17734 -0.207877 6.173 -0.516708 0.822105 -0.239074 
0.675387 -0.610968 5.89535 -0.0437269 -0.393543 -0.918266 
-0.673277 -0.577342 5.22204 -0.376978 0.610737 -0.696339 
0.191924 -0.216349 6.94779 0.315857 0.798373 0.512673 
0.487117 -0.61068 5.78985 0.725185 0.560744 -0.399592 
0.133646 -0.209375 6.93427 -0.969672 -0.0996152 0.223188 
0.085179 -0.23621 6.80361 -0.466723 0.47332 0.747086 
0.468328 -0.611831 5.76402 0.721379 0.275493 -0.635387 
0.015474 -0.229632 6.79234 0.0556424 0.626334 0.777567 
-0.866305 -0.480077 5.43278 -0.499522 0.450064 -0.740216 
-0.911338 -0.454103 5.49876 0.164502 0.449834 -0.877832 
0.377427 -0.595877 5.77357 -0.53352 -0.81786 -0.215548 
-0.116991 -0.222657 6.74613 -0.377229 0.470333 0.7978 
-0.952449 -0.447412 5.50049 0.0265894 0.639545 -0.768294 
0.337536 -0.5845 5.78777 -0.0238271 -0.679774 -0.733035 
-0.144637 -0.220639 6.73407 -0.358674 0.380411 0.852432 
-0.969915 -0.445693 5.4997 0.285223 0.534202 -0.795787 
0.203438 -0.589201 5.68737 0.758988 0.333568 -0.559169 
0.092693 -0.599294 5.58906 0.467327 -0.198577 -0.861494 
-0.372237 -0.207959 6.65251 -0.117202 0.675021 0.72843 
0.062151 -0.598353 5.57103 0.599055 -0.100571 -0.794367 
-0.398851 -0.203404 6.64132 -0.45399 0.411984 0.79004 
0.040235 -0.609139 5.54203 0.824523 0.315675 -0.469586 
-0.068421 -0.624463 5.40594 0.562351 -0.034713 -0.82617 
-0.518321 -0.220789 6.51115 -0.531262 0.578486 0.618963 
-0.67377 -0.209197 6.46908 0.901274 0.414783 0.125138 
0.417311 -0.202311 7.1297 -0.535713 0.449468 0.714836 
0.398503 -0.202308 7.11245 -0.711394 0.426173 0.558834 
0.365272 -0.198727 7.07256 -0.543612 0.533514 0.647958 
0.352123 -0.208189 7.07125 -0.533616 0.526883 0.66155 
0.281946 -0.205146 7.03153 -0.609633 0.653059 0.449291 
0.165736 -0.20377 6.96446 0.237816 0.672499 0.700848 
-0.686958 -0.197221 6.4983 0.969137 0.0403298 -0.243201 
-0.663373 -0.149784 6.66557 0.72075 0.346546 -0.600354 
-0.70019 -0.158287 6.62052 0.702612 0.34723 -0.621102 
-0.62463 -0.139853 6.71979 0.687818 0.362787 -0.628722 
0.045382 -0.765232 4.99495 -0.0223509 0.411519 -0.911127 
-0.790772 -0.173411 6.5103 0.622032 0.625386 -0.471135 
-0.071771 -0.730375 5.03172 -0.194822 0.339872 -0.920071 
-0.13889 -0.718227 5.04724 -0.21015 0.303236 -0.929454 
-0.964993 -0.089637 6.68141 -0.513946 0.853745 0.083534 
-1.06893 -0.133428 6.47622 -0.768552 0.564031 0.301988 
-1.02882 -0.118709 6.54436 -0.707712 0.6502 0.276375 
-0.996956 -0.10395 6.60955 -0.727655 0.653183 0.209453 
-1.15241 -0.170662 6.32693 -0.49497 0.862988 0.101276 
-1.11519 -0.151838 6.39648 -0.604826 0.794631 0.0524088 
-1.08536 -0.139001 6.44769 -0.604981 0.753462 0.257472 
-0.302869 -0.673823 5.10857 -0.0574872 0.993063 -0.102575 
-1.10598 -0.145571 6.40878 -0.592485 0.792468 0.144763 
-1.13384 -0.16158 6.35309 -0.483003 0.874848 0.0367354 
-0.330425 -0.676306 5.0878 -0.0211841 0.99969 -0.013114 
-1.17182 -0.178161 6.27472 -0.541454 0.82486 -0.162585 
-0.411015 -0.651539 5.12722 0.0604083 0.532436 -0.844312 
-0.428267 -0.640512 5.13421 0.0741966 0.488578 -0.86936 
-0.906032 -0.064661 6.8044 -0.446283 0.893915 0.0417969 
0.136476 -0.700264 5.26923 0.284546 0.75826 0.586579 
-0.189445 -0.645353 5.2742 0.135896 0.945888 0.294665 
-0.936911 -0.07754 6.75261 -0.501448 0.864139 0.0425887 
-0.205631 -0.641258 5.273 0.30591 0.920602 0.242717 
-1.06232 -0.340928 5.78278 -0.683379 0.704976 -0.189742 
-0.175977 -0.629506 5.33764 0.499333 0.640559 -0.583396 
-1.08183 -0.311242 5.87515 -0.597226 0.763384 -0.246101 
-0.21829 -0.626437 5.31174 0.421531 0.367853 -0.828852 
0.020929 -0.673824 5.27919 0.260779 0.807321 0.529365 
-0.67313 -0.211117 6.44538 -0.475012 0.659646 0.582435 
-0.024915 -0.670217 5.28123 0.00137528 0.639507 0.768784 
-0.240538 -0.634167 5.27852 0.289869 0.923868 0.249887 
1.07022 -0.641639 6.01293 0.197544 -0.066656 -0.978025 
-0.245011 -0.627972 5.29646 0.320329 0.514758 -0.795245 
-0.261193 -0.628731 5.28841 0.326954 0.884434 -0.332981 
-1.08692 -0.284415 5.95309 -0.607798 0.763245 -0.21918 
-0.455903 -0.642751 5.13021 0.0828793 0.481824 -0.87234 
1.00864 -0.635302 5.99679 0.0787711 -0.440842 -0.894122 
0.905525 -0.632011 5.95334 0.759898 0.162294 -0.629457 
-0.58736 -0.603362 5.18005 -0.133282 0.65443 -0.744283 
0.257662 -0.20923 6.97939 -0.811779 0.496525 0.307373 
-0.60629 -0.599526 5.18613 -0.158605 0.626866 -0.762813 
-0.628339 -0.590498 5.20145 -0.230775 0.664068 -0.711165 
0.807754 -0.629183 5.90938 -0.0464384 -0.589627 -0.80634 
0.177824 -0.207709 6.95209 0.738352 0.613965 0.279075 
0.759356 -0.622858 5.90256 0.34293 -0.0781192 -0.936107 
-0.686822 -0.565266 5.25406 -0.655397 0.658682 -0.369585 
0.740649 -0.62014 5.89746 0.19537 -0.0539364 -0.979245 
-0.715207 -0.548962 5.29489 -0.413891 0.620006 -0.666548 
0.127855 -0.227974 6.84564 -0.696143 0.519186 0.495814 
0.131436 -0.214173 6.91507 -0.987372 -0.158384 0.00336987 
0.656103 -0.604305 5.89239 0.0178652 -0.229866 -0.973058 
0.101552 -0.236404 6.82309 -0.629166 0.406717 0.662368 
0.486961 -0.59499 5.82243 0.593812 0.705666 -0.386553 
-0.775653 -0.503791 5.39002 -0.521999 0.596329 -0.609843 
-1.0745 -0.351992 5.7417 -0.63125 0.735147 -0.247148 
-0.807614 -0.492792 5.42638 -0.262989 0.568497 -0.779518 
-0.002764 -0.2247 6.78455 -0.385894 0.414478 0.824193 
0.504357 -0.589749 5.85026 0.645607 0.461148 -0.608715 
-0.097603 -0.222078 6.75477 -0.29611 0.38722 0.873144 
-0.927583 -0.447165 5.49684 0.190116 0.498492 -0.84579 
-0.198565 -0.216649 6.69591 -0.762057 0.0352152 0.646551 
0.391538 -0.599976 5.74978 -0.581197 -0.754116 -0.305809 
-0.297564 -0.221123 6.65224 0.409343 0.497409 0.764868 
-0.351856 -0.206163 6.65557 -0.21346 0.718286 0.662194 
-0.416978 -0.202231 6.62871 -0.5233 0.310163 0.793698 
0.148622 -0.60052 5.62403 0.653916 0.0381333 -0.755605 
-0.57411 -0.213611 6.48005 -0.0411396 0.659653 0.750444 
-0.64534 -0.212678 6.46523 -0.611999 0.384355 0.691179 
0.021973 -0.608049 5.51166 0.811154 0.20317 -0.548407 
0.299385 -0.201238 7.03738 -0.16923 0.681495 0.711987 
