ply
format ascii 1.0
comment VCGLIB generated
element vertex 1010
property float x
property float y
property float z
property uchar red
property uchar green
property uchar blue
property float quality
end_header
-0.384127 -0.107512 5.583830 255 90 0 0.441510
-0.362006 -0.103485 5.590070 255 93 0 0.434829
-0.356179 -0.113103 5.569400 255 97 0 0.420864
-0.340117 -0.099819 5.596520 255 97 0 0.424224
-0.334596 -0.109352 5.575830 255 93 0 0.429117
-0.328687 -0.119253 5.555560 255 93 0 0.429018
-0.323945 -0.128152 5.538060 255 93 0 0.428946
-0.351508 -0.121833 5.551240 255 93 0 0.429348
-0.346585 -0.130744 5.533550 255 104 0 0.410602
-0.374422 -0.124825 5.547160 255 93 0 0.429589
-0.379289 -0.115974 5.565260 255 93 0 0.429670
-0.369848 -0.133815 5.529520 255 93 0 0.429483
-0.320360 -0.169840 5.474220 255 93 0 0.428719
-0.320333 -0.159612 5.487820 255 93 0 0.428753
-0.343791 -0.161380 5.485080 255 93 0 0.434785
-0.343509 -0.171582 5.471330 255 93 0 0.428959
-0.344031 -0.151663 5.499350 255 93 0 0.429095
-0.367052 -0.163671 5.482790 255 93 0 0.429129
-0.367513 -0.153910 5.497090 255 93 0 0.429270
-0.390890 -0.156822 5.495420 255 93 0 0.429279
-0.366533 -0.173965 5.469160 255 93 0 0.429114
-0.390516 -0.166592 5.481380 255 104 0 0.407710
-0.389760 -0.176717 5.467640 255 93 0 0.429057
-0.368441 -0.144507 5.511900 255 93 0 0.429400
-0.391897 -0.147173 5.510400 255 93 0 0.428749
-0.345151 -0.141275 5.515870 255 93 0 0.430514
-0.322625 -0.138520 5.520260 255 93 0 0.428858
-0.321301 -0.148986 5.503640 255 93 0 0.428767
-0.411575 -0.182629 5.468190 255 93 0 0.428784
-0.432988 -0.179561 5.480950 255 93 0 0.428313
-0.453606 -0.186442 5.482660 255 97 0 0.427184
-0.474362 -0.183978 5.496570 255 97 0 0.425222
-0.473195 -0.203034 5.472750 255 97 0 0.425276
-0.454612 -0.167313 5.506770 255 108 0 0.398214
-0.434320 -0.160149 5.507520 255 93 0 0.428522
-0.413016 -0.153446 5.508590 255 93 0 0.429213
-0.412765 -0.163384 5.493810 255 93 0 0.429052
-0.457056 -0.206231 5.461340 255 97 0 0.426713
-0.436869 -0.199388 5.459530 255 93 0 0.427929
-0.419964 -0.203060 5.448490 255 93 0 0.428481
-0.398656 -0.197159 5.447250 255 93 0 0.428895
-0.407445 -0.217646 5.428340 255 93 0 0.428679
-0.428848 -0.223984 5.430500 255 93 0 0.428205
-0.445404 -0.220194 5.441550 255 108 0 0.399960
-0.465833 -0.227339 5.444270 255 97 0 0.426018
-0.481579 -0.224222 5.455940 255 97 0 0.424458
-0.489673 -0.244872 5.438930 255 97 0 0.423931
-0.352642 -0.191388 5.447650 255 93 0 0.428811
-0.329686 -0.189611 5.450300 255 93 0 0.428504
-0.339398 -0.209944 5.430110 255 93 0 0.428543
-0.362247 -0.211903 5.428640 255 101 0 0.419231
-0.380383 -0.204122 5.437580 255 104 0 0.411070
-0.366253 -0.240667 5.404910 255 101 0 0.412324
-0.388954 -0.243948 5.405500 255 101 0 0.418816
-0.411330 -0.248089 5.406250 255 93 0 0.428654
-0.424632 -0.240857 5.414250 255 104 0 0.408957
-0.440953 -0.263678 5.400350 255 93 0 0.428111
-0.393533 -0.224921 5.420110 255 93 0 0.428822
-0.461425 -0.270409 5.403300 255 97 0 0.427234
-0.481446 -0.277643 5.406690 255 104 0 0.403475
-0.465327 -0.253749 5.418710 255 97 0 0.426509
-0.485031 -0.261339 5.422660 255 119 0 0.378168
-0.504670 -0.269350 5.426890 255 97 0 0.421829
-0.501135 -0.284950 5.410090 255 97 0 0.423771
-0.520351 -0.292888 5.413310 255 97 0 0.420627
-0.445280 -0.247210 5.416370 255 93 0 0.427699
-0.520350 -0.457493 5.279060 255 101 0 0.412207
-0.543935 -0.475482 5.269450 255 93 0 0.429829
-0.521692 -0.478299 5.266770 255 93 0 0.430262
-0.545265 -0.495384 5.256530 255 108 0 0.396012
-0.567489 -0.493575 5.260210 255 108 0 0.399154
-0.590572 -0.510475 5.248740 255 93 0 0.427955
-0.593058 -0.490528 5.266080 255 93 0 0.433577
-0.569906 -0.472765 5.276390 255 108 0 0.402411
-0.546443 -0.453895 5.285200 255 93 0 0.429122
-0.594904 -0.470870 5.283780 255 101 0 0.415982
-0.517580 -0.499377 5.253100 255 93 0 0.430649
-0.535301 -0.516748 5.240890 255 104 0 0.409938
-0.514357 -0.518831 5.239530 255 93 0 0.430823
-0.558706 -0.523095 5.236380 255 108 0 0.403028
-0.581801 -0.529531 5.231690 255 104 0 0.407148
-0.638636 -0.559661 5.219300 255 104 0 0.407288
-0.659630 -0.570096 5.216170 255 97 0 0.425317
-0.617786 -0.549516 5.223000 255 112 0 0.390229
-0.631181 -0.533055 5.244340 255 97 0 0.424899
-0.651047 -0.544437 5.241720 255 97 0 0.423541
-0.671062 -0.555967 5.239160 255 116 0 0.382865
-0.604008 -0.530560 5.236410 255 104 0 0.406609
-0.594774 -0.548843 5.218530 255 93 0 0.428250
-0.676678 -0.547789 5.253310 255 97 0 0.419404
-0.657285 -0.527162 5.265190 255 97 0 0.420327
-0.682473 -0.539906 5.267460 255 101 0 0.416280
-0.632220 -0.515064 5.263470 255 97 0 0.423508
-0.662849 -0.518990 5.278830 255 101 0 0.416436
-0.638588 -0.506059 5.276010 255 97 0 0.421603
-0.644347 -0.497332 5.289160 255 101 0 0.419164
-0.687560 -0.532718 5.282220 255 153 0 0.312457
-0.668393 -0.511185 5.293090 255 97 0 0.426222
-0.692672 -0.526310 5.298150 255 104 0 0.403845
-0.613767 -0.493601 5.274070 255 119 0 0.378533
-0.620120 -0.484019 5.286170 255 116 0 0.380971
-0.611712 -0.512409 5.255950 255 116 0 0.387646
-0.503361 -0.305007 5.393280 255 97 0 0.424827
-0.483797 -0.297653 5.390740 255 97 0 0.426371
-0.463626 -0.290848 5.388390 255 93 0 0.427655
-0.486534 -0.317802 5.374420 255 97 0 0.427364
-0.506136 -0.325362 5.377410 255 97 0 0.426159
-0.525914 -0.333315 5.380210 255 97 0 0.424666
-0.522751 -0.313201 5.396830 255 97 0 0.422907
-0.542034 -0.321681 5.400690 255 97 0 0.419424
-0.545087 -0.341571 5.383340 255 97 0 0.421924
-0.564113 -0.349996 5.386900 255 101 0 0.417892
-0.409308 -0.268092 5.391700 255 101 0 0.416208
-0.420527 -0.280802 5.385150 255 97 0 0.425238
-0.431828 -0.294245 5.379240 255 93 0 0.428800
-0.443445 -0.308002 5.372710 255 93 0 0.428669
-0.465041 -0.312808 5.373480 255 104 0 0.404677
-0.466850 -0.355917 5.343410 255 93 0 0.429168
-0.489413 -0.361559 5.343550 255 112 0 0.392674
-0.465134 -0.333430 5.357500 255 93 0 0.428647
-0.487865 -0.339474 5.359110 255 93 0 0.428087
-0.509776 -0.346176 5.360220 255 112 0 0.389111
-0.511700 -0.367640 5.344350 255 93 0 0.427932
-0.534005 -0.374011 5.345110 255 97 0 0.427299
-0.553561 -0.382267 5.348440 255 97 0 0.425870
-0.572853 -0.390908 5.351910 255 97 0 0.423512
-0.549279 -0.361221 5.365160 255 97 0 0.424490
-0.568353 -0.370295 5.369470 255 97 0 0.421502
-0.587447 -0.379313 5.373740 255 101 0 0.414466
-0.591956 -0.399748 5.355690 255 101 0 0.418199
-0.610828 -0.408545 5.359540 255 101 0 0.411392
-0.529832 -0.353391 5.362560 255 97 0 0.425987
-0.620192 -0.200635 5.566160 255 97 0 0.419505
-0.598741 -0.201610 5.554150 255 104 0 0.404858
-0.585341 -0.183578 5.565720 255 141 0 0.334058
-0.563691 -0.183446 5.552520 255 101 0 0.415513
-0.577288 -0.201627 5.541300 255 104 0 0.408865
-0.555592 -0.201089 5.528210 255 101 0 0.411859
-0.592032 -0.218887 5.533120 255 104 0 0.406961
-0.613588 -0.218402 5.545410 255 101 0 0.416000
-0.635305 -0.216907 5.556560 255 97 0 0.423493
-0.628613 -0.234660 5.536010 255 97 0 0.421483
-0.548504 -0.166242 5.564110 255 101 0 0.419004
-0.529574 -0.156870 5.564550 255 97 0 0.421476
-0.524850 -0.165882 5.550180 255 97 0 0.421031
-0.509739 -0.147388 5.565310 255 97 0 0.424211
-0.505199 -0.156298 5.550670 255 97 0 0.423799
-0.500787 -0.165290 5.535980 255 97 0 0.423420
-0.517237 -0.183049 5.524620 255 119 0 0.376080
-0.540710 -0.183657 5.539080 255 138 0 0.340985
-0.493787 -0.212512 5.476410 255 97 0 0.422129
-0.514253 -0.212985 5.490280 255 101 0 0.416759
-0.533883 -0.221760 5.493900 255 153 0 0.310185
-0.553702 -0.220798 5.507570 255 104 0 0.404537
-0.552629 -0.239999 5.487130 255 108 0 0.398408
-0.535382 -0.202609 5.514420 255 101 0 0.413543
-0.495835 -0.183666 5.510660 255 112 0 0.390168
-0.571466 -0.249248 5.491440 255 116 0 0.383964
-0.590271 -0.248378 5.503800 255 141 0 0.336418
-0.609066 -0.256446 5.506760 255 27 0 0.604256
-0.627794 -0.254707 5.518150 255 82 0 0.459730
-0.627819 -0.273755 5.499800 255 93 0 0.428322
-0.609532 -0.237490 5.524650 255 104 0 0.410446
-0.573222 -0.219885 5.520600 255 108 0 0.400330
-0.612764 -0.276582 5.489570 255 104 0 0.409900
-0.593842 -0.268509 5.486950 255 119 0 0.379453
-0.579098 -0.270322 5.475890 255 119 0 0.378186
-0.560163 -0.261558 5.472000 255 112 0 0.388343
-0.567959 -0.282460 5.456060 255 112 0 0.389188
-0.586713 -0.291063 5.460470 255 119 0 0.379923
-0.601282 -0.289445 5.471440 255 116 0 0.381791
-0.620270 -0.297532 5.474650 255 97 0 0.419572
-0.635307 -0.294773 5.484870 255 90 0 0.443267
-0.643366 -0.315473 5.469200 255 86 0 0.446598
-0.536643 -0.242054 5.474840 255 104 0 0.406230
-0.517392 -0.232806 5.471360 255 101 0 0.415215
-0.501570 -0.233611 5.459260 255 97 0 0.420641
-0.509497 -0.254547 5.443460 255 97 0 0.419610
-0.525077 -0.253567 5.455380 255 101 0 0.413749
-0.544549 -0.263063 5.459960 255 112 0 0.391994
-0.539625 -0.302334 5.417350 255 101 0 0.415794
-0.558840 -0.311731 5.421170 255 186 0 0.260708
-0.544034 -0.287759 5.434590 255 104 0 0.410253
-0.563119 -0.297101 5.438960 255 78 0 0.469994
-0.582080 -0.305856 5.442770 255 90 0 0.439692
-0.577898 -0.320410 5.425410 255 108 0 0.400238
-0.596713 -0.329223 5.428640 255 112 0 0.389942
-0.524334 -0.278597 5.430870 255 101 0 0.416439
-0.614424 -0.337808 5.432450 155 255 93 0.083255
-0.632236 -0.345538 5.436110 255 108 0 0.402728
-0.619561 -0.323268 5.449680 255 104 0 0.406128
-0.637375 -0.331157 5.452840 255 93 0 0.431009
-0.655653 -0.338648 5.455770 255 82 0 0.460108
-0.650128 -0.353575 5.439290 255 101 0 0.415559
-0.668896 -0.361493 5.442220 255 90 0 0.439226
-0.600949 -0.314844 5.446510 255 116 0 0.385170
-0.895206 -0.909477 5.831930 255 93 0 0.432569
-0.874239 -0.911557 5.843900 255 93 0 0.429376
-0.867153 -0.922609 5.822890 255 60 0 0.509432
-0.887957 -0.918816 5.810240 255 78 0 0.468566
-0.846462 -0.926523 5.834580 255 97 0 0.420445
-0.860482 -0.932936 5.801600 255 101 0 0.418059
-0.840021 -0.938280 5.813990 255 101 0 0.415817
-0.833771 -0.949097 5.793540 255 82 0 0.459529
-0.881134 -0.927900 5.788480 255 97 0 0.420454
-0.853926 -0.942425 5.780560 255 101 0 0.414785
-0.874292 -0.935570 5.766910 255 101 0 0.416652
-0.819874 -0.943815 5.825830 255 101 0 0.415095
-0.814015 -0.956064 5.806070 255 101 0 0.415126
-0.794376 -0.962595 5.817970 255 101 0 0.416232
-0.800605 -0.947230 5.839360 255 101 0 0.415674
-0.826646 -0.928733 5.847810 255 97 0 0.426375
-0.807161 -0.931697 5.860880 255 97 0 0.420317
-0.834091 -0.913803 5.870300 255 93 0 0.428924
-0.854281 -0.912709 5.857440 255 93 0 0.428433
-0.814437 -0.916234 5.882860 255 97 0 0.427149
-0.869473 -0.941050 5.742220 255 101 0 0.413596
-0.848801 -0.950492 5.755380 255 90 0 0.440205
-0.843887 -0.956047 5.731480 255 101 0 0.411667
-0.865225 -0.945036 5.717370 255 104 0 0.410408
-0.823361 -0.966871 5.743880 255 93 0 0.432751
-0.838845 -0.960416 5.707120 255 104 0 0.409464
-0.817905 -0.971864 5.719590 255 101 0 0.413531
-0.812233 -0.976263 5.695490 255 90 0 0.438364
-0.860807 -0.948423 5.692470 255 108 0 0.402045
-0.833703 -0.964338 5.682510 255 104 0 0.407728
-0.856571 -0.951788 5.667640 255 104 0 0.403289
-0.797986 -0.982723 5.731180 255 97 0 0.425228
-0.792125 -0.987306 5.707040 255 101 0 0.416892
-0.772758 -0.997364 5.717620 255 101 0 0.419208
-0.779165 -0.991530 5.743310 255 101 0 0.418975
-0.804013 -0.975778 5.756620 255 101 0 0.416226
-0.784998 -0.984136 5.768750 255 101 0 0.418640
-0.809305 -0.967129 5.781840 255 90 0 0.441238
-0.828921 -0.958936 5.768900 255 101 0 0.414179
-0.790095 -0.974655 5.793780 255 112 0 0.394346
-0.712535 -1.014960 5.783550 255 97 0 0.423061
-0.718295 -1.004680 5.808990 255 97 0 0.421916
-0.740532 -0.999714 5.795480 255 97 0 0.421049
-0.722961 -0.990959 5.833050 255 93 0 0.431761
-0.745382 -0.986717 5.820130 255 97 0 0.419683
-0.749592 -0.971031 5.843740 255 101 0 0.417353
-0.727064 -0.974462 5.856190 255 101 0 0.419260
-0.767575 -0.981878 5.806900 255 101 0 0.418858
-0.772054 -0.967016 5.830940 255 101 0 0.416957
-0.762866 -0.992391 5.782150 255 97 0 0.419948
-0.757368 -1.000220 5.756660 255 97 0 0.420753
-0.735081 -1.008040 5.770160 255 97 0 0.421569
-0.729078 -1.013890 5.744440 255 97 0 0.422491
-0.751091 -1.005940 5.730990 255 93 0 0.430037
-0.706283 -1.021000 5.757860 255 97 0 0.423477
-0.732454 -0.957141 5.876310 255 101 0 0.417189
-0.739118 -0.937624 5.898140 255 97 0 0.421492
-0.761010 -0.936775 5.884930 255 97 0 0.421242
-0.746367 -0.918353 5.920090 255 97 0 0.426340
-0.768427 -0.918146 5.907540 255 97 0 0.426876
-0.790684 -0.917796 5.894440 255 97 0 0.427476
-0.784080 -0.934352 5.872920 255 97 0 0.421307
-0.777884 -0.951008 5.851920 255 101 0 0.416064
-0.755400 -0.954729 5.864400 255 101 0 0.417615
-0.650112 -0.372533 5.422620 255 112 0 0.394312
-0.632434 -0.364305 5.419320 255 112 0 0.391391
-0.614604 -0.356172 5.415940 255 116 0 0.386323
-0.632711 -0.382803 5.402110 255 116 0 0.384558
-0.648433 -0.390266 5.406050 255 112 0 0.389207
-0.664757 -0.397660 5.410040 255 108 0 0.395538
-0.666636 -0.379858 5.426460 255 101 0 0.416874
-0.684194 -0.387363 5.429990 255 60 0 0.507745
-0.682215 -0.405337 5.414000 255 104 0 0.408607
-0.700964 -0.413612 5.417820 255 97 0 0.420511
-0.580409 -0.339706 5.407910 255 104 0 0.405908
-0.561304 -0.330924 5.404440 255 149 0 0.319577
-0.581687 -0.358156 5.390970 255 101 0 0.412017
-0.598586 -0.366552 5.394800 255 104 0 0.403572
-0.597503 -0.348141 5.411960 255 108 0 0.395989
-0.615614 -0.374774 5.398630 255 112 0 0.393504
-0.625907 -0.415944 5.363780 255 108 0 0.402917
-0.640700 -0.423333 5.368210 255 112 0 0.393007
-0.621677 -0.395868 5.380720 255 108 0 0.397195
-0.636419 -0.403245 5.385050 255 86 0 0.450952
-0.651866 -0.410776 5.389620 255 116 0 0.382152
-0.655977 -0.430947 5.372570 255 116 0 0.382644
-0.671847 -0.438475 5.377220 255 116 0 0.380582
-0.604469 -0.387556 5.377300 255 104 0 0.406601
-0.693976 -0.439098 5.392960 255 108 0 0.402215
-0.719371 -0.439870 5.407730 255 97 0 0.419591
-0.720478 -0.458951 5.393300 255 101 0 0.413784
-0.668120 -0.418426 5.393670 255 116 0 0.387408
-0.329345 -0.787340 5.042490 255 97 0 0.420735
-0.308481 -0.791808 5.041220 255 93 0 0.427515
-0.294226 -0.807456 5.040260 255 93 0 0.428539
-0.273720 -0.812297 5.038930 255 93 0 0.427491
-0.285900 -0.833653 5.037990 255 97 0 0.426861
-0.306432 -0.828648 5.038820 255 97 0 0.427377
-0.320812 -0.812988 5.040560 255 93 0 0.427727
-0.341763 -0.807620 5.041540 255 101 0 0.413855
-0.357538 -0.792016 5.043770 255 93 0 0.429120
-0.370612 -0.812696 5.042900 255 93 0 0.429437
-0.242029 -0.807272 5.036820 255 97 0 0.425496
-0.215741 -0.812860 5.033150 255 97 0 0.425118
-0.193752 -0.830176 5.028760 255 97 0 0.424960
-0.206359 -0.851760 5.029210 255 97 0 0.425362
-0.228126 -0.834384 5.033790 255 97 0 0.425601
-0.254578 -0.828442 5.036730 255 97 0 0.426040
-0.224023 -0.896166 5.034060 255 97 0 0.425879
-0.247559 -0.878562 5.036820 255 97 0 0.426316
-0.273714 -0.873220 5.039180 255 104 0 0.406520
-0.294322 -0.856387 5.040270 255 97 0 0.427199
-0.302760 -0.879380 5.041630 255 97 0 0.427416
-0.264996 -0.850275 5.037500 255 97 0 0.426420
-0.238890 -0.856077 5.034800 255 97 0 0.425929
-0.215036 -0.873618 5.032090 255 97 0 0.425713
-0.323114 -0.874492 5.042790 255 97 0 0.419515
-0.339705 -0.857574 5.043160 255 93 0 0.428287
-0.361077 -0.852651 5.044990 255 93 0 0.428880
-0.379246 -0.835731 5.045670 255 93 0 0.429713
-0.388074 -0.859042 5.048320 255 93 0 0.429784
-0.352603 -0.829059 5.042420 255 93 0 0.428643
-0.331157 -0.834656 5.041040 255 93 0 0.428042
-0.314821 -0.851262 5.040890 255 93 0 0.427532
-0.659724 -1.024360 5.590560 255 93 0 0.434814
-0.666487 -1.023560 5.611300 255 93 0 0.434287
-0.689523 -1.018080 5.598300 255 93 0 0.430789
-0.673303 -1.023440 5.632870 255 93 0 0.432428
-0.696440 -1.017420 5.619420 255 138 0 0.343501
-0.703304 -1.017160 5.641170 255 123 0 0.371946
-0.680327 -1.023630 5.654890 255 93 0 0.429741
-0.719117 -1.011620 5.605800 255 93 0 0.429374
-0.725765 -1.010810 5.627330 255 97 0 0.425250
-0.748237 -1.004000 5.613100 255 93 0 0.431062
-0.741244 -1.005190 5.590480 255 97 0 0.423377
-0.711770 -1.012140 5.583520 255 93 0 0.427598
-0.734334 -1.006400 5.568370 255 97 0 0.424546
-0.704440 -1.012740 5.562160 255 93 0 0.428042
-0.682030 -1.018390 5.576170 255 93 0 0.431775
-0.674611 -1.018680 5.554790 255 141 0 0.334838
-0.727361 -1.006710 5.547200 255 97 0 0.425404
-0.697164 -1.013090 5.540930 255 97 0 0.424963
-0.720141 -1.006820 5.526110 255 97 0 0.425936
-0.652153 -1.025040 5.568480 255 90 0 0.437426
-0.687444 -1.025050 5.681700 255 97 0 0.426607
-0.694162 -1.024970 5.706920 255 97 0 0.425040
-0.716937 -1.018390 5.694030 255 101 0 0.413064
-0.700432 -1.023900 5.732340 255 97 0 0.424093
-0.723228 -1.016910 5.719150 255 104 0 0.407872
-0.745250 -1.009330 5.705950 255 97 0 0.421976
-0.766968 -0.999775 5.691110 255 86 0 0.450766
-0.738977 -1.010170 5.679340 255 97 0 0.422457
-0.760976 -1.001300 5.664800 255 97 0 0.419813
-0.732535 -1.010380 5.653260 255 97 0 0.423011
-0.710360 -1.017580 5.667580 255 104 0 0.407023
-0.754693 -1.002370 5.638990 255 97 0 0.421089
-0.853376 -0.952415 5.639490 255 134 0 0.344452
-0.829188 -0.967202 5.655630 255 104 0 0.406856
-0.825158 -0.968309 5.628240 255 104 0 0.407915
-0.850757 -0.953506 5.612080 255 104 0 0.405920
-0.801973 -0.981869 5.642290 255 101 0 0.413072
-0.821247 -0.969586 5.601620 255 108 0 0.398685
-0.797095 -0.982563 5.615700 255 101 0 0.415256
-0.792113 -0.983447 5.589690 255 97 0 0.422905
-0.847893 -0.955315 5.585480 255 101 0 0.411460
-0.817479 -0.971032 5.575310 255 86 0 0.446294
-0.844812 -0.957420 5.559910 255 101 0 0.418613
-0.775099 -0.994000 5.628140 255 97 0 0.420758
-0.769188 -0.994443 5.602060 255 90 0 0.440551
-0.780909 -0.992308 5.654170 255 101 0 0.416546
-0.786497 -0.990303 5.680510 255 101 0 0.416713
-0.806969 -0.979293 5.668900 255 90 0 0.437546
-0.842070 -0.957258 5.531330 255 101 0 0.417565
-0.811633 -0.974241 5.553600 255 97 0 0.420144
-0.807312 -0.972955 5.525740 255 97 0 0.422882
-0.837635 -0.956428 5.503910 255 97 0 0.419334
-0.779462 -0.988180 5.545500 255 97 0 0.422106
-0.801296 -0.970914 5.498040 255 97 0 0.424844
-0.773677 -0.985543 5.518110 255 97 0 0.423334
-0.767356 -0.981928 5.490370 255 97 0 0.423709
-0.832279 -0.954790 5.475600 255 93 0 0.427578
-0.794408 -0.967944 5.469740 255 97 0 0.425496
-0.824422 -0.952126 5.447680 255 93 0 0.427867
-0.749113 -0.998987 5.536120 255 97 0 0.424054
-0.742794 -0.994928 5.509120 255 97 0 0.424797
-0.755899 -0.998037 5.557510 255 97 0 0.422887
-0.762545 -0.996378 5.579470 255 97 0 0.421350
-0.785884 -0.986238 5.567190 255 90 0 0.441535
-0.694576 -0.992578 5.357230 255 116 0 0.382603
-0.680417 -1.002280 5.371610 255 97 0 0.422090
-0.676305 -1.008020 5.398750 255 97 0 0.422637
-0.662537 -1.017820 5.412610 255 97 0 0.424416
-0.659014 -1.023440 5.438970 255 97 0 0.425963
-0.638705 -1.032380 5.413200 255 97 0 0.422091
-0.682866 -1.010450 5.437730 255 97 0 0.424532
-0.679374 -1.015990 5.463050 255 127 0 0.361097
-0.694882 -1.005600 5.447920 255 97 0 0.424825
-0.698542 -0.999306 5.421990 255 97 0 0.422407
-0.710744 -0.995175 5.432340 255 97 0 0.423458
-0.714673 -0.988658 5.405650 255 97 0 0.421693
-0.702417 -0.993253 5.395270 255 97 0 0.420803
-0.718788 -0.982380 5.378370 255 104 0 0.406310
-0.726951 -0.984262 5.415540 255 116 0 0.380710
-0.731493 -0.978077 5.388250 255 97 0 0.421028
-0.744256 -0.974277 5.397850 255 97 0 0.422029
-0.706757 -0.986905 5.367970 255 130 0 0.351630
-0.620034 -1.039480 5.425630 255 97 0 0.427012
-0.609834 -1.042120 5.452250 255 116 0 0.384357
-0.591617 -1.047680 5.463830 255 93 0 0.428488
-0.607817 -1.040630 5.491240 255 93 0 0.428822
-0.628255 -1.034040 5.478470 255 97 0 0.427333
-0.648500 -1.026880 5.465190 255 90 0 0.436731
-0.641784 -1.027670 5.552700 255 90 0 0.438190
-0.664405 -1.021500 5.539290 255 93 0 0.431504
-0.654409 -1.024340 5.523910 255 93 0 0.431050
-0.687011 -1.015590 5.525300 255 97 0 0.424241
-0.676943 -1.018120 5.509870 255 93 0 0.429123
-0.699997 -1.011040 5.494900 255 97 0 0.427162
-0.710071 -1.008970 5.510470 255 138 0 0.339708
-0.666819 -1.020970 5.494170 255 93 0 0.427957
-0.689800 -1.013060 5.479260 255 97 0 0.426725
-0.646426 -1.026660 5.507480 255 93 0 0.429425
-0.626075 -1.032460 5.519980 255 78 0 0.467966
-0.634146 -1.029710 5.536360 255 93 0 0.432322
-0.725985 -0.999258 5.495730 255 97 0 0.425779
-0.749369 -0.986430 5.477550 255 97 0 0.423959
-0.731810 -0.991135 5.464240 255 97 0 0.424433
-0.774620 -0.973198 5.457660 255 104 0 0.410000
-0.755976 -0.978338 5.444900 255 93 0 0.430308
-0.781828 -0.965015 5.423850 255 108 0 0.401360
-0.802769 -0.959343 5.435730 255 97 0 0.426121
-0.737865 -0.982663 5.431640 255 97 0 0.423208
-0.762555 -0.969819 5.411020 255 97 0 0.423351
-0.721313 -0.993257 5.448390 255 97 0 0.424109
-0.705137 -1.003040 5.464030 255 97 0 0.425348
-0.715578 -1.001490 5.479980 255 90 0 0.444025
-0.661935 -0.599609 5.188370 255 108 0 0.396198
-0.687461 -0.607794 5.195580 255 97 0 0.425790
-0.703949 -0.623323 5.191540 255 116 0 0.384087
-0.727455 -0.633574 5.200050 255 97 0 0.423112
-0.711901 -0.644902 5.175320 255 97 0 0.426274
-0.718653 -0.612107 5.216320 255 104 0 0.410716
-0.740895 -0.623666 5.227840 255 101 0 0.418654
-0.701152 -0.595202 5.219860 255 119 0 0.375840
-0.683304 -0.578688 5.223810 255 116 0 0.380168
-0.725066 -0.663668 5.173150 255 97 0 0.425684
-0.745726 -0.678121 5.184140 255 104 0 0.409535
-0.757069 -0.698125 5.184320 255 108 0 0.400298
-0.776076 -0.713768 5.198060 255 97 0 0.421323
-0.758964 -0.723469 5.172950 255 97 0 0.424117
-0.772417 -0.689259 5.211570 255 93 0 0.427532
-0.791518 -0.704994 5.227790 255 101 0 0.418424
-0.760415 -0.668765 5.211420 255 97 0 0.419760
-0.747516 -0.648500 5.212140 255 97 0 0.423182
-0.830747 -0.691338 5.295510 255 119 0 0.377895
-0.817598 -0.671673 5.295720 255 97 0 0.423573
-0.807964 -0.674442 5.278990 255 97 0 0.419892
-0.794696 -0.655414 5.279280 255 130 0 0.356104
-0.804203 -0.652349 5.295880 255 101 0 0.419179
-0.784793 -0.657941 5.261050 255 123 0 0.370708
-0.780891 -0.636079 5.278980 255 101 0 0.415235
-0.770851 -0.638440 5.260860 255 101 0 0.413548
-0.756431 -0.618737 5.259990 255 101 0 0.411903
-0.790256 -0.633621 5.295890 255 108 0 0.398351
-0.765354 -0.616908 5.277720 255 112 0 0.389029
-0.775418 -0.614588 5.295090 255 112 0 0.392365
-0.762287 -0.640779 5.242940 255 97 0 0.426515
-0.748365 -0.620943 5.243250 255 101 0 0.415788
-0.788817 -0.680799 5.244040 255 101 0 0.416983
-0.810746 -0.697483 5.262890 255 101 0 0.418586
-0.753982 -0.593596 5.295850 255 104 0 0.409147
-0.746631 -0.598981 5.276860 255 104 0 0.406408
-0.726071 -0.576792 5.278190 255 116 0 0.381924
-0.732597 -0.571709 5.297070 255 138 0 0.340314
-0.720871 -0.582481 5.260370 255 149 0 0.316693
-0.706126 -0.554800 5.280160 255 104 0 0.406006
-0.700970 -0.561201 5.264280 255 101 0 0.412551
-0.711820 -0.548948 5.297280 255 108 0 0.398855
-0.695809 -0.568114 5.248670 255 101 0 0.417471
-0.713644 -0.585481 5.246320 255 101 0 0.416769
-0.731185 -0.603072 5.244550 255 101 0 0.415903
-0.738592 -0.600666 5.260160 255 101 0 0.411265
-0.757965 -0.889748 5.251170 255 101 0 0.416961
-0.771210 -0.866111 5.250000 255 101 0 0.416566
-0.779697 -0.879444 5.272710 255 93 0 0.433585
-0.785285 -0.841914 5.248980 255 101 0 0.417482
-0.794132 -0.855393 5.271860 255 101 0 0.417705
-0.809321 -0.830351 5.271820 255 93 0 0.427783
-0.803929 -0.869260 5.294760 255 138 0 0.337691
-0.799452 -0.816952 5.248350 255 90 0 0.436239
-0.813184 -0.791313 5.250040 255 97 0 0.419561
-0.792906 -0.802285 5.223300 255 97 0 0.419565
-0.779653 -0.827055 5.223350 255 101 0 0.419049
-0.765977 -0.851528 5.224980 255 104 0 0.403540
-0.773450 -0.812506 5.199900 255 97 0 0.421253
-0.819511 -0.862859 5.305800 255 101 0 0.412322
-0.820072 -0.844773 5.296130 255 104 0 0.404894
-0.837110 -0.837358 5.307360 255 97 0 0.426609
-0.836220 -0.855814 5.316660 255 97 0 0.426321
-0.837505 -0.819309 5.298960 255 97 0 0.425986
-0.852099 -0.831092 5.319780 255 93 0 0.429228
-0.851561 -0.813156 5.311580 255 93 0 0.428875
-0.865626 -0.806808 5.324340 255 97 0 0.426348
-0.851869 -0.849061 5.328000 255 104 0 0.403393
-0.866323 -0.824696 5.331920 255 93 0 0.430537
-0.866169 -0.842970 5.340210 255 97 0 0.420353
-0.851148 -0.794866 5.303410 255 101 0 0.416916
-0.864685 -0.788852 5.316410 255 93 0 0.429310
-0.862418 -0.770479 5.308880 255 93 0 0.428175
-0.850232 -0.774930 5.294510 255 93 0 0.430853
-0.838293 -0.799390 5.289070 255 97 0 0.425098
-0.838348 -0.779578 5.280030 255 97 0 0.424076
-0.824514 -0.805076 5.274720 255 108 0 0.400133
-0.822540 -0.825033 5.285410 255 101 0 0.414016
-0.825501 -0.785278 5.265200 255 97 0 0.421240
-0.829574 -0.714741 5.282990 255 97 0 0.422833
-0.826148 -0.738691 5.270400 255 108 0 0.403100
-0.808601 -0.722144 5.250030 255 101 0 0.418625
-0.815236 -0.742959 5.253620 255 97 0 0.419365
-0.805211 -0.747661 5.236740 255 97 0 0.421141
-0.821043 -0.764580 5.259080 255 97 0 0.420156
-0.832948 -0.758986 5.275020 255 90 0 0.438740
-0.844386 -0.754597 5.289930 255 97 0 0.425285
-0.837061 -0.734324 5.285950 255 97 0 0.424502
-0.848217 -0.729445 5.301180 255 101 0 0.417707
-0.855976 -0.750102 5.304710 255 93 0 0.427579
-0.839152 -0.710531 5.298200 255 97 0 0.425946
-0.789942 -0.730986 5.217510 255 101 0 0.419103
-0.786680 -0.757863 5.208890 255 104 0 0.406918
-0.773359 -0.740577 5.189900 255 97 0 0.421860
-0.768921 -0.767821 5.183370 255 97 0 0.422687
-0.781567 -0.785198 5.202620 255 97 0 0.420817
-0.800059 -0.774708 5.228470 255 101 0 0.419234
-0.612038 -0.651464 5.132730 255 97 0 0.423532
-0.626784 -0.663714 5.129760 255 93 0 0.430579
-0.650028 -0.669955 5.132490 255 93 0 0.429932
-0.664667 -0.682962 5.129210 255 101 0 0.411488
-0.680892 -0.669874 5.140910 255 93 0 0.429038
-0.665114 -0.655879 5.145260 255 104 0 0.410987
-0.642352 -0.650104 5.142810 255 123 0 0.372092
-0.626033 -0.636855 5.147080 255 93 0 0.429924
-0.668750 -0.706891 5.122250 255 108 0 0.403042
-0.679655 -0.723943 5.122950 255 108 0 0.402797
-0.698764 -0.736213 5.129310 255 108 0 0.397529
-0.707958 -0.754003 5.130870 255 93 0 0.428047
-0.725867 -0.743976 5.140910 255 108 0 0.397881
-0.715571 -0.724647 5.139710 255 108 0 0.397212
-0.696755 -0.712136 5.133910 255 93 0 0.428676
-0.685278 -0.693947 5.134090 255 104 0 0.405664
-0.741378 -0.708866 5.163230 255 104 0 0.407198
-0.730444 -0.688998 5.163280 255 97 0 0.426372
-0.710429 -0.675921 5.155930 255 93 0 0.427550
-0.697368 -0.657073 5.157710 255 93 0 0.428004
-0.713772 -0.700552 5.147030 255 93 0 0.427714
-0.743646 -0.733411 5.156310 255 101 0 0.418542
-0.689534 -0.636543 5.170540 255 97 0 0.422510
-0.672898 -0.621414 5.174830 255 101 0 0.417903
-0.648834 -0.614715 5.170710 255 104 0 0.405034
-0.657828 -0.635373 5.157410 255 108 0 0.397420
-0.750846 -0.903830 5.264780 255 116 0 0.383460
-0.763304 -0.898368 5.273920 255 101 0 0.415444
-0.756459 -0.912579 5.287530 255 101 0 0.415803
-0.744266 -0.917928 5.277950 255 101 0 0.415958
-0.769282 -0.907470 5.296590 255 101 0 0.416093
-0.750193 -0.926651 5.300480 255 101 0 0.415682
-0.762983 -0.922019 5.309650 255 101 0 0.417092
-0.756635 -0.936375 5.323070 255 123 0 0.366622
-0.738292 -0.931876 5.290830 255 101 0 0.416186
-0.744415 -0.940850 5.313400 255 101 0 0.416829
-0.732493 -0.946232 5.303580 255 101 0 0.417194
-0.775672 -0.917299 5.319430 255 116 0 0.384512
-0.769573 -0.932183 5.332380 255 97 0 0.419411
-0.783146 -0.927781 5.341770 255 97 0 0.420622
-0.793260 -0.898743 5.317860 255 97 0 0.420881
-0.785987 -0.888814 5.295620 255 101 0 0.418384
-0.722506 -0.957021 5.317650 255 130 0 0.356784
-0.734983 -0.952135 5.327440 255 101 0 0.416208
-0.725064 -0.963344 5.341500 255 101 0 0.416906
-0.712827 -0.968465 5.331210 255 101 0 0.416802
-0.737567 -0.958646 5.351250 255 101 0 0.417851
-0.715710 -0.974963 5.354760 255 101 0 0.417450
-0.727912 -0.970075 5.365080 255 101 0 0.418929
-0.703401 -0.980360 5.344640 255 127 0 0.358925
-0.740580 -0.965947 5.374910 255 86 0 0.451286
-0.753335 -0.962241 5.384300 255 97 0 0.421175
-0.749720 -0.954233 5.361290 255 97 0 0.419462
-0.762726 -0.950182 5.370560 255 97 0 0.421405
-0.759251 -0.943087 5.347050 255 108 0 0.397196
-0.746784 -0.947276 5.337350 255 101 0 0.417750
-0.772993 -0.938769 5.356160 255 93 0 0.429931
-0.832613 -0.938783 5.429980 255 101 0 0.416264
-0.814304 -0.946600 5.422020 255 97 0 0.427335
-0.821789 -0.933559 5.404240 255 93 0 0.427780
-0.839626 -0.925995 5.412940 255 93 0 0.430331
-0.803724 -0.940362 5.395680 255 123 0 0.367939
-0.828673 -0.920876 5.386380 255 93 0 0.428494
-0.810617 -0.927489 5.377780 255 123 0 0.368941
-0.817563 -0.915042 5.359810 255 97 0 0.425655
-0.847122 -0.913066 5.395330 255 93 0 0.430410
-0.836826 -0.907910 5.368360 255 93 0 0.428271
-0.853629 -0.900647 5.378220 255 93 0 0.430392
-0.792922 -0.933601 5.369030 255 97 0 0.423598
-0.799421 -0.921812 5.351200 255 97 0 0.423038
-0.782716 -0.945671 5.383030 255 82 0 0.456480
-0.771960 -0.957751 5.397310 255 97 0 0.423262
-0.792510 -0.952615 5.409890 255 97 0 0.425422
-0.845825 -0.877648 5.347730 255 93 0 0.429247
-0.860215 -0.871717 5.358880 255 112 0 0.388574
-0.829491 -0.884587 5.336690 255 97 0 0.426629
-0.810215 -0.891875 5.327520 255 123 0 0.372279
0.122382 -1.046110 5.132550 255 97 0 0.427357
0.144201 -1.042580 5.114770 255 97 0 0.423111
0.106487 -1.041490 5.113660 255 104 0 0.407955
0.128494 -1.038170 5.096080 255 97 0 0.421905
0.092537 -1.035630 5.095400 255 93 0 0.427685
0.116671 -1.031200 5.078990 255 112 0 0.394660
0.080725 -1.028480 5.077750 255 93 0 0.427805
0.105292 -1.024420 5.061230 255 104 0 0.410962
-0.330757 -1.019270 5.151580 255 93 0 0.427588
-0.356226 -1.009700 5.146220 255 97 0 0.425014
-0.317071 -1.013780 5.136950 255 101 0 0.412101
-0.342404 -1.004840 5.130840 255 93 0 0.427915
-0.328666 -0.999009 5.116430 255 93 0 0.427764
-0.368341 -0.994952 5.125940 255 93 0 0.428529
-0.303935 -1.007610 5.122560 255 97 0 0.427310
-0.290441 -1.000870 5.108640 255 97 0 0.427133
-0.280234 -1.014190 5.127290 255 97 0 0.425641
-0.293537 -1.020980 5.141410 255 101 0 0.416707
-0.306733 -1.027150 5.155750 255 101 0 0.413989
-0.270228 -1.027640 5.145920 255 97 0 0.426811
-0.351820 -0.988830 5.112630 255 93 0 0.428233
-0.376681 -0.975909 5.107720 255 93 0 0.428779
-0.335495 -0.981879 5.099960 255 93 0 0.427930
-0.359719 -0.969199 5.094500 255 90 0 0.437937
-0.343225 -0.961866 5.081930 255 93 0 0.428254
-0.384790 -0.956223 5.089570 255 93 0 0.429323
-0.319657 -0.974052 5.087860 255 93 0 0.427695
-0.303456 -0.966092 5.076510 255 97 0 0.427377
-0.297101 -0.983710 5.092460 255 97 0 0.427271
-0.313019 -0.991668 5.104020 255 93 0 0.427500
-0.197108 -0.975890 5.059560 255 97 0 0.426155
-0.222499 -0.981946 5.072360 255 104 0 0.411194
-0.191961 -0.990278 5.073520 255 97 0 0.426355
-0.246731 -0.988365 5.084830 255 104 0 0.407772
-0.217427 -0.996662 5.086040 255 97 0 0.426486
-0.241541 -1.003020 5.098930 255 97 0 0.426656
-0.186411 -1.004890 5.086960 255 97 0 0.426373
-0.269348 -0.994808 5.096790 255 97 0 0.426901
-0.275937 -0.977487 5.081030 255 97 0 0.426944
-0.253478 -0.970792 5.069370 255 97 0 0.426600
-0.209299 -1.010410 5.101850 255 97 0 0.426554
-0.176580 -1.016160 5.102900 255 97 0 0.426560
-0.231349 -1.016210 5.117010 255 97 0 0.426703
-0.199967 -1.021740 5.118190 255 97 0 0.426602
-0.222323 -1.027730 5.133740 255 97 0 0.426601
-0.166452 -1.027440 5.119250 255 97 0 0.426655
-0.251727 -1.022240 5.131550 255 97 0 0.426806
-0.261733 -1.008720 5.113230 255 93 0 0.430160
0.044892 -0.983692 5.013560 255 101 0 0.415893
0.041430 -0.970103 5.004110 255 97 0 0.426411
0.037551 -0.956841 4.994770 255 97 0 0.426066
0.037183 -0.940882 4.988320 255 97 0 0.425675
0.069900 -1.020190 5.061420 255 93 0 0.427762
0.095904 -1.015360 5.046490 255 93 0 0.428202
0.060564 -1.010870 5.046490 255 93 0 0.427521
0.086682 -1.006280 5.031680 255 93 0 0.428043
0.053232 -1.000420 5.032600 255 97 0 0.427406
-0.167591 -0.970463 5.049350 255 97 0 0.426027
-0.198978 -0.958914 5.050330 255 97 0 0.426027
-0.138796 -0.964462 5.039960 255 97 0 0.425938
-0.169776 -0.953674 5.040110 255 97 0 0.425796
-0.140508 -0.947965 5.030040 255 97 0 0.425762
-0.200615 -0.941704 5.040590 255 97 0 0.425782
-0.110428 -0.958157 5.030570 255 97 0 0.426038
-0.082503 -0.951719 5.020820 255 97 0 0.425892
-0.080124 -0.966309 5.030260 255 97 0 0.426166
-0.108020 -0.973077 5.039690 255 97 0 0.426185
-0.136850 -0.979489 5.049310 255 90 0 0.439132
-0.077805 -0.981191 5.039650 255 97 0 0.426328
-0.169686 -0.936036 5.032700 255 97 0 0.425612
-0.197680 -0.922041 5.035130 255 97 0 0.425690
-0.139197 -0.929782 5.024840 255 97 0 0.425411
-0.166942 -0.916453 5.027170 255 97 0 0.425350
-0.109903 -0.932058 5.019640 255 97 0 0.425556
-0.080944 -0.934010 5.014610 255 97 0 0.425674
0.006592 -0.939337 4.995320 255 108 0 0.397882
-0.023467 -0.937898 5.001930 255 97 0 0.425626
-0.023569 -0.954153 5.008560 255 97 0 0.425808
0.006496 -0.955444 5.002110 255 97 0 0.425809
-0.053225 -0.944730 5.011650 255 97 0 0.425805
-0.051880 -0.927412 5.005220 255 97 0 0.425532
0.009585 -0.969372 5.011560 255 97 0 0.426143
-0.021076 -0.968540 5.018200 255 97 0 0.426071
-0.017745 -0.982176 5.027570 255 97 0 0.426273
0.013025 -0.982911 5.020830 255 97 0 0.426408
-0.049388 -0.974629 5.028950 255 97 0 0.426264
-0.052104 -0.960240 5.019690 255 97 0 0.426067
0.049849 -1.029400 5.084900 255 104 0 0.405353
0.026226 -1.033370 5.100430 255 97 0 0.420078
0.062338 -1.036410 5.102630 255 93 0 0.429183
0.038476 -1.040680 5.118340 255 104 0 0.407321
0.002439 -1.037550 5.115750 255 97 0 0.427337
-0.020593 -1.041630 5.130680 255 97 0 0.427349
-0.034752 -1.033470 5.113250 255 104 0 0.408233
-0.011552 -1.029460 5.098380 255 97 0 0.427250
0.012247 -1.025440 5.083160 255 97 0 0.427231
-0.048946 -1.026010 5.095820 255 97 0 0.427071
0.077705 -1.042800 5.120810 255 104 0 0.405636
0.056627 -1.045710 5.137290 255 97 0 0.427334
0.093438 -1.047220 5.140190 255 97 0 0.427046
0.036094 -1.048820 5.153390 255 104 0 0.407876
-0.002602 -1.046470 5.149920 255 97 0 0.427443
0.018192 -1.043570 5.134270 255 97 0 0.427470
-0.076799 -1.051150 5.175960 255 93 0 0.432018
-0.115980 -1.048660 5.172330 255 97 0 0.427033
-0.058022 -1.047880 5.160890 255 97 0 0.427302
-0.096971 -1.045930 5.157120 255 101 0 0.419209
-0.077992 -1.042780 5.142160 255 101 0 0.415567
-0.135369 -1.044040 5.153330 255 97 0 0.426825
-0.039438 -1.044740 5.145960 255 101 0 0.417558
-0.020927 -1.049850 5.165090 255 97 0 0.427422
-0.113542 -1.039690 5.138700 255 97 0 0.427022
-0.151028 -1.035640 5.136230 255 97 0 0.426728
-0.092029 -1.035150 5.124620 255 97 0 0.427097
-0.128803 -1.031390 5.121560 255 101 0 0.416322
-0.107364 -1.027120 5.107360 255 97 0 0.426986
-0.070317 -1.030580 5.110210 255 97 0 0.427157
-0.056391 -1.038060 5.127800 255 97 0 0.423360
0.018982 -0.994733 5.033250 255 97 0 0.426750
-0.012399 -0.994597 5.040120 255 97 0 0.426591
-0.006681 -1.006080 5.052790 255 97 0 0.426741
0.024509 -1.006200 5.046170 255 97 0 0.427009
-0.040140 -1.000320 5.052700 255 97 0 0.426629
-0.067161 -1.006010 5.064950 255 93 0 0.430579
-0.072531 -0.993508 5.052110 255 97 0 0.426567
-0.045065 -0.987695 5.039750 255 97 0 0.426373
0.033787 -1.015870 5.061200 255 97 0 0.427316
0.003020 -1.016130 5.067890 255 97 0 0.427049
-0.022903 -1.021110 5.081920 255 97 0 0.419740
-0.057987 -1.015860 5.080350 255 97 0 0.426992
-0.032398 -1.010980 5.066660 255 97 0 0.426799
-0.140727 -1.022510 5.105080 255 93 0 0.429587
-0.116290 -1.016970 5.091730 255 97 0 0.426841
-0.150645 -1.011230 5.089010 255 101 0 0.412355
-0.125659 -1.006050 5.075530 255 97 0 0.426619
-0.091697 -1.011560 5.078370 255 97 0 0.426857
-0.082613 -1.021530 5.093820 255 97 0 0.427015
-0.158443 -0.999325 5.074450 255 97 0 0.426377
-0.131127 -0.993541 5.062770 255 97 0 0.426404
-0.163768 -0.985200 5.060940 255 97 0 0.426196
-0.104198 -0.987296 5.050800 255 97 0 0.426490
-0.099187 -0.999742 5.063880 255 97 0 0.426641
-0.187569 -1.031960 5.135270 255 97 0 0.426643
-0.207808 -1.036710 5.151330 255 97 0 0.426572
-0.172239 -1.040420 5.152070 255 97 0 0.425980
-0.193730 -1.045060 5.168830 255 104 0 0.408643
-0.226656 -1.041190 5.167520 255 97 0 0.426603
-0.243844 -1.045440 5.183160 255 101 0 0.416175
-0.256789 -1.036380 5.164560 255 97 0 0.426784
-0.240433 -1.032210 5.149270 255 97 0 0.426646
-0.154159 -1.046900 5.169800 255 97 0 0.426754
-0.174583 -1.049440 5.187830 255 97 0 0.426639
-0.133789 -1.051830 5.188660 255 97 0 0.426902
-0.193340 -1.052040 5.205230 255 97 0 0.426481
-0.226869 -1.049670 5.202730 255 97 0 0.426465
-0.211242 -1.047560 5.185960 255 97 0 0.426495
-0.281751 -1.050320 5.220500 255 101 0 0.418343
-0.263482 -1.050420 5.214770 255 97 0 0.426700
-0.280071 -1.045820 5.194330 255 108 0 0.401003
-0.298188 -1.045880 5.200040 255 97 0 0.419614
-0.253716 -1.048070 5.199160 255 104 0 0.406177
-0.237202 -1.052320 5.218690 255 93 0 0.431750
-0.311615 -1.036130 5.180980 255 93 0 0.428503
-0.292959 -1.036680 5.175930 255 97 0 0.427066
-0.281568 -1.032460 5.160680 255 97 0 0.426948
-0.268521 -1.041290 5.179340 255 97 0 0.426803
-0.456286 -1.027070 5.217840 255 93 0 0.430716
-0.457211 -1.035330 5.234690 255 93 0 0.430759
-0.437809 -1.050080 5.257710 255 93 0 0.430301
-0.458117 -1.043540 5.251470 255 93 0 0.430727
-0.458993 -1.052020 5.268310 255 93 0 0.430678
-0.479329 -1.036420 5.244280 255 93 0 0.431066
-0.478280 -1.027820 5.227220 255 93 0 0.431178
-0.477577 -1.020020 5.210140 255 93 0 0.431265
-0.499596 -1.021220 5.219610 255 93 0 0.431315
-0.402854 -1.057820 5.275120 255 93 0 0.429337
-0.401228 -1.062650 5.292400 255 93 0 0.429212
-0.421444 -1.065270 5.303440 255 90 0 0.435895
-0.423312 -1.060100 5.286410 255 93 0 0.429781
-0.435967 -1.055740 5.274720 255 93 0 0.430214
-0.458694 -1.069010 5.326800 255 93 0 0.430298
-0.462415 -1.063910 5.309290 255 93 0 0.430534
-0.475291 -1.059380 5.297530 255 93 0 0.430736
-0.478751 -1.053720 5.280240 255 93 0 0.430896
-0.498472 -1.055370 5.291390 255 93 0 0.430984
-0.455906 -1.057600 5.286030 255 93 0 0.430557
-0.443090 -1.062020 5.297620 255 90 0 0.442668
-0.440019 -1.067090 5.315170 255 93 0 0.429992
-0.498632 -1.046560 5.273470 255 93 0 0.431107
-0.519149 -1.038830 5.266290 255 93 0 0.431093
-0.498912 -1.037880 5.255550 255 86 0 0.447186
-0.519832 -1.030450 5.248430 255 93 0 0.431195
-0.519978 -1.022150 5.230250 255 104 0 0.408821
-0.540905 -1.023060 5.240690 255 93 0 0.430930
-0.499493 -1.029380 5.237790 255 112 0 0.394223
-0.478879 -1.044900 5.262200 255 93 0 0.430961
-0.364957 -0.949056 5.079470 255 93 0 0.428875
-0.388670 -0.932565 5.076340 255 93 0 0.429594
-0.345852 -0.941249 5.069920 255 93 0 0.428390
-0.368611 -0.925334 5.066390 255 86 0 0.446834
-0.348956 -0.917216 5.057540 255 93 0 0.428460
-0.392131 -0.908987 5.063310 255 93 0 0.429847
-0.326920 -0.932898 5.061750 255 93 0 0.427981
-0.308198 -0.924551 5.053820 255 93 0 0.427497
-0.306066 -0.945386 5.065230 255 93 0 0.427523
-0.324585 -0.953676 5.073170 255 93 0 0.427891
-0.368899 -0.902142 5.056610 255 93 0 0.429163
-0.390127 -0.884016 5.055790 255 93 0 0.429894
-0.346260 -0.894687 5.050880 255 90 0 0.435916
-0.366596 -0.876955 5.049470 255 101 0 0.416184
-0.325653 -0.898283 5.049040 255 93 0 0.432496
-0.305530 -0.901837 5.047760 255 97 0 0.427434
-0.227060 -0.916997 5.039620 255 97 0 0.425937
-0.254629 -0.912627 5.043030 255 97 0 0.426358
-0.257623 -0.932659 5.048550 255 97 0 0.426523
-0.230043 -0.936852 5.045110 255 97 0 0.426177
-0.282069 -0.918505 5.048560 255 97 0 0.426963
-0.279415 -0.895956 5.042740 255 97 0 0.426823
-0.227788 -0.955806 5.055070 255 97 0 0.426234
-0.255242 -0.953364 5.059100 255 97 0 0.426566
-0.280063 -0.959719 5.067950 255 97 0 0.427017
-0.282299 -0.938885 5.056890 255 97 0 0.426953
-0.584717 -0.789106 5.085440 255 93 0 0.432706
-0.566760 -0.778894 5.080880 255 93 0 0.432981
-0.568473 -0.759690 5.082060 255 93 0 0.432842
-0.549730 -0.750202 5.077590 255 93 0 0.432965
-0.548518 -0.768947 5.075940 255 97 0 0.425667
-0.530421 -0.759340 5.070550 255 93 0 0.433178
-0.544590 -0.786450 5.074400 255 93 0 0.434740
-0.561947 -0.796737 5.079670 255 97 0 0.427227
-0.579759 -0.807044 5.084580 255 93 0 0.432836
-0.556717 -0.814698 5.078540 255 93 0 0.433283
-0.549482 -0.734214 5.081840 255 93 0 0.433059
-0.526494 -0.711081 5.084300 255 93 0 0.433227
-0.499474 -0.725993 5.073410 255 93 0 0.427783
-0.519323 -0.732390 5.075950 255 93 0 0.433215
-0.469772 -0.740538 5.064670 255 93 0 0.432537
-0.490187 -0.746676 5.066960 255 93 0 0.432832
-0.509004 -0.767834 5.065510 255 97 0 0.425979
-0.477625 -0.766072 5.060370 255 97 0 0.422798
-0.492339 -0.789796 5.061820 255 97 0 0.423396
-0.509913 -0.799107 5.066750 255 93 0 0.432856
-0.528145 -0.808442 5.071650 255 93 0 0.433080
-0.508860 -0.829165 5.068230 255 93 0 0.431933
-0.526800 -0.777158 5.070020 255 101 0 0.414980
-0.395928 -0.964988 5.102730 255 97 0 0.419291
-0.407243 -0.973036 5.115920 255 90 0 0.438275
-0.387476 -0.983864 5.120860 255 93 0 0.427815
-0.398481 -0.991641 5.134000 255 93 0 0.429330
-0.418695 -0.980867 5.129060 255 93 0 0.430052
-0.430530 -0.988375 5.142620 255 93 0 0.430338
-0.438856 -0.968669 5.124190 255 93 0 0.430768
-0.426980 -0.960837 5.110630 255 90 0 0.438381
-0.415168 -0.952607 5.097380 255 93 0 0.430593
-0.447259 -0.948867 5.105310 255 93 0 0.431116
-0.376937 -1.001060 5.140590 255 90 0 0.440796
-0.386264 -1.007200 5.155260 255 86 0 0.446804
-0.365029 -1.016170 5.160810 255 101 0 0.418429
-0.417740 -1.004220 5.163300 255 93 0 0.429849
-0.408052 -0.997735 5.148810 255 93 0 0.429487
-0.455154 -1.002540 5.175140 255 97 0 0.420048
-0.455314 -0.986975 5.150150 255 93 0 0.431485
-0.473801 -0.993716 5.167910 255 93 0 0.430992
-0.436485 -1.011460 5.181870 255 86 0 0.450375
-0.484386 -0.975115 5.147730 255 97 0 0.425308
-0.475927 -0.966116 5.135060 255 93 0 0.431398
-0.467740 -0.956788 5.122100 255 93 0 0.431453
-0.492301 -0.954713 5.129060 255 93 0 0.431726
-0.483879 -0.945937 5.115860 255 93 0 0.431727
-0.447073 -0.977719 5.137200 255 90 0 0.439634
-0.693334 -0.975862 5.314250 255 101 0 0.418183
-0.703135 -0.964280 5.301150 255 101 0 0.417296
-0.713181 -0.953433 5.287490 255 108 0 0.399517
-0.693504 -0.961440 5.270910 255 97 0 0.421852
-0.673896 -0.983367 5.297000 255 97 0 0.421681
-0.674479 -0.991254 5.318230 255 116 0 0.380754
-0.675256 -0.999505 5.339490 255 97 0 0.422274
-0.655812 -1.007090 5.321640 255 97 0 0.424629
-0.726423 -0.925057 5.261480 255 101 0 0.417588
-0.733150 -0.911276 5.248070 255 101 0 0.418186
-0.740177 -0.897430 5.234760 255 101 0 0.419220
-0.721874 -0.905569 5.218660 255 97 0 0.422235
-0.714142 -0.919158 5.232340 255 97 0 0.421132
-0.706551 -0.932881 5.245770 255 97 0 0.420858
-0.709646 -0.942866 5.266640 255 112 0 0.394667
-0.685025 -0.917945 5.192420 255 97 0 0.427026
-0.676855 -0.931298 5.205890 255 97 0 0.426581
-0.679532 -0.941931 5.225150 255 97 0 0.425301
-0.672643 -0.955545 5.237470 255 97 0 0.425057
-0.675558 -0.966840 5.256660 255 119 0 0.376056
-0.656768 -0.972228 5.241860 255 97 0 0.426620
-0.691056 -0.950145 5.251700 255 97 0 0.422450
-0.696092 -0.925285 5.219090 255 97 0 0.424235
-0.703899 -0.911655 5.205640 255 90 0 0.438401
-0.656340 -0.980473 5.262060 255 97 0 0.425517
-0.637387 -0.993439 5.267170 255 97 0 0.426208
-0.655888 -0.989059 5.282120 255 97 0 0.424602
-0.637340 -1.002540 5.287070 255 97 0 0.425938
-0.637625 -1.011930 5.306780 255 97 0 0.425964
-0.619230 -1.016190 5.291490 255 97 0 0.427038
-0.655532 -0.997920 5.302070 255 97 0 0.424197
-0.674656 -0.975143 5.277020 255 97 0 0.422882
-0.594653 -0.934971 5.149650 255 104 0 0.410294
-0.598300 -0.919023 5.140350 255 93 0 0.431355
-0.589599 -0.905110 5.128760 255 93 0 0.431809
-0.593300 -0.888937 5.119520 255 108 0 0.401604
-0.584146 -0.875229 5.107470 255 104 0 0.403554
-0.608654 -0.870158 5.113650 255 93 0 0.432014
-0.568785 -0.893832 5.113230 255 93 0 0.432441
-0.559990 -0.880367 5.100810 255 108 0 0.403206
-0.564880 -0.908727 5.121730 255 97 0 0.420084
-0.561857 -0.923750 5.129810 255 93 0 0.431960
-0.570282 -0.937208 5.142020 255 93 0 0.431820
-0.545919 -0.939980 5.133870 255 93 0 0.431864
-0.607452 -0.852498 5.107290 255 97 0 0.422963
-0.594687 -0.838586 5.098880 255 93 0 0.432599
-0.592958 -0.820898 5.092870 255 101 0 0.416555
-0.570775 -0.828397 5.087160 255 97 0 0.424622
-0.571632 -0.844875 5.092850 255 93 0 0.432884
-0.572224 -0.861502 5.098420 255 93 0 0.432884
-0.522460 -0.841899 5.076400 255 93 0 0.433094
-0.509575 -0.859453 5.078320 255 93 0 0.432882
-0.535302 -0.854730 5.084490 255 93 0 0.433000
-0.522245 -0.872286 5.086820 255 93 0 0.432899
-0.534820 -0.884910 5.095190 255 104 0 0.405055
-0.509880 -0.889284 5.088920 255 93 0 0.432699
-0.547823 -0.867546 5.092830 255 93 0 0.433208
-0.546385 -0.834749 5.081450 255 93 0 0.433148
-0.519179 -0.902140 5.100270 255 93 0 0.432613
-0.502910 -0.917213 5.104130 255 93 0 0.432236
-0.528457 -0.914794 5.111440 255 93 0 0.432597
-0.512347 -0.929733 5.115650 255 93 0 0.432029
-0.521036 -0.942264 5.126930 255 93 0 0.432027
-0.537655 -0.927451 5.122640 255 93 0 0.431999
-0.543777 -0.897657 5.106410 255 93 0 0.432768
-0.434893 -0.754178 5.056860 255 101 0 0.413232
-0.420813 -0.773400 5.051920 255 93 0 0.431044
-0.436333 -0.794040 5.051030 255 93 0 0.431386
-0.451574 -0.774877 5.055760 255 93 0 0.431813
-0.380691 -0.772857 5.047960 255 97 0 0.423749
-0.378689 -0.797638 5.045290 255 93 0 0.429665
-0.402295 -0.803649 5.046690 255 86 0 0.450386
-0.411405 -0.788527 5.049230 255 93 0 0.430645
-0.399214 -0.842850 5.049180 255 97 0 0.419615
-0.420554 -0.851233 5.053240 255 93 0 0.430721
-0.410966 -0.826586 5.049970 255 93 0 0.430593
-0.433020 -0.834919 5.054090 255 93 0 0.431202
-0.445917 -0.818399 5.054670 255 101 0 0.414339
-0.455593 -0.842816 5.058490 255 104 0 0.407156
-0.423488 -0.810358 5.050480 255 93 0 0.431189
-0.390403 -0.819670 5.046440 255 97 0 0.421042
-0.476346 -0.822913 5.061380 255 93 0 0.432249
-0.484606 -0.806403 5.061600 255 93 0 0.432327
-0.465795 -0.797857 5.057300 255 93 0 0.431994
-0.404832 -0.868783 5.054730 255 93 0 0.432751
-0.422115 -0.878510 5.061590 255 93 0 0.430798
-0.406923 -0.893703 5.062470 255 93 0 0.430342
-0.423911 -0.903166 5.069880 255 93 0 0.430763
-0.439916 -0.888201 5.068880 255 93 0 0.431209
-0.457776 -0.897783 5.076630 255 90 0 0.436236
-0.456542 -0.870325 5.067350 255 97 0 0.424707
-0.438335 -0.860924 5.060120 255 93 0 0.431387
-0.405739 -0.919308 5.073330 255 90 0 0.441573
-0.419648 -0.929388 5.083830 255 93 0 0.430597
-0.401888 -0.942727 5.086710 255 104 0 0.410737
-0.433344 -0.939310 5.094300 255 93 0 0.430907
-0.452585 -0.923382 5.090940 255 93 0 0.431483
-0.438286 -0.913290 5.080160 255 82 0 0.455452
-0.477519 -0.921587 5.097990 255 93 0 0.432088
-0.493474 -0.905556 5.093680 255 93 0 0.432557
-0.483449 -0.893693 5.083110 255 93 0 0.432143
-0.467877 -0.909757 5.087480 255 93 0 0.431973
-0.462052 -0.935166 5.101640 255 93 0 0.431481
-0.496736 -0.877932 5.081230 255 93 0 0.432727
-0.482698 -0.866218 5.073350 255 90 0 0.437719
-0.495975 -0.847812 5.070950 255 93 0 0.432720
-0.469281 -0.854417 5.065850 255 93 0 0.432152
-0.470256 -0.882152 5.075200 255 101 0 0.416031
-0.576922 -0.947088 5.156350 255 93 0 0.431121
-0.559315 -0.959330 5.162500 255 93 0 0.431277
-0.552904 -0.949423 5.148030 255 93 0 0.431424
-0.536067 -0.961779 5.153840 255 86 0 0.450123
-0.542528 -0.971884 5.168150 255 93 0 0.430959
-0.526298 -0.984692 5.173690 255 93 0 0.430965
-0.548826 -0.983971 5.183380 255 93 0 0.431001
-0.565163 -0.971177 5.177910 255 93 0 0.428704
-0.582614 -0.958864 5.171250 255 93 0 0.430885
-0.571345 -0.983443 5.192830 255 108 0 0.398693
-0.529028 -0.951076 5.140090 255 108 0 0.402493
-0.512383 -0.962361 5.146200 255 104 0 0.404674
-0.491632 -0.985316 5.161340 255 104 0 0.409015
-0.519289 -0.973349 5.160050 255 93 0 0.431236
-0.472504 -1.010020 5.194050 255 93 0 0.430909
-0.490010 -1.001120 5.187700 255 97 0 0.422778
-0.494629 -1.010650 5.203400 255 93 0 0.431002
-0.512389 -1.001870 5.196530 255 93 0 0.431096
-0.507899 -0.992736 5.180850 255 93 0 0.430892
-0.516770 -1.011200 5.213270 255 93 0 0.430948
-0.534535 -1.001650 5.206900 255 93 0 0.430949
-0.537606 -1.012140 5.223900 255 93 0 0.430882
-0.555754 -1.002470 5.217040 255 93 0 0.430550
-0.552897 -0.992412 5.200000 255 93 0 0.430633
-0.530282 -0.992949 5.190170 255 93 0 0.430694
-0.689007 -0.899888 5.181090 255 97 0 0.427286
