ply
format ascii 1.0
comment VCGLIB generated
element vertex 1026
property float x
property float y
property float z
property uchar red
property uchar green
property uchar blue
property float quality
end_header
-0.276960 -0.194589 6.636110 42 255 206 0.879387
-0.265630 -0.153284 6.603610 0 181 255 0.913142
-0.257363 -0.174422 6.624960 0 213 255 0.902915
-0.237571 -0.154059 6.613150 0 169 255 0.917699
-0.248866 -0.195801 6.645880 6 237 242 0.895361
-0.245731 -0.132577 6.591690 0 137 255 0.926776
-0.225775 -0.111514 6.579880 0 137 255 0.926584
-0.256064 -0.109922 6.568920 0 177 255 0.914707
-0.276137 -0.130534 6.581010 0 209 255 0.904752
-0.194159 -0.042701 6.499920 0 33 255 0.957092
-0.211050 -0.041759 6.493760 0 37 255 0.955921
-0.218137 -0.059122 6.515070 0 45 255 0.953527
-0.234700 -0.057983 6.508690 0 53 255 0.951672
-0.227713 -0.040665 6.487270 0 49 255 0.952687
-0.241315 -0.075557 6.529500 0 69 255 0.947213
-0.251253 -0.056934 6.502120 0 65 255 0.948009
-0.257883 -0.074552 6.522980 0 65 255 0.948415
-0.274267 -0.073128 6.516480 0 81 255 0.943502
-0.244615 -0.039987 6.480660 0 57 255 0.950916
-0.267965 -0.056050 6.495440 0 65 255 0.948930
-0.261296 -0.039147 6.473630 0 49 255 0.952808
-0.264089 -0.091962 6.543640 0 129 255 0.929713
-0.280618 -0.090699 6.537200 0 145 255 0.924592
-0.233578 -0.093325 6.554940 0 97 255 0.939203
-0.210755 -0.076321 6.540950 0 57 255 0.950416
-0.278421 -0.037781 6.467250 0 65 255 0.947809
-0.300460 -0.053739 6.482940 0 89 255 0.941234
-0.295363 -0.036302 6.460470 0 85 255 0.942422
-0.305263 -0.071488 6.505010 0 113 255 0.934155
-0.317403 -0.052289 6.476110 0 117 255 0.933537
-0.322235 -0.069899 6.498350 0 153 255 0.921706
-0.312579 -0.035164 6.453690 0 101 255 0.938361
-0.326825 -0.087809 6.519970 0 197 255 0.908432
-0.070894 -0.061962 6.577880 0 33 255 0.957354
-0.054947 -0.062090 6.585880 0 33 255 0.957551
-0.066728 -0.076546 6.605600 0 81 255 0.943281
-0.082650 -0.076583 6.597410 0 69 255 0.947248
-0.050910 -0.076384 6.613710 0 85 255 0.942768
-0.078377 -0.091606 6.624930 0 161 255 0.919771
-0.062705 -0.091468 6.633100 0 165 255 0.918061
-0.073837 -0.107420 6.651560 16 249 232 0.891069
-0.094087 -0.092175 6.616800 0 137 255 0.927296
-0.089314 -0.108115 6.643390 3 233 245 0.896196
-0.104887 -0.108744 6.635000 0 197 255 0.907638
-0.046803 -0.091391 6.641150 0 177 255 0.914722
-0.058095 -0.107335 6.659830 35 255 213 0.882413
-0.042449 -0.107163 6.668070 32 255 216 0.883473
-0.029650 -0.092166 6.649450 0 153 255 0.922596
-0.033761 -0.076895 6.621930 0 85 255 0.942881
-0.016544 -0.077885 6.630140 0 57 255 0.950717
-0.020594 -0.063183 6.602560 0 21 255 0.961152
-0.037785 -0.062382 6.594180 0 33 255 0.956941
-0.003354 -0.063946 6.610810 0 9 255 0.964412
-0.113493 -0.130066 6.650370 0 197 255 0.908300
-0.107209 -0.150916 6.672840 0 225 251 0.898897
-0.114589 -0.172931 6.686660 9 241 238 0.894031
-0.107492 -0.194192 6.707990 22 255 226 0.888224
-0.136013 -0.195327 6.692250 0 209 255 0.904668
-0.085927 -0.171891 6.702490 29 255 219 0.885691
-0.079032 -0.193123 6.723830 51 255 196 0.875497
-0.070739 -0.171383 6.711020 45 255 203 0.878722
-0.077468 -0.149756 6.689350 25 255 222 0.886866
-0.062139 -0.149462 6.697750 45 255 203 0.877869
-0.068229 -0.128127 6.675150 35 255 213 0.883026
-0.083747 -0.128611 6.666760 19 253 229 0.889560
-0.052692 -0.127917 6.683480 19 253 229 0.889051
-0.028022 -0.170916 6.738010 93 255 155 0.856099
-0.018114 -0.148894 6.725120 80 255 167 0.862057
-0.033298 -0.149269 6.715770 80 255 167 0.861529
-0.006974 -0.127910 6.710750 67 255 180 0.868468
-0.022566 -0.127864 6.701670 64 255 184 0.869995
-0.010720 -0.107658 6.686170 38 255 209 0.880946
0.005299 -0.108340 6.694830 25 255 222 0.887236
-0.026545 -0.107428 6.677140 45 255 203 0.878336
-0.050688 -0.192585 6.741720 80 255 167 0.862104
0.018445 -0.094107 6.675780 0 121 255 0.931717
0.033030 -0.080318 6.656850 0 29 255 0.958630
0.015540 -0.079150 6.648030 0 45 255 0.954563
0.047732 -0.066562 6.637550 0 0 237 0.974561
0.030302 -0.065477 6.628650 0 0 255 0.969504
0.012794 -0.064613 6.619730 0 0 255 0.966736
-0.000526 -0.078180 6.639290 0 61 255 0.949221
-0.013659 -0.092365 6.658440 0 149 255 0.923254
0.002398 -0.093134 6.667310 0 145 255 0.924764
-0.143913 -0.174061 6.671300 0 193 255 0.909438
-0.136437 -0.152440 6.657140 0 181 255 0.913876
-0.143790 -0.131325 6.635220 0 181 255 0.913675
-0.135563 -0.109977 6.620180 0 177 255 0.914179
-0.165750 -0.111194 6.605390 0 149 255 0.923685
-0.172769 -0.132871 6.620970 0 145 255 0.924071
-0.165661 -0.153494 6.643060 0 165 255 0.917897
-0.172090 -0.175124 6.658190 0 177 255 0.914976
-0.164320 -0.196261 6.679450 0 197 255 0.908164
-0.192631 -0.196611 6.667000 0 193 255 0.909547
-0.110773 -0.091943 6.608900 0 141 255 0.925686
-0.099375 -0.076308 6.589710 0 85 255 0.942521
-0.116354 -0.075835 6.581980 0 85 255 0.942284
-0.087800 -0.061547 6.570320 0 33 255 0.957336
-0.104756 -0.060847 6.562680 0 45 255 0.954068
-0.093214 -0.046552 6.542990 0 13 255 0.962628
-0.076291 -0.046988 6.550680 0 13 255 0.963387
-0.121739 -0.060530 6.555000 0 49 255 0.952784
-0.110201 -0.045922 6.535270 0 25 255 0.960070
-0.127034 -0.045698 6.527710 0 17 255 0.961455
-0.147289 -0.076726 6.567920 0 65 255 0.948855
-0.141695 -0.093075 6.594400 0 113 255 0.934531
-0.187434 -0.059053 6.527190 0 45 255 0.954019
-0.180433 -0.075993 6.553890 0 77 255 0.944846
-0.203509 -0.093794 6.567050 0 89 255 0.940862
-0.195708 -0.111542 6.592460 0 157 255 0.920883
-0.173209 -0.093451 6.579830 0 97 255 0.938977
-0.163935 -0.076319 6.560990 0 73 255 0.946366
-0.154016 -0.060097 6.541110 0 53 255 0.951624
-0.170731 -0.059375 6.534210 0 49 255 0.953398
-0.160618 -0.043845 6.513930 0 41 255 0.955457
-0.143858 -0.044668 6.520840 0 29 255 0.958781
-0.177449 -0.043214 6.507030 0 41 255 0.955643
-0.217837 -0.132476 6.602040 0 153 255 0.922749
-0.209586 -0.153699 6.624030 0 157 255 0.920698
-0.229207 -0.175088 6.635080 0 193 255 0.909480
-0.220776 -0.196261 6.656470 0 205 255 0.905019
-0.201159 -0.175254 6.645680 0 173 255 0.915997
-0.140830 -0.220498 6.703400 0 185 255 0.912249
-0.132311 -0.245477 6.721440 0 173 255 0.915355
-0.137780 -0.270240 6.732850 0 201 255 0.907096
-0.129772 -0.294941 6.750740 16 249 232 0.891121
-0.157056 -0.294371 6.738070 13 245 235 0.892707
-0.110502 -0.270576 6.745640 0 209 255 0.904387
-0.102532 -0.295414 6.763330 32 255 216 0.883899
-0.104360 -0.245328 6.735450 0 193 255 0.909411
-0.098735 -0.219805 6.725370 0 209 255 0.903754
-0.159406 -0.321581 6.744200 0 221 255 0.899611
-0.148672 -0.349105 6.756350 3 233 245 0.896602
-0.151389 -0.376597 6.762450 22 255 226 0.888445
-0.125389 -0.376717 6.773940 32 255 216 0.883905
-0.122236 -0.349625 6.768430 16 249 232 0.891327
-0.119217 -0.322500 6.762600 6 237 242 0.895304
-0.073046 -0.378368 6.798940 74 255 174 0.864420
-0.069268 -0.351184 6.794480 32 255 216 0.884425
-0.078911 -0.323664 6.782680 22 255 226 0.888433
-0.075434 -0.296187 6.777850 29 255 219 0.885537
-0.095621 -0.350411 6.780890 32 255 216 0.884171
-0.098902 -0.377498 6.786340 64 255 184 0.869653
-0.055854 -0.271312 6.775620 16 249 232 0.890794
-0.049321 -0.245273 6.767430 19 253 229 0.889938
-0.056975 -0.219113 6.750340 35 255 213 0.882442
-0.076656 -0.245376 6.750790 0 221 255 0.900865
-0.082584 -0.270701 6.760190 0 225 251 0.898913
-0.242312 -0.663388 6.697530 255 227 0 0.758298
-0.246129 -0.693156 6.677280 255 230 0 0.759178
-0.267183 -0.667036 6.688850 255 216 0 0.751306
-0.249717 -0.722057 6.655840 255 234 0 0.762286
-0.271079 -0.696682 6.668320 255 223 0 0.754888
-0.274664 -0.725228 6.646510 255 234 0 0.763089
-0.292206 -0.670639 6.679750 255 193 0 0.737430
-0.253152 -0.749815 6.633550 255 208 0 0.747161
-0.256258 -0.776770 6.609910 255 171 0 0.720376
-0.231443 -0.773670 6.619440 255 160 0 0.714000
-0.228333 -0.746427 6.642770 255 212 0 0.747303
-0.224956 -0.718328 6.664870 255 238 0 0.763347
-0.206788 -0.769982 6.628860 255 167 0 0.718952
-0.295852 -0.700115 6.658880 255 219 0 0.752952
-0.316855 -0.674008 6.670830 255 193 0 0.736619
-0.299174 -0.728684 6.636830 248 245 0 0.768180
-0.320487 -0.702965 6.649630 251 241 0 0.765590
-0.323653 -0.731297 6.627170 229 255 19 0.781909
-0.341454 -0.677247 6.661470 255 197 0 0.738448
-0.302256 -0.755946 6.613790 255 230 0 0.760245
-0.305132 -0.782159 6.589970 255 193 0 0.737713
-0.280717 -0.779684 6.600160 255 175 0 0.723257
-0.277842 -0.752969 6.623840 255 212 0 0.748005
-0.258452 -0.834682 6.522880 193 255 55 0.802674
-0.257601 -0.817007 6.552020 219 255 29 0.787694
-0.234142 -0.832386 6.533150 209 255 38 0.792213
-0.233333 -0.814366 6.562360 232 255 16 0.779512
-0.256861 -0.797955 6.580970 255 212 0 0.749150
-0.281372 -0.800445 6.571200 255 230 0 0.759378
-0.282080 -0.819277 6.542030 203 255 45 0.796704
-0.209484 -0.829411 6.542870 216 255 32 0.789442
-0.208594 -0.811474 6.572150 242 253 6 0.773165
-0.184817 -0.826252 6.553150 219 255 29 0.786748
-0.183969 -0.807729 6.582070 242 253 6 0.773223
-0.207686 -0.791744 6.600710 255 212 0 0.748529
-0.232303 -0.794977 6.590920 255 216 0 0.750119
-0.282879 -0.836246 6.512820 171 255 77 0.815989
-0.306516 -0.821097 6.531670 180 255 67 0.809650
-0.305769 -0.802543 6.560830 229 255 19 0.780599
-0.329437 -0.784366 6.579220 255 238 0 0.763437
-0.330044 -0.804190 6.550030 193 255 55 0.802171
-0.353587 -0.786322 6.568110 219 255 29 0.787349
-0.330492 -0.822636 6.519820 138 255 109 0.832903
-0.307030 -0.837975 6.501340 138 255 109 0.833460
-0.326485 -0.758258 6.603940 245 249 3 0.770164
-0.347923 -0.733527 6.617570 184 255 64 0.808210
-0.344912 -0.705681 6.640180 235 255 13 0.778014
-0.365839 -0.680068 6.652360 255 204 0 0.744692
-0.369084 -0.708250 6.630600 216 255 32 0.788277
-0.389889 -0.682931 6.642920 255 208 0 0.745975
-0.372071 -0.735985 6.606610 158 255 90 0.822071
-0.350664 -0.760516 6.592900 196 255 51 0.800628
-0.418218 -0.713075 6.610560 200 255 48 0.798619
-0.396867 -0.737802 6.596790 151 255 96 0.826287
-0.400014 -0.764149 6.571080 135 255 113 0.834550
-0.378353 -0.787924 6.556460 177 255 71 0.811091
-0.375328 -0.762321 6.582770 164 255 84 0.819110
-0.393522 -0.710846 6.620350 203 255 45 0.797044
-0.414642 -0.685893 6.633470 255 208 0 0.746942
-0.379345 -0.807543 6.526970 119 255 129 0.843257
-0.355469 -0.824269 6.508790 109 255 138 0.847390
-0.355830 -0.840817 6.477660 77 255 171 0.863847
-0.331605 -0.839381 6.490100 113 255 135 0.845824
-0.354429 -0.805984 6.538270 151 255 96 0.826589
-0.447302 -0.425409 6.655140 145 255 103 0.830206
-0.447190 -0.394654 6.645760 229 255 19 0.781679
-0.436608 -0.362418 6.640690 164 255 84 0.819098
-0.425317 -0.391620 6.654290 0 97 255 0.938896
-0.414711 -0.359469 6.649620 0 77 255 0.944419
-0.425470 -0.422566 6.663350 0 169 255 0.917648
-0.426026 -0.330838 6.636330 0 213 255 0.902364
-0.415707 -0.299652 6.632680 0 161 255 0.919279
-0.438493 -0.302039 6.622070 255 197 0 0.739323
-0.448656 -0.332939 6.626150 255 127 0 0.688557
-0.403042 -0.419747 6.671850 0 173 255 0.915626
-0.402315 -0.389602 6.663450 0 109 255 0.936044
-0.390449 -0.357855 6.659630 0 89 255 0.941089
-0.379429 -0.387004 6.672430 0 125 255 0.930394
-0.367202 -0.355371 6.668360 0 93 255 0.940176
-0.379943 -0.417074 6.680580 0 181 255 0.913925
-0.378581 -0.326803 6.656250 0 117 255 0.932661
-0.366925 -0.296092 6.653200 0 201 255 0.907312
-0.391452 -0.297648 6.643270 0 189 255 0.910647
-0.402720 -0.328451 6.646100 0 101 255 0.937664
-0.374289 -0.218716 6.611000 32 255 216 0.884104
-0.388243 -0.245684 6.617890 0 197 255 0.908287
-0.401464 -0.219405 6.598970 9 241 238 0.893352
-0.414795 -0.246291 6.605460 0 161 255 0.919823
-0.401865 -0.272679 6.625150 0 161 255 0.919969
-0.377572 -0.270723 6.635850 0 181 255 0.912831
-0.363522 -0.243772 6.628320 0 209 255 0.903658
-0.426370 -0.221625 6.586550 0 185 255 0.912351
-0.437945 -0.249104 6.594520 90 255 158 0.857215
-0.451464 -0.223230 6.574100 25 255 222 0.886477
-0.449592 -0.276828 6.603020 255 182 0 0.728654
-0.426627 -0.274138 6.613800 0 197 255 0.908050
-0.221104 -0.688718 6.686360 242 253 6 0.773708
-0.199762 -0.713666 6.674520 248 245 0 0.768532
-0.203385 -0.742467 6.652200 255 216 0 0.750598
-0.181612 -0.765562 6.638860 255 175 0 0.725169
-0.178301 -0.737684 6.661770 255 234 0 0.762242
-0.156569 -0.760674 6.648210 255 204 0 0.742691
-0.174840 -0.709475 6.683340 235 255 13 0.776396
-0.196067 -0.684860 6.695350 229 255 19 0.781240
-0.217108 -0.659594 6.706500 255 234 0 0.762955
-0.192076 -0.655355 6.714930 235 255 13 0.777171
-0.182768 -0.787190 6.611200 255 216 0 0.750793
-0.158717 -0.803061 6.592950 235 255 13 0.776527
-0.159896 -0.822264 6.563620 216 255 32 0.788714
-0.134770 -0.817259 6.574030 196 255 51 0.799929
-0.133741 -0.798416 6.602670 213 255 35 0.791455
-0.157674 -0.782638 6.621000 255 234 0 0.761498
-0.083662 -0.806865 6.595660 155 255 93 0.824330
-0.107955 -0.792904 6.613850 190 255 58 0.804225
-0.106692 -0.772342 6.641110 209 255 38 0.792953
-0.130814 -0.755893 6.658230 255 212 0 0.748522
-0.132256 -0.777305 6.631410 232 255 16 0.779974
-0.109291 -0.812473 6.584670 180 255 67 0.809522
-0.127290 -0.727903 6.680880 222 255 26 0.785984
-0.149099 -0.704334 6.692980 209 255 38 0.792978
-0.157972 -0.678113 6.708620 206 255 42 0.794409
-0.166432 -0.651451 6.723680 235 255 13 0.776087
-0.152933 -0.732972 6.671340 238 255 9 0.774001
-0.168754 -0.220800 6.691440 0 177 255 0.915127
-0.173337 -0.245467 6.703590 0 189 255 0.910944
-0.201936 -0.245142 6.691440 0 169 255 0.916649
-0.197142 -0.220786 6.679320 0 169 255 0.917354
-0.192340 -0.269631 6.709560 0 205 255 0.905887
-0.211167 -0.293859 6.714970 0 229 248 0.897297
-0.184220 -0.294176 6.726890 19 253 229 0.889394
-0.165161 -0.269852 6.720920 0 185 255 0.912242
-0.224678 -0.220658 6.669210 0 185 255 0.912406
-0.228754 -0.245298 6.681370 0 181 255 0.912948
-0.256671 -0.244676 6.670380 0 177 255 0.914956
-0.252773 -0.220095 6.658400 0 201 255 0.907186
-0.246510 -0.269561 6.687540 0 181 255 0.913021
-0.264006 -0.293866 6.693260 0 217 255 0.902039
-0.237748 -0.293782 6.704280 0 225 251 0.898396
-0.219921 -0.269619 6.698160 0 185 255 0.911561
-0.270321 -0.406489 6.721740 0 225 251 0.898460
-0.255172 -0.377956 6.719030 0 165 255 0.918792
-0.244543 -0.405399 6.731610 3 233 245 0.896155
-0.240232 -0.349756 6.717200 0 165 255 0.918515
-0.229361 -0.377037 6.729270 0 177 255 0.914073
-0.214474 -0.348999 6.727500 0 189 255 0.911271
-0.218774 -0.404433 6.741410 6 237 242 0.894234
-0.225607 -0.321779 6.716030 0 173 255 0.916349
-0.252120 -0.321845 6.705000 0 157 255 0.920320
-0.266748 -0.350019 6.706290 0 125 255 0.930472
-0.203215 -0.376707 6.740310 0 213 255 0.903181
-0.192803 -0.404280 6.752500 29 255 219 0.885682
-0.187988 -0.348997 6.739720 0 197 255 0.907595
-0.177322 -0.376528 6.751200 16 249 232 0.890901
-0.186044 -0.321556 6.733170 0 201 255 0.906665
-0.356318 -0.414466 6.689530 0 189 255 0.911177
-0.355106 -0.385070 6.681540 0 129 255 0.929476
-0.341917 -0.354321 6.678270 0 105 255 0.937179
-0.331024 -0.382413 6.690530 0 129 255 0.929572
-0.317848 -0.352087 6.687120 0 105 255 0.936860
-0.332319 -0.411778 6.698620 0 197 255 0.908785
-0.329016 -0.324191 6.675430 0 121 255 0.931687
-0.316169 -0.294311 6.673010 0 189 255 0.910259
-0.341635 -0.295106 6.663390 0 201 255 0.906291
-0.354335 -0.324979 6.665660 0 125 255 0.930550
-0.307826 -0.409454 6.707840 0 213 255 0.902366
-0.305987 -0.381006 6.700000 0 145 255 0.925222
-0.291750 -0.351717 6.697130 0 105 255 0.936428
-0.281049 -0.379093 6.709170 0 145 255 0.924357
-0.277835 -0.322753 6.694840 0 141 255 0.925786
-0.290066 -0.294049 6.683230 0 217 255 0.902208
-0.303883 -0.322881 6.684890 0 125 255 0.930166
-0.279833 -0.219625 6.648500 0 229 248 0.898076
-0.282744 -0.244936 6.660500 0 189 255 0.910705
-0.310574 -0.243697 6.649590 0 209 255 0.904014
-0.307688 -0.218553 6.637680 22 255 226 0.888449
-0.299448 -0.269595 6.666620 0 189 255 0.910688
-0.273387 -0.269317 6.676720 0 169 255 0.916760
-0.334398 -0.218472 6.627560 38 255 209 0.881480
-0.336149 -0.244473 6.639650 0 213 255 0.903111
-0.351468 -0.270094 6.646450 0 177 255 0.914617
-0.326023 -0.269331 6.656410 0 173 255 0.915405
-0.347100 -0.645192 6.670780 216 255 32 0.788793
-0.364304 -0.614384 6.674880 184 255 64 0.807773
-0.369367 -0.582264 6.682210 174 255 74 0.812919
-0.385737 -0.551842 6.684350 187 255 61 0.805782
-0.362057 -0.548438 6.692390 161 255 87 0.820158
-0.393041 -0.585366 6.674020 184 255 64 0.808566
-0.409122 -0.555204 6.676030 184 255 64 0.808608
-0.388350 -0.617598 6.666600 193 255 55 0.801804
-0.383470 -0.649780 6.657770 235 255 13 0.777286
-0.363539 -0.514921 6.690850 42 255 206 0.880022
-0.376791 -0.482852 6.684620 0 205 255 0.906108
-0.378405 -0.449829 6.682560 0 165 255 0.918825
-0.401462 -0.452362 6.673840 0 165 255 0.918332
-0.399984 -0.485991 6.676080 0 197 255 0.907656
-0.398752 -0.519762 6.678410 64 255 184 0.869222
-0.445749 -0.458648 6.657520 0 205 255 0.905835
-0.445424 -0.492700 6.660430 0 217 255 0.901087
-0.433290 -0.524918 6.666680 84 255 164 0.859648
-0.432949 -0.558804 6.668620 200 255 48 0.799601
-0.422605 -0.489341 6.668010 0 193 255 0.909723
-0.423871 -0.455717 6.665500 0 149 255 0.923786
-0.440514 -0.592203 6.658130 209 255 38 0.792336
-0.436589 -0.624163 6.649990 225 255 22 0.783515
-0.419543 -0.654217 6.644550 229 255 19 0.782011
-0.412438 -0.620896 6.658240 206 255 42 0.794442
-0.416933 -0.589096 6.665970 193 255 55 0.803270
-0.248066 -0.631320 6.706430 180 255 67 0.810770
-0.265999 -0.600440 6.709960 151 255 96 0.826090
-0.271355 -0.568051 6.716850 148 255 100 0.827249
-0.288966 -0.538063 6.719040 158 255 90 0.822442
-0.264089 -0.534416 6.727330 148 255 100 0.828514
-0.296235 -0.571352 6.708090 148 255 100 0.827342
-0.313795 -0.541312 6.709970 145 255 103 0.829027
-0.290863 -0.604131 6.701190 155 255 93 0.824231
-0.285459 -0.636450 6.693310 209 255 38 0.793001
-0.265714 -0.501718 6.726170 55 255 193 0.873236
-0.279798 -0.470397 6.720050 0 213 255 0.903470
-0.281234 -0.438659 6.718440 0 193 255 0.908955
-0.306364 -0.440805 6.709240 0 185 255 0.911864
-0.304681 -0.473241 6.711130 0 213 255 0.902260
-0.303108 -0.506292 6.713080 64 255 184 0.869624
-0.354919 -0.446598 6.691290 0 169 255 0.917086
-0.353235 -0.479717 6.693410 0 209 255 0.903852
-0.339632 -0.511033 6.699660 45 255 203 0.878524
-0.337982 -0.544908 6.701320 155 255 93 0.824318
-0.329166 -0.476333 6.702200 0 217 255 0.901212
-0.330789 -0.443848 6.700370 0 185 255 0.911980
-0.345193 -0.578600 6.690630 155 255 93 0.823934
-0.340042 -0.611010 6.683380 167 255 80 0.817227
-0.322431 -0.641691 6.679750 216 255 32 0.790096
-0.315558 -0.607629 6.692300 161 255 87 0.820297
-0.320849 -0.575184 6.699350 148 255 100 0.827642
-0.178289 -0.434359 6.757780 3 233 245 0.896047
-0.189875 -0.465056 6.753100 0 229 248 0.897633
-0.204184 -0.434649 6.747220 0 209 255 0.904586
-0.215863 -0.465673 6.742860 0 209 255 0.903865
-0.201479 -0.496443 6.748660 45 255 203 0.877876
-0.213099 -0.528693 6.744330 119 255 129 0.843320
-0.187257 -0.526672 6.753350 106 255 142 0.848908
-0.175747 -0.494554 6.757610 32 255 216 0.883653
-0.229917 -0.436068 6.737670 0 209 255 0.904305
-0.241320 -0.468083 6.734240 0 213 255 0.902874
-0.255697 -0.437124 6.727950 0 205 255 0.905892
-0.240044 -0.499808 6.735450 51 255 196 0.875637
-0.238580 -0.531574 6.736080 135 255 113 0.835049
-0.222777 -0.627854 6.715330 177 255 71 0.811994
-0.228195 -0.596135 6.723150 151 255 96 0.826831
-0.202954 -0.591825 6.731000 116 255 132 0.844279
-0.197647 -0.623499 6.723330 148 255 100 0.827829
-0.220790 -0.562251 6.734000 116 255 132 0.845201
-0.246198 -0.565068 6.725560 132 255 116 0.836959
-0.171980 -0.620318 6.731850 167 255 80 0.817965
-0.177282 -0.589667 6.740120 142 255 106 0.831229
-0.169453 -0.556748 6.751180 96 255 151 0.854149
-0.195163 -0.559014 6.742460 96 255 151 0.853587
-0.118613 0.032943 6.322710 0 0 255 0.967620
-0.137654 0.034652 6.314950 0 5 255 0.964659
-0.146563 0.026744 6.337750 0 0 237 0.974519
-0.165615 0.028493 6.329770 0 0 246 0.972549
-0.156849 0.036247 6.307040 0 17 255 0.962099
-0.174479 0.020715 6.352650 0 0 219 0.978568
-0.184749 0.030161 6.321620 0 0 255 0.970733
-0.193488 0.022414 6.344310 0 0 228 0.976910
-0.212496 0.023987 6.335990 0 0 233 0.975980
-0.176083 0.037757 6.299000 0 21 255 0.960996
-0.203879 0.031583 6.313370 0 0 255 0.970333
-0.195401 0.039188 6.290900 0 25 255 0.959953
-0.202265 0.014660 6.367070 0 0 223 0.977922
-0.221204 0.016378 6.358600 0 0 223 0.977926
-0.229964 0.008896 6.381270 0 0 242 0.973350
-0.211551 0.007661 6.389020 0 0 246 0.972732
-0.183749 0.013350 6.374570 0 0 219 0.979330
-0.193121 0.006268 6.396590 0 0 237 0.974480
-0.165343 0.011972 6.382060 0 0 210 0.980951
-0.155902 0.019311 6.359850 0 0 214 0.980147
-0.137413 0.017845 6.367040 0 0 205 0.981795
-0.174771 0.004618 6.404030 0 0 228 0.976537
-0.146993 0.010364 6.389290 0 0 201 0.983036
-0.156507 0.002939 6.411280 0 0 219 0.978649
-0.127996 0.025398 6.344920 0 0 228 0.976751
-0.215706 0.040940 6.283310 0 33 255 0.957303
-0.223390 0.033248 6.306430 0 0 255 0.968748
-0.243563 0.035113 6.298630 0 5 255 0.964637
-0.235923 0.042674 6.275670 0 49 255 0.953323
-0.251293 0.027263 6.321660 0 0 246 0.972280
-0.263594 0.036828 6.290710 0 17 255 0.962120
-0.271174 0.028911 6.313570 0 0 255 0.970935
-0.291041 0.030557 6.305460 0 0 255 0.967957
-0.256088 0.044545 6.267910 0 57 255 0.950874
-0.283588 0.038463 6.282730 0 25 255 0.959362
-0.276307 0.046446 6.260180 0 73 255 0.946411
-0.278892 0.021357 6.336760 0 0 251 0.971049
-0.298728 0.022993 6.328610 0 0 255 0.967347
-0.306459 0.015688 6.352070 0 33 255 0.957647
-0.287392 0.014162 6.359440 0 17 255 0.961772
-0.259683 0.019767 6.344070 0 0 237 0.975080
-0.268292 0.012538 6.366830 0 0 255 0.966926
-0.240431 0.018107 6.351300 0 0 233 0.976033
-0.231935 0.025755 6.328970 0 0 237 0.974603
-0.249135 0.010743 6.374000 0 0 255 0.970654
-0.305204 -0.022922 6.430890 0 33 255 0.956944
-0.288095 -0.023987 6.437720 0 25 255 0.959070
-0.280524 -0.011922 6.414860 0 0 255 0.969798
-0.270814 -0.025200 6.444400 0 17 255 0.961317
-0.263215 -0.013047 6.421380 0 0 255 0.970559
-0.245671 -0.014434 6.427600 0 0 242 0.973140
-0.253613 -0.026486 6.450910 0 5 255 0.964880
-0.255373 -0.001541 6.397800 0 0 233 0.975306
-0.237647 -0.002863 6.404180 0 0 228 0.976425
-0.274271 0.000288 6.390390 0 0 242 0.973460
-0.293364 0.002207 6.383260 0 1 255 0.966600
-0.299330 -0.010261 6.407190 0 5 255 0.964771
-0.318192 -0.008612 6.399530 0 17 255 0.961804
-0.312331 0.003713 6.375770 0 13 255 0.962524
-0.323832 -0.021427 6.422990 0 45 255 0.953512
-0.235656 -0.027969 6.458610 0 1 255 0.965914
-0.218572 -0.028760 6.465100 0 1 255 0.966256
-0.209352 -0.017562 6.442710 0 0 233 0.975635
-0.201550 -0.029808 6.471550 0 1 255 0.965922
-0.192302 -0.018491 6.449170 0 0 228 0.976567
-0.175126 -0.019581 6.455460 0 0 219 0.979353
-0.184508 -0.030771 6.477540 0 0 255 0.969518
-0.183027 -0.007420 6.426900 0 0 214 0.980252
-0.165732 -0.008386 6.433160 0 0 205 0.982361
-0.201146 -0.005768 6.419510 0 0 219 0.978671
-0.219486 -0.004231 6.412070 0 0 219 0.978332
-0.227620 -0.015850 6.435320 0 0 242 0.973094
0.017640 0.029024 6.382920 0 0 255 0.966838
0.006899 0.020170 6.404070 0 0 219 0.978803
-0.012768 0.020737 6.395200 0 0 223 0.978193
-0.002043 0.029338 6.374000 0 0 255 0.966952
-0.023636 0.012452 6.416730 0 0 192 0.984718
-0.032359 0.021283 6.386420 0 0 219 0.978348
-0.043124 0.013301 6.407930 0 0 196 0.983798
-0.062559 0.013981 6.398980 0 0 196 0.983605
-0.021701 0.029554 6.365050 0 0 255 0.968163
-0.051893 0.021742 6.377430 0 0 219 0.978816
-0.041311 0.029728 6.356010 0 0 255 0.970189
-0.053898 0.005574 6.429460 0 0 187 0.985656
-0.073361 0.006433 6.420650 0 0 192 0.985353
-0.084072 -0.001037 6.442290 0 0 201 0.983117
-0.065733 -0.001604 6.450450 0 0 201 0.983418
-0.035429 0.004941 6.437640 0 0 183 0.986883
-0.047306 -0.002330 6.458680 0 0 196 0.984086
-0.016894 0.004190 6.445820 0 0 183 0.987487
-0.004946 0.011869 6.424790 0 0 192 0.985110
-0.028766 -0.003301 6.466820 0 0 187 0.985843
-0.060574 0.030710 6.347770 0 0 255 0.967822
-0.070350 0.022489 6.369950 0 0 223 0.977588
-0.089511 0.023626 6.361760 0 0 228 0.976415
-0.079844 0.031530 6.339510 0 0 255 0.967024
-0.099259 0.015785 6.384080 0 0 201 0.982613
-0.108765 0.024582 6.353450 0 0 228 0.976497
-0.118379 0.016927 6.375800 0 0 205 0.981760
-0.099223 0.032295 6.331180 0 0 255 0.966830
-0.127973 0.009231 6.397920 0 0 196 0.983989
-0.138403 0.002168 6.419390 0 0 223 0.978226
-0.109808 0.008477 6.405670 0 0 196 0.983781
-0.120295 0.001286 6.427040 0 0 219 0.978685
-0.091621 0.007546 6.413220 0 0 196 0.984016
-0.080883 0.014923 6.391540 0 0 201 0.983179
-0.102209 0.000210 6.434720 0 0 210 0.980658
-0.166746 -0.032013 6.485500 0 0 251 0.971607
-0.149985 -0.032562 6.492390 0 0 251 0.971556
-0.139325 -0.021764 6.471110 0 0 214 0.979949
-0.133106 -0.033536 6.499440 0 0 237 0.974209
-0.122450 -0.022502 6.477920 0 0 201 0.982619
-0.105574 -0.023303 6.484930 0 0 205 0.982333
-0.116284 -0.034358 6.506190 0 0 237 0.975043
-0.111828 -0.011488 6.456630 0 0 201 0.983365
-0.094822 -0.012187 6.463630 0 0 192 0.985062
-0.129796 -0.010264 6.448990 0 0 205 0.981736
-0.147868 -0.009155 6.441200 0 0 210 0.980904
-0.157197 -0.020529 6.463290 0 0 210 0.980430
-0.098198 -0.035338 6.514650 0 0 228 0.977046
-0.081222 -0.035840 6.522470 0 0 223 0.977739
-0.069267 -0.024932 6.501820 0 0 196 0.984211
-0.064129 -0.036467 6.530050 0 0 219 0.979300
-0.052091 -0.025594 6.509490 0 0 192 0.985024
-0.039834 -0.014745 6.488440 0 0 173 0.988987
-0.058314 -0.013720 6.480390 0 0 187 0.986509
-0.076618 -0.012842 6.472060 0 0 192 0.984751
-0.087428 -0.024152 6.493510 0 0 196 0.984328
0.176238 0.001188 6.086190 0 0 142 0.995738
0.167205 0.007547 6.103160 0 0 155 0.993306
0.146694 0.007249 6.092120 0 0 155 0.993303
0.155701 0.000881 6.075110 0 0 142 0.996033
0.137522 0.013577 6.109210 0 0 173 0.989237
0.126057 0.006507 6.081090 0 0 151 0.993720
0.116948 0.012845 6.098220 0 0 169 0.989874
0.096299 0.011933 6.087130 0 0 164 0.991084
0.135112 0.000206 6.064110 0 0 142 0.996192
0.105357 0.005596 6.070020 0 0 151 0.994394
0.114340 -0.000742 6.053040 0 0 137 0.996727
0.107648 0.019087 6.115370 0 0 192 0.985006
0.087039 0.018068 6.104310 0 0 183 0.986985
0.077666 0.024083 6.121580 0 0 201 0.982503
0.098666 0.024988 6.132320 0 0 214 0.979804
0.128537 0.019630 6.126090 0 0 196 0.984237
0.119478 0.025554 6.143020 0 0 219 0.978599
0.149399 0.019878 6.136730 0 0 196 0.984161
0.158398 0.013800 6.119900 0 0 173 0.989318
0.140260 0.025808 6.153770 0 0 223 0.978080
0.095771 -0.001159 6.042860 0 0 137 0.996581
0.086242 0.005427 6.060330 0 0 151 0.994168
0.067592 0.004777 6.050210 0 0 151 0.994552
0.077151 -0.001772 6.032670 0 0 137 0.996732
0.057952 0.011184 6.067770 0 0 164 0.991519
0.048897 0.003880 6.039970 0 0 146 0.995106
0.039290 0.010297 6.057550 0 0 160 0.992280
0.020656 0.009378 6.047370 0 0 151 0.993625
0.058401 -0.002562 6.022430 0 0 137 0.996999
0.030237 0.003001 6.029740 0 0 142 0.995870
0.039696 -0.003444 6.012160 0 0 137 0.997441
0.029571 0.016621 6.075200 0 0 173 0.989267
0.010917 0.015633 6.065070 0 0 164 0.990884
0.001150 0.021947 6.082840 0 0 183 0.987538
0.020357 0.022651 6.092510 0 0 187 0.985961
0.048818 0.017245 6.084920 0 0 178 0.988362
0.039586 0.023288 6.102220 0 0 192 0.984611
0.067978 0.017813 6.094650 0 0 183 0.987054
0.077193 0.011700 6.077410 0 0 164 0.991014
0.058657 0.023774 6.111940 0 0 201 0.983041
-0.038948 0.038546 6.157690 0 0 210 0.981312
-0.019117 0.038856 6.167160 0 0 219 0.979209
-0.009683 0.034658 6.148970 0 0 196 0.983692
0.010064 0.034812 6.158310 0 0 201 0.982470
0.000640 0.038942 6.176600 0 0 223 0.977568
0.019448 0.031061 6.139980 0 0 192 0.984921
0.029661 0.035058 6.167710 0 0 205 0.981747
0.039113 0.031184 6.149260 0 0 196 0.984117
0.058734 0.031198 6.158570 0 0 196 0.984254
0.020275 0.038926 6.186030 0 0 228 0.976484
0.049259 0.034957 6.176980 0 0 205 0.981742
0.039715 0.038833 6.195360 0 0 228 0.976377
0.048535 0.027532 6.130840 0 0 192 0.984648
0.068205 0.027620 6.140090 0 0 196 0.984404
0.029540 0.027100 6.121100 0 0 187 0.985729
0.010345 0.026529 6.111380 0 0 183 0.987233
0.000337 0.030436 6.130260 0 0 187 0.986255
-0.018820 0.029903 6.120480 0 0 173 0.988757
-0.008839 0.025780 6.101680 0 0 173 0.989239
-0.028834 0.034167 6.139170 0 0 187 0.986542
0.060639 0.039373 6.205860 0 0 242 0.973639
0.069972 0.035729 6.187790 0 0 223 0.978152
0.090854 0.036080 6.198180 0 0 228 0.976928
0.081457 0.039736 6.216250 0 0 251 0.971038
0.100221 0.032541 6.180070 0 0 214 0.979940
0.111681 0.036174 6.208550 0 0 228 0.976556
0.121083 0.032671 6.190390 0 0 219 0.979349
0.102227 0.039811 6.226680 0 0 251 0.971259
0.130532 0.029289 6.172270 0 0 214 0.979770
0.109844 0.029058 6.161530 0 0 214 0.980236
0.089077 0.028513 6.150800 0 0 210 0.981419
0.079511 0.032033 6.169300 0 0 210 0.981098
-0.108914 0.036231 6.301320 0 0 255 0.969082
-0.127545 0.037718 6.293320 0 0 255 0.967336
-0.117905 0.041012 6.272420 0 1 255 0.966546
-0.099164 0.039634 6.280290 0 0 255 0.968401
-0.136711 0.042295 6.264320 0 5 255 0.965381
-0.108181 0.044032 6.251470 0 13 255 0.963190
-0.127173 0.045288 6.243540 0 21 255 0.961108
-0.117493 0.047773 6.222640 0 37 255 0.956719
-0.089283 0.042705 6.259230 0 1 255 0.965641
-0.098403 0.046626 6.230460 0 25 255 0.959176
-0.079363 0.045394 6.238200 0 13 255 0.962612
-0.146198 0.046451 6.235480 0 21 255 0.960518
-0.136646 0.048972 6.214700 0 41 255 0.955465
-0.155749 0.050182 6.206730 0 45 255 0.953568
-0.165765 0.047690 6.227660 0 25 255 0.959241
-0.156210 0.043609 6.256470 0 9 255 0.964030
-0.175680 0.044873 6.248550 0 13 255 0.963009
-0.166184 0.040617 6.277570 0 9 255 0.964017
-0.146820 0.039161 6.285530 0 5 255 0.965584
-0.185545 0.041996 6.269590 0 13 255 0.962955
-0.069136 0.043943 6.218000 0 0 251 0.971223
-0.087192 0.044684 6.210040 0 0 255 0.970026
-0.076971 0.042934 6.189910 0 0 228 0.976365
-0.058897 0.042155 6.197800 0 0 223 0.977422
-0.095184 0.043598 6.181880 0 0 233 0.975890
-0.066828 0.041023 6.169830 0 0 210 0.980569
-0.085050 0.041667 6.161800 0 0 214 0.980037
-0.075154 0.039834 6.141830 0 0 214 0.980371
-0.048806 0.040362 6.177650 0 0 210 0.981043
-0.056960 0.039207 6.149790 0 0 205 0.981566
-0.103362 0.042383 6.153830 0 0 219 0.979247
-0.093363 0.040414 6.133810 0 0 214 0.979631
-0.111687 0.041179 6.125940 0 0 228 0.977138
-0.122707 0.043556 6.146200 0 0 223 0.977440
-0.114522 0.044745 6.174170 0 0 237 0.974866
-0.133843 0.045983 6.166500 0 0 242 0.973287
-0.125630 0.046985 6.194470 0 0 255 0.967137
-0.106359 0.045779 6.202300 0 0 255 0.968245
-0.144880 0.048256 6.186650 0 5 255 0.964932
-0.184415 0.043813 6.094760 0 0 237 0.974975
-0.196907 0.047201 6.115510 0 0 255 0.970649
-0.177244 0.045598 6.122780 0 0 233 0.975572
-0.189717 0.048826 6.143340 0 0 255 0.969258
-0.209323 0.050432 6.136010 0 9 255 0.964257
-0.170050 0.047247 6.150690 0 0 246 0.973043
-0.202057 0.051675 6.163680 0 17 255 0.961443
-0.182471 0.050263 6.171180 0 13 255 0.962982
-0.194792 0.052792 6.191500 0 61 255 0.949939
-0.221619 0.053192 6.156200 0 37 255 0.955770
-0.214307 0.054136 6.183870 0 69 255 0.947146
-0.233822 0.055590 6.176280 0 77 255 0.944910
-0.162879 0.048845 6.178630 0 5 255 0.965174
-0.175277 0.051477 6.199090 0 57 255 0.951204
-0.151983 0.046565 6.158580 0 0 246 0.973083
-0.140971 0.044152 6.138410 0 0 233 0.975625
-0.159103 0.044802 6.130610 0 0 233 0.976068
-0.148169 0.042247 6.110360 0 0 228 0.976290
-0.129982 0.041664 6.118130 0 0 228 0.976610
-0.166346 0.042994 6.102590 0 0 233 0.975785
-0.244598 0.053364 6.197140 0 57 255 0.950620
-0.224129 0.051538 6.204360 0 37 255 0.955864
-0.234832 0.049112 6.225420 0 29 255 0.958421
-0.255215 0.050935 6.217990 0 37 255 0.955743
-0.214456 0.047411 6.232810 0 17 255 0.962147
-0.245574 0.046873 6.246630 0 41 255 0.955363
-0.225239 0.044953 6.254110 0 25 255 0.960065
-0.265770 0.048701 6.238990 0 53 255 0.951417
-0.204877 0.043220 6.261620 0 5 255 0.964559
-0.195068 0.046143 6.240720 0 17 255 0.962227
-0.185229 0.048927 6.219880 0 29 255 0.958796
-0.204692 0.050168 6.212080 0 33 255 0.957915
-0.094668 -0.007836 5.936630 0 0 133 0.997997
-0.105247 -0.001005 5.956300 0 0 133 0.997853
-0.088112 -0.000950 5.964910 0 0 133 0.998022
-0.098826 0.006070 5.984460 0 0 137 0.997083
-0.115985 0.006064 5.975960 0 0 137 0.996995
-0.081490 0.006197 5.993060 0 0 137 0.996981
-0.109551 0.013407 6.004060 0 0 146 0.995135
-0.092242 0.013450 6.012580 0 0 146 0.995023
-0.103017 0.020933 6.031940 0 0 164 0.991536
-0.126732 0.013423 5.995560 0 0 146 0.995087
-0.120324 0.020939 6.023470 0 0 160 0.991757
-0.137572 0.021053 6.014970 0 0 164 0.991459
-0.074888 0.013708 6.021070 0 0 146 0.994576
-0.085642 0.021133 6.040520 0 0 164 0.990623
-0.068258 0.021463 6.049030 0 0 173 0.989349
-0.057953 0.014528 6.030470 0 0 155 0.993113
-0.064606 0.006929 6.002440 0 0 142 0.996535
-0.047647 0.007775 6.011830 0 0 146 0.995203
-0.054373 0.000309 5.983800 0 0 137 0.997502
-0.071258 -0.000433 5.974330 0 0 133 0.997930
-0.061123 -0.006883 5.955550 0 0 133 0.998183
-0.037439 0.001173 5.993170 0 0 137 0.996675
-0.044216 -0.006224 5.965000 0 0 133 0.997979
-0.027284 -0.005393 5.974490 0 0 137 0.997483
-0.077940 -0.007470 5.946110 0 0 133 0.998223
-0.149111 0.026470 6.035030 0 0 160 0.991708
-0.131012 0.025783 6.042800 0 0 160 0.992249
-0.142644 0.031315 6.062780 0 0 173 0.989447
-0.160815 0.032110 6.055070 0 0 173 0.988786
-0.124472 0.030715 6.070510 0 0 164 0.990692
-0.154436 0.037049 6.082640 0 0 192 0.984744
-0.136253 0.036395 6.090390 0 0 192 0.985472
-0.172596 0.037900 6.074980 0 0 196 0.983931
-0.118019 0.035824 6.098200 0 0 192 0.985366
-0.100644 0.035937 6.106810 0 0 196 0.984041
-0.107159 0.030774 6.079060 0 0 173 0.989408
-0.089745 0.030906 6.087710 0 0 173 0.989025
-0.096411 0.025873 6.059870 0 0 164 0.991107
-0.113725 0.025774 6.051350 0 0 160 0.992047
-0.078969 0.026057 6.068420 0 0 169 0.990534
-0.046029 0.034236 6.130660 0 0 178 0.987607
-0.035985 0.029865 6.112040 0 0 173 0.988971
-0.053236 0.029958 6.103510 0 0 173 0.988816
-0.026047 0.025664 6.093260 0 0 169 0.989824
-0.043335 0.025689 6.084790 0 0 169 0.989791
-0.033467 0.021651 6.066010 0 0 178 0.988415
-0.016106 0.021755 6.074470 0 0 178 0.988166
-0.060712 0.025689 6.076290 0 0 164 0.990644
-0.050825 0.021507 6.057520 0 0 169 0.989646
-0.071496 0.030420 6.095610 0 0 173 0.989447
-0.082365 0.035325 6.114750 0 0 187 0.985892
-0.064169 0.034764 6.122680 0 0 187 0.985968
-0.005727 0.015018 6.055770 0 0 160 0.992147
0.003975 0.008799 6.037980 0 0 151 0.994026
-0.012730 0.008228 6.028710 0 0 151 0.994541
0.013549 0.002493 6.020410 0 0 142 0.996077
-0.003182 0.001996 6.010990 0 0 142 0.996113
0.006273 -0.004340 5.993330 0 0 137 0.997286
0.022992 -0.003911 6.002790 0 0 137 0.997466
-0.019998 0.001393 6.001610 0 0 142 0.996513
-0.010536 -0.004900 5.983840 0 0 137 0.997479
-0.030200 0.008012 6.020300 0 0 146 0.994936
-0.040462 0.014675 6.038960 0 0 155 0.992895
-0.023084 0.014883 6.047370 0 0 160 0.992018
0.092380 0.040835 6.246390 0 0 251 0.971137
0.071663 0.040819 6.235930 0 0 251 0.971900
0.061852 0.041945 6.255500 0 0 255 0.967215
0.050885 0.040456 6.225460 0 0 242 0.974000
0.041101 0.041731 6.245000 0 0 255 0.969536
0.020340 0.041377 6.234400 0 0 237 0.974600
0.030016 0.040063 6.214940 0 0 233 0.975553
0.031279 0.043002 6.264520 0 1 255 0.965949
0.010425 0.042687 6.253900 0 0 255 0.970294
0.000287 0.043706 6.273560 0 17 255 0.961380
0.020926 0.043867 6.283380 0 29 255 0.958657
0.051651 0.043158 6.274390 0 13 255 0.962387
0.041375 0.044011 6.293270 0 37 255 0.956253
0.071920 0.043051 6.284260 0 25 255 0.960072
0.082161 0.041888 6.265330 0 0 255 0.967490
0.061686 0.044013 6.303150 0 45 255 0.953835
0.010307 0.040393 6.206150 0 0 228 0.976528
-0.009264 0.040506 6.196750 0 0 223 0.977680
-0.019356 0.042179 6.216810 0 0 233 0.975522
-0.029017 0.040592 6.187310 0 0 214 0.980089
-0.039094 0.042314 6.207340 0 0 228 0.976243
-0.049323 0.043913 6.227550 0 0 255 0.969738
-0.059290 0.045178 6.247180 0 21 255 0.961227
-0.029351 0.043618 6.236370 0 0 255 0.969225
-0.039421 0.044820 6.256010 0 25 255 0.959933
-0.009393 0.043206 6.245120 0 0 255 0.969080
0.000584 0.041853 6.225600 0 0 237 0.974650
-0.019552 0.044335 6.264790 0 25 255 0.959806
-0.089187 0.035678 6.310500 0 0 255 0.968165
-0.069694 0.035147 6.318840 0 0 255 0.967345
-0.059459 0.038662 6.298290 0 1 255 0.966072
-0.050273 0.034475 6.327060 0 0 255 0.967877
-0.039982 0.038182 6.306460 0 1 255 0.966385
-0.020488 0.037502 6.314610 0 1 255 0.966576
-0.030931 0.033685 6.335280 0 0 255 0.969607
-0.029640 0.041433 6.285980 0 9 255 0.963467
-0.010153 0.040853 6.294160 0 9 255 0.964473
-0.049417 0.041971 6.277140 0 9 255 0.963742
-0.069254 0.042403 6.268200 0 9 255 0.964197
-0.079264 0.039214 6.289260 0 0 255 0.967208
-0.010510 0.033526 6.345090 0 0 255 0.967054
0.009257 0.033541 6.354080 0 5 255 0.964973
0.020517 0.037398 6.334290 0 9 255 0.963901
0.028987 0.033416 6.363050 0 9 255 0.964443
0.040213 0.037454 6.343310 0 13 255 0.962812
0.051404 0.040953 6.323630 0 25 255 0.959768
0.031030 0.040970 6.313770 0 17 255 0.961597
0.010490 0.040931 6.303920 0 13 255 0.962906
0.000003 0.037512 6.324460 0 5 255 0.964864
-0.298777 0.047700 6.252630 0 89 255 0.941033
-0.304626 0.040400 6.276010 0 49 255 0.952781
-0.326810 0.041663 6.268400 0 57 255 0.950150
-0.321079 0.049027 6.245330 0 101 255 0.937622
-0.332662 0.034462 6.291670 0 41 255 0.955222
-0.348763 0.042936 6.260800 0 65 255 0.948019
-0.354459 0.035635 6.283830 0 53 255 0.951611
-0.376220 0.036728 6.276190 0 69 255 0.947334
-0.343089 0.050433 6.238230 0 109 255 0.935631
-0.370565 0.044206 6.253300 0 81 255 0.944182
-0.364861 0.052001 6.231070 0 137 255 0.926740
-0.360349 0.028384 6.307270 0 69 255 0.947346
-0.381961 0.029230 6.299310 0 77 255 0.945054
-0.387811 0.021768 6.322560 0 113 255 0.934176
-0.367785 0.020678 6.330140 0 105 255 0.936650
-0.339953 0.026669 6.314490 0 49 255 0.952480
-0.347516 0.019287 6.337480 0 81 255 0.943755
-0.319476 0.025025 6.321730 0 29 255 0.958469
-0.311932 0.032577 6.298590 0 21 255 0.960893
-0.327074 0.017618 6.344960 0 61 255 0.949237
-0.390435 0.053722 6.222560 0 137 255 0.926558
-0.389790 0.045838 6.248540 0 105 255 0.936980
-0.415102 0.047237 6.239810 0 105 255 0.936433
-0.415946 0.055849 6.214250 0 165 255 0.918087
-0.414537 0.039343 6.265990 0 101 255 0.937415
-0.440250 0.048991 6.230970 0 133 255 0.928117
-0.439626 0.040247 6.256700 0 109 255 0.935516
-0.464839 0.041643 6.247570 0 125 255 0.931268
-0.441176 0.058302 6.205890 0 205 255 0.905054
-0.465667 0.051229 6.222340 0 173 255 0.916220
-0.466754 0.061281 6.197730 35 255 213 0.882380
-0.439001 0.032016 6.282720 0 117 255 0.932731
-0.463824 0.032384 6.272930 0 121 255 0.932433
-0.463058 0.023720 6.298640 0 165 255 0.918670
-0.444480 0.023448 6.304750 0 157 255 0.920425
-0.420052 0.031081 6.288290 0 121 255 0.932142
-0.425700 0.022938 6.310580 0 153 255 0.922604
-0.401129 0.030168 6.293840 0 101 255 0.937817
-0.395474 0.038074 6.271100 0 77 255 0.944412
-0.406882 0.022426 6.316590 0 133 255 0.928546
-0.444118 -0.015519 6.372310 0 125 255 0.931206
-0.428123 -0.015549 6.378970 0 137 255 0.927365
-0.425321 -0.002743 6.356280 0 101 255 0.938141
-0.412135 -0.015653 6.386010 0 153 255 0.922329
-0.409475 -0.002853 6.362940 0 113 255 0.934029
-0.393242 -0.003638 6.369140 0 101 255 0.938144
-0.396016 -0.016347 6.392580 0 133 255 0.927870
-0.406667 0.009634 6.339600 0 105 255 0.936508
-0.390380 0.008778 6.345630 0 81 255 0.943770
-0.425480 0.010024 6.333330 0 109 255 0.935995
-0.444208 0.010097 6.326800 0 121 255 0.932522
-0.444019 -0.002902 6.349470 0 105 255 0.936260
-0.462691 -0.003139 6.342570 0 109 255 0.935268
-0.462912 0.010212 6.320620 0 125 255 0.930714
-0.462779 -0.016044 6.364910 0 117 255 0.933428
-0.376363 -0.017352 6.401190 0 117 255 0.932922
-0.358928 -0.018412 6.408720 0 105 255 0.936664
-0.353567 -0.005665 6.385670 0 69 255 0.947066
-0.341400 -0.019697 6.416000 0 77 255 0.944338
-0.335829 -0.007102 6.392460 0 45 255 0.954091
-0.330282 0.005409 6.369230 0 45 255 0.954534
-0.350636 0.007047 6.361800 0 65 255 0.948883
-0.370543 0.007952 6.353650 0 73 255 0.946163
-0.373507 -0.004495 6.377480 0 93 255 0.940132
-0.487521 0.060158 6.201450 38 255 209 0.880824
-0.502338 0.050390 6.224080 0 225 251 0.898942
-0.508335 0.058993 6.204930 58 255 190 0.872078
-0.496578 0.042285 6.243580 0 165 255 0.918263
-0.523066 0.048650 6.227320 16 249 232 0.890725
-0.516974 0.040289 6.246630 0 189 255 0.911051
-0.537647 0.038385 6.249760 0 209 255 0.904109
-0.529019 0.057750 6.208320 80 255 167 0.861759
-0.543791 0.047230 6.230600 29 255 219 0.885051
-0.550210 0.056791 6.211870 103 255 145 0.850760
-0.511296 0.032557 6.266240 0 157 255 0.920468
-0.532023 0.030296 6.269110 0 201 255 0.907467
-0.526179 0.022347 6.288510 0 193 255 0.909746
-0.494686 0.022999 6.293460 0 173 255 0.915813
-0.574006 0.044767 6.231450 35 255 213 0.882597
-0.581888 0.052720 6.213830 116 255 132 0.845187
-0.565961 0.036448 6.249190 0 225 251 0.898758
-0.597508 0.032434 6.251220 22 255 226 0.887364
-0.605518 0.040810 6.233510 55 255 193 0.873391
-0.614152 0.049383 6.215860 142 255 106 0.831289
-0.573883 0.026334 6.267620 0 213 255 0.903579
-0.582093 0.016940 6.286360 0 221 255 0.900519
-0.553925 0.019115 6.287190 0 201 255 0.906685
-0.554832 -0.022564 6.341790 0 89 255 0.941478
-0.545314 -0.007640 6.324270 0 85 255 0.942188
-0.531328 -0.020009 6.346700 0 85 255 0.942232
-0.521503 -0.005762 6.328700 0 85 255 0.942137
-0.535819 0.007284 6.306450 0 113 255 0.934589
-0.563530 0.004156 6.305070 0 113 255 0.934793
-0.572998 -0.011421 6.322530 0 89 255 0.941177
-0.503694 -0.018002 6.352520 0 105 255 0.936929
-0.490221 -0.003932 6.334950 0 97 255 0.939400
-0.492307 0.009205 6.313860 0 109 255 0.935000
-0.286936 0.049197 6.230250 0 45 255 0.954296
-0.276641 0.051603 6.209500 0 37 255 0.956707
-0.297815 0.052222 6.201200 0 37 255 0.956106
-0.266023 0.053989 6.188910 0 49 255 0.952987
-0.287338 0.054745 6.180760 0 45 255 0.953710
-0.276772 0.057130 6.160260 0 85 255 0.942487
-0.255351 0.056322 6.168250 0 81 255 0.943632
-0.308420 0.055654 6.172700 0 53 255 0.952034
-0.297895 0.058181 6.152370 0 85 255 0.942869
-0.318893 0.059425 6.144450 0 101 255 0.938211
-0.330590 0.057716 6.166080 0 77 255 0.945081
-0.320044 0.053980 6.194480 0 65 255 0.948439
-0.342028 0.055875 6.187680 0 77 255 0.945084
-0.331605 0.052196 6.216300 0 65 255 0.947850
-0.309485 0.050580 6.223100 0 53 255 0.951330
-0.353509 0.053941 6.209360 0 85 255 0.942434
-0.241169 0.053008 6.146880 0 29 255 0.958022
-0.228892 0.050271 6.126690 0 0 255 0.966814
-0.248333 0.050341 6.117450 0 0 255 0.967865
-0.216550 0.047180 6.106260 0 0 246 0.973020
-0.236084 0.047361 6.097020 0 0 242 0.973134
-0.223825 0.044059 6.076450 0 0 237 0.975175
-0.204230 0.043877 6.085600 0 0 233 0.975873
-0.255488 0.047669 6.087880 0 0 242 0.973747
-0.243214 0.044381 6.067340 0 0 237 0.974734
-0.262421 0.044869 6.058310 0 0 237 0.974276
-0.276715 0.049264 6.080340 0 0 255 0.968929
-0.269768 0.051705 6.109740 0 9 255 0.964199
-0.290948 0.053227 6.102040 0 17 255 0.961387
-0.283898 0.055213 6.131150 0 49 255 0.953109
-0.262651 0.054046 6.138980 0 33 255 0.957318
-0.304996 0.056597 6.123430 0 57 255 0.950117
-0.338367 0.043440 6.017620 0 0 233 0.975874
-0.354103 0.048854 6.040010 0 0 242 0.973279
-0.333697 0.047667 6.049820 0 0 233 0.976031
-0.349274 0.052609 6.072030 0 0 255 0.969586
-0.369581 0.053824 6.062120 0 1 255 0.966433
-0.328937 0.051808 6.081680 0 0 251 0.971391
-0.364522 0.056897 6.093830 0 21 255 0.960691
-0.344347 0.056093 6.103570 0 17 255 0.961640
-0.359378 0.059715 6.125010 0 61 255 0.949804
-0.384793 0.058131 6.083950 0 33 255 0.956819
-0.379365 0.060459 6.115280 0 61 255 0.949984
-0.399510 0.061703 6.105460 0 77 255 0.945322
-0.323992 0.055740 6.113220 0 29 255 0.958300
-0.339247 0.059373 6.134680 0 81 255 0.943326
-0.310028 0.052372 6.091840 0 1 255 0.966337
-0.295820 0.048383 6.070170 0 0 237 0.974768
-0.314807 0.047918 6.060040 0 0 228 0.976362
-0.300577 0.043580 6.038140 0 0 223 0.977417
-0.281588 0.044084 6.048210 0 0 228 0.976918
-0.319473 0.043274 6.027950 0 0 228 0.977073
-0.416598 0.062339 6.128930 0 81 255 0.943185
-0.390729 0.058465 6.136680 0 41 255 0.955549
-0.407633 0.058794 6.159910 0 57 255 0.950404
-0.433515 0.062579 6.152160 0 109 255 0.935512
-0.382077 0.055697 6.167740 0 29 255 0.958175
-0.424541 0.058846 6.183060 0 121 255 0.932193
-0.398873 0.055886 6.191070 0 85 255 0.943094
-0.450208 0.062127 6.174890 0 165 255 0.918221
-0.373361 0.053473 6.199130 0 65 255 0.948786
-0.362272 0.055545 6.177760 0 53 255 0.952048
-0.350913 0.057499 6.156200 0 49 255 0.952360
-0.370867 0.057754 6.146440 0 37 255 0.956116
-0.307430 0.036474 6.007390 0 0 192 0.984873
-0.288419 0.036840 6.017630 0 0 192 0.985382
-0.276219 0.030007 5.996940 0 0 164 0.991150
-0.269346 0.037409 6.027820 0 0 192 0.985022
-0.257126 0.030735 6.007150 0 0 169 0.990399
-0.237891 0.031576 6.017220 0 0 169 0.989925
-0.250216 0.038231 6.037830 0 0 196 0.983589
-0.244835 0.024016 5.986310 0 0 155 0.993512
-0.225585 0.024980 5.996460 0 0 155 0.992763
-0.213362 0.018613 5.975630 0 0 155 0.993475
-0.232337 0.017250 5.965500 0 0 146 0.994578
-0.263722 0.022865 5.976160 0 0 151 0.994262
-0.251226 0.016061 5.955360 0 0 146 0.995215
-0.282468 0.022071 5.965960 0 0 151 0.994076
-0.294941 0.029293 5.986720 0 0 164 0.991002
-0.313722 0.028832 5.976410 0 0 169 0.990212
-0.270042 0.015194 5.945190 0 0 146 0.995403
-0.301277 0.021536 5.955660 0 0 151 0.993678
-0.288885 0.014551 5.934810 0 0 146 0.994675
-0.326059 0.036153 5.997050 0 0 192 0.984720
-0.231459 0.038297 6.047560 0 0 196 0.983569
-0.212017 0.037977 6.056650 0 0 196 0.984094
-0.200182 0.031932 6.036780 0 0 169 0.989858
-0.192365 0.037869 6.065820 0 0 196 0.984305
-0.180572 0.031908 6.045920 0 0 173 0.989332
-0.168800 0.026164 6.025900 0 0 160 0.992406
-0.156734 0.020124 6.005030 0 0 155 0.992771
-0.187942 0.025558 6.016040 0 0 155 0.993206
-0.175795 0.019410 5.995180 0 0 155 0.993487
-0.206854 0.025138 6.006250 0 0 155 0.993328
-0.219154 0.031641 6.026960 0 0 164 0.990670
-0.194668 0.018899 5.985430 0 0 151 0.993699
-0.113739 -0.009137 5.926400 0 0 128 0.998685
-0.124277 -0.002126 5.946380 0 0 128 0.998566
-0.143304 -0.003205 5.936260 0 0 128 0.998932
-0.132665 -0.010202 5.916180 0 0 128 0.998958
-0.154063 0.004180 5.956200 0 0 133 0.998150
-0.162170 -0.004065 5.926060 0 0 128 0.999025
-0.172960 0.003366 5.946090 0 0 133 0.998423
-0.191654 0.002807 5.936020 0 0 133 0.998331
-0.151418 -0.011088 5.905940 0 0 128 0.999004
-0.180849 -0.004656 5.915980 0 0 128 0.998911
-0.170026 -0.011674 5.895850 0 0 128 0.998790
-0.183780 0.011141 5.965950 0 0 137 0.996643
-0.202501 0.010607 5.955900 0 0 137 0.996719
-0.164923 0.011689 5.975750 0 0 137 0.996557
-0.145853 0.012440 5.985570 0 0 142 0.996050
-0.135041 0.004987 5.965970 0 0 133 0.997778
-0.189154 -0.013233 5.885930 0 0 128 0.999203
-0.199687 -0.006151 5.905880 0 0 128 0.999253
-0.218714 -0.007408 5.895980 0 0 128 0.999379
-0.208115 -0.014488 5.876000 0 0 128 0.999328
-0.229332 0.000147 5.915760 0 0 128 0.998914
-0.237824 -0.008418 5.885920 0 0 128 0.999307
-0.248462 -0.000823 5.905810 0 0 128 0.998894
-0.267692 -0.001581 5.895630 0 0 128 0.998650
-0.227165 -0.015497 5.865990 0 0 128 0.999233
-0.257023 -0.009157 5.875790 0 0 128 0.998968
-0.246307 -0.016217 5.855840 0 0 128 0.998741
-0.259072 0.007067 5.925380 0 0 133 0.997651
-0.278223 0.006371 5.915270 0 0 137 0.997453
-0.240233 0.007979 5.935610 0 0 133 0.997725
-0.221425 0.009151 5.945750 0 0 137 0.997456
-0.210543 0.001337 5.925890 0 0 128 0.998783
-0.356075 0.041688 6.006350 0 0 219 0.978400
-0.371751 0.047727 6.026440 0 0 242 0.973462
-0.389617 0.046556 6.014950 0 0 228 0.976519
-0.373951 0.040468 5.994870 0 0 201 0.982515
-0.405058 0.052235 6.034890 0 0 255 0.968780
-0.407714 0.045694 6.003130 0 0 233 0.975211
-0.423090 0.051621 6.023040 0 0 255 0.968584
-0.441704 0.051488 6.010730 0 9 255 0.964267
-0.392004 0.039387 5.983110 0 0 210 0.980969
-0.426152 0.045386 5.990940 0 0 251 0.971466
-0.410396 0.038498 5.970990 0 0 223 0.977814
-0.438275 0.056985 6.042760 0 25 255 0.959584
-0.456902 0.056827 6.030550 0 41 255 0.954861
