ply
format ascii 1.0
comment VCGLIB generated
element vertex 1027
property float x
property float y
property float z
property uchar red
property uchar green
property uchar blue
property float quality
end_header
0.955008 -1.035190 6.379680 128 0 0 1.000000
0.961721 -1.023900 6.353900 128 0 0 1.000000
0.977731 -1.010380 6.329740 128 0 0 1.000000
0.998012 -1.005070 6.332430 137 0 0 0.999999
0.980944 -1.018760 6.356190 128 0 0 1.000000
0.974535 -1.029900 6.381230 137 0 0 0.999999
1.027790 -0.999375 6.337480 137 0 0 0.999999
1.021040 -1.010220 6.361500 137 0 0 0.999999
1.004660 -1.023700 6.384850 128 0 0 1.000000
0.997330 -1.035200 6.408950 255 112 0 0.999976
1.001040 -1.014270 6.358770 128 0 0 1.000000
1.004200 -1.037870 6.434280 137 0 0 0.999999
0.991294 -1.044480 6.458030 128 0 0 1.000000
0.987402 -1.049750 6.481840 128 0 0 1.000000
-0.462081 -0.589879 5.182890 146 0 0 0.999998
-0.447435 -0.585397 5.191070 137 0 0 0.999999
-0.428733 -0.587643 5.193820 137 0 0 0.999999
-0.414366 -0.582575 5.202110 137 0 0 0.999999
-0.396278 -0.584393 5.204410 192 0 0 0.999994
-0.404754 -0.569805 5.215170 223 0 0 0.999991
-0.405322 -0.596195 5.190290 160 0 0 0.999997
-0.386807 -0.597590 5.191800 233 1 0 0.999990
-0.413052 -0.607259 5.175170 160 0 0 0.999997
-0.432304 -0.605770 5.173180 169 0 0 0.999996
-0.451233 -0.603555 5.170460 160 0 0 0.999997
-0.440068 -0.615855 5.157800 201 0 0 0.999993
-0.389643 -0.568210 5.224080 137 0 0 0.999999
-0.372176 -0.572466 5.227550 192 0 0 0.999994
-0.357297 -0.570109 5.236140 255 41 0 0.999985
-0.339801 -0.573700 5.238250 255 90 0 0.999979
-0.347268 -0.589834 5.218680 137 0 0 0.999999
-0.378158 -0.588774 5.207230 201 0 0 0.999993
-0.318028 -0.608797 5.206720 255 56 0 0.999983
-0.335038 -0.606847 5.204020 251 16 0 0.999988
-0.341464 -0.615365 5.188850 201 0 0 0.999993
-0.358699 -0.612578 5.185170 146 0 0 0.999998
-0.365099 -0.619961 5.169600 255 41 0 0.999985
-0.356385 -0.598768 5.205520 251 16 0 0.999988
-0.330262 -0.592472 5.222280 233 1 0 0.999990
-0.383516 -0.619930 5.167510 255 34 0 0.999986
-0.388891 -0.629484 5.151900 146 0 0 0.999998
-0.407907 -0.628789 5.149640 137 0 0 0.999999
-0.427277 -0.627484 5.146740 178 0 0 0.999995
-0.414060 -0.638287 5.135030 223 0 0 0.999991
-0.421012 -0.617485 5.161320 137 0 0 0.999999
-0.077922 -0.665406 5.407240 255 119 0 0.999975
-0.064371 -0.685269 5.418860 160 0 0 0.999997
-0.053614 -0.708884 5.428810 242 8 0 0.999989
-0.043446 -0.733483 5.442900 255 27 0 0.999987
-0.037776 -0.762050 5.454570 158 255 90 0.999940
-0.070962 -0.694287 5.407980 255 141 0 0.999972
-0.084206 -0.676032 5.396320 255 164 0 0.999969
-0.036364 -0.787697 5.474470 192 0 0 0.999994
-0.041623 -0.816083 5.483160 201 0 0 0.999993
-0.047347 -0.845331 5.494970 255 204 0 0.999963
-0.055007 -0.874153 5.500690 209 255 38 0.999950
-0.043411 -0.790332 5.461250 255 212 0 0.999962
-0.060946 -0.870069 5.480900 87 255 161 0.999925
-0.054827 -0.843596 5.472390 0 0 128 0.999579
-0.049016 -0.816983 5.464580 109 255 138 0.999930
-0.043408 -0.766068 5.440930 0 45 255 0.999849
-0.051695 -0.742368 5.424190 58 255 190 0.999918
-0.061182 -0.718780 5.413250 255 178 0 0.999967
-0.046353 -0.792494 5.444080 0 85 255 0.999863
-0.055989 -0.866297 5.465610 167 255 80 0.999942
-0.047061 -0.817128 5.447650 0 0 183 0.999775
-0.049265 -0.841260 5.454810 0 201 255 0.999896
-0.041329 -0.769284 5.420600 0 13 255 0.999835
-0.088873 -0.695719 5.367140 0 97 255 0.999867
-0.075318 -0.709947 5.381810 0 0 128 0.999590
-0.062907 -0.726891 5.397240 67 255 180 0.999920
-0.051018 -0.746662 5.408410 0 0 173 0.999767
-0.088886 -0.687573 5.382140 255 141 0 0.999972
-0.067405 -0.902337 5.515560 178 0 0 0.999995
-0.084258 -0.926368 5.515900 178 0 0 0.999995
-0.100417 -0.950631 5.522130 192 0 0 0.999994
-0.117062 -0.972453 5.522180 209 255 38 0.999950
-0.073675 -0.897120 5.498800 255 34 0 0.999986
-0.137458 -0.994597 5.536160 137 0 0 0.999999
-0.158493 -1.007010 5.531710 146 0 0 0.999998
-0.179300 -1.022500 5.534430 137 0 0 0.999999
-0.199483 -1.033490 5.530080 255 75 0 0.999981
-0.179784 -1.013330 5.514150 160 0 0 0.999997
-0.159857 -0.998661 5.513300 128 0 0 1.000000
-0.138668 -0.985722 5.517760 128 0 0 1.000000
-0.195944 -1.018600 5.496380 255 156 0 0.999970
-0.177791 -1.004030 5.496330 178 0 0 0.999995
-0.158373 -0.989682 5.495950 255 34 0 0.999986
-0.138822 -0.976668 5.500240 255 75 0 0.999981
-0.119206 -0.962461 5.503740 255 238 0 0.999958
-0.104633 -0.937175 5.492800 0 0 142 0.999722
-0.089291 -0.916802 5.492580 96 255 151 0.999927
-0.181062 -1.001330 5.464300 255 212 0 0.999962
-0.164233 -0.986804 5.466090 55 255 193 0.999917
-0.147500 -0.975341 5.471030 151 255 96 0.999939
-0.129513 -0.960872 5.472590 0 209 255 0.999898
-0.111978 -0.948525 5.477590 42 255 206 0.999914
-0.172784 -0.995268 5.480260 242 8 0 0.999989
-0.190598 -1.008990 5.479690 255 27 0 0.999987
-0.094630 -0.926048 5.469770 0 0 128 0.999594
-0.081772 -0.907451 5.469830 0 0 183 0.999778
-0.068582 -0.886421 5.466760 87 255 161 0.999925
-0.074265 -0.891698 5.482310 219 255 29 0.999952
-0.324701 -1.056400 5.405620 169 0 0 0.999996
-0.307953 -1.049940 5.414240 210 0 0 0.999992
-0.294247 -1.045510 5.427200 233 1 0 0.999990
-0.276461 -1.041120 5.435760 137 0 0 0.999999
-0.261719 -1.038750 5.448770 255 127 0 0.999974
-0.287645 -1.046350 5.450960 192 0 0 0.999994
-0.306953 -1.050750 5.443050 251 16 0 0.999988
-0.321075 -1.054570 5.429920 210 0 0 0.999992
-0.339584 -1.061000 5.422370 169 0 0 0.999996
-0.238006 -1.025730 5.445130 251 16 0 0.999988
-0.222155 -1.019570 5.455420 255 178 0 0.999967
-0.203602 -1.010620 5.461720 138 255 109 0.999936
-0.249679 -1.033850 5.463740 169 0 0 0.999996
-0.217274 -1.026310 5.492310 192 0 0 0.999994
-0.235983 -1.031570 5.483120 146 0 0 0.999998
-0.272742 -1.047140 5.469420 255 197 0 0.999964
-0.258178 -1.041490 5.484000 192 0 0 0.999994
-0.298401 -1.054020 5.473030 169 0 0 0.999996
-0.315636 -1.056270 5.460040 160 0 0 0.999997
-0.336365 -1.060570 5.453060 160 0 0 0.999997
-0.352691 -1.064740 5.439980 169 0 0 0.999996
-0.241242 -1.038410 5.499660 146 0 0 0.999998
-0.220905 -1.035350 5.512570 160 0 0 0.999997
-0.263116 -1.047810 5.501230 169 0 0 0.999996
-0.284130 -1.057620 5.502610 255 97 0 0.999978
-0.279323 -1.052050 5.485660 251 16 0 0.999988
-0.244911 -1.048340 5.526590 192 0 0 0.999994
-0.222118 -1.044860 5.535620 160 0 0 0.999997
-0.267275 -1.058390 5.532010 233 1 0 0.999990
-0.289885 -1.067290 5.537450 255 178 0 0.999967
-0.287119 -1.062840 5.520120 255 67 0 0.999982
-0.383510 -1.071210 5.517020 255 119 0 0.999975
-0.358507 -1.068560 5.513490 160 0 0 0.999997
-0.378035 -1.070770 5.498090 255 119 0 0.999975
-0.333488 -1.065860 5.509960 146 0 0 0.999998
-0.352830 -1.067240 5.494270 146 0 0 0.999998
-0.328084 -1.063360 5.490590 178 0 0 0.999995
-0.372070 -1.069760 5.478550 242 8 0 0.999989
-0.308561 -1.062200 5.506330 169 0 0 0.999996
-0.311990 -1.065940 5.523670 137 0 0 0.999999
-0.336960 -1.068360 5.527070 146 0 0 0.999998
-0.345343 -1.064070 5.472210 160 0 0 0.999997
-0.363341 -1.067700 5.458740 251 16 0 0.999988
-0.349429 -1.024120 5.167450 255 82 0 0.999980
-0.348624 -1.034300 5.192110 128 0 0 1.000000
-0.348294 -1.044940 5.216610 255 97 0 0.999978
-0.328574 -1.039470 5.197000 169 0 0 0.999996
-0.369069 -1.039580 5.212110 178 0 0 0.999995
-0.392265 -1.032860 5.205680 137 0 0 0.999999
-0.370277 -1.028320 5.186360 160 0 0 0.999997
-0.393670 -1.021450 5.180120 255 56 0 0.999983
-0.313306 -1.047010 5.216690 178 0 0 0.999995
-0.329033 -1.050730 5.238270 128 0 0 1.000000
-0.308756 -1.052380 5.242560 178 0 0 0.999995
-0.288600 -1.053770 5.247220 251 16 0 0.999988
-0.324670 -1.056360 5.264260 255 119 0 0.999975
-0.346484 -1.054540 5.259050 160 0 0 0.999997
-0.365815 -1.048430 5.237500 178 0 0 0.999995
-0.373921 -1.062510 5.291260 255 41 0 0.999985
-0.385667 -1.054710 5.263770 128 0 0 1.000000
-0.397465 -1.046340 5.236400 255 149 0 0.999971
-0.407912 -1.051550 5.257050 178 0 0 0.999995
-0.364745 -1.056970 5.269750 201 0 0 0.999993
-0.428848 -1.040340 5.234240 192 0 0 0.999994
-0.414035 -1.033530 5.215080 128 0 0 1.000000
-0.435544 -1.026280 5.207640 128 0 0 1.000000
-0.457261 -1.019170 5.199640 255 41 0 0.999985
-0.421135 -1.020000 5.188360 255 49 0 0.999984
-0.226569 -0.585334 5.311080 255 134 0 0.999973
-0.241451 -0.587116 5.299770 255 82 0 0.999980
-0.254996 -0.588286 5.287250 255 104 0 0.999977
-0.226589 -0.600942 5.297230 255 227 0 0.999960
-0.240535 -0.602259 5.284740 255 97 0 0.999978
-0.267996 -0.588101 5.274060 255 75 0 0.999981
-0.280729 -0.587306 5.260190 255 212 0 0.999962
-0.284363 -0.569194 5.275920 255 149 0 0.999971
-0.271334 -0.569826 5.289850 255 227 0 0.999960
-0.248925 -0.607732 5.266250 255 41 0 0.999985
-0.222563 -0.617250 5.278270 255 234 0 0.999959
-0.233812 -0.617944 5.264650 251 16 0 0.999988
-0.259970 -0.607652 5.253140 255 171 0 0.999968
-0.270272 -0.606677 5.239060 255 112 0 0.999976
-0.313041 -0.599288 5.225930 255 82 0 0.999980
-0.307589 -0.588300 5.244860 255 90 0 0.999979
-0.287924 -0.598967 5.242460 233 1 0 0.999990
-0.294030 -0.608453 5.223010 178 0 0 0.999995
-0.325302 -0.575446 5.247340 255 41 0 0.999985
-0.313051 -0.569335 5.260910 223 0 0 0.999991
-0.300378 -0.562772 5.273670 255 56 0 0.999983
-0.099533 -0.651039 5.393870 160 0 0 0.999997
-0.120840 -0.638291 5.382370 169 0 0 0.999996
-0.140249 -0.625538 5.371080 169 0 0 0.999996
-0.158567 -0.612459 5.360170 201 0 0 0.999993
-0.152876 -0.597620 5.370930 210 0 0 0.999992
-0.134728 -0.610706 5.381820 169 0 0 0.999996
-0.105527 -0.663105 5.382630 192 0 0 0.999994
-0.126349 -0.652349 5.370330 251 16 0 0.999988
-0.146039 -0.641163 5.358860 255 97 0 0.999978
-0.162740 -0.629967 5.345790 255 41 0 0.999985
-0.211669 -0.593675 5.324630 255 141 0 0.999972
-0.195359 -0.600467 5.336950 233 1 0 0.999990
-0.223016 -0.564929 5.325800 255 112 0 0.999976
-0.207939 -0.573513 5.338700 251 16 0 0.999988
-0.177452 -0.606851 5.348580 192 0 0 0.999994
-0.217309 -0.542498 5.339550 255 164 0 0.999969
-0.189499 -0.576822 5.354250 251 16 0 0.999988
-0.202084 -0.553255 5.352210 255 34 0 0.999986
-0.170950 -0.584884 5.364660 178 0 0 0.999995
-0.256229 -0.567870 5.303090 255 82 0 0.999980
-0.283904 -0.546555 5.291700 255 212 0 0.999962
-0.268629 -0.545463 5.305370 255 119 0 0.999975
-0.252148 -0.545400 5.317460 251 16 0 0.999988
-0.238670 -0.559230 5.319620 255 56 0 0.999983
-0.316476 -0.545858 5.277880 255 119 0 0.999975
-0.330798 -0.553533 5.263700 242 8 0 0.999989
-0.346082 -0.543960 5.260320 255 90 0 0.999979
-0.331825 -0.536348 5.274610 242 8 0 0.999989
-0.347014 -0.526118 5.270640 255 56 0 0.999983
-0.299122 -0.538590 5.289850 255 90 0 0.999979
-0.342067 -0.489160 5.289320 255 141 0 0.999972
-0.324771 -0.491487 5.297630 146 0 0 0.999998
-0.309520 -0.501581 5.301020 137 0 0 0.999999
-0.292122 -0.502546 5.307720 201 0 0 0.999993
-0.277071 -0.511944 5.309420 255 156 0 0.999970
-0.313117 -0.519929 5.292390 223 0 0 0.999991
-0.328297 -0.509463 5.289270 178 0 0 0.999995
-0.344859 -0.508124 5.280870 255 41 0 0.999985
-0.258013 -0.503327 5.326770 255 34 0 0.999986
-0.245670 -0.520061 5.331100 160 0 0 0.999997
-0.230712 -0.528132 5.338490 255 112 0 0.999976
-0.109382 -0.674399 5.369680 255 97 0 0.999978
-0.130135 -0.664345 5.356600 255 164 0 0.999969
-0.148694 -0.654461 5.343210 80 255 167 0.999923
-0.164808 -0.643089 5.332290 193 255 55 0.999947
-0.129233 -0.673709 5.341520 167 255 80 0.999942
-0.109361 -0.683559 5.353900 0 97 255 0.999867
-0.209087 -0.628551 5.289130 255 97 0 0.999978
-0.195949 -0.635550 5.304200 109 255 138 0.999930
-0.180933 -0.639327 5.318420 233 1 0 0.999990
-0.212555 -0.613750 5.306750 255 178 0 0.999967
-0.197678 -0.620325 5.320920 255 171 0 0.999968
-0.180827 -0.625247 5.333640 255 49 0 0.999984
-0.195847 -0.643068 5.235990 209 255 38 0.999950
-0.205306 -0.644083 5.206790 167 255 80 0.999942
-0.189875 -0.647717 5.212650 255 134 0 0.999973
-0.173447 -0.649801 5.218060 132 255 116 0.999935
-0.214571 -0.644059 5.177710 161 255 87 0.999941
-0.221941 -0.639587 5.202440 201 0 0 0.999993
-0.237708 -0.633510 5.197610 255 67 0 0.999982
-0.162222 -0.649303 5.196620 242 8 0 0.999989
-0.149656 -0.646581 5.174630 137 0 0 0.999999
-0.139958 -0.648064 5.202030 255 219 0 0.999961
-0.171364 -0.647261 5.169880 255 171 0 0.999968
-0.193270 -0.645812 5.165890 255 186 0 0.999966
-0.211943 -0.659818 5.120280 255 156 0 0.999970
-0.223107 -0.654259 5.140150 201 0 0 0.999993
-0.234568 -0.648790 5.160870 255 197 0 0.999964
-0.243428 -0.653564 5.136920 255 156 0 0.999970
-0.202329 -0.652589 5.142650 146 0 0 0.999998
-0.181362 -0.650395 5.145750 255 75 0 0.999981
-0.260020 -0.648718 5.148280 255 90 0 0.999979
-0.261748 -0.641860 5.166960 137 0 0 0.999999
-0.277854 -0.639975 5.164010 233 1 0 0.999990
-0.235898 -0.641081 5.178370 137 0 0 0.999999
-0.105740 -0.642559 5.190660 255 238 0 0.999958
-0.084261 -0.639464 5.185080 71 255 177 0.999921
-0.106653 -0.642111 5.161350 137 0 0 0.999999
-0.085905 -0.640825 5.156690 137 0 0 0.999999
-0.065622 -0.640808 5.152520 137 0 0 0.999999
-0.063739 -0.639341 5.180490 203 255 45 0.999949
-0.042239 -0.638361 5.177020 255 178 0 0.999967
-0.087830 -0.642385 5.128590 142 255 106 0.999937
-0.108476 -0.642037 5.132960 0 149 255 0.999883
-0.128773 -0.642251 5.138620 45 255 203 0.999915
-0.128274 -0.643931 5.167220 178 0 0 0.999995
-0.150162 -0.644699 5.146050 255 197 0 0.999964
-0.017196 -0.638299 5.171610 119 255 129 0.999932
-0.003074 -0.639695 5.154520 255 104 0 0.999977
0.021033 -0.640664 5.150140 255 178 0 0.999967
-0.001002 -0.643354 5.125910 251 16 0 0.999988
-0.025992 -0.642071 5.130230 255 204 0 0.999963
-0.051628 -0.641854 5.135080 255 82 0 0.999980
-0.055271 -0.663801 5.076320 0 201 255 0.999896
-0.069328 -0.658014 5.089870 192 0 0 0.999994
-0.094758 -0.656865 5.094990 242 8 0 0.999989
-0.109601 -0.652087 5.109730 146 0 0 0.999998
-0.130282 -0.660139 5.091950 255 234 0 0.999959
-0.072806 -0.647276 5.113580 255 82 0 0.999980
-0.047945 -0.648228 5.108430 255 164 0 0.999969
-0.023499 -0.649683 5.103870 255 141 0 0.999972
-0.150635 -0.658743 5.097540 109 255 138 0.999930
-0.171771 -0.658894 5.104700 71 255 177 0.999921
-0.149443 -0.650787 5.120840 192 0 0 0.999994
-0.192166 -0.659267 5.112250 255 238 0 0.999958
-0.129185 -0.650748 5.114640 146 0 0 0.999998
-0.277830 -0.633005 5.183250 201 0 0 0.999993
-0.277997 -0.625342 5.202580 223 0 0 0.999991
-0.293617 -0.629861 5.179690 255 27 0 0.999987
-0.261655 -0.627316 5.204960 232 255 16 0.999954
-0.296841 -0.617982 5.204310 233 1 0 0.999990
-0.274245 -0.616468 5.221040 178 0 0 0.999995
-0.239125 -0.622708 5.246320 178 0 0 0.999995
-0.213625 -0.630547 5.259180 255 238 0 0.999958
-0.245114 -0.625643 5.227540 177 255 71 0.999944
-0.218130 -0.634791 5.240890 232 255 16 0.999954
-0.285587 -0.654281 5.136130 146 0 0 0.999998
-0.283893 -0.664611 5.118120 192 0 0 0.999994
-0.299710 -0.665026 5.113840 233 1 0 0.999990
-0.301990 -0.654952 5.132580 128 0 0 1.000000
-0.318393 -0.655015 5.128670 160 0 0 0.999997
-0.252190 -0.665417 5.115590 160 0 0 0.999997
-0.232215 -0.663029 5.117970 255 34 0 0.999986
-0.241661 -0.675828 5.098250 192 0 0 0.999994
-0.262095 -0.677646 5.095170 193 255 55 0.999947
-0.288427 -0.707565 5.068980 251 16 0 0.999988
-0.300608 -0.694002 5.081870 137 0 0 0.999999
-0.313260 -0.680543 5.096050 137 0 0 0.999999
-0.322160 -0.696290 5.079260 255 112 0 0.999976
-0.291935 -0.677902 5.097990 255 41 0 0.999985
-0.280117 -0.690884 5.083470 137 0 0 0.999999
-0.340662 -0.688778 5.086920 255 34 0 0.999986
-0.343682 -0.675548 5.101660 192 0 0 0.999994
-0.361778 -0.676463 5.097720 255 49 0 0.999984
-0.315625 -0.667244 5.111240 160 0 0 0.999997
-0.365191 -0.634454 5.150050 137 0 0 0.999999
-0.348025 -0.634743 5.153980 160 0 0 0.999997
-0.370897 -0.643993 5.136370 128 0 0 1.000000
-0.389136 -0.643972 5.133260 137 0 0 0.999999
-0.394736 -0.653648 5.120070 169 0 0 0.999996
-0.320048 -0.621320 5.187120 160 0 0 0.999997
-0.320451 -0.633216 5.166980 169 0 0 0.999996
-0.293555 -0.640472 5.160180 128 0 0 1.000000
-0.320077 -0.644369 5.147860 178 0 0 0.999995
-0.335204 -0.656147 5.125250 255 41 0 0.999985
-0.352474 -0.657557 5.121650 146 0 0 0.999998
-0.370062 -0.657829 5.118070 251 16 0 0.999988
0.116646 -0.703781 5.285660 255 134 0 0.999973
0.125026 -0.724072 5.301270 146 0 0 0.999998
0.104155 -0.720749 5.307250 169 0 0 0.999996
0.095958 -0.701731 5.291800 255 164 0 0.999969
0.112392 -0.741630 5.322400 169 0 0 0.999996
0.082396 -0.717736 5.311690 146 0 0 0.999998
0.091436 -0.738061 5.326690 137 0 0 0.999999
0.071093 -0.736216 5.331950 137 0 0 0.999999
0.072984 -0.699304 5.296330 255 178 0 0.999967
0.061120 -0.716459 5.316470 137 0 0 0.999999
0.050952 -0.698465 5.300850 255 119 0 0.999975
0.099879 -0.759463 5.341510 137 0 0 0.999999
0.079917 -0.757227 5.346850 146 0 0 0.999998
0.087729 -0.779142 5.361090 255 141 0 0.999972
0.105620 -0.780897 5.355780 255 119 0 0.999975
0.118000 -0.762319 5.336320 146 0 0 0.999998
0.122801 -0.783640 5.350060 255 27 0 0.999987
0.135690 -0.764898 5.329720 137 0 0 0.999999
0.130663 -0.744316 5.315730 128 0 0 1.000000
0.140281 -0.785749 5.343430 209 255 38 0.999950
0.030014 -0.716471 5.325690 137 0 0 0.999999
0.017626 -0.699154 5.310190 255 82 0 0.999980
0.042015 -0.735357 5.340970 169 0 0 0.999996
0.009664 -0.734617 5.350460 169 0 0 0.999996
-0.003103 -0.716613 5.335200 146 0 0 0.999998
-0.016760 -0.700163 5.320210 255 119 0 0.999975
0.036960 -0.755356 5.360200 169 0 0 0.999996
0.030251 -0.775691 5.378910 255 119 0 0.999975
0.058975 -0.777150 5.369810 255 141 0 0.999972
0.035066 -0.867680 5.417240 177 255 71 0.999944
0.049799 -0.846150 5.403920 137 0 0 0.999999
0.062307 -0.870829 5.408400 177 255 71 0.999944
0.063272 -0.823720 5.390140 137 0 0 0.999999
0.077084 -0.848555 5.395270 137 0 0 0.999999
0.090842 -0.826012 5.381680 146 0 0 0.999998
0.089820 -0.873145 5.399910 80 255 167 0.999923
0.076196 -0.801706 5.375960 137 0 0 0.999999
0.047331 -0.799100 5.384580 137 0 0 0.999999
0.034456 -0.821030 5.398820 146 0 0 0.999998
0.108659 -0.851446 5.385180 223 0 0 0.999991
0.123971 -0.875009 5.385620 0 0 201 0.999790
0.125767 -0.829614 5.368680 169 0 0 0.999996
0.124689 -0.806776 5.359820 178 0 0 0.999995
0.107636 -0.804190 5.366140 201 0 0 0.999993
0.108808 -0.827799 5.375770 137 0 0 0.999999
-0.127111 -0.652867 5.215910 242 8 0 0.999989
-0.126351 -0.659715 5.235110 251 16 0 0.999988
-0.151030 -0.655516 5.226340 255 178 0 0.999967
-0.150121 -0.661677 5.245250 174 255 74 0.999943
-0.124775 -0.664739 5.254190 255 197 0 0.999964
-0.121850 -0.668650 5.272610 255 141 0 0.999972
-0.098523 -0.664534 5.263550 255 90 0 0.999979
-0.101135 -0.659497 5.245100 178 0 0 0.999995
-0.102558 -0.653729 5.225760 146 0 0 0.999998
-0.076332 -0.661705 5.255370 251 16 0 0.999988
-0.173199 -0.654760 5.240200 255 90 0 0.999979
-0.171557 -0.657981 5.261690 167 255 80 0.999942
-0.152010 -0.665055 5.270330 138 255 109 0.999936
-0.142528 -0.667402 5.286890 255 227 0 0.999960
-0.070474 -0.702505 5.343800 193 255 55 0.999947
-0.084474 -0.692923 5.326270 13 245 235 0.999906
-0.098026 -0.684003 5.308440 255 127 0 0.999974
-0.052866 -0.701815 5.333780 255 97 0 0.999978
-0.110588 -0.676322 5.290710 232 255 16 0.999954
-0.059719 -0.691412 5.314850 146 0 0 0.999998
-0.066167 -0.681121 5.295060 146 0 0 0.999998
-0.032547 -0.688927 5.303660 137 0 0 0.999999
-0.071738 -0.671291 5.275090 146 0 0 0.999998
0.044157 -0.644495 5.178160 233 1 0 0.999990
0.019356 -0.643093 5.182060 251 16 0 0.999988
0.031496 -0.647611 5.197880 128 0 0 1.000000
-0.005501 -0.642366 5.186840 137 0 0 0.999999
0.006265 -0.646641 5.202130 137 0 0 0.999999
-0.019870 -0.646849 5.207040 160 0 0 0.999997
-0.031200 -0.642816 5.192220 160 0 0 0.999997
0.018469 -0.651448 5.217590 128 0 0 1.000000
-0.008123 -0.651157 5.222260 146 0 0 0.999998
0.004282 -0.655647 5.237220 255 171 0 0.999968
0.054428 -0.655939 5.227260 35 255 213 0.999912
0.066702 -0.652507 5.207740 160 0 0 0.999997
-0.073151 -0.645514 5.200860 137 0 0 0.999999
-0.060335 -0.649754 5.215790 128 0 0 1.000000
-0.093844 -0.646794 5.205400 146 0 0 0.999998
-0.081621 -0.651573 5.220810 128 0 0 1.000000
-0.068517 -0.655861 5.236050 128 0 0 1.000000
-0.036209 -0.657721 5.245240 255 234 0 0.999959
0.004457 -0.687788 5.294480 146 0 0 0.999998
-0.009365 -0.678419 5.278730 146 0 0 0.999998
0.027151 -0.675504 5.268790 160 0 0 0.999997
0.039093 -0.686738 5.284830 137 0 0 0.999999
-0.003176 -0.667031 5.257860 137 0 0 0.999999
-0.042503 -0.668292 5.266820 192 0 0 0.999994
0.062859 -0.688544 5.280980 128 0 0 1.000000
0.086154 -0.689881 5.276490 146 0 0 0.999998
0.076312 -0.679134 5.260810 128 0 0 1.000000
0.107242 -0.691300 5.270730 146 0 0 0.999998
0.097604 -0.680118 5.254880 128 0 0 1.000000
0.088576 -0.669476 5.239360 128 0 0 1.000000
0.065237 -0.667190 5.244080 137 0 0 0.999999
0.040704 -0.665709 5.248420 146 0 0 0.999998
0.052105 -0.676935 5.265150 137 0 0 0.999999
-0.187322 -0.649535 5.253360 255 127 0 0.999974
-0.185963 -0.650426 5.278820 235 255 13 0.999955
-0.167652 -0.659137 5.286570 255 34 0 0.999986
-0.156166 -0.662025 5.303240 0 145 255 0.999882
-0.200907 -0.640665 5.271150 177 255 71 0.999944
-0.177019 -0.650941 5.302850 219 255 29 0.999952
-0.142034 -0.670170 5.319190 0 173 255 0.999889
-0.115106 -0.682443 5.321350 74 255 174 0.999922
-0.129888 -0.675440 5.304250 255 164 0 0.999969
-0.029239 -0.716975 5.344820 160 0 0 0.999997
-0.015328 -0.734304 5.359930 169 0 0 0.999996
-0.003297 -0.754012 5.374470 178 0 0 0.999995
-0.001926 -0.774065 5.391600 255 171 0 0.999968
-0.033246 -0.734601 5.367500 251 16 0 0.999988
-0.051135 -0.716952 5.355320 55 255 193 0.999917
-0.025193 -0.753617 5.384510 161 255 87 0.999941
-0.019361 -0.774547 5.400920 203 255 45 0.999949
-0.022469 -0.867311 5.439670 167 255 80 0.999942
-0.014541 -0.843084 5.428630 251 16 0 0.999988
-0.008855 -0.819468 5.416810 255 41 0 0.999985
0.000867 -0.866117 5.430180 151 255 96 0.999939
-0.004752 -0.796168 5.404530 255 75 0 0.999981
0.009825 -0.842840 5.417870 146 0 0 0.999998
0.024631 -0.797330 5.392290 146 0 0 0.999998
0.009605 -0.819717 5.408670 137 0 0 0.999999
-0.051271 -0.732331 5.379680 225 255 22 0.999953
-0.033794 -0.817779 5.432570 80 255 167 0.999923
-0.040927 -0.865907 5.450450 0 113 255 0.999872
-0.035227 -0.794229 5.424170 0 0 133 0.999703
-0.033110 -0.842283 5.439040 255 156 0 0.999970
0.086538 -0.990517 5.366000 255 127 0 0.999974
0.076551 -0.977405 5.379170 137 0 0 0.999999
0.105953 -0.963433 5.376320 146 0 0 0.999998
0.096325 -0.949987 5.389210 0 0 196 0.999787
0.066277 -0.964254 5.392040 137 0 0 0.999999
0.056953 -0.950452 5.404520 0 13 255 0.999836
0.030967 -0.978895 5.394660 169 0 0 0.999996
0.041081 -0.992346 5.382270 255 171 0 0.999968
0.051923 -1.005250 5.369390 0 109 255 0.999871
0.004574 -1.005970 5.383630 0 61 255 0.999856
0.123064 -0.931041 5.380150 137 0 0 0.999999
0.112121 -0.912475 5.387150 137 0 0 0.999999
0.135057 -0.894876 5.378790 137 0 0 0.999999
0.100562 -0.893604 5.394560 146 0 0 0.999998
0.082226 -0.893363 5.401810 192 0 0 0.999994
0.092883 -0.912716 5.395600 137 0 0 0.999999
0.073881 -0.912445 5.403030 192 0 0 0.999994
0.025399 -0.888326 5.420280 137 0 0 0.999999
0.030912 -0.909482 5.417570 137 0 0 0.999999
0.020242 -0.929120 5.419240 128 0 0 1.000000
0.025181 -0.949049 5.415560 0 125 255 0.999876
-0.007856 -0.947492 5.426000 19 253 229 0.999908
0.051295 -0.930785 5.408560 137 0 0 0.999999
0.054662 -0.890307 5.410530 146 0 0 0.999998
-0.025317 -0.961581 5.421630 137 0 0 0.999999
-0.042472 -0.974497 5.416840 137 0 0 0.999999
-0.002582 -0.977030 5.405210 137 0 0 0.999999
-0.019135 -0.990318 5.400150 128 0 0 1.000000
-0.035954 -1.002760 5.394810 158 255 90 0.999940
-0.060757 -0.985977 5.412100 128 0 0 1.000000
-0.079019 -0.996958 5.407470 129 255 119 0.999934
-0.065445 -0.971111 5.423930 128 0 0 1.000000
-0.046908 -0.959333 5.428370 137 0 0 0.999999
-0.029034 -0.946158 5.432670 142 255 106 0.999937
-0.051361 -0.943705 5.439420 203 255 45 0.999949
-0.070748 -0.956280 5.435540 201 0 0 0.999993
-0.089803 -0.968174 5.431590 201 0 0 0.999993
-0.085148 -0.982218 5.419530 146 0 0 0.999998
-0.103367 -0.993667 5.415090 158 255 90 0.999940
-0.107796 -0.980231 5.427270 192 0 0 0.999994
-0.124756 -0.991956 5.422850 225 255 22 0.999953
0.006543 -0.908249 5.425870 137 0 0 0.999999
-0.010588 -0.886997 5.433750 137 0 0 0.999999
-0.023964 -0.906878 5.436450 137 0 0 0.999999
-0.015572 -0.927566 5.431370 146 0 0 0.999998
-0.037989 -0.925845 5.438320 137 0 0 0.999999
-0.036845 -0.887504 5.443350 251 16 0 0.999988
-0.051057 -0.906424 5.445700 255 56 0 0.999983
-0.064042 -0.924936 5.447760 51 255 196 0.999916
-0.077405 -0.942550 5.448970 193 255 55 0.999947
-0.096480 -0.955470 5.445630 255 67 0 0.999982
-0.114912 -0.967477 5.441700 255 204 0 0.999963
-0.132161 -0.979964 5.438430 255 119 0 0.999975
-0.148900 -0.992243 5.435030 255 197 0 0.999964
-0.099205 -0.943480 5.462750 0 113 255 0.999873
-0.069272 -0.905222 5.456310 255 197 0 0.999964
-0.055484 -0.885883 5.453590 255 193 0 0.999965
-0.167290 -0.995366 5.449120 255 212 0 0.999962
-0.150701 -0.982025 5.451680 255 197 0 0.999964
-0.135777 -0.969615 5.457550 255 171 0 0.999968
-0.114667 -0.956297 5.457280 255 197 0 0.999964
-0.274970 -1.045010 5.368320 178 0 0 0.999995
-0.292528 -1.050850 5.344780 137 0 0 0.999999
-0.309714 -1.057440 5.321640 255 34 0 0.999986
-0.313111 -1.056140 5.340590 128 0 0 1.000000
-0.289235 -1.052000 5.325650 210 0 0 0.999992
-0.270241 -1.047380 5.331760 169 0 0 0.999996
-0.272829 -1.045880 5.349990 137 0 0 0.999999
-0.253609 -1.041560 5.355920 201 0 0 0.999993
-0.337453 -1.061130 5.321310 128 0 0 1.000000
-0.331418 -1.059000 5.300950 128 0 0 1.000000
-0.352381 -1.060810 5.296000 201 0 0 0.999993
-0.315239 -1.056240 5.291090 146 0 0 0.999998
-0.279779 -1.053480 5.274110 137 0 0 0.999999
-0.271127 -1.053050 5.300950 255 141 0 0.999972
-0.258307 -1.052430 5.279590 178 0 0 0.999995
-0.292607 -1.054510 5.295740 201 0 0 0.999993
-0.301668 -1.054960 5.268980 178 0 0 0.999995
-0.237079 -1.048450 5.301030 201 0 0 0.999993
-0.247565 -1.045640 5.320910 160 0 0 0.999997
-0.225404 -1.042190 5.327140 169 0 0 0.999996
-0.202727 -1.039370 5.333230 242 8 0 0.999989
-0.235566 -1.040170 5.346980 192 0 0 0.999994
-0.246541 -1.031490 5.430430 255 34 0 0.999986
-0.224591 -1.020900 5.432290 251 16 0 0.999988
-0.207017 -1.013510 5.438920 223 0 0 0.999991
-0.189765 -1.004400 5.446030 255 104 0 0.999977
-0.279600 -1.040120 5.412620 223 0 0 0.999991
-0.290635 -1.045540 5.399600 178 0 0 0.999995
-0.307232 -1.052110 5.390780 178 0 0 0.999995
-0.258722 -1.034450 5.416980 169 0 0 0.999996
-0.260975 -1.038610 5.377460 201 0 0 0.999993
-0.246282 -1.033060 5.386800 137 0 0 0.999999
-0.242620 -1.029610 5.404310 223 0 0 0.999991
-0.227063 -1.025340 5.413690 210 0 0 0.999992
-0.263857 -1.036170 5.399110 201 0 0 0.999993
-0.200433 -1.015150 5.413040 255 178 0 0.999967
-0.183714 -1.007640 5.420120 255 134 0 0.999973
-0.166783 -0.999699 5.427650 255 127 0 0.999974
-0.384843 -1.068630 5.451820 160 0 0 0.999997
-0.409161 -1.070210 5.451260 169 0 0 0.999996
-0.393679 -1.069940 5.471500 169 0 0 0.999996
-0.433553 -1.071720 5.450620 128 0 0 1.000000
-0.458432 -1.072960 5.450420 255 82 0 0.999980
-0.445192 -1.074480 5.429000 255 27 0 0.999987
-0.420442 -1.072350 5.429400 146 0 0 0.999998
-0.401144 -1.069470 5.491210 128 0 0 1.000000
-0.424297 -1.068780 5.484460 160 0 0 0.999997
-0.430507 -1.067800 5.503430 137 0 0 0.999999
-0.407168 -1.068720 5.510100 146 0 0 0.999998
-0.450658 -1.068010 5.487280 146 0 0 0.999998
-0.477098 -1.067170 5.489830 255 27 0 0.999987
-0.467952 -1.070280 5.470370 255 34 0 0.999986
-0.441388 -1.070650 5.467380 160 0 0 0.999997
-0.563304 -1.057860 5.456110 255 134 0 0.999973
-0.537480 -1.061090 5.454270 146 0 0 0.999998
-0.550525 -1.062340 5.436200 255 82 0 0.999980
-0.511323 -1.065160 5.452630 137 0 0 0.999999
-0.524391 -1.065980 5.434420 137 0 0 0.999999
-0.497971 -1.069650 5.432730 178 0 0 0.999995
-0.537236 -1.066870 5.415730 255 134 0 0.999973
-0.485016 -1.069140 5.451520 146 0 0 0.999998
-0.494247 -1.066160 5.471300 137 0 0 0.999999
-0.520767 -1.061720 5.472710 128 0 0 1.000000
-0.513168 -1.068990 5.416980 137 0 0 0.999999
-0.525434 -1.068980 5.400640 242 8 0 0.999989
-0.501443 -1.071090 5.402000 128 0 0 1.000000
-0.482991 -1.072080 5.410800 128 0 0 1.000000
-0.513585 -1.070730 5.385390 255 119 0 0.999975
-0.464751 -1.072940 5.419840 137 0 0 0.999999
-0.017384 -1.048660 5.297380 210 0 0 0.999992
-0.028494 -1.044820 5.314510 160 0 0 0.999997
0.008992 -1.040780 5.317940 233 1 0 0.999990
-0.002339 -1.037160 5.335090 193 255 55 0.999947
-0.041107 -1.040490 5.331570 255 82 0 0.999980
-0.053576 -1.035230 5.348490 96 255 151 0.999927
-0.084808 -1.041040 5.327660 137 0 0 0.999999
-0.070489 -1.047150 5.310690 201 0 0 0.999993
-0.058067 -1.051770 5.293720 255 97 0 0.999978
-0.115397 -1.047190 5.307750 255 41 0 0.999985
0.037516 -1.029110 5.336770 255 134 0 0.999973
0.026672 -1.021700 5.352690 192 0 0 0.999994
0.062252 -1.012690 5.353180 255 164 0 0.999969
0.015495 -1.014200 5.368250 248 245 0 0.999957
-0.025340 -1.020970 5.365870 146 0 0 0.999998
-0.013556 -1.029500 5.350540 255 27 0 0.999987
-0.092238 -1.011940 5.383970 146 0 0 0.999998
-0.114759 -1.008930 5.390280 169 0 0 0.999996
-0.066625 -1.016320 5.377580 146 0 0 0.999998
-0.102761 -1.027800 5.361090 255 219 0 0.999961
-0.125877 -1.024360 5.367750 255 156 0 0.999970
-0.147279 -1.021840 5.373890 242 253 6 0.999956
-0.077491 -1.032040 5.354390 232 255 16 0.999954
-0.156160 -1.031420 5.347270 137 0 0 0.999999
-0.176416 -1.029570 5.353450 251 16 0 0.999988
-0.133629 -1.034000 5.340910 137 0 0 0.999999
-0.163707 -1.041900 5.320990 255 97 0 0.999978
-0.183811 -1.040510 5.327190 255 49 0 0.999984
-0.140683 -1.044220 5.314660 255 75 0 0.999981
-0.109583 -1.037480 5.334330 137 0 0 0.999999
-0.197637 -1.028740 5.362270 210 0 0 0.999992
-0.169878 -1.020910 5.382740 255 112 0 0.999976
-0.190764 -1.020510 5.391610 233 1 0 0.999990
-0.205627 -1.024710 5.381720 146 0 0 0.999998
-0.219714 -1.029690 5.371630 201 0 0 0.999993
-0.211428 -1.034000 5.352300 169 0 0 0.999996
-0.137197 -1.006080 5.398520 201 0 0 0.999993
-0.142396 -0.998913 5.415220 146 0 0 0.999998
-0.159174 -1.006100 5.407110 178 0 0 0.999995
-0.154051 -1.013030 5.390490 160 0 0 0.999997
-0.175375 -1.013370 5.399320 201 0 0 0.999993
-0.224543 -1.026570 5.392540 251 16 0 0.999988
-0.239516 -1.035460 5.365500 201 0 0 0.999993
-0.118252 -1.054630 5.209810 160 0 0 0.999997
-0.134977 -1.055080 5.228150 137 0 0 0.999999
-0.094762 -1.056100 5.231490 160 0 0 0.999997
-0.110948 -1.056410 5.249450 255 41 0 0.999985
-0.153257 -1.054420 5.246660 146 0 0 0.999998
-0.170687 -1.053300 5.265050 233 1 0 0.999990
-0.192966 -1.053180 5.243670 137 0 0 0.999999
-0.177510 -1.053630 5.225510 160 0 0 0.999997
-0.160207 -1.054040 5.206940 255 67 0 0.999982
-0.214424 -1.053350 5.222310 255 67 0 0.999982
-0.070083 -1.055630 5.253520 146 0 0 0.999998
-0.083165 -1.054150 5.271330 137 0 0 0.999999
-0.044405 -1.053470 5.275670 178 0 0 0.999995
-0.098591 -1.051390 5.289670 169 0 0 0.999996
-0.144098 -1.049670 5.286460 160 0 0 0.999997
-0.126609 -1.053690 5.267870 160 0 0 0.999997
-0.207169 -1.045650 5.305600 137 0 0 0.999999
-0.187723 -1.046450 5.299360 137 0 0 0.999999
-0.211707 -1.052040 5.278170 255 82 0 0.999980
-0.230210 -1.051710 5.284290 255 90 0 0.999979
-0.179609 -1.049980 5.282390 160 0 0 0.999997
-0.250122 -1.052790 5.262390 128 0 0 1.000000
-0.231973 -1.052640 5.256510 128 0 0 1.000000
-0.252073 -1.053690 5.234680 255 104 0 0.999977
-0.270301 -1.053670 5.240770 255 119 0 0.999975
-0.223440 -1.053070 5.239450 160 0 0 0.999997
-0.202708 -1.052870 5.261010 178 0 0 0.999995
-0.340438 -1.059850 5.397700 146 0 0 0.999998
-0.356310 -1.063700 5.389740 137 0 0 0.999999
-0.341349 -1.060890 5.378870 137 0 0 0.999999
-0.356973 -1.064760 5.370860 128 0 0 1.000000
-0.373140 -1.068690 5.362950 255 41 0 0.999985
-0.372319 -1.067130 5.381710 137 0 0 0.999999
-0.388428 -1.071210 5.373680 255 49 0 0.999984
-0.357530 -1.066100 5.352020 201 0 0 0.999993
-0.408390 -1.070720 5.349130 137 0 0 0.999999
-0.429041 -1.069630 5.325090 255 27 0 0.999987
-0.431812 -1.071550 5.345620 192 0 0 0.999994
-0.405502 -1.068740 5.328280 137 0 0 0.999999
-0.384147 -1.067350 5.332560 128 0 0 1.000000
-0.357759 -1.063210 5.316470 128 0 0 1.000000
-0.341633 -1.063210 5.341800 255 119 0 0.999975
-0.379202 -1.065010 5.311970 128 0 0 1.000000
-0.401923 -1.066560 5.307980 255 27 0 0.999987
-0.313668 -1.055090 5.358610 128 0 0 1.000000
-0.294336 -1.050040 5.363330 128 0 0 1.000000
-0.431633 -1.073080 5.366390 137 0 0 0.999999
-0.409837 -1.072220 5.370000 128 0 0 1.000000
-0.409630 -1.073550 5.390890 201 0 0 0.999993
-0.432720 -1.074050 5.387340 137 0 0 0.999999
-0.448946 -1.073770 5.378110 137 0 0 0.999999
-0.448134 -1.072620 5.357180 128 0 0 1.000000
-0.464279 -1.072010 5.347980 233 1 0 0.999990
-0.465495 -1.073280 5.368930 146 0 0 0.999998
-0.481814 -1.072580 5.359610 255 82 0 0.999980
-0.355656 -1.063870 5.414150 137 0 0 0.999999
-0.373742 -1.066830 5.406460 137 0 0 0.999999
-0.391536 -1.070180 5.398650 146 0 0 0.999998
-0.394632 -1.069720 5.430530 146 0 0 0.999998
-0.428607 -1.074890 5.409300 255 49 0 0.999984
-0.370669 -1.066760 5.432140 146 0 0 0.999998
-0.451126 -1.074320 5.406350 146 0 0 0.999998
-0.469212 -1.073460 5.397010 146 0 0 0.999998
-0.487379 -1.072540 5.387900 137 0 0 0.999999
-0.497799 -1.071940 5.372530 223 0 0 0.999991
-0.548626 -1.056730 5.479030 160 0 0 0.999997
-0.533591 -1.055890 5.501920 146 0 0 0.999998
-0.505582 -1.061190 5.495900 128 0 0 1.000000
-0.490201 -1.061120 5.519140 169 0 0 0.999996
-0.518410 -1.055440 5.524790 137 0 0 0.999999
-0.502822 -1.055820 5.547870 223 0 0 0.999991
-0.549689 -1.048190 5.529080 192 0 0 0.999994
-0.564528 -1.049140 5.506620 160 0 0 0.999997
-0.579483 -1.050130 5.484040 255 27 0 0.999987
-0.595215 -1.043790 5.511220 255 67 0 0.999982
-0.458673 -1.065760 5.511130 201 0 0 0.999993
-0.440181 -1.065040 5.532550 233 1 0 0.999990
-0.416678 -1.066860 5.539340 169 0 0 0.999996
-0.392980 -1.070080 5.546270 210 0 0 0.999992
-0.402644 -1.067390 5.575410 255 49 0 0.999984
-0.427939 -1.062670 5.568480 160 0 0 0.999997
-0.452927 -1.059450 5.561600 137 0 0 0.999999
-0.471650 -1.059420 5.540220 178 0 0 0.999995
-0.446753 -1.054290 5.626000 137 0 0 0.999999
-0.472483 -1.050920 5.618390 137 0 0 0.999999
-0.465616 -1.054190 5.599550 137 0 0 0.999999
-0.497982 -1.048480 5.610660 146 0 0 0.999998
-0.490932 -1.051080 5.591990 160 0 0 0.999997
-0.516280 -1.049510 5.584730 178 0 0 0.999995
-0.523128 -1.047380 5.603440 192 0 0 0.999994
-0.484060 -1.054440 5.573600 137 0 0 0.999999
-0.509520 -1.052480 5.566370 192 0 0 0.999994
-0.459179 -1.056490 5.580710 137 0 0 0.999999
-0.434227 -1.059590 5.587630 137 0 0 0.999999
-0.440589 -1.056370 5.606580 146 0 0 0.999998
-0.415421 -1.060110 5.613830 169 0 0 0.999996
-0.408983 -1.063770 5.594680 178 0 0 0.999995
-0.421722 -1.057650 5.633240 169 0 0 0.999996
-0.546489 -1.043750 5.593330 146 0 0 0.999998
-0.571205 -1.039910 5.582790 146 0 0 0.999998
-0.563122 -1.042770 5.565450 137 0 0 0.999999
-0.595376 -1.037030 5.572390 137 0 0 0.999999
-0.587300 -1.039550 5.555260 137 0 0 0.999999
-0.611292 -1.037070 5.545310 255 27 0 0.999987
-0.619250 -1.034560 5.562250 255 34 0 0.999986
-0.579226 -1.043050 5.538250 137 0 0 0.999999
-0.603292 -1.040110 5.528340 242 8 0 0.999989
-0.556139 -1.045260 5.547390 128 0 0 1.000000
-0.532923 -1.048290 5.556680 169 0 0 0.999996
-0.539757 -1.045670 5.574840 137 0 0 0.999999
-0.053627 -0.637484 5.437570 255 56 0 0.999983
-0.075634 -0.619152 5.424430 160 0 0 0.999997
-0.097814 -0.602870 5.412400 128 0 0 1.000000
-0.063923 -0.648805 5.425720 255 82 0 0.999980
-0.086579 -0.631835 5.411660 160 0 0 0.999997
-0.119096 -0.587364 5.401440 137 0 0 0.999999
-0.139333 -0.572425 5.390630 210 0 0 0.999992
-0.127265 -0.556665 5.403630 192 0 0 0.999994
-0.107595 -0.572949 5.414140 137 0 0 0.999999
-0.111417 -0.621113 5.396710 169 0 0 0.999996
-0.209295 -0.520880 5.352260 255 149 0 0.999971
-0.193491 -0.533753 5.365020 223 0 0 0.999991
-0.179270 -0.551818 5.371850 255 82 0 0.999980
-0.198819 -0.501709 5.363520 255 212 0 0.999962
-0.160279 -0.562528 5.381550 255 27 0 0.999987
-0.182896 -0.516196 5.377340 255 104 0 0.999977
-0.164597 -0.528806 5.388450 223 0 0 0.999991
-0.185974 -0.484426 5.375910 255 112 0 0.999976
-0.169639 -0.498930 5.389340 192 0 0 0.999994
-0.144949 -0.540301 5.398430 178 0 0 0.999995
-0.148707 -0.909201 6.246820 255 27 0 0.999987
-0.145665 -0.923480 6.216510 210 0 0 0.999992
-0.171361 -0.910327 6.234730 255 41 0 0.999985
-0.168546 -0.924935 6.204440 210 0 0 0.999992
-0.142952 -0.940938 6.187180 137 0 0 0.999999
-0.140269 -0.959003 6.158180 255 34 0 0.999986
-0.117584 -0.956458 6.171170 233 1 0 0.999990
-0.120232 -0.938132 6.200030 146 0 0 0.999998
-0.123353 -0.921350 6.229600 192 0 0 0.999994
-0.094885 -0.953940 6.183850 233 1 0 0.999990
-0.194064 -0.911956 6.221940 255 27 0 0.999987
-0.191351 -0.927203 6.191340 178 0 0 0.999995
-0.217039 -0.913177 6.209530 255 49 0 0.999984
-0.214411 -0.928741 6.179100 169 0 0 0.999996
-0.188849 -0.944934 6.161660 146 0 0 0.999998
-0.186542 -0.963948 6.132110 255 178 0 0.999967
-0.163298 -0.961886 6.145270 255 149 0 0.999971
-0.165918 -0.942433 6.174630 160 0 0 0.999997
-0.125934 -1.009910 6.031440 255 234 0 0.999959
-0.129590 -0.999609 6.063690 160 0 0 0.999997
-0.102481 -1.007870 6.045180 255 127 0 0.999974
-0.133188 -0.987437 6.095900 146 0 0 0.999998
-0.106244 -0.997331 6.077730 169 0 0 0.999996
-0.109959 -0.984630 6.110010 137 0 0 0.999999
-0.078926 -1.005530 6.059040 255 197 0 0.999964
-0.136659 -0.974221 6.127420 169 0 0 0.999996
-0.160087 -0.975923 6.114210 137 0 0 0.999999
-0.156648 -0.989487 6.082720 169 0 0 0.999996
-0.082933 -0.994951 6.091350 160 0 0 0.999997
-0.055924 -1.003300 6.073120 193 255 55 0.999947
-0.086827 -0.983156 6.123100 169 0 0 0.999996
-0.059955 -0.992621 6.105380 160 0 0 0.999997
-0.064226 -0.980633 6.137030 223 0 0 0.999991
-0.033000 -1.000480 6.086800 255 119 0 0.999975
-0.090807 -0.969467 6.153900 169 0 0 0.999996
-0.113593 -0.971775 6.141010 178 0 0 0.999995
-0.240404 -0.914721 6.196690 255 34 0 0.999986
-0.238248 -0.930543 6.165540 178 0 0 0.999995
-0.264420 -0.915826 6.183820 255 49 0 0.999984
-0.262262 -0.932147 6.152930 160 0 0 0.999997
-0.236279 -0.948803 6.135330 137 0 0 0.999999
-0.234455 -0.966292 6.104700 255 27 0 0.999987
-0.210492 -0.964734 6.118370 255 41 0 0.999985
-0.212318 -0.946313 6.148700 146 0 0 0.999998
-0.287848 -0.917540 6.171070 255 27 0 0.999987
-0.285122 -0.933996 6.140040 137 0 0 0.999999
-0.311048 -0.918707 6.158640 242 8 0 0.999989
-0.308429 -0.934869 6.127610 146 0 0 0.999998
-0.282810 -0.951474 6.109420 128 0 0 1.000000
-0.280697 -0.968957 6.078840 251 16 0 0.999988
-0.257582 -0.967319 6.091670 210 0 0 0.999992
-0.259847 -0.949878 6.122320 128 0 0 1.000000
-0.220111 -1.017700 5.978000 255 197 0 0.999964
-0.223884 -1.007480 6.009860 223 0 0 0.999991
-0.197085 -1.015530 5.990780 255 156 0 0.999970
-0.227597 -0.994786 6.041490 160 0 0 0.999997
-0.201061 -1.005030 6.022910 160 0 0 0.999997
-0.204797 -0.992553 6.054920 146 0 0 0.999998
-0.174156 -1.014020 6.003740 255 234 0 0.999959
-0.231107 -0.980584 6.073050 137 0 0 0.999999
-0.254360 -0.982295 6.060270 137 0 0 0.999999
-0.250901 -0.996085 6.029030 146 0 0 0.999998
-0.177528 -1.003600 6.035880 178 0 0 0.999995
-0.150158 -1.011870 6.017500 255 227 0 0.999960
-0.180695 -0.991441 6.068190 169 0 0 0.999996
-0.153436 -1.001310 6.049980 146 0 0 0.999998
-0.183579 -0.978004 6.100310 146 0 0 0.999998
-0.207750 -0.979120 6.086710 137 0 0 0.999999
-0.332715 -0.919932 6.146650 223 0 0 0.999991
-0.328586 -0.936061 6.116050 137 0 0 0.999999
-0.353051 -0.920085 6.135390 255 49 0 0.999984
-0.349124 -0.936481 6.105050 137 0 0 0.999999
-0.324769 -0.953042 6.085900 128 0 0 1.000000
-0.321171 -0.970185 6.055960 210 0 0 0.999992
-0.300875 -0.969748 6.067440 242 8 0 0.999989
-0.304646 -0.951983 6.097340 137 0 0 0.999999
-0.372491 -0.921437 6.124690 210 0 0 0.999992
-0.367640 -0.937219 6.094430 146 0 0 0.999998
-0.391091 -0.921951 6.114540 201 0 0 0.999993
-0.386280 -0.937217 6.084260 169 0 0 0.999996
-0.362794 -0.954432 6.064980 137 0 0 0.999999
-0.358118 -0.972460 6.035920 251 16 0 0.999988
-0.339571 -0.971222 6.045970 242 8 0 0.999989
-0.344241 -0.953302 6.075120 146 0 0 0.999998
-0.296550 -1.022440 5.936170 255 75 0 0.999981
-0.302943 -1.012260 5.966680 223 0 0 0.999991
-0.278166 -1.021440 5.946090 255 156 0 0.999970
-0.309088 -0.999165 5.996450 146 0 0 0.999998
-0.284702 -1.010920 5.976680 201 0 0 0.999993
-0.291097 -0.997959 6.006610 146 0 0 0.999998
-0.259863 -1.020310 5.956030 255 178 0 0.999967
-0.315186 -0.985262 6.026130 137 0 0 0.999999
-0.333735 -0.985744 6.016060 146 0 0 0.999998
-0.327735 -1.000450 5.986810 169 0 0 0.999996
-0.265551 -1.009990 5.986850 201 0 0 0.999993
-0.240063 -1.018740 5.966900 255 141 0 0.999972
-0.270690 -0.997805 6.017670 201 0 0 0.999993
-0.245557 -1.008500 5.998110 169 0 0 0.999996
-0.275839 -0.983752 6.048110 146 0 0 0.999998
-0.296128 -0.983986 6.036760 137 0 0 0.999999
-0.363306 -1.071090 5.535850 255 67 0 0.999982
-0.343298 -1.070820 5.554690 251 16 0 0.999988
-0.316391 -1.070070 5.546280 178 0 0 0.999995
-0.295147 -1.072450 5.565470 255 156 0 0.999970
-0.322402 -1.072500 5.574060 255 41 0 0.999985
-0.301179 -1.074700 5.593140 184 255 64 0.999945
-0.352372 -1.069420 5.584160 137 0 0 0.999999
-0.372535 -1.069330 5.565150 137 0 0 0.999999
-0.268107 -1.065740 5.551490 255 112 0 0.999976
-0.245471 -1.059010 5.553310 223 0 0 0.999991
-0.222429 -1.052560 5.554710 137 0 0 0.999999
-0.199428 -1.050720 5.568120 255 156 0 0.999970
-0.223210 -1.061130 5.578620 255 112 0 0.999976
-0.199534 -1.059650 5.591660 0 13 255 0.999835
-0.248379 -1.065860 5.578950 201 0 0 0.999993
-0.273233 -1.070240 5.579490 160 0 0 0.999997
-0.211137 -1.065900 5.668230 0 77 255 0.999861
-0.240321 -1.065520 5.669150 146 0 0 0.999998
-0.233351 -1.069570 5.649820 255 104 0 0.999977
-0.262390 -1.068670 5.650350 137 0 0 0.999999
-0.269557 -1.064360 5.669500 128 0 0 1.000000
-0.255976 -1.071520 5.631040 255 27 0 0.999987
-0.291216 -1.067620 5.650640 137 0 0 0.999999
-0.284813 -1.071090 5.631410 137 0 0 0.999999
-0.313334 -1.070180 5.631550 210 0 0 0.999992
-0.298093 -1.063560 5.669700 128 0 0 1.000000
-0.319787 -1.067200 5.650760 251 16 0 0.999988
-0.326539 -1.063720 5.669940 255 82 0 0.999980
-0.278675 -1.073430 5.611920 255 97 0 0.999978
-0.307104 -1.072850 5.612420 178 0 0 0.999995
-0.253083 -1.070750 5.612020 178 0 0 0.999995
-0.227440 -1.066970 5.611640 160 0 0 0.999997
-0.230064 -1.068580 5.630700 128 0 0 1.000000
-0.204190 -1.065420 5.630030 148 255 100 0.999938
-0.201420 -1.063160 5.610860 235 255 13 0.999955
-0.207191 -1.066610 5.649190 232 255 16 0.999954
-0.352099 -1.060800 5.665550 137 0 0 0.999999
-0.345521 -1.064910 5.645860 146 0 0 0.999998
-0.371221 -1.061470 5.641630 128 0 0 1.000000
-0.377764 -1.057830 5.661050 137 0 0 0.999999
-0.364921 -1.065220 5.622250 137 0 0 0.999999
-0.396676 -1.058820 5.637400 146 0 0 0.999998
-0.390258 -1.062540 5.618100 128 0 0 1.000000
-0.403057 -1.056350 5.656850 137 0 0 0.999999
-0.383714 -1.066490 5.598910 192 0 0 0.999994
-0.358317 -1.067900 5.603320 137 0 0 0.999999
-0.332745 -1.070190 5.607750 146 0 0 0.999998
-0.339029 -1.067600 5.626800 128 0 0 1.000000
0.078575 -0.587636 5.572220 223 0 0 0.999991
0.068319 -0.562261 5.568300 146 0 0 0.999998
0.068848 -0.537402 5.574790 192 0 0 0.999994
0.059391 -0.512576 5.569960 192 0 0 0.999994
0.062808 -0.486782 5.573240 255 134 0 0.999973
0.038622 -0.487419 5.555170 255 82 0 0.999980
0.082716 -0.512245 5.588700 223 0 0 0.999991
0.087012 -0.486288 5.590800 255 97 0 0.999978
0.090532 -0.535939 5.593000 160 0 0 0.999997
0.098853 -0.559568 5.596710 192 0 0 0.999994
0.097467 -0.584915 5.590980 255 49 0 0.999984
0.116475 -0.582148 5.609120 255 67 0 0.999982
0.026674 -0.463789 5.553160 160 0 0 0.999997
0.040277 -0.463876 5.563370 178 0 0 0.999995
0.029338 -0.439206 5.560210 169 0 0 0.999996
0.015491 -0.439435 5.550430 178 0 0 0.999995
0.043439 -0.439083 5.569620 146 0 0 0.999998
0.019229 -0.413923 5.556060 146 0 0 0.999998
0.033379 -0.413738 5.565500 160 0 0 0.999997
0.024134 -0.387242 5.560340 255 75 0 0.999981
0.004904 -0.414285 5.546960 178 0 0 0.999995
0.009834 -0.387746 5.551120 255 127 0 0.999974
-0.004738 -0.388443 5.542550 255 27 0 0.999987
0.047674 -0.413450 5.574670 160 0 0 0.999997
0.038658 -0.386792 5.569370 255 75 0 0.999981
0.053027 -0.386611 5.578540 242 8 0 0.999989
0.069154 -0.437732 5.585830 137 0 0 0.999999
0.065240 -0.462974 5.580360 160 0 0 0.999997
0.117255 -0.385826 5.615510 233 1 0 0.999990
0.122180 -0.412135 5.619640 146 0 0 0.999998
0.113655 -0.437554 5.614850 192 0 0 0.999994
0.120013 -0.461902 5.616620 169 0 0 0.999996
0.113635 -0.485708 5.608920 255 97 0 0.999978
0.140059 -0.484991 5.626590 255 27 0 0.999987
0.092854 -0.462906 5.599260 192 0 0 0.999994
0.084307 -0.438009 5.596310 137 0 0 0.999999
0.076243 -0.412476 5.592750 201 0 0 0.999993
0.092142 -0.412687 5.602220 160 0 0 0.999997
0.085209 -0.386280 5.597140 251 16 0 0.999988
0.069113 -0.386517 5.587670 233 1 0 0.999990
0.101099 -0.385991 5.606670 223 0 0 0.999991
0.144377 -0.508898 5.631640 137 0 0 0.999999
0.137238 -0.533033 5.629110 201 0 0 0.999993
0.142505 -0.555158 5.632910 169 0 0 0.999996
0.137159 -0.579362 5.627340 255 104 0 0.999977
0.158295 -0.576148 5.645100 255 75 0 0.999981
0.120348 -0.558260 5.615930 233 1 0 0.999990
0.113699 -0.534554 5.610690 146 0 0 0.999998
0.106773 -0.510597 5.605770 178 0 0 0.999995
0.016129 -0.596590 5.508480 223 0 0 0.999991
0.003468 -0.570834 5.503890 146 0 0 0.999998
-0.001856 -0.545297 5.508340 137 0 0 0.999999
-0.014318 -0.520707 5.504860 160 0 0 0.999997
-0.017752 -0.494252 5.507990 255 49 0 0.999984
-0.034202 -0.497701 5.493590 192 0 0 0.999994
0.001418 -0.517471 5.519880 178 0 0 0.999995
-0.001542 -0.491069 5.522180 255 56 0 0.999983
0.013519 -0.542356 5.522960 137 0 0 0.999999
0.025706 -0.567349 5.526150 160 0 0 0.999997
0.030467 -0.594376 5.522800 255 82 0 0.999980
0.044383 -0.592105 5.537550 255 41 0 0.999985
-0.047585 -0.475774 5.491520 146 0 0 0.999998
-0.051954 -0.450697 5.496760 146 0 0 0.999998
-0.063813 -0.428201 5.492630 178 0 0 0.999995
-0.065484 -0.402089 5.494690 255 127 0 0.999974
-0.082384 -0.407958 5.479590 255 119 0 0.999975
-0.046949 -0.422728 5.508520 255 49 0 0.999984
-0.048425 -0.396108 5.509510 255 112 0 0.999976
-0.035353 -0.446304 5.511780 160 0 0 0.999997
-0.022885 -0.469850 5.513950 169 0 0 0.999996
-0.005898 -0.441885 5.536140 255 104 0 0.999977
0.006299 -0.465731 5.537570 178 0 0 0.999995
0.018425 -0.489216 5.539060 255 34 0 0.999986
-0.027766 -0.418801 5.523250 192 0 0 0.999994
-0.026859 -0.392065 5.526470 255 49 0 0.999984
0.038385 -0.513679 5.552790 201 0 0 0.999993
0.048828 -0.538565 5.556510 146 0 0 0.999998
0.050795 -0.564407 5.551690 137 0 0 0.999999
0.062005 -0.590000 5.554910 255 90 0 0.999979
0.030248 -0.540293 5.539440 160 0 0 0.999997
0.018938 -0.515337 5.535190 160 0 0 0.999997
-0.086273 -0.589539 5.425550 146 0 0 0.999998
-0.113197 -0.542094 5.417250 201 0 0 0.999993
-0.092724 -0.559070 5.428280 137 0 0 0.999999
-0.072338 -0.576530 5.438660 128 0 0 1.000000
-0.059196 -0.602087 5.440950 178 0 0 0.999995
-0.041464 -0.625121 5.449490 255 41 0 0.999985
-0.150560 -0.512749 5.401970 201 0 0 0.999993
-0.171462 -0.468230 5.390230 67 255 180 0.999920
-0.153839 -0.483590 5.404880 210 0 0 0.999992
-0.135158 -0.497328 5.416260 169 0 0 0.999996
-0.124800 -0.520026 5.416810 160 0 0 0.999997
-0.137693 -0.439734 5.425590 235 255 13 0.999955
-0.125126 -0.459809 5.432730 137 0 0 0.999999
-0.117527 -0.483873 5.433790 201 0 0 0.999993
-0.102558 -0.502352 5.437820 146 0 0 0.999998
-0.091564 -0.524026 5.436270 255 212 0 0.999962
-0.142866 -0.473500 5.415580 169 0 0 0.999996
-0.149109 -0.448434 5.412800 87 255 161 0.999925
-0.066857 -0.539044 5.452240 160 0 0 0.999997
-0.055931 -0.565495 5.452730 146 0 0 0.999998
-0.040148 -0.588160 5.458770 233 1 0 0.999990
-0.028205 -0.614541 5.462030 255 97 0 0.999978
-0.070268 -1.031220 5.758780 58 255 190 0.999918
-0.057409 -1.022080 5.730880 160 0 0 0.999997
-0.086963 -1.036480 5.748040 0 113 255 0.999872
