ply
format ascii 1.0
comment VCGLIB generated
element vertex 1042
property float x
property float y
property float z
property uchar red
property uchar green
property uchar blue
property float quality
end_header
-0.789918 -0.135673 6.561520 128 0 0 0.999991
-0.808373 -0.152630 6.529170 128 0 0 0.999953
-0.792185 -0.164175 6.522330 128 0 0 0.999976
-0.824539 -0.145918 6.524400 128 0 0 0.999957
-0.840246 -0.138342 6.518760 128 0 0 0.999960
-0.772824 -0.147570 6.560640 128 0 0 0.999998
-0.754360 -0.167352 6.550000 128 0 0 0.999995
-0.736376 -0.181517 6.548760 128 0 0 0.999994
-0.720580 -0.208148 6.536470 128 0 0 0.999971
-0.740119 -0.198328 6.528540 128 0 0 0.999983
-0.757860 -0.185289 6.527320 128 0 0 0.999987
-0.774542 -0.168423 6.534010 128 0 0 0.999987
-0.721119 -0.224405 6.517770 128 0 0 0.999880
-0.756258 -0.195855 6.510660 128 0 0 0.999930
-0.774313 -0.182832 6.511990 128 0 0 0.999954
-0.789669 -0.173664 6.501820 128 0 0 0.999974
-0.806285 -0.167125 6.496430 128 0 0 0.999958
-0.823212 -0.158295 6.496090 128 0 0 0.999940
-0.838627 -0.149756 6.488860 128 0 0 0.999964
-0.780237 -0.057717 6.688930 128 0 0 0.999999
-0.774962 -0.071226 6.667590 128 0 0 1.000000
-0.748476 -0.073834 6.681090 128 0 0 1.000000
-0.742139 -0.088102 6.658490 128 0 0 0.999947
-0.768563 -0.086065 6.645320 128 0 0 1.000000
-0.761557 -0.101295 6.622430 128 0 0 0.999962
-0.778830 -0.091970 6.626770 128 0 0 0.999995
-0.786103 -0.076592 6.650000 128 0 0 1.000000
-0.796875 -0.083627 6.629390 128 0 0 0.999992
-0.803081 -0.069227 6.651910 128 0 0 0.999999
-0.792597 -0.062734 6.672530 128 0 0 0.999997
-0.813406 -0.076588 6.631890 128 0 0 0.999997
-0.713366 -0.101725 6.665860 128 0 0 0.999999
-0.696219 -0.121080 6.656960 128 0 0 1.000000
-0.704673 -0.126063 6.642010 128 0 0 0.999997
-0.678818 -0.140876 6.648040 128 0 0 0.999995
-0.687218 -0.144764 6.634780 128 0 0 0.999992
-0.696901 -0.149999 6.621350 128 0 0 0.999999
-0.707691 -0.152763 6.607330 128 0 0 0.999999
-0.715337 -0.129425 6.628130 128 0 0 0.999998
-0.725552 -0.134160 6.613080 128 0 0 0.999999
-0.733366 -0.110782 6.634410 128 0 0 0.999994
-0.723864 -0.106044 6.650960 128 0 0 0.999999
-0.743392 -0.117554 6.617790 128 0 0 1.000000
-0.728393 -0.169243 6.569790 128 0 0 0.999999
-0.747142 -0.152293 6.572930 128 0 0 0.999995
-0.758726 -0.129765 6.590420 128 0 0 0.999997
-0.777148 -0.114660 6.593570 128 0 0 0.999937
-0.801741 -0.116832 6.579620 128 0 0 0.999998
-0.818420 -0.108958 6.579530 128 0 0 0.999998
-0.811553 -0.100096 6.597240 128 0 0 0.999997
-0.834441 -0.102070 6.578000 128 0 0 0.999999
-0.828628 -0.092368 6.597140 128 0 0 0.999999
-0.782105 -0.179197 6.483420 128 0 0 0.999970
-0.798486 -0.172454 6.476510 128 0 0 0.999951
-0.816069 -0.163448 6.474500 128 0 0 0.999948
-0.831251 -0.154596 6.466400 128 0 0 0.999957
-0.736977 -0.211002 6.510050 128 0 0 0.999916
-0.768271 -0.189806 6.493900 128 0 0 0.999981
-0.743413 -0.205864 6.484560 128 0 0 0.999965
-0.701619 -0.218056 6.551920 128 0 0 0.999994
-0.682492 -0.242915 6.556930 128 0 0 0.999976
-0.667451 -0.280185 6.559420 128 0 0 0.999966
-0.649076 -0.311636 6.575920 128 0 0 0.999877
-0.689662 -0.254437 6.542550 128 0 0 0.999970
-0.706744 -0.231940 6.535180 128 0 0 0.999992
-0.637070 -0.335002 6.600750 128 0 0 0.999970
-0.635553 -0.364814 6.618270 128 0 0 0.999988
-0.642568 -0.395306 6.625160 128 0 0 0.999976
-0.647687 -0.417550 6.638890 128 0 0 0.999950
-0.644408 -0.373245 6.606250 128 0 0 0.999996
-0.646310 -0.345305 6.589510 128 0 0 0.999990
-0.656947 -0.424009 6.622840 128 0 0 0.999865
-0.652885 -0.403675 6.611650 128 0 0 0.999836
-0.650609 -0.381037 6.598300 128 0 0 0.999910
-0.652504 -0.354635 6.582910 128 0 0 0.999984
-0.656188 -0.322837 6.567440 128 0 0 0.999904
-0.674966 -0.292614 6.547550 128 0 0 0.999859
-0.706007 -0.245040 6.521020 128 0 0 0.999958
-0.690978 -0.266388 6.531030 128 0 0 0.999943
-0.659308 -0.330696 6.558970 128 0 0 0.999876
-0.653704 -0.361280 6.574210 128 0 0 0.999916
-0.699473 -0.252065 6.507750 128 0 0 0.999979
-0.766465 -0.465612 6.780380 128 0 0 0.999979
-0.754900 -0.468050 6.761090 128 0 0 0.999992
-0.760208 -0.475848 6.745900 128 0 0 0.999990
-0.744083 -0.477102 6.725710 128 0 0 0.999996
-0.781086 -0.487733 6.731760 128 0 0 0.999806
-0.719492 -0.466211 6.737230 128 0 0 0.999954
-0.700084 -0.466392 6.719510 128 0 0 0.999867
-0.715636 -0.460209 6.749560 128 0 0 0.999949
-0.711390 -0.452693 6.761990 128 0 0 0.999990
-0.761964 -0.488786 6.700130 128 0 0 0.999998
-0.778846 -0.496013 6.698750 128 0 0 0.999895
-0.743216 -0.482686 6.701000 128 0 0 0.999994
-0.744569 -0.488014 6.672970 128 0 0 0.999998
-0.763237 -0.496038 6.670460 128 0 0 0.999999
-0.781010 -0.504260 6.668630 128 0 0 0.999952
-0.725152 -0.480928 6.674510 128 0 0 0.999997
-0.705118 -0.473778 6.675580 128 0 0 0.999899
-0.702516 -0.471006 6.697440 128 0 0 0.999860
-0.651491 -0.427570 6.670300 128 0 0 0.999982
-0.666191 -0.442143 6.686390 128 0 0 0.999995
-0.645854 -0.422743 6.688310 128 0 0 0.999983
-0.660642 -0.437885 6.704610 128 0 0 0.999975
-0.682368 -0.455227 6.702570 128 0 0 0.999996
-0.686461 -0.458830 6.682340 128 0 0 0.999997
-0.672338 -0.446051 6.667080 128 0 0 0.999996
-0.638650 -0.412954 6.708830 128 0 0 0.999993
-0.653314 -0.426526 6.726600 128 0 0 0.999977
-0.634502 -0.404651 6.729300 128 0 0 0.999969
-0.672221 -0.435310 6.746830 128 0 0 0.999956
-0.673651 -0.443031 6.735340 128 0 0 0.999909
-0.676798 -0.449001 6.723590 128 0 0 0.999896
-0.657050 -0.432538 6.716260 128 0 0 0.999993
-0.765049 -0.500802 6.653950 128 0 0 1.000000
-0.783845 -0.510579 6.650730 128 0 0 0.999945
-0.749291 -0.497470 6.640210 128 0 0 0.999999
-0.768941 -0.507158 6.636350 128 0 0 0.999997
-0.788127 -0.518140 6.632610 128 0 0 0.999942
-0.728098 -0.484564 6.652450 128 0 0 0.999986
-0.708847 -0.476822 6.654810 128 0 0 0.999943
-0.754167 -0.506444 6.619530 128 0 0 0.999887
-0.790704 -0.527573 6.616510 128 0 0 0.999978
-0.733589 -0.495629 6.624760 128 0 0 0.999987
-0.714120 -0.484850 6.629110 128 0 0 0.999955
-0.668987 -0.438563 6.630540 128 0 0 0.999943
-0.682495 -0.451862 6.636540 128 0 0 0.999981
-0.696506 -0.465278 6.642080 128 0 0 0.999977
-0.662603 -0.433548 6.645540 128 0 0 0.999998
-0.690796 -0.460687 6.666030 128 0 0 0.999997
-0.677767 -0.448584 6.650050 128 0 0 0.999998
-0.668893 -0.449379 6.607560 128 0 0 0.999855
-0.685832 -0.460703 6.614960 128 0 0 0.999859
-0.700599 -0.476922 6.614580 128 0 0 0.999931
-0.714670 -0.493642 6.613730 128 0 0 0.999891
-0.774601 -0.527945 6.600940 128 0 0 0.999872
-0.792623 -0.541722 6.597570 128 0 0 0.999963
-0.734872 -0.505484 6.607850 128 0 0 0.999947
-0.932923 -0.573227 6.580960 128 0 0 0.999987
-0.960383 -0.562413 6.585610 128 0 0 0.999985
-0.944816 -0.557279 6.595740 128 0 0 0.999999
-0.929310 -0.551850 6.605280 128 0 0 0.999982
-0.987249 -0.552934 6.591500 128 0 0 0.999985
-0.989081 -0.565794 6.577680 128 0 0 0.999978
-0.962323 -0.576218 6.572790 128 0 0 1.000000
-0.991610 -0.579680 6.564010 128 0 0 0.999971
-0.940419 -0.539230 6.621710 128 0 0 0.999992
-0.950802 -0.527115 6.638300 128 0 0 0.999995
-0.923819 -0.533928 6.634250 128 0 0 0.999989
-0.967325 -0.532036 6.625550 128 0 0 0.999983
-0.983254 -0.538964 6.611780 128 0 0 0.999977
-0.956570 -0.545303 6.608020 128 0 0 0.999995
-1.021910 -0.529310 6.602340 128 0 0 0.999996
-1.013780 -0.548137 6.584580 128 0 0 0.999996
-1.006930 -0.525178 6.616060 128 0 0 0.999992
-0.992524 -0.522057 6.629750 128 0 0 0.999993
-1.016300 -0.561387 6.570190 128 0 0 0.999999
-1.031280 -0.566994 6.557510 128 0 0 0.999999
-0.811174 -0.565055 6.577070 128 0 0 0.999982
-0.830375 -0.569071 6.576030 128 0 0 0.999958
-0.848884 -0.573397 6.575300 128 0 0 0.999973
-0.866732 -0.577312 6.575620 128 0 0 0.999986
-0.812437 -0.548613 6.592050 128 0 0 0.999975
-0.831042 -0.544986 6.601490 128 0 0 0.999990
-0.848997 -0.555524 6.593260 128 0 0 0.999978
-0.866483 -0.563818 6.590140 128 0 0 0.999984
-0.900411 -0.574751 6.577700 128 0 0 0.999989
-0.917541 -0.585467 6.567800 128 0 0 0.999994
-0.934320 -0.590900 6.563270 128 0 0 0.999991
-0.883870 -0.566600 6.586440 128 0 0 1.000000
-0.917529 -0.602618 6.553280 128 0 0 0.999992
-0.900051 -0.596611 6.558690 128 0 0 0.999985
-0.882595 -0.596783 6.559350 128 0 0 0.999976
-0.944724 -0.672509 6.496850 128 0 0 0.999998
-0.960710 -0.682131 6.481260 128 0 0 0.999999
-0.979270 -0.685612 6.469890 128 0 0 0.999998
-0.995697 -0.695074 6.452090 128 0 0 0.999980
-0.971863 -0.701168 6.454580 128 0 0 0.999996
-0.953096 -0.697395 6.468280 128 0 0 0.999990
-0.937164 -0.688731 6.484940 128 0 0 0.999994
-1.018290 -0.684038 6.451290 128 0 0 0.999995
-1.034750 -0.689185 6.432380 128 0 0 1.000000
-1.052580 -0.689279 6.420630 128 0 0 1.000000
-1.068680 -0.694404 6.402050 128 0 0 0.999988
-1.065380 -0.705114 6.386590 128 0 0 0.999974
-1.046820 -0.704670 6.400160 128 0 0 0.999997
-1.028130 -0.704371 6.413650 128 0 0 0.999994
-1.012000 -0.699283 6.432930 128 0 0 0.999999
-1.051630 -0.729963 6.348830 128 0 0 0.999970
-1.031920 -0.729193 6.364370 128 0 0 0.999997
-1.016960 -0.722588 6.386910 128 0 0 0.999999
-0.997155 -0.722786 6.402300 128 0 0 0.999999
-0.981933 -0.717549 6.425850 128 0 0 0.999969
-0.972368 -0.729084 6.410760 128 0 0 0.999986
-1.006390 -0.710384 6.417670 128 0 0 0.999998
-1.040040 -0.716598 6.381630 128 0 0 0.999999
-1.058730 -0.717568 6.367830 128 0 0 0.999990
-0.953023 -0.725372 6.426450 128 0 0 0.999998
-0.938541 -0.716005 6.448710 128 0 0 0.999999
-0.919346 -0.712985 6.463760 128 0 0 0.999991
-0.962660 -0.713697 6.440100 128 0 0 0.999999
-0.889245 -0.463185 6.786570 128 0 0 0.999966
-0.881551 -0.475007 6.767060 128 0 0 0.999998
-0.884923 -0.487880 6.741480 128 0 0 0.999994
-0.874419 -0.496857 6.721320 128 0 0 0.999998
-0.904132 -0.499686 6.714190 128 0 0 0.999970
-0.856034 -0.486671 6.748220 128 0 0 0.999966
-0.843272 -0.496128 6.726800 128 0 0 0.999961
-0.852110 -0.476070 6.769690 128 0 0 0.999927
-0.845516 -0.466084 6.789540 128 0 0 0.999987
-0.908837 -0.507230 6.695960 128 0 0 0.999969
-0.913395 -0.514330 6.678140 128 0 0 0.999974
-0.880687 -0.510926 6.683810 128 0 0 0.999999
-0.885181 -0.517905 6.666140 128 0 0 0.999993
-0.889630 -0.524863 6.649090 128 0 0 0.999987
-0.917230 -0.521112 6.660670 128 0 0 0.999980
-0.855378 -0.522455 6.655450 128 0 0 0.999970
-0.850962 -0.515304 6.672080 128 0 0 0.999961
-0.847457 -0.508978 6.689450 128 0 0 0.999948
-0.877228 -0.504119 6.701990 128 0 0 1.000000
-0.844760 -0.502577 6.707740 128 0 0 0.999966
-0.813172 -0.500535 6.695070 128 0 0 0.999996
-0.813150 -0.490175 6.729600 128 0 0 0.999977
-0.815988 -0.505530 6.677850 128 0 0 0.999988
-0.819304 -0.511926 6.660740 128 0 0 0.999992
-0.790134 -0.472784 6.768370 128 0 0 0.999981
-0.822011 -0.475153 6.770410 128 0 0 0.999987
-0.907538 -0.531268 6.637160 128 0 0 0.999995
-0.911432 -0.542726 6.617450 128 0 0 0.999995
-0.895564 -0.540369 6.620680 128 0 0 0.999998
-0.878592 -0.538406 6.623770 128 0 0 0.999991
-0.859131 -0.532152 6.636050 128 0 0 0.999974
-0.898565 -0.554437 6.599380 128 0 0 0.999980
-0.915847 -0.563669 6.590270 128 0 0 0.999999
-0.882183 -0.552447 6.602680 128 0 0 0.999992
-0.864698 -0.551134 6.606140 128 0 0 0.999974
-0.810869 -0.533764 6.611740 128 0 0 0.999979
-0.846482 -0.539726 6.614910 128 0 0 0.999987
-0.822639 -0.519820 6.642740 128 0 0 0.999976
-0.841751 -0.526083 6.639460 128 0 0 0.999998
-0.990407 -0.446426 6.752080 128 0 0 0.999963
-0.986497 -0.463276 6.732570 128 0 0 0.999996
-0.994404 -0.474101 6.710770 128 0 0 0.999994
-0.988690 -0.487043 6.694360 128 0 0 1.000000
-1.014260 -0.478937 6.687570 128 0 0 0.999978
-0.968529 -0.481660 6.719290 128 0 0 0.999990
-0.962629 -0.495031 6.701500 128 0 0 0.999967
-0.961367 -0.469879 6.742130 128 0 0 0.999974
-0.954376 -0.453252 6.769240 128 0 0 0.999989
-1.019100 -0.486646 6.671500 128 0 0 0.999963
-1.023470 -0.494508 6.654880 128 0 0 0.999968
-0.997238 -0.502192 6.661180 128 0 0 1.000000
-1.014080 -0.506173 6.640800 128 0 0 0.999995
-0.988379 -0.514069 6.647050 128 0 0 0.999997
-0.971375 -0.510390 6.666760 128 0 0 0.999949
-0.993299 -0.494747 6.677940 128 0 0 0.999999
-0.966999 -0.502788 6.683870 128 0 0 0.999959
-0.942624 -0.511963 6.672150 128 0 0 0.999999
-0.938601 -0.504783 6.689700 128 0 0 1.000000
-0.933915 -0.497253 6.707470 128 0 0 1.000000
-0.946733 -0.519506 6.655060 128 0 0 0.999999
-0.913452 -0.487919 6.735010 128 0 0 0.999992
-0.908871 -0.474758 6.760130 128 0 0 0.999990
-0.916414 -0.458075 6.782340 128 0 0 0.999998
-0.935411 -0.473182 6.751730 128 0 0 0.999983
-0.941728 -0.486171 6.726820 128 0 0 0.999991
-0.965673 -0.614484 6.536970 128 0 0 0.999998
-0.950208 -0.605600 6.547660 128 0 0 0.999994
-0.996039 -0.608163 6.536840 128 0 0 0.999992
-0.981543 -0.617939 6.530630 128 0 0 0.999996
-0.998394 -0.628696 6.517550 128 0 0 0.999993
-0.951459 -0.624749 6.531720 128 0 0 0.999997
-0.993281 -0.593107 6.550270 128 0 0 0.999984
-1.036750 -0.589933 6.534890 128 0 0 1.000000
-1.025260 -0.606227 6.525230 128 0 0 0.999999
-1.053850 -0.597771 6.521040 128 0 0 0.999979
-1.020670 -0.583218 6.547490 128 0 0 0.999999
-1.057600 -0.612913 6.505270 128 0 0 0.999991
-1.027790 -0.620659 6.511880 128 0 0 1.000000
-1.045210 -0.627937 6.497090 128 0 0 1.000000
-1.063170 -0.634999 6.481810 128 0 0 0.999988
-1.015080 -0.635518 6.504230 128 0 0 0.999996
-1.049360 -0.648299 6.474900 128 0 0 0.999999
-1.066440 -0.648607 6.465690 128 0 0 0.999991
-1.032380 -0.648177 6.484010 128 0 0 0.999999
-1.035800 -0.661458 6.468450 128 0 0 0.999997
-1.053040 -0.661053 6.458880 128 0 0 0.999999
-1.070250 -0.660989 6.449310 128 0 0 0.999986
-1.019340 -0.661434 6.477520 128 0 0 0.999992
-1.002340 -0.661836 6.487520 128 0 0 0.999982
-1.071590 -0.672548 6.432870 128 0 0 0.999991
-1.053780 -0.678189 6.436570 128 0 0 0.999998
-1.035800 -0.678175 6.448050 128 0 0 0.999998
-1.000650 -0.679303 6.469510 128 0 0 0.999977
-0.964511 -0.664489 6.497150 128 0 0 0.999998
-0.948762 -0.655411 6.509950 128 0 0 0.999998
-0.983504 -0.662782 6.492180 128 0 0 0.999997
-0.966624 -0.640821 6.516470 128 0 0 0.999997
-0.983635 -0.644711 6.508010 128 0 0 0.999998
-1.018800 -0.744719 6.339940 128 0 0 0.999999
-1.040030 -0.745108 6.323380 128 0 0 0.999990
-0.997420 -0.744760 6.356840 128 0 0 0.999996
-0.985936 -0.758702 6.331460 128 0 0 0.999996
-1.007970 -0.759002 6.314970 128 0 0 0.999998
-1.029890 -0.759665 6.299060 128 0 0 0.999982
-0.969982 -0.752009 6.361090 128 0 0 0.999998
-0.942946 -0.759635 6.364720 128 0 0 0.999990
-0.957606 -0.744419 6.387850 128 0 0 0.999993
-0.984725 -0.736240 6.383610 128 0 0 0.999999
-1.021260 -0.768817 6.286010 128 0 0 0.999982
-0.998260 -0.768758 6.302680 128 0 0 1.000000
-0.989927 -0.778083 6.288940 128 0 0 0.999999
-1.013450 -0.778082 6.272760 128 0 0 0.999987
-0.965916 -0.778452 6.305870 128 0 0 1.000000
-0.980977 -0.788204 6.275880 128 0 0 0.999995
-0.956831 -0.788647 6.292150 128 0 0 0.999999
-1.005180 -0.788205 6.260190 128 0 0 0.999983
-0.932790 -0.789022 6.308570 128 0 0 1.000000
-0.910754 -0.789039 6.324020 128 0 0 0.999991
-0.943132 -0.778311 6.321440 128 0 0 0.999998
-0.921091 -0.778499 6.337280 128 0 0 0.999994
-0.954106 -0.767714 6.334350 128 0 0 0.999990
-0.976350 -0.768221 6.318340 128 0 0 1.000000
-0.932271 -0.768760 6.350760 128 0 0 0.999993
-0.825797 -0.774431 6.393260 128 0 0 0.999994
-0.846461 -0.777950 6.375880 128 0 0 1.000000
-0.858385 -0.768195 6.389770 128 0 0 0.999999
-0.837651 -0.765274 6.407800 128 0 0 0.999994
-0.878800 -0.771488 6.372090 128 0 0 1.000000
-0.870292 -0.759265 6.404080 128 0 0 1.000000
-0.890276 -0.761946 6.385830 128 0 0 0.999998
-0.902103 -0.752851 6.399920 128 0 0 1.000000
-0.849725 -0.756383 6.422040 128 0 0 0.999994
-0.881639 -0.750327 6.418100 128 0 0 0.999998
-0.861841 -0.748305 6.436250 128 0 0 0.999976
-0.910839 -0.765689 6.368870 128 0 0 0.999999
-0.922386 -0.755994 6.382110 128 0 0 0.999999
-0.900056 -0.774636 6.354430 128 0 0 0.999999
-0.889023 -0.784586 6.340770 128 0 0 0.999999
-0.867432 -0.781041 6.357920 128 0 0 0.999999
-0.897883 -0.735482 6.439710 128 0 0 0.999990
-0.878659 -0.732774 6.455590 128 0 0 0.999990
-0.917391 -0.738622 6.423590 128 0 0 0.999983
-0.937523 -0.741320 6.405670 128 0 0 0.999996
-0.615894 -0.238480 6.467560 128 0 0 0.999982
-0.626746 -0.218311 6.448900 128 0 0 0.999981
-0.643257 -0.199599 6.434040 128 0 0 0.999993
-0.653175 -0.179952 6.419650 128 0 0 0.999991
-0.667859 -0.160585 6.407810 128 0 0 0.999996
-0.672012 -0.181366 6.423710 128 0 0 0.999997
-0.662254 -0.201170 6.437340 128 0 0 0.999994
-0.645513 -0.219485 6.450740 128 0 0 0.999989
-0.634223 -0.239785 6.468250 128 0 0 0.999989
-0.664590 -0.141858 6.392320 128 0 0 0.999982
-0.681051 -0.123855 6.382040 128 0 0 0.999993
-0.690528 -0.102242 6.371250 128 0 0 0.999999
-0.707404 -0.080637 6.362100 128 0 0 0.999965
-0.710983 -0.107754 6.375750 128 0 0 0.999997
-0.701331 -0.128056 6.386710 128 0 0 0.999987
-0.684639 -0.144974 6.396790 128 0 0 0.999993
-0.692428 -0.164506 6.415100 128 0 0 0.999994
-0.733543 -0.090417 6.368850 128 0 0 0.999968
-0.147773 -0.888291 6.277910 128 0 0 0.999999
-0.161261 -0.878757 6.303520 128 0 0 0.999966
-0.186117 -0.874644 6.325650 128 0 0 0.999994
-0.199946 -0.873230 6.353890 128 0 0 0.999984
-0.225209 -0.875917 6.378320 128 0 0 0.999990
-0.202783 -0.875379 6.389170 128 0 0 0.999995
-0.222516 -0.873940 6.343420 128 0 0 0.999991
-0.248086 -0.877509 6.367630 128 0 0 0.999982
-0.208489 -0.874706 6.314330 128 0 0 0.999985
-0.194120 -0.879253 6.286780 128 0 0 0.999960
-0.169409 -0.888507 6.266300 128 0 0 0.999995
-0.191342 -0.889413 6.254390 128 0 0 0.999992
-0.215893 -0.874938 6.418200 128 0 0 0.999999
-0.240060 -0.873972 6.441900 128 0 0 0.999998
-0.253175 -0.871621 6.470660 128 0 0 0.999982
-0.276810 -0.864982 6.491730 128 0 0 0.999923
-0.254516 -0.865356 6.503490 128 0 0 0.999909
-0.275803 -0.871348 6.459450 128 0 0 0.999988
-0.299870 -0.865364 6.479830 128 0 0 0.999918
-0.262804 -0.873787 6.430730 128 0 0 0.999999
-0.249756 -0.875214 6.402100 128 0 0 0.999998
-0.346498 -0.867222 6.454850 128 0 0 0.999915
-0.334133 -0.873107 6.428310 128 0 0 0.999994
-0.309385 -0.875917 6.407260 128 0 0 0.999998
-0.296262 -0.877665 6.378920 128 0 0 0.999999
-0.271193 -0.878065 6.355890 128 0 0 0.999993
-0.294625 -0.880173 6.344240 128 0 0 0.999987
-0.273114 -0.876715 6.391050 128 0 0 0.999999
-0.286023 -0.874702 6.419380 128 0 0 0.999999
-0.298889 -0.872031 6.447320 128 0 0 0.999982
-0.322941 -0.866074 6.467300 128 0 0 0.999920
-0.279978 -0.877830 6.314370 128 0 0 0.999996
-0.253996 -0.876781 6.291260 128 0 0 0.999977
-0.239578 -0.881257 6.262840 128 0 0 0.999965
-0.213870 -0.890394 6.242050 128 0 0 0.999985
-0.236468 -0.892558 6.229960 128 0 0 0.999990
-0.216852 -0.880270 6.275290 128 0 0 0.999974
-0.231023 -0.875961 6.303050 128 0 0 0.999989
-0.245269 -0.875757 6.332070 128 0 0 0.999994
-0.262939 -0.883034 6.250860 128 0 0 0.999970
-0.277501 -0.878592 6.279210 128 0 0 0.999980
-0.304121 -0.879795 6.302310 128 0 0 0.999997
-0.318669 -0.882165 6.332040 128 0 0 0.999991
-0.342631 -0.883566 6.319060 128 0 0 0.999986
-0.328008 -0.881098 6.289530 128 0 0 0.999997
-0.301344 -0.879855 6.266580 128 0 0 0.999976
-0.286638 -0.884056 6.237630 128 0 0 0.999958
-0.260013 -0.893440 6.216900 128 0 0 0.999977
-0.283867 -0.895350 6.204290 128 0 0 0.999982
-0.320516 -0.880012 6.367160 128 0 0 0.999997
-0.333321 -0.877465 6.394910 128 0 0 0.999998
-0.358423 -0.874594 6.415730 128 0 0 0.999990
-0.370500 -0.868206 6.441790 128 0 0 0.999946
-0.394545 -0.869444 6.428500 128 0 0 0.999916
-0.382252 -0.876438 6.402750 128 0 0 0.999992
-0.357514 -0.879160 6.382320 128 0 0 0.999998
-0.344273 -0.881933 6.354500 128 0 0 0.999997
-0.440396 -0.872180 6.403800 128 0 0 0.999905
-0.427654 -0.879127 6.378060 128 0 0 0.999985
-0.403800 -0.882053 6.357570 128 0 0 0.999998
-0.390023 -0.884297 6.329110 128 0 0 0.999999
-0.365254 -0.884612 6.306650 128 0 0 0.999994
-0.387902 -0.885683 6.293840 128 0 0 0.999990
-0.367635 -0.882983 6.341910 128 0 0 0.999998
-0.380810 -0.881047 6.369990 128 0 0 0.999997
-0.405112 -0.878331 6.390740 128 0 0 0.999980
-0.417425 -0.870839 6.415990 128 0 0 0.999929
-0.373687 -0.883805 6.264580 128 0 0 0.999998
-0.347586 -0.882934 6.241670 128 0 0 0.999987
-0.332753 -0.886342 6.212800 128 0 0 0.999941
-0.306702 -0.896769 6.192070 128 0 0 0.999980
-0.329792 -0.898387 6.179490 128 0 0 0.999983
-0.309989 -0.885473 6.225420 128 0 0 0.999954
-0.324657 -0.881675 6.254200 128 0 0 0.999985
-0.351036 -0.882572 6.277340 128 0 0 0.999996
-0.354427 -0.887875 6.201040 128 0 0 0.999955
-0.368860 -0.883865 6.229630 128 0 0 0.999985
-0.393529 -0.884339 6.253530 128 0 0 0.999995
-0.407824 -0.886166 6.282550 128 0 0 0.999994
-0.427734 -0.887285 6.271080 128 0 0 0.999978
-0.413327 -0.884684 6.241730 128 0 0 0.999995
-0.388738 -0.884608 6.218460 128 0 0 0.999985
-0.374305 -0.888779 6.189750 128 0 0 0.999958
-0.349918 -0.899173 6.168240 128 0 0 0.999979
-0.370077 -0.900115 6.157070 128 0 0 0.999981
-0.411489 -0.885310 6.317290 128 0 0 0.999995
-0.424912 -0.882733 6.345880 128 0 0 1.000000
-0.447670 -0.879956 6.367420 128 0 0 0.999984
-0.460088 -0.872860 6.392940 128 0 0 0.999916
-0.479659 -0.872828 6.381820 128 0 0 0.999935
-0.467645 -0.880434 6.356260 128 0 0 0.999985
-0.444873 -0.883499 6.334750 128 0 0 0.999997
-0.431409 -0.885171 6.305730 128 0 0 0.999999
-0.515439 -0.873480 6.361640 128 0 0 0.999952
-0.503386 -0.881127 6.335650 128 0 0 0.999989
-0.481713 -0.886137 6.313660 128 0 0 0.999975
-0.468358 -0.886763 6.284770 128 0 0 0.999999
-0.445804 -0.887675 6.260660 128 0 0 0.999984
-0.463869 -0.887819 6.250240 128 0 0 0.999993
-0.450491 -0.885896 6.295180 128 0 0 0.999999
-0.463774 -0.884440 6.323920 128 0 0 0.999996
-0.485599 -0.881118 6.346400 128 0 0 0.999982
-0.497472 -0.872983 6.371630 128 0 0 0.999938
-0.449446 -0.885225 6.220680 128 0 0 0.999992
-0.426001 -0.885073 6.196920 128 0 0 0.999975
-0.411269 -0.889266 6.168050 128 0 0 0.999954
-0.388427 -0.901215 6.146900 128 0 0 0.999989
-0.406364 -0.901265 6.136300 128 0 0 0.999992
-0.393380 -0.889555 6.178960 128 0 0 0.999957
-0.407700 -0.885037 6.207330 128 0 0 0.999983
-0.431458 -0.885055 6.231390 128 0 0 0.999994
-0.860113 -0.726138 6.471470 128 0 0 0.999990
-0.841543 -0.719408 6.486570 128 0 0 0.999973
-0.824376 -0.735623 6.469080 128 0 0 0.999997
-0.843166 -0.741688 6.453000 128 0 0 0.999998
-0.813931 -0.721175 6.493420 128 0 0 0.999980
-0.786908 -0.723939 6.501380 128 0 0 0.999940
-0.804093 -0.706651 6.513310 128 0 0 0.999960
-0.831169 -0.703178 6.505340 128 0 0 0.999996
-0.831526 -0.750999 6.439910 128 0 0 0.999998
-0.819494 -0.759324 6.425530 128 0 0 1.000000
-0.801252 -0.753864 6.443510 128 0 0 0.999998
-0.807405 -0.768042 6.411160 128 0 0 1.000000
-0.789088 -0.762155 6.428910 128 0 0 0.999999
-0.776787 -0.771046 6.414190 128 0 0 0.999999
-0.795209 -0.777217 6.396220 128 0 0 0.999996
-0.771247 -0.757087 6.446810 128 0 0 0.999998
-0.758563 -0.765522 6.432070 128 0 0 0.999999
-0.740303 -0.760560 6.450100 128 0 0 0.999992
-0.752236 -0.751455 6.463850 128 0 0 0.999995
-0.782611 -0.747791 6.460380 128 0 0 1.000000
-0.764069 -0.742403 6.477120 128 0 0 0.999994
-0.793927 -0.739112 6.473360 128 0 0 0.999996
-0.812904 -0.744631 6.456700 128 0 0 1.000000
-0.775481 -0.732891 6.489770 128 0 0 0.999996
-0.672636 -0.721560 6.531150 128 0 0 0.999991
-0.685527 -0.711228 6.539820 128 0 0 0.999953
-0.701567 -0.721302 6.523250 128 0 0 0.999988
-0.714168 -0.710471 6.530380 128 0 0 0.999998
-0.698547 -0.699387 6.546110 128 0 0 0.999965
-0.730316 -0.722264 6.515350 128 0 0 0.999980
-0.727215 -0.699816 6.536870 128 0 0 0.999993
-0.742918 -0.711011 6.522010 128 0 0 0.999998
-0.755372 -0.699017 6.527920 128 0 0 0.999995
-0.711144 -0.687775 6.551760 128 0 0 0.999946
-0.739307 -0.686796 6.540860 128 0 0 0.999990
-0.723506 -0.675140 6.555790 128 0 0 0.999934
-0.759029 -0.722040 6.507870 128 0 0 0.999989
-0.771250 -0.711349 6.514880 128 0 0 0.999997
-0.747288 -0.732198 6.496400 128 0 0 0.999999
-0.735347 -0.741590 6.483650 128 0 0 0.999999
-0.718535 -0.731384 6.503180 128 0 0 0.999999
-0.706546 -0.740405 6.489700 128 0 0 0.999999
-0.723447 -0.750568 6.470070 128 0 0 1.000000
-0.689599 -0.730864 6.510480 128 0 0 0.999999
-0.756206 -0.668613 6.547410 128 0 0 0.999991
-0.739605 -0.657323 6.557900 128 0 0 0.999987
-0.772420 -0.679727 6.537320 128 0 0 0.999987
-0.787938 -0.693532 6.524990 128 0 0 0.999994
-0.448760 -0.194954 6.582500 128 0 0 0.999947
-0.439147 -0.172016 6.575730 128 0 0 0.999996
-0.424901 -0.192374 6.600850 128 0 0 0.999945
-0.429109 -0.150243 6.566820 128 0 0 0.999997
-0.415800 -0.170192 6.593540 128 0 0 0.999977
-0.405857 -0.149242 6.583500 128 0 0 0.999978
-0.401802 -0.191857 6.616410 128 0 0 0.999940
-0.418476 -0.128894 6.555500 128 0 0 0.999998
-0.407926 -0.107883 6.543400 128 0 0 0.999941
-0.433427 -0.106290 6.524730 128 0 0 0.999930
-0.444308 -0.128582 6.535550 128 0 0 0.999996
-0.455310 -0.150322 6.546530 128 0 0 0.999973
-0.459233 -0.107187 6.503530 128 0 0 0.999956
-0.390243 -0.172198 6.609340 128 0 0 0.999992
-0.377655 -0.193076 6.630410 128 0 0 0.999908
-0.378404 -0.153293 6.600360 128 0 0 0.999975
-0.366087 -0.175401 6.621290 128 0 0 0.999992
-0.354094 -0.157565 6.610530 128 0 0 0.999976
-0.353931 -0.196859 6.640650 128 0 0 0.999924
-0.366167 -0.136787 6.587080 128 0 0 0.999998
-0.352840 -0.118090 6.572990 128 0 0 0.999953
-0.380384 -0.112095 6.559480 128 0 0 0.999954
-0.393669 -0.130278 6.573460 128 0 0 0.999963
-0.339848 -0.046554 6.476800 128 0 0 0.999984
-0.355944 -0.043575 6.468990 128 0 0 0.999978
-0.357797 -0.062995 6.494610 128 0 0 0.999999
-0.373469 -0.059759 6.486270 128 0 0 1.000000
-0.372243 -0.040791 6.460890 128 0 0 0.999976
-0.374959 -0.078579 6.512070 128 0 0 1.000000
-0.389056 -0.056652 6.477330 128 0 0 1.000000
-0.390285 -0.075079 6.502800 128 0 0 0.999999
-0.406022 -0.072330 6.493010 128 0 0 0.999996
-0.388002 -0.038305 6.452440 128 0 0 0.999972
-0.405042 -0.054427 6.468270 128 0 0 0.999996
-0.404038 -0.036683 6.443430 128 0 0 0.999986
-0.391414 -0.093434 6.528150 128 0 0 0.999999
-0.407027 -0.090624 6.518440 128 0 0 0.999989
-0.364125 -0.098238 6.543330 128 0 0 0.999995
-0.346992 -0.082869 6.525660 128 0 0 0.999995
-0.418674 -0.035193 6.435020 128 0 0 0.999971
-0.432848 -0.052829 6.451410 128 0 0 0.999992
-0.433325 -0.034312 6.426320 128 0 0 0.999950
-0.431995 -0.071479 6.476310 128 0 0 0.999996
-0.446859 -0.053467 6.440780 128 0 0 0.999999
-0.446096 -0.071514 6.465380 128 0 0 0.999999
-0.461261 -0.071643 6.454780 128 0 0 0.999988
-0.447582 -0.035068 6.417060 128 0 0 0.999963
-0.461546 -0.053861 6.431470 128 0 0 0.999988
-0.462108 -0.036245 6.408440 128 0 0 0.999952
-0.445416 -0.089736 6.490450 128 0 0 0.999997
-0.460427 -0.089780 6.479290 128 0 0 0.999986
-0.524191 -0.213407 6.510450 128 0 0 0.999989
-0.518140 -0.190304 6.502130 128 0 0 0.999997
-0.508404 -0.207865 6.527220 128 0 0 0.999968
-0.513504 -0.167195 6.492270 128 0 0 0.999997
-0.501722 -0.184474 6.519170 128 0 0 0.999998
-0.497115 -0.160545 6.508030 128 0 0 0.999996
-0.491340 -0.203495 6.543490 128 0 0 0.999973
-0.508248 -0.143018 6.479670 128 0 0 0.999995
-0.502145 -0.117436 6.467230 128 0 0 0.999979
-0.520226 -0.123684 6.453260 128 0 0 0.999982
-0.526327 -0.148950 6.465410 128 0 0 0.999999
-0.531272 -0.172968 6.476210 128 0 0 1.000000
-0.538870 -0.129854 6.440130 128 0 0 0.999981
-0.483016 -0.179573 6.537760 128 0 0 0.999997
-0.470167 -0.198825 6.563160 128 0 0 0.999969
-0.476404 -0.155442 6.527940 128 0 0 0.999995
-0.462517 -0.174128 6.556680 128 0 0 0.999987
-0.467883 -0.131445 6.516260 128 0 0 0.999997
-0.480697 -0.111644 6.485090 128 0 0 0.999980
-0.489770 -0.136222 6.497250 128 0 0 0.999995
-0.484333 -0.059089 6.417000 128 0 0 0.999998
-0.485701 -0.040405 6.395050 128 0 0 0.999960
-0.482293 -0.077762 6.438600 128 0 0 0.999987
-0.506288 -0.082120 6.423440 128 0 0 0.999996
-0.508124 -0.063621 6.403050 128 0 0 0.999993
-0.510164 -0.043913 6.383420 128 0 0 0.999943
-0.492518 -0.097323 6.453440 128 0 0 0.999995
-0.527637 -0.069389 6.392350 128 0 0 0.999995
-0.530976 -0.049353 6.374580 128 0 0 0.999965
-0.524732 -0.088092 6.411460 128 0 0 0.999994
-0.545778 -0.094137 6.401230 128 0 0 0.999998
-0.548676 -0.074431 6.383670 128 0 0 1.000000
-0.551865 -0.054294 6.366480 128 0 0 0.999966
-0.531721 -0.109111 6.425350 128 0 0 0.999988
-0.513270 -0.102649 6.437980 128 0 0 0.999999
-0.622252 -0.197229 6.432850 128 0 0 0.999972
-0.606284 -0.214760 6.450410 128 0 0 0.999991
-0.596578 -0.234321 6.469290 128 0 0 0.999993
-0.624925 -0.176926 6.417950 128 0 0 0.999959
-0.626188 -0.154794 6.404580 128 0 0 0.999984
-0.647551 -0.158097 6.404610 128 0 0 0.999994
-0.586582 -0.211176 6.454730 128 0 0 0.999990
-0.578115 -0.229708 6.474230 128 0 0 0.999993
-0.594796 -0.192874 6.437450 128 0 0 0.999951
-0.595942 -0.171789 6.423150 128 0 0 0.999942
-0.597324 -0.147612 6.410310 128 0 0 0.999973
-0.627233 -0.070590 6.353200 128 0 0 0.999967
-0.626920 -0.094446 6.365970 128 0 0 0.999983
-0.644413 -0.072380 6.353160 128 0 0 0.999958
-0.626824 -0.116575 6.378790 128 0 0 0.999986
-0.644083 -0.096694 6.365690 128 0 0 0.999992
-0.643793 -0.118158 6.377680 128 0 0 0.999989
-0.661863 -0.073154 6.354280 128 0 0 0.999958
-0.626565 -0.136534 6.391470 128 0 0 0.999955
-0.604601 -0.130906 6.394940 128 0 0 0.999996
-0.667748 -0.099188 6.367530 128 0 0 0.999995
-0.685762 -0.075899 6.357490 128 0 0 0.999965
-0.518298 -0.702922 6.606980 128 0 0 0.999885
-0.520038 -0.678319 6.624990 128 0 0 0.999995
-0.528845 -0.654513 6.637670 128 0 0 0.999985
-0.528025 -0.628141 6.650030 128 0 0 0.999978
-0.532867 -0.601549 6.655000 128 0 0 0.999919
-0.517381 -0.597467 6.662110 128 0 0 0.999880
-0.543411 -0.631610 6.641930 128 0 0 0.999979
-0.548917 -0.605848 6.646490 128 0 0 0.999887
-0.545511 -0.658057 6.628580 128 0 0 0.999966
-0.545746 -0.682421 6.611130 128 0 0 0.999998
-0.536171 -0.705537 6.596660 128 0 0 0.999939
-0.554698 -0.708145 6.586660 128 0 0 0.999896
-0.510602 -0.565074 6.658890 128 0 0 0.999988
-0.508509 -0.532714 6.650400 128 0 0 0.999995
-0.498718 -0.495134 6.643150 128 0 0 0.999997
-0.495239 -0.458305 6.633700 128 0 0 0.999863
-0.519192 -0.501311 6.639190 128 0 0 0.999993
-0.531658 -0.538614 6.644730 128 0 0 0.999995
-0.532991 -0.571629 6.650180 128 0 0 0.999978
-0.526630 -0.469409 6.625800 128 0 0 0.999938
-0.541222 -0.507486 6.633480 128 0 0 0.999991
-0.549123 -0.543032 6.639370 128 0 0 0.999976
-0.560296 -0.579197 6.637720 128 0 0 0.999998
-0.568171 -0.610894 6.635520 128 0 0 0.999920
-0.580352 -0.638971 6.619550 128 0 0 0.999992
-0.575297 -0.663254 6.610020 128 0 0 0.999985
-0.577810 -0.687327 6.592820 128 0 0 0.999992
-0.570855 -0.710246 6.577330 128 0 0 0.999907
-0.587530 -0.712169 6.568490 128 0 0 0.999889
-0.561480 -0.684656 6.602450 128 0 0 0.999995
-0.559395 -0.634560 6.632480 128 0 0 0.999984
-0.520200 -0.723380 6.574940 128 0 0 0.999996
-0.521875 -0.745623 6.543520 128 0 0 0.999991
-0.538317 -0.725809 6.565680 128 0 0 0.999998
-0.540646 -0.747244 6.534550 128 0 0 0.999994
-0.524226 -0.770106 6.513430 128 0 0 0.999996
-0.525810 -0.796079 6.483680 128 0 0 0.999968
-0.506060 -0.795643 6.493630 128 0 0 0.999962
-0.504383 -0.768611 6.522960 128 0 0 0.999991
-0.502690 -0.743886 6.553760 128 0 0 0.999994
-0.486274 -0.794907 6.503760 128 0 0 0.999958
-0.556180 -0.727724 6.555440 128 0 0 0.999996
-0.558064 -0.748815 6.524640 128 0 0 0.999992
-0.572449 -0.729936 6.547020 128 0 0 0.999999
-0.574268 -0.750290 6.516010 128 0 0 0.999995
-0.559931 -0.771572 6.494480 128 0 0 0.999993
-0.561190 -0.796577 6.464950 128 0 0 0.999974
-0.543559 -0.796486 6.474460 128 0 0 0.999968
-0.542408 -0.771089 6.504450 128 0 0 0.999998
-0.517690 -0.857314 6.390390 128 0 0 0.999998
-0.520303 -0.838648 6.419880 128 0 0 0.999998
-0.499577 -0.856575 6.400180 128 0 0 0.999999
-0.502489 -0.838772 6.430400 128 0 0 0.999991
-0.522987 -0.817731 6.450890 128 0 0 0.999998
-0.540730 -0.818315 6.441940 128 0 0 0.999999
-0.537821 -0.839333 6.411030 128 0 0 0.999994
-0.480923 -0.857015 6.410670 128 0 0 0.999995
-0.482270 -0.837993 6.439810 128 0 0 0.999999
-0.460990 -0.856382 6.421410 128 0 0 0.999998
-0.462592 -0.837845 6.451070 128 0 0 0.999994
-0.484239 -0.817384 6.471140 128 0 0 0.999999
-0.503946 -0.817560 6.461130 128 0 0 0.999999
-0.601511 -0.862911 6.342640 128 0 0 0.999983
-0.626375 -0.847676 6.355130 128 0 0 0.999998
-0.637959 -0.827486 6.379880 128 0 0 0.999999
-0.662806 -0.811054 6.393520 128 0 0 0.999997
-0.636379 -0.803435 6.417400 128 0 0 0.999990
-0.664872 -0.836344 6.356930 128 0 0 0.999996
-0.690339 -0.819743 6.370390 128 0 0 0.999997
-0.651836 -0.853348 6.335610 128 0 0 0.999999
-0.638106 -0.869113 6.314610 128 0 0 0.999989
-0.644990 -0.778555 6.444900 128 0 0 0.999975
-0.661364 -0.791041 6.425020 128 0 0 0.999989
-0.670126 -0.767974 6.452700 128 0 0 0.999990
-0.653758 -0.757850 6.473810 128 0 0 0.999996
-0.686810 -0.779616 6.432780 128 0 0 0.999991
-0.679434 -0.748367 6.481460 128 0 0 0.999995
-0.696323 -0.758830 6.461280 128 0 0 0.999997
-0.663076 -0.738807 6.502700 128 0 0 0.999997
-0.713423 -0.769456 6.440990 128 0 0 0.999991
-0.713862 -0.787113 6.408290 128 0 0 0.999994
-0.688207 -0.798910 6.400950 128 0 0 0.999997
-0.782642 -0.791766 6.376200 128 0 0 0.999999
-0.768207 -0.804729 6.358870 128 0 0 0.999997
-0.750934 -0.800041 6.373380 128 0 0 0.999998
-0.754541 -0.818571 6.343140 128 0 0 0.999999
-0.737381 -0.813881 6.357240 128 0 0 0.999999
-0.723815 -0.828586 6.341270 128 0 0 1.000000
-0.740664 -0.833013 6.327830 128 0 0 1.000000
-0.720445 -0.809601 6.371360 128 0 0 0.999999
-0.707238 -0.823981 6.355560 128 0 0 1.000000
-0.732317 -0.793177 6.390600 128 0 0 0.999997
-0.744912 -0.778357 6.410990 128 0 0 0.999993
-0.763698 -0.784617 6.393270 128 0 0 0.999996
-0.727430 -0.851750 6.306370 128 0 0 0.999991
-0.712316 -0.865525 6.287960 128 0 0 0.999998
-0.697108 -0.863861 6.299070 128 0 0 0.999984
-0.696924 -0.877572 6.268960 128 0 0 0.999988
-0.681859 -0.875525 6.280010 128 0 0 0.999996
-0.666822 -0.874463 6.291670 128 0 0 0.999979
-0.680187 -0.859185 6.313190 128 0 0 0.999998
-0.693686 -0.841955 6.334160 128 0 0 1.000000
-0.710547 -0.846575 6.319860 128 0 0 1.000000
-0.424935 -0.689439 6.648860 128 0 0 0.999923
-0.428378 -0.713625 6.617860 128 0 0 0.999990
-0.449233 -0.692600 6.638760 128 0 0 0.999903
-0.431898 -0.739039 6.587340 128 0 0 0.999995
-0.452907 -0.715707 6.607690 128 0 0 0.999995
-0.456594 -0.740571 6.576830 128 0 0 0.999997
-0.473527 -0.695766 6.628100 128 0 0 0.999901
-0.435274 -0.765779 6.556660 128 0 0 0.999997
-0.438671 -0.792710 6.526650 128 0 0 0.999969
-0.413736 -0.791794 6.538990 128 0 0 0.999971
-0.410360 -0.764605 6.568720 128 0 0 0.999998
-0.407369 -0.737459 6.599820 128 0 0 0.999999
-0.388846 -0.791247 6.550980 128 0 0 0.999978
-0.476536 -0.718204 6.596180 128 0 0 0.999991
-0.495733 -0.699232 6.617960 128 0 0 0.999893
-0.479357 -0.742076 6.564390 128 0 0 0.999987
-0.499424 -0.720851 6.585770 128 0 0 0.999996
-0.482938 -0.767985 6.533450 128 0 0 0.999995
-0.462469 -0.794157 6.515370 128 0 0 0.999954
-0.459557 -0.766837 6.545560 128 0 0 0.999999
-0.439022 -0.855695 6.432380 128 0 0 0.999998
-0.438365 -0.836841 6.462100 128 0 0 0.999997
-0.416511 -0.855166 6.445450 128 0 0 0.999990
-0.415841 -0.836285 6.475270 128 0 0 0.999995
-0.438167 -0.815382 6.493130 128 0 0 0.999995
-0.462207 -0.816491 6.482270 128 0 0 1.000000
-0.392496 -0.854297 6.457890 128 0 0 0.999992
-0.390477 -0.835505 6.487270 128 0 0 0.999998
-0.368682 -0.853081 6.471330 128 0 0 0.999992
-0.366876 -0.834913 6.501450 128 0 0 0.999995
-0.389272 -0.814444 6.518460 128 0 0 0.999999
-0.414337 -0.814743 6.506130 128 0 0 1.000000
-0.454676 -0.223228 6.584080 128 0 0 1.000000
-0.460295 -0.251794 6.586150 128 0 0 1.000000
-0.476806 -0.226657 6.565040 128 0 0 0.999997
-0.482754 -0.254283 6.567220 128 0 0 0.999999
-0.464311 -0.280881 6.590260 128 0 0 0.999999
-0.468435 -0.309375 6.595610 128 0 0 0.999988
-0.448321 -0.307154 6.611260 128 0 0 0.999991
-0.443976 -0.276656 6.606640 128 0 0 0.999999
-0.438830 -0.246764 6.603920 128 0 0 0.999998
-0.427916 -0.301839 6.627880 128 0 0 0.999974
-0.495908 -0.230710 6.547830 128 0 0 0.999999
-0.499687 -0.256839 6.552410 128 0 0 0.999999
-0.513483 -0.233865 6.531220 128 0 0 0.999996
-0.514846 -0.259058 6.537880 128 0 0 0.999996
-0.499725 -0.283012 6.560890 128 0 0 0.999998
-0.498248 -0.312021 6.572080 128 0 0 0.999986
-0.483920 -0.309725 6.583290 128 0 0 0.999985
-0.484524 -0.281680 6.574080 128 0 0 0.999998
-0.476152 -0.452973 6.637880 128 0 0 0.999967
-0.472702 -0.415772 6.621980 128 0 0 0.999981
-0.467306 -0.376997 6.610340 128 0 0 0.999989
-0.458128 -0.413455 6.627620 128 0 0 0.999986
-0.452602 -0.374272 6.619740 128 0 0 0.999994
-0.460750 -0.449855 6.641830 128 0 0 0.999973
-0.467116 -0.342042 6.601920 128 0 0 0.999997
-0.481274 -0.342277 6.590980 128 0 0 0.999993
-0.481263 -0.377899 6.601710 128 0 0 0.999990
-0.443979 -0.446261 6.648830 128 0 0 0.999983
-0.441818 -0.410911 6.635890 128 0 0 0.999963
-0.435259 -0.372175 6.631620 128 0 0 0.999996
-0.424030 -0.406207 6.645140 128 0 0 0.999979
-0.418257 -0.367944 6.642420 128 0 0 0.999998
-0.425972 -0.441658 6.656480 128 0 0 0.999971
-0.430916 -0.335399 6.629580 128 0 0 0.999996
-0.449713 -0.339197 6.615120 128 0 0 0.999999
-0.628421 -0.288533 6.503440 128 0 0 0.999992
-0.620807 -0.316565 6.523600 128 0 0 0.999999
-0.602273 -0.348455 6.545230 128 0 0 0.999973
-0.604928 -0.316326 6.523170 128 0 0 0.999995
-0.635345 -0.263130 6.484590 128 0 0 0.999980
-0.596048 -0.412270 6.577730 128 0 0 0.999997
-0.601171 -0.440055 6.590950 128 0 0 0.999998
-0.609488 -0.466637 6.601960 128 0 0 0.999923
-0.591111 -0.381262 6.561780 128 0 0 0.999990
-0.571084 -0.477397 6.613170 128 0 0 0.999955
-0.563447 -0.444719 6.598040 128 0 0 0.999996
-0.565119 -0.412465 6.581010 128 0 0 0.999998
-0.566752 -0.378729 6.563190 128 0 0 0.999990
-0.578740 -0.346386 6.546090 128 0 0 0.999981
-0.583319 -0.443442 6.594290 128 0 0 0.999999
-0.591278 -0.473136 6.607300 128 0 0 0.999915
-0.581987 -0.312434 6.524200 128 0 0 0.999986
-0.600184 -0.285782 6.502890 128 0 0 0.999992
-0.611676 -0.261226 6.484270 128 0 0 0.999981
-0.547373 -0.405891 6.581260 128 0 0 0.999987
-0.545188 -0.440789 6.600900 128 0 0 0.999999
-0.553472 -0.476218 6.618420 128 0 0 0.999907
-0.545437 -0.369516 6.564680 128 0 0 0.999992
-0.548638 -0.334396 6.548860 128 0 0 0.999989
-0.563165 -0.341417 6.547100 128 0 0 0.999990
-0.528498 -0.435310 6.604140 128 0 0 0.999995
-0.526379 -0.397164 6.584580 128 0 0 0.999987
-0.526651 -0.359176 6.568290 128 0 0 0.999996
-0.531344 -0.324311 6.552830 128 0 0 0.999990
-0.564734 -0.248149 6.492980 128 0 0 0.999996
-0.561588 -0.272905 6.509270 128 0 0 0.999995
-0.581537 -0.254022 6.487940 128 0 0 0.999985
-0.556382 -0.301458 6.527710 128 0 0 0.999993
-0.542907 -0.294952 6.532490 128 0 0 0.999996
-0.582959 -0.280728 6.503890 128 0 0 0.999986
-0.594812 -0.506913 6.613800 128 0 0 0.999980
-0.619167 -0.535549 6.610420 128 0 0 0.999989
-0.614715 -0.501345 6.606570 128 0 0 0.999997
-0.643109 -0.563212 6.603580 128 0 0 0.999994
-0.665230 -0.588932 6.595740 128 0 0 0.999980
-0.650101 -0.601164 6.599180 128 0 0 0.999962
-0.629365 -0.574708 6.606520 128 0 0 0.999993
-0.606836 -0.546552 6.613870 128 0 0 0.999986
-0.634450 -0.611967 6.601400 128 0 0 0.999927
-0.641527 -0.517870 6.602140 128 0 0 0.999990
-0.677112 -0.574685 6.593880 128 0 0 0.999980
-0.726672 -0.635412 6.566820 128 0 0 0.999996
-0.711896 -0.613328 6.575710 128 0 0 0.999992
-0.697487 -0.633640 6.573330 128 0 0 0.999994
-0.711245 -0.654599 6.563890 128 0 0 0.999992
-0.688934 -0.601322 6.585500 128 0 0 0.999996
-0.689043 -0.672336 6.561390 128 0 0 0.999993
-0.680076 -0.644626 6.575910 128 0 0 0.999988
-0.677210 -0.685063 6.558020 128 0 0 0.999990
-0.667495 -0.657399 6.572810 128 0 0 0.999999
-0.655388 -0.669561 6.569490 128 0 0 0.999979
-0.664640 -0.695625 6.551310 128 0 0 0.999981
-0.657375 -0.628591 6.587590 128 0 0 0.999997
-0.645482 -0.642239 6.585570 128 0 0 0.999983
-0.674407 -0.617617 6.585510 128 0 0 0.999997
-0.482430 -0.491541 6.645000 128 0 0 0.999974
-0.492228 -0.527862 6.654800 128 0 0 0.999995
-0.490226 -0.559211 6.665630 128 0 0 0.999988
-0.496907 -0.592371 6.670010 128 0 0 0.999892
-0.477434 -0.587364 6.676640 128 0 0 0.999897
-0.471968 -0.554770 6.670810 128 0 0 0.999994
-0.473611 -0.523241 6.659840 128 0 0 0.999999
-0.466115 -0.487810 6.650060 128 0 0 0.999991
-0.509291 -0.623799 6.659760 128 0 0 0.999956
-0.509988 -0.650883 6.647270 128 0 0 0.999972
-0.497148 -0.673996 6.635970 128 0 0 0.999998
-0.476229 -0.669903 6.645460 128 0 0 0.999997
-0.488860 -0.646030 6.656750 128 0 0 0.999979
-0.489256 -0.619137 6.668160 128 0 0 0.999954
-0.429379 -0.662314 6.665120 128 0 0 0.999991
-0.443548 -0.636572 6.674310 128 0 0 0.999982
-0.445204 -0.608623 6.682970 128 0 0 0.999978
-0.455963 -0.581602 6.683760 128 0 0 0.999876
-0.434262 -0.576071 6.690080 128 0 0 0.999874
-0.467492 -0.613640 6.676410 128 0 0 0.999954
-0.466578 -0.641339 6.665730 128 0 0 0.999982
-0.452478 -0.665847 6.656130 128 0 0 0.999991
-0.429427 -0.543707 6.682980 128 0 0 0.999998
-0.433578 -0.512579 6.671160 128 0 0 0.999998
-0.428649 -0.478003 6.662850 128 0 0 0.999993
-0.447135 -0.482987 6.655990 128 0 0 0.999991
-0.453900 -0.518344 6.665140 128 0 0 1.000000
-0.450303 -0.548908 6.677110 128 0 0 0.999995
0.015541 0.011128 6.434600 128 0 0 0.999996
0.035356 0.011098 6.443090 128 0 0 0.999997
0.022879 0.000383 6.465470 128 0 0 0.999996
0.002896 0.001392 6.456990 128 0 0 0.999996
0.043130 -0.000285 6.473940 128 0 0 0.999996
0.010128 -0.007893 6.488640 128 0 0 0.999998
0.030199 -0.009240 6.497240 128 0 0 0.999998
0.017287 -0.016826 6.520880 128 0 0 0.999995
-0.010213 -0.006408 6.480340 128 0 0 0.999999
-0.003184 -0.014674 6.512890 128 0 0 0.999985
-0.023351 -0.013480 6.504280 128 0 0 0.999987
0.050578 -0.010752 6.505370 128 0 0 0.999995
0.037386 -0.018108 6.529410 128 0 0 0.999993
0.057955 -0.020023 6.537600 128 0 0 0.999997
0.072724 -0.013335 6.514170 128 0 0 0.999973
0.064934 -0.001108 6.483190 128 0 0 0.999996
0.086763 -0.001999 6.492550 128 0 0 0.999991
0.078941 0.011152 6.462310 128 0 0 0.999995
0.057141 0.010880 6.452420 128 0 0 0.999994
0.100862 0.011892 6.472660 128 0 0 0.999997
-0.036526 -0.024627 6.527130 128 0 0 0.999996
-0.018271 -0.025027 6.535650 128 0 0 0.999999
-0.031592 -0.034712 6.558590 128 0 0 0.999998
-0.049885 -0.034285 6.549770 128 0 0 0.999998
-0.013106 -0.036349 6.566450 128 0 0 0.999997
-0.044801 -0.043404 6.580370 128 0 0 0.999997
-0.026904 -0.045022 6.588520 128 0 0 0.999997
-0.040079 -0.052305 6.610420 128 0 0 0.999981
-0.062542 -0.043573 6.571450 128 0 0 0.999999
-0.057782 -0.052896 6.600870 128 0 0 0.999992
-0.075335 -0.053186 6.592110 128 0 0 0.999981
-0.008504 -0.045892 6.597250 128 0 0 0.999999
-0.021993 -0.053909 6.619300 128 0 0 0.999993
-0.003715 -0.055505 6.628110 128 0 0 0.999995
0.011560 -0.048114 6.606380 128 0 0 0.999997
0.006927 -0.037222 6.575910 128 0 0 0.999998
0.027020 -0.039426 6.584130 128 0 0 0.999998
0.022632 -0.028207 6.552680 128 0 0 0.999999
0.002021 -0.026518 6.544170 128 0 0 0.999999
0.042677 -0.029298 6.561160 128 0 0 0.999999
0.068255 -0.052056 6.633810 128 0 0 0.999999
0.086315 -0.042291 6.611160 128 0 0 0.999998
0.065265 -0.040827 6.602220 128 0 0 0.999998
0.104747 -0.033385 6.587430 128 0 0 1.000000
0.083381 -0.031554 6.578580 128 0 0 1.000000
0.100607 -0.022707 6.555170 128 0 0 0.999999
0.122255 -0.024316 6.563410 128 0 0 0.999993
0.062143 -0.030066 6.569770 128 0 0 0.999998
0.079288 -0.021500 6.546360 128 0 0 0.999998
0.046172 -0.040461 6.592920 128 0 0 0.999999
0.030535 -0.049539 6.615480 128 0 0 0.999999
0.049663 -0.050839 6.624650 128 0 0 0.999999
0.033845 -0.059454 6.646870 128 0 0 0.999993
0.015193 -0.057051 6.637570 128 0 0 0.999992
0.052619 -0.061983 6.655750 128 0 0 0.999994
0.137108 -0.012995 6.542230 128 0 0 0.999991
0.152779 0.001453 6.523980 128 0 0 0.999997
0.129805 -0.000012 6.512730 128 0 0 0.999995
0.167501 0.017247 6.507630 128 0 0 0.999998
0.144971 0.015433 6.495410 128 0 0 0.999999
0.122189 0.013736 6.483450 128 0 0 1.000000
0.108212 -0.001198 6.502520 128 0 0 0.999993
0.093989 -0.013186 6.523640 128 0 0 0.999990
0.115535 -0.013174 6.532880 128 0 0 0.999990
0.209552 0.001451 6.097810 128 0 0 0.999993
0.200187 0.010944 6.114820 128 0 0 0.999997
0.224089 0.011102 6.126220 128 0 0 0.999995
0.214471 0.019401 6.143440 128 0 0 0.999992
0.190247 0.019123 6.132160 128 0 0 0.999996
0.237915 0.018839 6.154900 128 0 0 0.999995
0.203935 0.025995 6.161590 128 0 0 0.999995
0.227755 0.025796 6.172570 128 0 0 0.999995
0.216663 0.031536 6.191010 128 0 0 0.999990
0.179609 0.025638 6.150390 128 0 0 0.999998
0.192815 0.031492 6.180320 128 0 0 0.999990
0.168447 0.030871 6.169370 128 0 0 0.999989
0.251150 0.025145 6.183850 128 0 0 0.999996
0.240519 0.031397 6.202250 128 0 0 0.999989
0.264329 0.030961 6.213770 128 0 0 0.999992
0.274984 0.024502 6.196000 128 0 0 0.999998
0.261207 0.017978 6.166730 128 0 0 0.999997
0.284787 0.016890 6.179000 128 0 0 0.999999
0.270515 0.009868 6.150130 128 0 0 0.999997
0.247343 0.010719 6.138190 128 0 0 0.999997
0.256349 0.001370 6.121980 128 0 0 0.999994
0.294096 0.008433 6.162620 128 0 0 0.999999
0.279583 0.000429 6.134050 128 0 0 0.999995
0.303124 -0.000809 6.146500 128 0 0 0.999995
0.233157 0.001604 6.109790 128 0 0 0.999992
0.156716 0.033033 6.189760 128 0 0 1.000000
0.180307 0.033775 6.199900 128 0 0 1.000000
0.168457 0.035861 6.220500 128 0 0 1.000000
0.145098 0.035238 6.210420 128 0 0 0.999998
0.191890 0.036443 6.230450 128 0 0 1.000000
0.156838 0.038403 6.240910 128 0 0 0.999999
0.180094 0.038861 6.251210 128 0 0 1.000000
0.134025 0.038053 6.230650 128 0 0 0.999998
0.203693 0.039146 6.261830 128 0 0 1.000000
0.227570 0.039202 6.273170 128 0 0 1.000000
0.215990 0.036664 6.241690 128 0 0 1.000000
0.239773 0.036639 6.253270 128 0 0 1.000000
0.228263 0.034279 6.221810 128 0 0 1.000000
0.204253 0.034116 6.210620 128 0 0 1.000000
0.252236 0.034104 6.233320 128 0 0 1.000000
0.302006 0.039645 6.311160 128 0 0 1.000000
0.315512 0.036763 6.291100 128 0 0 0.999999
0.289550 0.037170 6.277570 128 0 0 1.000000
0.328836 0.033255 6.271390 128 0 0 0.999999
0.302752 0.034054 6.258140 128 0 0 0.999999
0.315777 0.030053 6.239200 128 0 0 0.999986
0.341530 0.028816 6.252640 128 0 0 0.999985
0.277089 0.034320 6.245230 128 0 0 0.999999
0.289986 0.030818 6.226400 128 0 0 0.999986
0.264593 0.037112 6.265210 128 0 0 1.000000
0.252428 0.039653 6.285350 128 0 0 1.000000
0.277097 0.039781 6.298170 128 0 0 1.000000
0.351819 0.021018 6.235320 128 0 0 0.999998
0.361951 0.012200 6.219310 128 0 0 0.999999
0.336094 0.014232 6.205300 128 0 0 0.999999
0.371710 0.002875 6.203630 128 0 0 1.000000
0.345936 0.005013 6.189700 128 0 0 1.000000
0.355256 -0.003812 6.174220 128 0 0 0.999997
0.381297 -0.006223 6.187920 128 0 0 0.999998
0.319903 0.006836 6.175870 128 0 0 1.000000
0.329204 -0.002167 6.160220 128 0 0 0.999997
0.310480 0.015888 6.192030 128 0 0 0.999999
0.300469 0.023970 6.208780 128 0 0 0.999998
0.326218 0.022685 6.221890 128 0 0 0.999998
-0.058499 -0.885828 6.323980 128 0 0 0.999998
-0.071751 -0.876419 6.347980 128 0 0 0.999974
-0.096669 -0.872469 6.368940 128 0 0 0.999988
-0.110161 -0.871695 6.396810 128 0 0 0.999994
-0.135339 -0.874349 6.420760 128 0 0 0.999993
-0.112664 -0.872909 6.430850 128 0 0 0.999996
-0.133023 -0.872681 6.386840 128 0 0 0.999996
-0.158126 -0.874848 6.410130 128 0 0 0.999992
-0.119320 -0.873034 6.358070 128 0 0 0.999987
-0.105566 -0.877970 6.331670 128 0 0 0.999977
-0.080911 -0.886939 6.312540 128 0 0 0.999999
-0.103564 -0.887119 6.300820 128 0 0 0.999997
-0.125676 -0.872980 6.459740 128 0 0 0.999996
-0.150496 -0.873049 6.484300 128 0 0 0.999992
-0.163209 -0.870422 6.513390 128 0 0 0.999987
-0.187706 -0.864947 6.536510 128 0 0 0.999911
-0.165696 -0.864096 6.547430 128 0 0 0.999927
-0.185438 -0.870451 6.502950 128 0 0 0.999992
-0.209833 -0.864890 6.525150 128 0 0 0.999919
-0.172900 -0.873327 6.473770 128 0 0 0.999998
-0.159836 -0.874320 6.444760 128 0 0 0.999998
-0.230793 -0.871166 6.481930 128 0 0 0.999987
-0.217486 -0.873619 6.452850 128 0 0 0.999997
-0.193223 -0.874068 6.428920 128 0 0 0.999999
-0.180398 -0.875234 6.399480 128 0 0 0.999990
-0.194920 -0.873170 6.463330 128 0 0 0.999997
-0.207987 -0.870514 6.491960 128 0 0 0.999992
