ply
format ascii 1.0
comment VCGLIB generated
element vertex 991
property float x
property float y
property float z
property uchar red
property uchar green
property uchar blue
property float quality
end_header
0.007917 -0.145516 0.729025 224 255 24 0.619607
-0.004172 -0.146240 0.722522 224 255 24 0.620252
-0.009879 -0.146101 0.721887 224 255 24 0.620596
-0.001948 -0.146050 0.720229 224 255 24 0.620013
-0.007528 -0.145974 0.719566 224 255 24 0.620441
-0.005316 -0.145794 0.717308 224 255 24 0.620331
-0.013110 -0.145934 0.718896 224 255 24 0.620613
0.000260 -0.145852 0.717978 224 255 24 0.619868
0.003291 -0.146074 0.720890 228 255 20 0.621196
0.026388 -0.143943 0.724818 224 255 24 0.618452
0.024574 -0.143509 0.727210 224 255 24 0.618353
0.027295 -0.141979 0.729344 224 255 24 0.618320
0.022761 -0.143001 0.729597 224 255 24 0.618430
0.021069 -0.142466 0.731900 224 255 24 0.618610
0.017891 -0.143828 0.729524 208 255 40 0.600928
0.019586 -0.144340 0.727265 215 255 33 0.607709
0.030118 -0.139740 0.730968 224 255 24 0.618180
0.028314 -0.138909 0.733226 224 255 24 0.618227
0.026630 -0.137962 0.735353 224 255 24 0.618166
0.023763 -0.140248 0.733715 224 255 24 0.618318
0.025539 -0.141138 0.731529 231 255 17 0.625086
0.014779 -0.139036 0.740588 224 255 24 0.619063
0.016387 -0.139952 0.738378 224 255 24 0.618862
0.011406 -0.141295 0.738570 211 255 36 0.605402
0.018011 -0.140760 0.736179 224 255 24 0.618815
0.013059 -0.142203 0.736414 224 255 24 0.619249
0.014725 -0.143001 0.734208 224 255 24 0.619271
0.008077 -0.143519 0.736456 224 255 24 0.619653
0.019537 -0.141659 0.734046 224 255 24 0.618585
0.022342 -0.139399 0.735867 224 255 24 0.617737
0.020828 -0.138462 0.738031 224 255 24 0.618511
0.009865 -0.144030 0.734110 224 255 24 0.619735
0.004336 -0.144722 0.733714 224 255 24 0.620032
0.011547 -0.144366 0.731731 224 255 24 0.619444
0.006214 -0.145140 0.731361 205 255 43 0.594242
0.013148 -0.144775 0.729405 224 255 24 0.619259
0.016304 -0.143445 0.731918 224 255 24 0.618925
0.032459 -0.132836 0.735344 221 255 27 0.616942
0.030550 -0.131381 0.737361 224 255 24 0.617506
0.028564 -0.134701 0.736410 224 255 24 0.617593
0.030474 -0.136108 0.734459 224 255 24 0.617711
0.031687 -0.127082 0.737057 221 255 27 0.615909
0.024274 -0.126861 0.741380 237 255 11 0.636694
0.021635 -0.126984 0.742864 224 255 24 0.617342
0.026810 -0.126754 0.740002 224 255 24 0.617303
0.025342 -0.131536 0.740254 224 255 24 0.618022
0.022755 -0.131652 0.741600 224 255 24 0.617991
0.020002 -0.131791 0.743048 224 255 24 0.617994
0.028625 -0.129129 0.738678 237 255 11 0.635615
0.020426 -0.135192 0.740505 224 255 24 0.618108
0.017354 -0.135488 0.741889 224 255 24 0.619396
0.023301 -0.134914 0.739208 224 255 24 0.618193
0.024901 -0.136486 0.737332 224 255 24 0.618060
0.026970 -0.133172 0.738306 224 255 24 0.617893
0.023368 -0.095188 0.724471 224 255 24 0.617375
0.026082 -0.095659 0.723403 224 255 24 0.617197
0.023801 -0.092261 0.719411 224 255 24 0.617704
0.022057 -0.093458 0.722441 224 255 24 0.617768
0.020874 -0.091799 0.720404 224 255 24 0.618060
0.019151 -0.093033 0.723443 198 255 49 0.587389
0.020437 -0.094742 0.725551 224 255 24 0.619272
0.017388 -0.094279 0.726495 224 255 24 0.617427
0.017832 -0.091383 0.721300 224 255 24 0.618327
0.016124 -0.092688 0.724435 224 255 24 0.618009
0.014839 -0.091089 0.722313 224 255 24 0.618430
0.018739 -0.096002 0.728543 221 255 27 0.616993
0.023822 -0.091011 0.714675 224 255 24 0.617512
0.021038 -0.089520 0.710907 221 255 27 0.617155
0.018047 -0.089099 0.711735 224 255 24 0.617508
0.016489 -0.089447 0.714566 224 255 24 0.618053
0.013361 -0.089137 0.715401 224 255 24 0.618420
0.011712 -0.089610 0.718329 240 254 7 0.638616
0.008608 -0.088436 0.714231 224 255 24 0.618725
0.021014 -0.090590 0.715607 224 255 24 0.617646
0.010379 -0.088612 0.711742 224 255 24 0.618440
0.013455 -0.088832 0.710923 224 255 24 0.618020
0.015075 -0.089237 0.708441 224 255 24 0.617320
0.018149 -0.089594 0.707616 221 255 27 0.617083
0.015293 -0.089922 0.704324 224 255 24 0.619550
0.012107 -0.089540 0.705157 224 255 24 0.617420
0.010446 -0.089103 0.707592 224 255 24 0.617834
0.007208 -0.088909 0.708333 224 255 24 0.618307
0.005412 -0.088704 0.710817 224 255 24 0.618553
0.002331 -0.089015 0.707452 224 255 24 0.618365
0.018490 -0.090347 0.703293 221 255 27 0.616562
0.014478 -0.092565 0.699403 221 255 27 0.616679
0.012557 -0.091357 0.701725 221 255 27 0.617052
0.009822 -0.092904 0.699114 221 255 27 0.617179
0.006545 -0.092529 0.699867 224 255 24 0.617637
0.004673 -0.091536 0.701887 224 255 24 0.617945
0.001317 -0.091317 0.702661 224 255 24 0.617999
-0.000671 -0.090518 0.704736 224 255 24 0.618120
-0.003472 -0.091831 0.702250 224 255 24 0.618082
0.004294 -0.089856 0.705339 224 255 24 0.618109
0.007541 -0.090035 0.704589 224 255 24 0.617982
0.009399 -0.090988 0.702495 224 255 24 0.617481
0.094866 -0.010927 0.823339 228 255 20 0.621442
0.094571 -0.007841 0.825279 228 255 20 0.621631
0.091452 -0.008332 0.824144 228 255 20 0.621239
0.091712 -0.011391 0.822206 231 255 17 0.627576
0.090911 -0.005778 0.826716 228 255 20 0.621150
0.088283 -0.008850 0.822998 224 255 24 0.621050
0.087771 -0.006344 0.825523 224 255 24 0.620817
0.084555 -0.006794 0.824295 224 255 24 0.620798
0.088536 -0.011731 0.821007 218 255 30 0.612882
0.085069 -0.009262 0.821781 228 255 20 0.621253
0.085324 -0.012211 0.819771 224 255 24 0.620779
0.087162 -0.004371 0.828258 224 255 24 0.620702
0.083979 -0.004873 0.826981 218 255 30 0.610163
0.083211 -0.003497 0.830038 224 255 24 0.620569
0.086549 -0.003040 0.831524 224 255 24 0.620582
0.090465 -0.003812 0.829624 224 255 24 0.620948
0.089813 -0.002481 0.832928 224 255 24 0.620488
0.093725 -0.003226 0.830963 211 255 36 0.603004
0.094216 -0.005235 0.828031 228 255 20 0.621374
0.093044 -0.001863 0.834301 224 255 24 0.621087
0.082239 -0.012615 0.818469 224 255 24 0.620845
0.081820 -0.009665 0.820309 228 255 20 0.621314
0.078699 -0.010085 0.818999 215 255 33 0.606278
0.079138 -0.013050 0.817111 224 255 24 0.620929
0.078032 -0.007629 0.821341 228 255 20 0.621434
0.075551 -0.010531 0.817651 228 255 20 0.621599
0.074871 -0.008057 0.820000 228 255 20 0.621690
0.071658 -0.008527 0.818668 228 255 20 0.621848
0.075985 -0.013537 0.815773 224 255 24 0.620912
0.072350 -0.011035 0.816332 228 255 20 0.621635
0.072774 -0.014052 0.814428 224 255 24 0.620794
0.074143 -0.005989 0.822522 228 255 20 0.621826
0.070941 -0.006430 0.821164 228 255 20 0.622048
0.070032 -0.004945 0.823987 228 255 20 0.622102
0.073429 -0.004577 0.825524 215 255 33 0.605632
0.077492 -0.005608 0.824022 218 255 30 0.610584
0.076749 -0.004211 0.827042 228 255 20 0.621259
0.080764 -0.005246 0.825505 224 255 24 0.621058
0.081334 -0.007219 0.822825 211 255 36 0.601574
0.080009 -0.003826 0.828540 208 255 40 0.601160
0.065024 -0.004786 0.836954 224 255 24 0.620921
0.068584 -0.004530 0.838607 224 255 24 0.619800
0.069734 -0.004147 0.835172 228 255 20 0.621144
0.073222 -0.003867 0.836828 224 255 24 0.620389
0.072095 -0.004259 0.840244 224 255 24 0.618778
0.074344 -0.003673 0.833435 237 255 11 0.635088
0.076665 -0.003568 0.838433 224 255 24 0.619422
0.077762 -0.003363 0.835044 224 255 24 0.620461
0.081118 -0.002979 0.836621 224 255 24 0.619947
0.075535 -0.003977 0.841849 224 255 24 0.618900
0.079990 -0.003334 0.840075 224 255 24 0.618875
0.078877 -0.003811 0.843519 221 255 27 0.616857
0.078842 -0.003357 0.831649 224 255 24 0.620789
0.082229 -0.003005 0.833196 224 255 24 0.620395
0.075573 -0.003760 0.830182 228 255 20 0.621278
0.072222 -0.004128 0.828691 228 255 20 0.621781
0.071018 -0.003987 0.831894 228 255 20 0.621575
0.067600 -0.004379 0.830384 211 255 36 0.602785
0.068815 -0.004500 0.827193 228 255 20 0.622127
0.066323 -0.004533 0.833680 228 255 20 0.621770
0.082338 -0.003531 0.845144 221 255 27 0.615103
0.083319 -0.002939 0.841612 224 255 24 0.618625
0.086692 -0.002489 0.843257 224 255 24 0.619030
0.085714 -0.003098 0.846780 221 255 27 0.614184
0.087662 -0.002093 0.839654 224 255 24 0.620061
0.090087 -0.001963 0.844935 208 255 40 0.598415
0.091025 -0.001551 0.841302 224 255 24 0.620776
0.089214 -0.002439 0.848491 221 255 27 0.615527
0.091990 -0.001412 0.837632 228 255 20 0.621114
0.088770 -0.002073 0.836207 224 255 24 0.620335
0.085517 -0.002576 0.834749 224 255 24 0.619378
0.084429 -0.002528 0.838139 224 255 24 0.619824
0.057764 -0.106167 0.815592 215 255 33 0.606700
0.056520 -0.108694 0.818159 228 255 20 0.621725
0.053717 -0.111655 0.819999 224 255 24 0.619549
0.052612 -0.114598 0.822548 224 255 24 0.617457
0.049499 -0.115497 0.820949 231 255 17 0.628316
0.050437 -0.112097 0.818663 224 255 24 0.618598
0.053082 -0.108779 0.817058 228 255 20 0.621884
0.054191 -0.106003 0.814532 228 255 20 0.623595
0.057140 -0.103504 0.812685 202 255 46 0.590084
0.053440 -0.103300 0.811526 231 255 17 0.625651
0.052654 -0.116543 0.826298 221 255 27 0.616283
0.051050 -0.118871 0.829360 221 255 27 0.615371
0.047925 -0.122125 0.831463 215 255 33 0.609014
0.046387 -0.124812 0.834409 211 255 36 0.604684
0.043435 -0.126697 0.832290 211 255 36 0.603865
0.044994 -0.123835 0.829505 192 255 56 0.578920
0.048070 -0.120269 0.827637 215 255 33 0.609308
0.049629 -0.117605 0.824746 221 255 27 0.613373
0.037439 -0.129855 0.828075 218 255 30 0.612198
0.038983 -0.126834 0.825340 185 255 62 0.573381
0.041965 -0.123209 0.823741 208 255 40 0.601425
0.043472 -0.120081 0.821045 211 255 36 0.603774
0.046353 -0.116411 0.819211 255 228 0 0.666776
0.043262 -0.117498 0.817357 215 255 33 0.605686
0.046551 -0.118953 0.822947 215 255 33 0.608739
0.045073 -0.121872 0.825719 208 255 40 0.598873
0.042060 -0.125587 0.827484 211 255 36 0.603549
0.040523 -0.128503 0.830247 215 255 33 0.607886
0.044130 -0.113596 0.815351 218 255 30 0.612136
0.046615 -0.109771 0.814031 224 255 24 0.618939
0.047432 -0.106469 0.811865 255 194 0 0.700636
0.049959 -0.103285 0.810298 231 255 17 0.627585
0.046540 -0.103413 0.808860 231 255 17 0.627212
0.050766 -0.106182 0.813264 228 255 20 0.624530
0.049791 -0.109206 0.815643 224 255 24 0.620423
0.047336 -0.112888 0.817015 221 255 27 0.616588
0.039577 -0.006321 0.823706 228 255 20 0.622579
0.042615 -0.006066 0.825344 228 255 20 0.622312
0.044047 -0.006174 0.822276 228 255 20 0.621582
0.047053 -0.005953 0.823897 228 255 20 0.621795
0.045613 -0.005896 0.827000 218 255 30 0.610911
0.048459 -0.006025 0.820756 224 255 24 0.619169
0.050062 -0.005717 0.825487 228 255 20 0.621998
0.051479 -0.005792 0.822381 228 255 20 0.621782
0.054546 -0.005561 0.823965 228 255 20 0.622029
0.048610 -0.005759 0.828638 228 255 20 0.622457
0.053098 -0.005574 0.827136 215 255 33 0.607297
0.051656 -0.005628 0.830311 215 255 33 0.609203
0.052882 -0.006047 0.819269 228 255 20 0.621630
0.055960 -0.005774 0.820889 202 255 46 0.591359
0.057281 -0.006398 0.817879 240 254 7 0.637868
0.054345 -0.006709 0.816298 228 255 20 0.621345
0.049992 -0.006293 0.817678 228 255 20 0.621312
0.051435 -0.007002 0.814739 224 255 24 0.620983
0.047134 -0.006566 0.816080 224 255 24 0.620990
0.045599 -0.006268 0.819183 221 255 27 0.613508
0.042721 -0.006583 0.817595 224 255 24 0.621057
0.048555 -0.007296 0.813159 224 255 24 0.620622
0.044254 -0.006901 0.814516 224 255 24 0.620777
0.045683 -0.007675 0.811624 224 255 24 0.620442
0.041169 -0.006425 0.820675 228 255 20 0.621503
0.054954 -0.005451 0.831991 228 255 20 0.622347
0.056243 -0.005333 0.828702 228 255 20 0.622203
0.059623 -0.005007 0.830360 228 255 20 0.622147
0.058282 -0.005244 0.833658 228 255 20 0.622032
0.060917 -0.004911 0.827068 228 255 20 0.622315
0.062976 -0.004763 0.832019 228 255 20 0.622150
0.064267 -0.004634 0.828713 228 255 20 0.622268
0.061658 -0.004990 0.835309 228 255 20 0.621778
0.065477 -0.004748 0.825520 231 255 17 0.625830
0.066833 -0.005255 0.822432 228 255 20 0.622193
0.062296 -0.005041 0.823954 228 255 20 0.622237
0.063646 -0.005606 0.820900 228 255 20 0.622148
0.059132 -0.005393 0.822408 228 255 20 0.622104
0.057748 -0.005193 0.825502 228 255 20 0.622257
0.060456 -0.005973 0.819384 234 255 14 0.632177
0.069791 -0.014464 0.813005 224 255 24 0.620581
0.069168 -0.011444 0.814776 228 255 20 0.621502
0.066151 -0.011849 0.813368 228 255 20 0.621270
0.066809 -0.014882 0.811583 224 255 24 0.620113
0.065291 -0.009318 0.815590 228 255 20 0.621685
0.063159 -0.012283 0.811972 224 255 24 0.620991
0.062286 -0.009725 0.814186 228 255 20 0.621469
0.059277 -0.010161 0.812810 224 255 24 0.621057
0.063848 -0.015317 0.810167 224 255 24 0.619688
0.060159 -0.012734 0.810605 224 255 24 0.620479
0.060873 -0.015740 0.808755 224 255 24 0.619211
0.061325 -0.007586 0.816618 228 255 20 0.621731
0.058335 -0.008030 0.815245 228 255 20 0.621455
0.064533 -0.007179 0.818110 228 255 20 0.621966
0.067724 -0.006790 0.819635 228 255 20 0.622133
0.068465 -0.008915 0.817123 228 255 20 0.621822
0.058113 -0.016127 0.807262 224 255 24 0.618820
0.057216 -0.013112 0.809071 224 255 24 0.620016
0.054490 -0.013499 0.807596 224 255 24 0.619555
0.055383 -0.016507 0.805800 224 255 24 0.618358
0.053465 -0.010866 0.809686 224 255 24 0.620252
0.051771 -0.013879 0.806156 224 255 24 0.619291
0.050765 -0.011199 0.808207 224 255 24 0.620086
0.048048 -0.011593 0.806760 221 255 27 0.614299
0.052690 -0.016901 0.804342 224 255 24 0.618020
0.049061 -0.014257 0.804726 234 255 14 0.629551
0.049998 -0.017301 0.802899 224 255 24 0.617823
0.049605 -0.009049 0.810565 224 255 24 0.620303
0.046885 -0.009415 0.809121 224 255 24 0.620054
0.052487 -0.008684 0.812105 224 255 24 0.620646
0.055387 -0.008361 0.813686 224 255 24 0.621050
0.056346 -0.010524 0.811259 224 255 24 0.620655
0.075821 -0.017424 0.814266 224 255 24 0.618628
0.078958 -0.016935 0.815670 224 255 24 0.619001
0.078692 -0.021165 0.814416 221 255 27 0.614782
0.082060 -0.016471 0.817063 224 255 24 0.619250
0.081761 -0.020740 0.815899 221 255 27 0.615477
0.084804 -0.020280 0.817347 234 255 14 0.629219
0.085118 -0.016071 0.818441 224 255 24 0.619104
0.081408 -0.025207 0.814845 211 255 36 0.603925
0.084388 -0.024862 0.816420 215 255 33 0.605970
0.084068 -0.029322 0.815345 192 255 56 0.579896
0.081327 -0.029533 0.813801 182 255 66 0.569425
0.078558 -0.025519 0.813455 208 255 40 0.600820
0.078556 -0.029773 0.812276 182 255 66 0.569371
0.075748 -0.025827 0.812031 224 255 24 0.618058
0.075776 -0.021617 0.813123 221 255 27 0.613896
0.072859 -0.022001 0.811836 221 255 27 0.613393
0.075768 -0.030078 0.810759 189 255 59 0.575387
0.072897 -0.026180 0.810655 211 255 36 0.602995
0.072959 -0.030383 0.809229 255 217 0 0.676068
0.072844 -0.017878 0.813048 224 255 24 0.618292
0.088142 -0.015813 0.819563 224 255 24 0.619994
0.091328 -0.015369 0.820820 224 255 24 0.620361
0.090744 -0.019710 0.819802 224 255 24 0.618082
0.094479 -0.014958 0.822003 224 255 24 0.620893
0.093924 -0.019295 0.821072 224 255 24 0.619445
0.093170 -0.024085 0.820409 247 246 1 0.644541
0.092678 -0.028747 0.819739 208 255 40 0.600080
0.090255 -0.024301 0.819114 218 255 30 0.611238
0.089782 -0.028994 0.818384 205 255 43 0.594059
0.087336 -0.024586 0.817790 253 239 0 0.655892
0.087782 -0.020032 0.818606 224 255 24 0.617267
0.086931 -0.029166 0.816912 198 255 49 0.589187
0.091182 -0.047253 0.813847 211 255 36 0.604452
0.091270 -0.043197 0.815554 156 255 92 0.538191
0.088673 -0.043129 0.814005 179 255 69 0.564357
0.088563 -0.047186 0.812347 218 255 30 0.613152
0.088765 -0.038729 0.815668 163 255 85 0.545790
0.086016 -0.043039 0.812517 202 255 46 0.592327
0.086171 -0.038665 0.814120 143 255 104 0.522109
0.083531 -0.038651 0.812625 156 255 92 0.539000
0.085851 -0.047135 0.810896 224 255 24 0.618193
0.083346 -0.042995 0.810994 185 255 62 0.572641
0.083066 -0.047170 0.809532 228 255 20 0.622227
0.086328 -0.034124 0.815665 189 255 59 0.574354
0.083734 -0.034110 0.814175 166 255 82 0.547645
0.089124 -0.034019 0.817329 172 255 75 0.554997
0.091908 -0.033928 0.818952 211 255 36 0.602037
0.091482 -0.038736 0.817473 195 255 53 0.582573
0.080288 -0.047317 0.808215 228 255 20 0.623512
0.080509 -0.043210 0.809332 224 255 24 0.618087
0.077793 -0.043371 0.807991 228 255 20 0.621652
0.077482 -0.047480 0.806930 228 255 20 0.623787
0.077996 -0.038993 0.809310 208 255 40 0.601303
0.075020 -0.043573 0.806746 228 255 20 0.623951
0.075322 -0.039199 0.807903 218 255 30 0.610841
0.072623 -0.039388 0.806609 221 255 27 0.616657
0.074589 -0.047749 0.805786 231 255 17 0.625610
0.072189 -0.043871 0.805574 228 255 20 0.624255
0.071664 -0.048139 0.804698 231 255 17 0.628048
0.075473 -0.034735 0.809302 192 255 56 0.578217
0.072812 -0.034954 0.807928 202 255 46 0.593743
0.078262 -0.034451 0.810899 169 255 79 0.551220
0.080996 -0.034213 0.812519 150 255 98 0.529075
0.080790 -0.038791 0.810935 192 255 56 0.579719
0.087998 -0.003384 0.851740 211 255 36 0.602115
0.084423 -0.003939 0.849945 221 255 27 0.616498
0.083151 -0.004665 0.853025 224 255 24 0.620774
0.081026 -0.004331 0.848342 224 255 24 0.617507
0.079729 -0.004952 0.851414 228 255 20 0.621296
0.076265 -0.005159 0.849854 228 255 20 0.621407
0.077568 -0.004616 0.846742 224 255 24 0.618737
0.078419 -0.005395 0.854458 228 255 20 0.621833
0.074951 -0.005503 0.852875 228 255 20 0.621892
0.073680 -0.005496 0.855779 228 255 20 0.621718
0.077207 -0.005574 0.857445 228 255 20 0.621812
0.081928 -0.005312 0.856192 228 255 20 0.622075
0.080775 -0.005632 0.859230 228 255 20 0.622345
0.085760 -0.004999 0.858182 218 255 30 0.610982
0.086865 -0.004275 0.855012 224 255 24 0.619226
0.084721 -0.005474 0.861276 228 255 20 0.622779
0.074109 -0.004810 0.845101 224 255 24 0.620234
0.070672 -0.004974 0.843487 228 255 20 0.621290
0.069283 -0.005450 0.846594 228 255 20 0.622192
0.067160 -0.005192 0.841864 228 255 20 0.621858
0.065759 -0.005569 0.844980 228 255 20 0.622371
0.062183 -0.005668 0.843307 228 255 20 0.622650
0.063566 -0.005402 0.840204 228 255 20 0.622466
0.064410 -0.005544 0.847901 228 255 20 0.622161
0.060866 -0.005576 0.846218 228 255 20 0.622379
0.059630 -0.005034 0.848940 228 255 20 0.621735
0.063222 -0.005124 0.850719 228 255 20 0.621619
0.067985 -0.005558 0.849631 228 255 20 0.621971
0.066762 -0.005226 0.852474 228 255 20 0.621542
0.071520 -0.005552 0.851284 228 255 20 0.621818
0.072818 -0.005330 0.848232 228 255 20 0.621868
0.070269 -0.005354 0.854138 228 255 20 0.621473
0.059406 -0.002669 0.858097 221 255 27 0.616575
0.062889 -0.003064 0.859947 221 255 27 0.616913
0.064102 -0.004062 0.857560 224 255 24 0.619564
0.066266 -0.003513 0.861738 224 255 24 0.618030
0.067522 -0.004435 0.859321 224 255 24 0.619999
0.070915 -0.004870 0.861059 224 255 24 0.620325
0.069632 -0.004022 0.863513 224 255 24 0.619315
0.068870 -0.005094 0.856782 224 255 24 0.620908
0.072269 -0.005412 0.858490 224 255 24 0.621009
0.065400 -0.004819 0.855094 224 255 24 0.620826
0.061879 -0.004616 0.853328 218 255 30 0.611968
0.060615 -0.003765 0.855785 228 255 20 0.621910
0.057079 -0.003529 0.853972 224 255 24 0.619879
0.058317 -0.004438 0.851528 224 255 24 0.621086
0.055893 -0.002358 0.856266 221 255 27 0.615901
0.073137 -0.004516 0.865289 224 255 24 0.620478
0.076703 -0.005012 0.867181 228 255 20 0.621646
0.078016 -0.005580 0.864608 228 255 20 0.622148
0.080802 -0.005324 0.869377 228 255 20 0.622778
0.082047 -0.005747 0.866775 228 255 20 0.622877
0.083386 -0.005810 0.864069 228 255 20 0.622869
0.079383 -0.005821 0.861992 215 255 33 0.605902
0.075793 -0.005659 0.860194 228 255 20 0.621473
0.074432 -0.005265 0.862798 228 255 20 0.621250
0.033641 -0.126660 0.862737 228 255 20 0.622727
0.035614 -0.127594 0.859321 218 255 30 0.611235
0.039276 -0.127151 0.856942 218 255 30 0.611421
0.041345 -0.127416 0.853565 215 255 33 0.607953
0.045006 -0.126659 0.851288 218 255 30 0.610396
0.041767 -0.128326 0.849137 211 255 36 0.605375
0.044688 -0.125834 0.855750 221 255 27 0.614070
0.048326 -0.125325 0.853497 215 255 33 0.608502
0.042766 -0.125556 0.859079 211 255 36 0.603653
0.040892 -0.125234 0.862412 224 255 24 0.618053
0.037268 -0.125186 0.864731 224 255 24 0.617720
0.040937 -0.124101 0.866832 224 255 24 0.620448
0.043674 -0.127313 0.845923 211 255 36 0.604816
0.047059 -0.125216 0.843769 195 255 53 0.585619
0.048909 -0.123824 0.840561 218 255 30 0.611073
0.051969 -0.122676 0.842591 221 255 27 0.615287
0.050176 -0.123915 0.845827 221 255 27 0.614643
0.048393 -0.124974 0.849067 221 255 27 0.613723
0.055149 -0.123229 0.849063 224 255 24 0.618264
0.053521 -0.124074 0.852525 208 255 40 0.599152
0.051910 -0.124891 0.855949 211 255 36 0.605272
0.055191 -0.122047 0.844584 224 255 24 0.617393
0.051968 -0.124782 0.860543 228 255 20 0.622056
0.050291 -0.124581 0.863928 228 255 20 0.622918
0.048336 -0.124547 0.862660 228 255 20 0.621208
0.048594 -0.124245 0.867294 228 255 20 0.622737
0.046614 -0.124264 0.866030 228 255 20 0.621868
0.044880 -0.123772 0.869327 228 255 20 0.622490
0.046890 -0.123961 0.870634 228 255 20 0.623183
0.044631 -0.124361 0.864755 215 255 33 0.605752
0.042925 -0.123878 0.868103 228 255 20 0.621893
0.048292 -0.124922 0.858069 228 255 20 0.624171
0.021067 -0.114621 0.884514 234 255 14 0.632109
0.024746 -0.115335 0.882381 224 255 24 0.617834
0.026464 -0.116787 0.879296 224 255 24 0.618098
0.030065 -0.118417 0.877299 224 255 24 0.618607
0.026294 -0.119352 0.875387 224 255 24 0.618446
0.030258 -0.116423 0.881370 215 255 33 0.606748
0.033877 -0.118190 0.879379 224 255 24 0.618444
0.028594 -0.115158 0.884512 224 255 24 0.617843
0.026811 -0.114292 0.887729 224 255 24 0.617737
0.028085 -0.121194 0.872329 240 254 7 0.639007
0.031712 -0.122341 0.870178 224 255 24 0.619310
0.033559 -0.124215 0.866950 224 255 24 0.617764
0.037227 -0.123031 0.868955 224 255 24 0.619766
0.035465 -0.121422 0.872115 224 255 24 0.620081
0.033681 -0.119694 0.875205 224 255 24 0.619370
0.045132 -0.122888 0.873769 228 255 20 0.622416
0.043389 -0.121718 0.876853 224 255 24 0.620005
0.041370 -0.121555 0.875646 224 255 24 0.620580
0.041664 -0.120715 0.879988 224 255 24 0.618243
0.039644 -0.120270 0.878736 224 255 24 0.618901
0.037929 -0.119117 0.881909 224 255 24 0.617768
0.039902 -0.119721 0.883121 205 255 43 0.595514
0.037573 -0.119829 0.877488 224 255 24 0.619245
0.035902 -0.118578 0.880636 224 255 24 0.618383
0.039353 -0.121222 0.874347 224 255 24 0.620709
0.041073 -0.122439 0.871187 228 255 20 0.621685
0.043128 -0.122696 0.872497 228 255 20 0.621677
0.038114 -0.118577 0.886268 221 255 27 0.616206
0.036325 -0.117628 0.889439 221 255 27 0.616634
0.034427 -0.116666 0.888196 221 255 27 0.616607
0.034434 -0.117107 0.892757 221 255 27 0.616562
0.032591 -0.115920 0.891437 224 255 24 0.617325
0.030670 -0.115095 0.890138 224 255 24 0.617463
0.032494 -0.115829 0.886866 224 255 24 0.617558
0.034213 -0.117035 0.883717 224 255 24 0.617680
0.036175 -0.117681 0.884980 221 255 27 0.616575
0.073655 -0.052386 0.805336 234 255 14 0.630652
0.076624 -0.052074 0.806397 234 255 14 0.629525
0.075789 -0.056505 0.805933 234 255 14 0.632476
0.079565 -0.051784 0.807527 231 255 17 0.626524
0.078724 -0.056270 0.807014 234 255 14 0.629979
0.081709 -0.055999 0.808114 234 255 14 0.629319
0.082406 -0.051670 0.808804 228 255 20 0.623850
0.078056 -0.060586 0.806452 234 255 14 0.631341
0.081012 -0.060360 0.807471 234 255 14 0.631244
0.080421 -0.064564 0.806960 234 255 14 0.629225
0.077661 -0.064739 0.806117 234 255 14 0.629593
0.075340 -0.060747 0.805574 234 255 14 0.632746
0.074956 -0.064875 0.805356 234 255 14 0.629118
0.072734 -0.060886 0.804665 237 255 11 0.632925
0.073147 -0.056721 0.805000 237 255 11 0.633097
0.070579 -0.056843 0.804003 234 255 14 0.631624
0.072318 -0.064998 0.804532 231 255 17 0.628782
0.070127 -0.061053 0.803796 234 255 14 0.630722
0.069778 -0.065081 0.803698 231 255 17 0.626796
0.071086 -0.052479 0.804291 234 255 14 0.631294
0.085044 -0.051714 0.809976 228 255 20 0.622763
0.087875 -0.051670 0.811303 224 255 24 0.620141
0.087072 -0.056060 0.810365 231 255 17 0.625269
0.090657 -0.051669 0.812523 224 255 24 0.620995
0.089936 -0.055989 0.811627 228 255 20 0.621605
0.089131 -0.060291 0.810633 231 255 17 0.627580
0.088594 -0.064343 0.809785 231 255 17 0.627122
0.086489 -0.060197 0.809540 231 255 17 0.628346
0.085944 -0.064312 0.808759 231 255 17 0.628487
0.083794 -0.060244 0.808486 234 255 14 0.630659
0.084501 -0.055981 0.809139 231 255 17 0.626469
0.083130 -0.064414 0.807905 244 250 4 0.641642
0.085697 -0.077385 0.809607 234 255 14 0.628997
0.082503 -0.081246 0.809179 231 255 17 0.626162
0.083886 -0.073275 0.808907 237 255 11 0.633925
0.080644 -0.077322 0.808556 231 255 17 0.628462
0.078834 -0.073191 0.807607 234 255 14 0.630546
0.077525 -0.080943 0.808255 228 255 20 0.623665
0.082028 -0.069003 0.808102 234 255 14 0.632198
0.084805 -0.068859 0.808887 234 255 14 0.631854
0.087598 -0.068765 0.809639 234 255 14 0.629937
0.086623 -0.073143 0.809596 234 255 14 0.630743
0.075554 -0.077227 0.807462 231 255 17 0.626152
0.072656 -0.080551 0.807260 255 228 0 0.665668
0.073502 -0.073285 0.806434 231 255 17 0.627440
0.070733 -0.076934 0.806247 255 232 0 0.662098
0.068778 -0.073130 0.805015 228 255 20 0.621873
0.067855 -0.080119 0.806013 224 255 24 0.618980
0.071609 -0.069256 0.805110 231 255 17 0.627184
0.074173 -0.069183 0.805904 234 255 14 0.629453
0.076858 -0.069130 0.806513 234 255 14 0.629971
0.076148 -0.073259 0.806998 255 220 0 0.672616
0.069398 -0.083677 0.807747 234 255 14 0.630250
0.070927 -0.087104 0.809220 228 255 20 0.621423
0.074254 -0.084133 0.808813 224 255 24 0.620307
0.075826 -0.087632 0.810169 244 250 4 0.644028
0.072451 -0.090526 0.810364 228 255 20 0.622249
0.073984 -0.093967 0.811174 228 255 20 0.622997
0.069415 -0.093326 0.810004 228 255 20 0.623440
0.067871 -0.089966 0.809040 228 255 20 0.623728
0.066334 -0.086577 0.807869 228 255 20 0.622808
0.064961 -0.092768 0.808542 228 255 20 0.624805
0.079038 -0.084706 0.809688 228 255 20 0.623735
0.080518 -0.088403 0.810948 211 255 36 0.602615
0.083938 -0.085138 0.810457 231 255 17 0.628057
0.079668 -0.091705 0.811450 228 255 20 0.622186
0.078678 -0.094907 0.811750 228 255 20 0.621973
0.074499 -0.103574 0.814920 224 255 24 0.620936
0.075876 -0.100679 0.813945 228 255 20 0.624014
0.071488 -0.099493 0.813286 228 255 20 0.622784
0.070199 -0.102409 0.814275 215 255 33 0.606043
0.075011 -0.097253 0.812616 228 255 20 0.622216
0.079636 -0.098348 0.813074 228 255 20 0.621900
0.066029 -0.101654 0.813435 228 255 20 0.622966
0.067065 -0.098713 0.812382 228 255 20 0.623651
0.062896 -0.098130 0.811020 228 255 20 0.624781
0.061872 -0.100986 0.812376 228 255 20 0.624518
0.066043 -0.095744 0.810512 228 255 20 0.624584
0.070498 -0.096342 0.811828 228 255 20 0.623303
0.086386 -0.140614 0.925308 195 255 53 0.584631
0.088234 -0.139816 0.926885 205 255 43 0.594634
0.087746 -0.141665 0.922811 205 255 43 0.596909
0.089550 -0.140856 0.924388 198 255 49 0.589829
0.090901 -0.141877 0.921901 198 255 49 0.589117
0.089054 -0.142673 0.920284 202 255 46 0.589882
0.091385 -0.140255 0.926004 211 255 36 0.602873
0.092712 -0.141263 0.923526 208 255 40 0.598980
0.094591 -0.140845 0.925198 211 255 36 0.603142
0.092513 -0.139361 0.928817 208 255 40 0.599715
0.089306 -0.138725 0.929624 221 255 27 0.617126
0.091835 -0.144663 0.915613 198 255 49 0.589135
0.093217 -0.143425 0.918791 202 255 46 0.592074
0.093523 -0.145844 0.912504 202 255 46 0.593596
0.094858 -0.144625 0.915700 218 255 30 0.612421
0.096568 -0.145772 0.912582 205 255 43 0.596978
0.095219 -0.146957 0.909381 205 255 43 0.596765
0.096291 -0.143616 0.918908 208 255 40 0.598545
0.097969 -0.144775 0.915799 208 255 40 0.598566
0.099369 -0.143977 0.918984 215 255 33 0.605538
0.096998 -0.142442 0.922135 208 255 40 0.599408
0.106875 -0.137820 0.927792 255 206 0 0.690087
0.103423 -0.138483 0.926968 255 198 0 0.696190
0.104875 -0.136808 0.929632 255 224 0 0.670230
0.100352 -0.139143 0.926306 231 255 17 0.628531
0.101525 -0.137431 0.928812 240 254 7 0.639896
0.098467 -0.138086 0.928141 234 255 14 0.630478
0.102890 -0.135759 0.931420 240 254 7 0.639745
0.097445 -0.139924 0.925736 218 255 30 0.613145
0.099896 -0.141494 0.922670 218 255 30 0.610485
0.102793 -0.140669 0.923188 255 232 0 0.660460
0.099505 -0.136200 0.931527 228 255 20 0.622380
0.101357 -0.134845 0.933575 237 255 11 0.633620
0.096355 -0.136640 0.931726 234 255 14 0.632387
0.098009 -0.135242 0.933662 237 255 11 0.636300
0.094398 -0.137926 0.930236 247 246 1 0.646323
0.109207 -0.135476 0.929297 255 235 0 0.659532
0.106364 -0.134077 0.931637 255 213 0 0.683101
0.104077 -0.132737 0.934274 253 239 0 0.654408
0.106377 -0.139773 0.924349 237 255 11 0.635190
0.106062 -0.141734 0.921012 218 255 30 0.610460
0.102604 -0.142785 0.919954 211 255 36 0.602988
0.102419 -0.144969 0.916716 211 255 36 0.602972
0.105822 -0.143760 0.917733 218 255 30 0.609384
0.105585 -0.145847 0.914445 211 255 36 0.604203
0.108454 -0.142397 0.919432 218 255 30 0.609602
0.108880 -0.140461 0.922846 247 246 1 0.644601
0.109472 -0.138552 0.926378 255 165 0 0.730805
0.112001 -0.139259 0.924874 255 228 0 0.664072
0.100459 -0.145262 0.914602 211 255 36 0.603347
0.099091 -0.146147 0.911413 231 255 17 0.626236
0.101642 -0.146504 0.910235 211 255 36 0.602771
0.097705 -0.147208 0.908204 218 255 30 0.610665
0.100235 -0.147458 0.907029 211 255 36 0.602042
0.098772 -0.148655 0.903832 211 255 36 0.602962
0.096279 -0.148496 0.905001 215 255 33 0.608799
0.102752 -0.147703 0.905834 221 255 27 0.616518
0.101267 -0.148806 0.902644 211 255 36 0.604778
0.103743 -0.148973 0.901442 218 255 30 0.610988
0.104725 -0.147183 0.907938 215 255 33 0.605919
0.103557 -0.146088 0.912320 211 255 36 0.603810
0.111173 -0.149170 0.898440 218 255 30 0.609588
0.111467 -0.148311 0.901625 218 255 30 0.609724
0.110144 -0.147497 0.905627 228 255 20 0.621508
0.110343 -0.146893 0.908864 231 255 17 0.627382
0.108892 -0.146240 0.912937 215 255 33 0.608956
0.112137 -0.146583 0.911316 218 255 30 0.610702
0.107077 -0.146636 0.910420 215 255 33 0.606525
0.106121 -0.148064 0.903932 215 255 33 0.607843
0.107449 -0.149044 0.899959 224 255 24 0.621017
0.113244 -0.144912 0.913979 215 255 33 0.605503
0.113219 -0.143102 0.917370 221 255 27 0.615673
0.114534 -0.141544 0.920208 237 255 11 0.633324
0.111878 -0.141119 0.921381 240 254 7 0.637365
0.108638 -0.144311 0.916156 228 255 20 0.621321
0.124082 -0.146284 0.908208 215 255 33 0.607500
0.122570 -0.146622 0.905262 205 255 43 0.597385
0.123756 -0.146781 0.902075 224 255 24 0.619024
0.123547 -0.147187 0.898984 215 255 33 0.609363
0.124639 -0.147536 0.895878 221 255 27 0.615395
0.122118 -0.147956 0.896122 218 255 30 0.610111
0.126294 -0.146816 0.898811 218 255 30 0.610402
0.127364 -0.147109 0.895688 215 255 33 0.608084
0.126427 -0.146499 0.901727 231 255 17 0.626253
0.126553 -0.146292 0.904692 224 255 24 0.619235
0.128851 -0.146597 0.898498 228 255 20 0.622541
0.129988 -0.146808 0.895603 224 255 24 0.617623
0.128785 -0.140200 0.872130 244 250 4 0.643962
0.126465 -0.142205 0.875596 240 254 7 0.638598
0.125324 -0.143807 0.879040 247 246 1 0.645043
0.122898 -0.145726 0.882572 237 255 11 0.633222
0.125435 -0.145163 0.882437 221 255 27 0.615957
0.122751 -0.144474 0.879121 228 255 20 0.623925
0.120280 -0.146334 0.882619 240 254 7 0.638527
0.123803 -0.142861 0.875505 231 255 17 0.626362
0.124781 -0.141241 0.871919 231 255 17 0.626867
0.124704 -0.145661 0.885853 224 255 24 0.618388
0.122705 -0.146493 0.889497 240 254 7 0.640324
0.121783 -0.147227 0.892909 221 255 27 0.613595
0.119579 -0.148309 0.896509 221 255 27 0.616408
0.119322 -0.147654 0.893289 228 255 20 0.622224
0.117089 -0.148725 0.896871 228 255 20 0.623581
0.120179 -0.146945 0.889751 224 255 24 0.617425
0.120893 -0.146407 0.886168 224 255 24 0.619332
0.112026 -0.148368 0.894696 218 255 30 0.612368
0.114396 -0.147601 0.890773 224 255 24 0.617489
0.115018 -0.147175 0.886991 211 255 36 0.604831
0.117177 -0.146736 0.883010 224 255 24 0.618855
0.114077 -0.147223 0.883377 228 255 20 0.622511
0.118110 -0.146812 0.886586 224 255 24 0.620165
0.117445 -0.147312 0.890212 237 255 11 0.632844
0.116590 -0.147965 0.893765 234 255 14 0.631051
0.114137 -0.148922 0.897692 221 255 27 0.616917
0.115185 -0.145752 0.879508 224 255 24 0.620443
0.117799 -0.144045 0.875712 228 255 20 0.624514
0.118781 -0.142537 0.871906 228 255 20 0.622793
0.121878 -0.141908 0.871978 231 255 17 0.625740
0.120917 -0.143455 0.875593 205 255 43 0.594343
0.119878 -0.144995 0.879199 228 255 20 0.623453
0.121056 -0.147500 0.899412 224 255 24 0.620347
0.121175 -0.147039 0.902436 215 255 33 0.609174
0.120107 -0.146752 0.905826 231 255 17 0.628123
0.120211 -0.146468 0.908962 215 255 33 0.606676
0.117713 -0.146615 0.909512 228 255 20 0.621151
0.117491 -0.146975 0.906241 221 255 27 0.614645
0.118637 -0.147271 0.902901 224 255 24 0.617607
0.118423 -0.147831 0.899755 218 255 30 0.610031
0.122629 -0.144923 0.911449 218 255 30 0.612184
0.119771 -0.143607 0.915027 215 255 33 0.608623
0.119979 -0.145061 0.911987 218 255 30 0.610966
0.117415 -0.141810 0.919209 221 255 27 0.615719
0.115988 -0.143337 0.916332 211 255 36 0.605031
0.116114 -0.144971 0.913114 215 255 33 0.606574
0.114882 -0.146596 0.910418 218 255 30 0.609751
0.113466 -0.146988 0.907652 237 255 11 0.633848
0.113176 -0.147522 0.904404 221 255 27 0.614819
0.114468 -0.148112 0.900848 221 255 27 0.615011
0.115962 -0.147449 0.903512 234 255 14 0.631587
0.106603 -0.145074 0.873264 218 255 30 0.611028
0.106325 -0.145552 0.877287 218 255 30 0.611459
0.109164 -0.144337 0.873044 218 255 30 0.612627
0.109324 -0.145196 0.877066 221 255 27 0.615583
0.106385 -0.146345 0.881341 215 255 33 0.609309
0.106681 -0.147609 0.885344 215 255 33 0.609074
0.104830 -0.147499 0.885653 224 255 24 0.617865
0.104673 -0.146446 0.881629 211 255 36 0.603624
0.103098 -0.147515 0.885969 211 255 36 0.604041
0.103104 -0.146693 0.881941 231 255 17 0.626925
0.104893 -0.145901 0.877605 218 255 30 0.612292
0.101453 -0.147683 0.886326 211 255 36 0.602715
0.112347 -0.143760 0.872446 221 255 27 0.615009
0.112893 -0.144699 0.876083 228 255 20 0.622321
0.115595 -0.143151 0.872039 255 220 0 0.675326
0.111694 -0.146003 0.880228 224 255 24 0.618211
0.110361 -0.147342 0.884372 221 255 27 0.614856
0.108335 -0.148328 0.895981 211 255 36 0.603377
0.109120 -0.147839 0.891988 218 255 30 0.613101
0.105412 -0.147853 0.893412 211 255 36 0.604881
0.104633 -0.148313 0.897432 221 255 27 0.613726
0.107915 -0.147572 0.888684 218 255 30 0.612293
0.111604 -0.147424 0.887665 247 246 1 0.645806
0.102766 -0.148015 0.897779 228 255 20 0.622107
0.100273 -0.147921 0.898949 234 255 14 0.629560
0.101727 -0.147424 0.894078 202 255 46 0.591641
0.097812 -0.147867 0.900142 228 255 20 0.621833
0.099314 -0.147414 0.895280 198 255 49 0.588576
0.100678 -0.147352 0.890377 202 255 46 0.593175
0.102385 -0.147320 0.890016 205 255 43 0.595952
0.104186 -0.147418 0.889686 215 255 33 0.607704
0.103566 -0.147609 0.893751 211 255 36 0.604853
0.133411 -0.145493 0.892238 208 255 40 0.597986
0.134106 -0.144591 0.889046 208 255 40 0.601561
0.136101 -0.143747 0.885873 224 255 24 0.618893
0.138156 -0.142850 0.882762 221 255 27 0.616661
0.135490 -0.143084 0.882709 224 255 24 0.618584
0.136668 -0.141327 0.879483 228 255 20 0.622591
0.139219 -0.139600 0.876373 231 255 17 0.627158
0.140363 -0.137902 0.873210 234 255 14 0.631010
0.143203 -0.137743 0.873368 234 255 14 0.631393
0.139351 -0.141191 0.879547 228 255 20 0.624468
0.124261 -0.146827 0.892700 234 255 14 0.630404
0.125096 -0.146034 0.889290 221 255 27 0.615693
0.127039 -0.145118 0.885822 218 255 30 0.611046
0.127759 -0.144535 0.882412 224 255 24 0.618310
0.130297 -0.143956 0.882464 221 255 27 0.616909
0.129554 -0.144603 0.885706 221 255 27 0.617178
0.127527 -0.145570 0.889105 231 255 17 0.626804
0.126744 -0.146389 0.892416 218 255 30 0.611928
0.127765 -0.143229 0.879094 228 255 20 0.623738
0.128919 -0.141550 0.875676 228 255 20 0.624037
0.131205 -0.139564 0.872425 215 255 33 0.605547
0.133812 -0.138930 0.872631 250 243 0 0.649905
0.131287 -0.140909 0.875811 228 255 20 0.623019
0.130179 -0.142558 0.879121 228 255 20 0.621660
0.137698 -0.138291 0.873087 234 255 14 0.630741
0.136547 -0.139903 0.876254 231 255 17 0.627827
0.134067 -0.141827 0.879387 237 255 11 0.633349
0.132832 -0.143506 0.882585 224 255 24 0.618268
0.133904 -0.140373 0.876020 231 255 17 0.625478
0.133477 -0.144023 0.885918 221 255 27 0.616800
0.131481 -0.145003 0.889154 224 255 24 0.618076
0.130762 -0.145848 0.892358 221 255 27 0.614952
-0.064242 -0.081723 0.717831 228 255 20 0.624924
-0.062116 -0.081139 0.718982 202 255 46 0.593617
-0.059413 -0.081512 0.719374 192 255 56 0.579725
-0.057361 -0.080862 0.720571 224 255 24 0.619602
-0.054781 -0.081196 0.720955 237 255 11 0.635270
-0.056010 -0.079142 0.722464 198 255 49 0.589645
-0.056033 -0.082787 0.718892 224 255 24 0.618750
-0.053397 -0.083037 0.719141 224 255 24 0.617807
-0.057117 -0.084244 0.716708 224 255 24 0.620765
-0.059889 -0.083988 0.716403 228 255 20 0.622704
-0.062635 -0.083625 0.716035 228 255 20 0.624886
-0.060972 -0.085325 0.714199 218 255 30 0.612336
-0.053860 -0.079000 0.723752 224 255 24 0.617578
-0.051375 -0.079700 0.724324 221 255 27 0.616710
-0.049269 -0.079484 0.725612 192 255 56 0.578806
-0.046784 -0.080081 0.725952 221 255 27 0.615955
-0.047805 -0.082213 0.723114 221 255 27 0.615326
-0.052187 -0.081901 0.721401 224 255 24 0.617418
-0.043626 -0.084941 0.721463 221 255 27 0.616600
-0.046017 -0.084572 0.721014 195 255 53 0.583937
-0.046900 -0.085637 0.718768 221 255 27 0.616354
-0.049329 -0.085180 0.718184 221 255 27 0.616715
-0.050219 -0.086080 0.715884 224 255 24 0.618346
-0.049061 -0.083371 0.721186 185 255 62 0.574202
-0.045385 -0.082697 0.723698 221 255 27 0.614805
-0.052822 -0.086043 0.715571 224 255 24 0.619508
-0.053562 -0.087275 0.713285 215 255 33 0.608629
-0.056291 -0.087141 0.712960 228 255 20 0.623351
-0.059096 -0.086919 0.712590 228 255 20 0.624117
-0.057145 -0.088389 0.710864 228 255 20 0.623605
-0.058239 -0.085600 0.714700 228 255 20 0.623178
-0.009741 -0.092314 0.748879 224 255 24 0.620712
-0.007776 -0.094943 0.750470 224 255 24 0.619561
-0.006241 -0.098079 0.751915 224 255 24 0.619065
-0.004782 -0.101384 0.753917 224 255 24 0.618486
-0.004014 -0.105297 0.755616 224 255 24 0.618667
-0.008711 -0.096184 0.749033 224 255 24 0.620037
-0.010634 -0.093808 0.747419 224 255 24 0.620698
-0.003904 -0.108839 0.758510 218 255 30 0.610252
-0.004733 -0.112763 0.759824 231 255 17 0.627418
-0.005637 -0.116838 0.761486 228 255 20 0.621457
-0.006801 -0.120844 0.762255 228 255 20 0.622114
-0.004877 -0.109167 0.756659 224 255 24 0.619340
-0.007662 -0.120158 0.759513 202 255 46 0.592852
-0.006692 -0.116480 0.758366 228 255 20 0.621639
-0.005766 -0.112818 0.757221 228 255 20 0.623610
-0.004801 -0.105823 0.753741 224 255 24 0.618967
-0.005941 -0.102614 0.751341 224 255 24 0.618941
-0.007290 -0.099446 0.749797 224 255 24 0.619220
-0.005277 -0.109443 0.754247 224 255 24 0.619511
-0.006937 -0.119611 0.757336 228 255 20 0.622188
-0.005460 -0.112832 0.754802 224 255 24 0.620390
-0.005872 -0.116153 0.755840 228 255 20 0.621376
-0.004481 -0.106284 0.750854 224 255 24 0.619093
-0.011350 -0.096582 0.743493 228 255 20 0.621230
-0.009363 -0.098394 0.745495 224 255 24 0.620486
-0.007545 -0.100575 0.747597 224 255 24 0.619620
-0.005840 -0.103209 0.749151 224 255 24 0.619118
-0.011311 -0.095436 0.745515 224 255 24 0.621090
-0.008587 -0.124816 0.764304 228 255 20 0.622186
-0.010979 -0.128134 0.764273 228 255 20 0.622012
-0.013243 -0.131563 0.765125 237 255 11 0.632974
-0.015576 -0.134625 0.765093 224 255 24 0.620694
-0.009511 -0.123948 0.761984 218 255 30 0.611070
-0.018397 -0.137806 0.767102 224 255 24 0.619058
-0.021347 -0.139491 0.766507 224 255 24 0.618159
-0.024244 -0.141683 0.766925 224 255 24 0.617896
-0.027098 -0.143152 0.766342 224 255 24 0.617279
-0.024391 -0.140265 0.764041 221 255 27 0.616799
-0.021596 -0.138204 0.763908 224 255 24 0.618422
-0.018608 -0.136431 0.764498 224 255 24 0.619621
-0.026707 -0.140891 0.761543 221 255 27 0.613465
-0.024170 -0.138834 0.761505 224 255 24 0.617901
-0.021449 -0.136815 0.761421 224 255 24 0.618933
-0.018695 -0.135031 0.762026 221 255 27 0.615278
-0.015939 -0.133048 0.762501 228 255 20 0.621253
-0.013922 -0.129416 0.761004 228 255 20 0.622401
-0.011735 -0.126651 0.761035 228 255 20 0.622705
-0.024742 -0.138235 0.756961 224 255 24 0.618785
-0.022395 -0.136171 0.757200 224 255 24 0.620028
-0.020027 -0.134604 0.757893 231 255 17 0.625702
-0.017491 -0.132592 0.758109 228 255 20 0.621569
-0.015003 -0.130902 0.758831 228 255 20 0.622413
-0.023519 -0.137494 0.759189 224 255 24 0.618925
-0.026014 -0.139433 0.759144 224 255 24 0.617355
-0.012581 -0.127742 0.757779 211 255 36 0.605381
-0.010710 -0.125217 0.757826 228 255 20 0.622954
-0.008800 -0.122340 0.757443 228 255 20 0.622857
-0.009582 -0.123132 0.759641 228 255 20 0.622724
-0.044578 -0.146085 0.748925 215 255 33 0.608433
-0.042283 -0.145145 0.750137 218 255 30 0.610010
-0.040389 -0.144516 0.751926 240 254 7 0.640279
-0.037946 -0.143904 0.753115 218 255 30 0.611419
-0.035899 -0.143612 0.754928 218 255 30 0.611046
-0.039480 -0.144732 0.755298 218 255 30 0.610692
-0.042157 -0.145330 0.754191 218 255 30 0.611676
-0.044109 -0.145859 0.752358 218 255 30 0.610453
-0.046670 -0.146808 0.751318 218 255 30 0.613039
-0.032658 -0.141691 0.754345 221 255 27 0.614193
-0.030446 -0.140874 0.755798 221 255 27 0.615294
-0.027899 -0.139559 0.756637 221 255 27 0.616838
-0.034226 -0.142968 0.757013 218 255 30 0.613149
-0.029706 -0.141958 0.761029 221 255 27 0.615289
-0.032331 -0.142670 0.759774 221 255 27 0.614346
-0.037405 -0.144884 0.757891 218 255 30 0.612630
-0.035388 -0.144106 0.759931 221 255 27 0.613602
-0.040958 -0.145881 0.758433 221 255 27 0.615468
-0.043354 -0.146194 0.756624 221 255 27 0.615235
-0.046248 -0.146799 0.755666 221 255 27 0.615988
-0.048512 -0.147396 0.753821 221 255 27 0.616986
-0.033017 -0.143724 0.762123 221 255 27 0.613436
-0.030150 -0.143344 0.763924 221 255 27 0.616300
-0.036040 -0.145071 0.762375 221 255 27 0.616473
-0.038924 -0.146503 0.762588 255 224 0 0.670027
-0.038300 -0.145618 0.760190 221 255 27 0.615404
-0.033429 -0.145259 0.765910 224 255 24 0.619081
-0.030212 -0.144807 0.767154 240 254 7 0.637147
-0.036515 -0.146731 0.766683 224 255 24 0.620206
-0.039639 -0.148015 0.767444 224 255 24 0.620784
-0.039300 -0.147312 0.765029 224 255 24 0.620270
-0.052786 -0.148428 0.764636 228 255 20 0.621247
-0.049281 -0.148101 0.764135 228 255 20 0.621220
-0.052054 -0.148357 0.762019 228 255 20 0.621155
-0.045778 -0.147735 0.763636 224 255 24 0.620745
-0.048510 -0.147874 0.761465 224 255 24 0.620768
-0.045055 -0.147306 0.760942 224 255 24 0.619626
-0.051224 -0.148192 0.759286 221 255 27 0.616901
-0.042301 -0.147191 0.763119 221 255 27 0.613398
-0.042747 -0.147762 0.765534 224 255 24 0.620595
-0.046236 -0.148119 0.766010 224 255 24 0.620959
-0.047481 -0.147364 0.758380 224 255 24 0.619240
-0.050005 -0.147860 0.756487 224 255 24 0.619143
-0.047577 -0.141961 0.715441 224 255 24 0.620082
-0.047451 -0.143351 0.718892 224 255 24 0.620335
-0.047409 -0.144826 0.722330 224 255 24 0.620457
-0.044654 -0.144087 0.719580 215 255 33 0.606799
-0.050323 -0.144071 0.721723 224 255 24 0.620723
-0.053640 -0.143112 0.720854 228 255 20 0.621332
-0.050499 -0.142501 0.718095 224 255 24 0.620444
-0.053811 -0.141525 0.717259 224 255 24 0.620841
-0.042538 -0.145124 0.722329 224 255 24 0.619880
-0.044751 -0.145621 0.725369 224 255 24 0.620307
-0.041945 -0.145840 0.725955 224 255 24 0.620070
-0.039165 -0.146024 0.726607 224 255 24 0.619532
-0.044199 -0.146369 0.729024 224 255 24 0.620177
-0.047243 -0.146137 0.728315 224 255 24 0.618224
-0.049913 -0.145307 0.725293 224 255 24 0.621043
-0.051221 -0.147248 0.732883 228 255 20 0.621213
-0.052803 -0.146197 0.729028 228 255 20 0.621603
-0.054442 -0.145016 0.725198 228 255 20 0.621958
-0.055973 -0.145763 0.728125 228 255 20 0.622252
-0.049832 -0.146489 0.729826 228 255 20 0.621122
-0.058929 -0.144175 0.724944 228 255 20 0.622866
-0.056782 -0.143203 0.722216 228 255 20 0.622405
-0.059881 -0.142166 0.721207 228 255 20 0.623240
-0.063020 -0.141156 0.720112 221 255 27 0.616617
-0.057764 -0.141294 0.718455 221 255 27 0.615584
-0.030836 -0.082023 0.736220 224 255 24 0.620294
-0.032958 -0.082306 0.734700 224 255 24 0.619937
-0.034863 -0.082478 0.733012 224 255 24 0.619665
-0.030896 -0.084238 0.734343 224 255 24 0.620662
-0.032866 -0.084444 0.732653 255 232 0 0.660737
-0.036694 -0.082429 0.731177 224 255 24 0.618729
-0.038480 -0.082282 0.729236 224 255 24 0.618197
-0.038966 -0.079718 0.731358 221 255 27 0.617182
-0.037131 -0.079847 0.733316 224 255 24 0.618537
-0.034051 -0.085188 0.730094 224 255 24 0.619406
-0.030404 -0.086493 0.731745 224 255 24 0.620421
-0.031955 -0.086578 0.729827 224 255 24 0.620217
-0.035586 -0.085134 0.728254 224 255 24 0.618915
-0.037010 -0.084948 0.726253 208 255 40 0.599085
-0.042977 -0.083741 0.724287 221 255 27 0.616610
-0.042230 -0.082289 0.726991 228 255 20 0.624173
-0.039484 -0.083846 0.726724 224 255 24 0.617726
-0.040288 -0.085023 0.723859 221 255 27 0.616986
-0.044754 -0.080404 0.727297 221 255 27 0.617100
-0.042994 -0.079631 0.729227 221 255 27 0.616764
-0.041201 -0.078767 0.731021 221 255 27 0.617012
-0.012833 -0.090469 0.747079 228 255 20 0.621516
-0.015875 -0.088848 0.745582 228 255 20 0.621784
-0.018642 -0.087182 0.744103 228 255 20 0.622195
-0.021237 -0.085453 0.742690 228 255 20 0.622166
-0.020401 -0.083333 0.744095 228 255 20 0.622793
-0.017824 -0.085057 0.745526 228 255 20 0.622749
-0.013719 -0.092180 0.745628 228 255 20 0.621690
-0.016702 -0.090847 0.744012 228 255 20 0.622164
-0.019541 -0.089421 0.742558 228 255 20 0.622335
-0.021890 -0.087973 0.740793 228 255 20 0.622027
-0.028751 -0.083136 0.738060 228 255 20 0.624266
-0.026442 -0.084003 0.739674 224 255 24 0.620970
-0.030264 -0.079076 0.738150 224 255 24 0.620056
-0.028156 -0.080210 0.739880 224 255 24 0.620573
-0.023910 -0.084788 0.741200 228 255 20 0.621383
-0.029432 -0.075822 0.739949 228 255 20 0.621378
-0.025558 -0.080577 0.741942 228 255 20 0.621140
-0.027304 -0.077271 0.741661 228 255 20 0.621815
-0.022944 -0.081619 0.743311 228 255 20 0.621680
-0.034964 -0.079560 0.735101 208 255 40 0.597900
-0.038855 -0.076485 0.733491 221 255 27 0.616483
-0.036676 -0.076331 0.735337 224 255 24 0.617295
-0.034324 -0.076305 0.736985 224 255 24 0.618264
-0.032458 -0.078288 0.737309 224 255 24 0.619359
-0.043467 -0.076288 0.731536 221 255 27 0.615618
-0.045511 -0.077312 0.729532 221 255 27 0.616331
-0.047679 -0.075863 0.728961 189 255 59 0.574270
-0.045630 -0.074864 0.730979 221 255 27 0.614840
-0.047776 -0.073308 0.730323 221 255 27 0.613665
-0.040986 -0.075291 0.733156 221 255 27 0.616206
-0.047025 -0.068035 0.732736 221 255 27 0.614077
-0.044557 -0.068438 0.733920 218 255 30 0.612509
-0.042390 -0.069918 0.734463 153 255 95 0.533395
-0.039911 -0.070100 0.735403 221 255 27 0.614096
-0.037793 -0.071490 0.735711 221 255 27 0.615589
-0.042930 -0.072544 0.733373 195 255 53 0.582461
-0.045079 -0.070987 0.732879 218 255 30 0.612623
-0.047441 -0.070748 0.731663 218 255 30 0.612661
-0.035078 -0.070254 0.738067 224 255 24 0.617658
-0.033367 -0.072645 0.738735 189 255 59 0.575539
-0.031286 -0.073788 0.739785 224 255 24 0.619745
-0.014309 -0.093791 0.743908 228 255 20 0.621904
-0.017295 -0.092529 0.742217 228 255 20 0.622072
-0.019981 -0.091314 0.740475 228 255 20 0.622267
-0.022253 -0.089848 0.739024 228 255 20 0.621994
-0.017223 -0.093858 0.740156 228 255 20 0.622260
-0.014349 -0.095051 0.741772 228 255 20 0.622013
-0.028545 -0.088047 0.733231 224 255 24 0.620878
-0.026695 -0.088991 0.735298 218 255 30 0.611101
-0.024568 -0.089422 0.737206 228 255 20 0.621506
-0.028968 -0.086001 0.735665 228 255 20 0.621350
-0.026850 -0.086833 0.737555 228 255 20 0.621161
-0.024477 -0.087444 0.739267 228 255 20 0.621559
-0.026740 -0.089798 0.725634 224 255 24 0.620012
-0.027973 -0.089751 0.721437 224 255 24 0.619647
-0.025852 -0.090238 0.722251 224 255 24 0.619847
-0.023598 -0.090511 0.722981 224 255 24 0.620229
-0.029156 -0.089538 0.717227 224 255 24 0.619318
-0.030246 -0.089150 0.720828 224 255 24 0.619258
-0.032413 -0.088308 0.720160 224 255 24 0.619034
-0.021998 -0.090245 0.719869 224 255 24 0.619905
-0.020188 -0.089634 0.716666 224 255 24 0.618873
-0.018934 -0.090035 0.720613 224 255 24 0.620026
-0.023165 -0.089767 0.716032 224 255 24 0.618933
-0.026180 -0.089611 0.715469 224 255 24 0.618895
-0.028645 -0.091285 0.708832 224 255 24 0.618603
-0.030224 -0.090640 0.711704 244 250 4 0.640706
-0.031863 -0.090069 0.714743 224 255 24 0.619032
