ply
format ascii 1.0
comment VCGLIB generated
element vertex 980
property float x
property float y
property float z
property uchar red
property uchar green
property uchar blue
property float quality
end_header
-0.017107 -0.091189 0.705233 43 255 205 0.398820
-0.009134 -0.089322 0.708354 43 255 205 0.398778
-0.005640 -0.089425 0.707648 43 255 205 0.398659
-0.002237 -0.089630 0.707034 43 255 205 0.398665
-0.019918 -0.090993 0.705986 43 255 205 0.398841
-0.022841 -0.091023 0.706966 43 255 205 0.398893
-0.019795 -0.089912 0.709338 43 255 205 0.398856
-0.025668 -0.091125 0.708050 43 255 205 0.398981
-0.016993 -0.089857 0.708446 43 255 205 0.398860
-0.037718 -0.088309 0.718566 43 255 205 0.399121
-0.037817 -0.087476 0.721472 43 255 205 0.398733
-0.039913 -0.087809 0.717970 43 255 205 0.399075
-0.035535 -0.087785 0.721843 43 255 205 0.398864
-0.040466 -0.086439 0.721696 40 255 208 0.398253
-0.037340 -0.086438 0.724239 40 255 208 0.398434
-0.032513 -0.087496 0.727920 43 255 205 0.399822
-0.029028 -0.088582 0.729701 43 255 205 0.400636
-0.033299 -0.087765 0.725176 43 255 205 0.399475
-0.029625 -0.089080 0.727071 43 255 205 0.400063
-0.038648 -0.090707 0.711410 43 255 205 0.400513
-0.038355 -0.092012 0.708766 43 255 205 0.400315
-0.040542 -0.092074 0.708077 43 255 205 0.400642
-0.040920 -0.090782 0.710835 43 255 205 0.400843
-0.043232 -0.090782 0.710243 36 255 211 0.393068
-0.033950 -0.092062 0.708433 43 255 205 0.399708
-0.031185 -0.091745 0.708843 59 255 189 0.419499
-0.032460 -0.093432 0.705974 43 255 205 0.399470
-0.035270 -0.093701 0.705470 43 255 205 0.399693
-0.038859 -0.097867 0.701850 43 255 205 0.399998
-0.040580 -0.096002 0.703556 43 255 205 0.400391
-0.042375 -0.094182 0.705497 43 255 205 0.400817
-0.043560 -0.096354 0.703167 43 255 205 0.400727
-0.039418 -0.093789 0.705820 43 255 205 0.400394
-0.037741 -0.095541 0.703800 43 255 205 0.400029
-0.046203 -0.095356 0.704220 43 255 205 0.401199
-0.046722 -0.093547 0.706288 43 255 205 0.401580
-0.049292 -0.093661 0.705702 43 255 205 0.402079
-0.042774 -0.092389 0.707678 43 255 205 0.401033
-0.050010 -0.088031 0.713354 43 255 205 0.401885
-0.047548 -0.088152 0.713987 43 255 205 0.401293
-0.050779 -0.089264 0.711313 46 255 202 0.402440
-0.053431 -0.089229 0.710882 27 255 221 0.380191
-0.054198 -0.090512 0.708983 36 255 211 0.394262
-0.043693 -0.086673 0.719076 40 255 208 0.398182
-0.043687 -0.088105 0.716022 43 255 205 0.399602
-0.039840 -0.089038 0.715016 43 255 205 0.400179
-0.043541 -0.089460 0.713107 43 255 205 0.400850
-0.045595 -0.090896 0.709689 43 255 205 0.401753
-0.048072 -0.091082 0.709141 43 255 205 0.399236
-0.050587 -0.091091 0.708627 43 255 205 0.402300
0.017435 -0.097580 0.731814 40 255 208 0.396727
0.018659 -0.100529 0.733806 40 255 208 0.394996
0.015799 -0.099998 0.734786 40 255 208 0.395017
0.014610 -0.097293 0.732767 40 255 208 0.396671
0.017023 -0.103022 0.736715 36 255 211 0.393476
0.012813 -0.099516 0.735509 36 255 211 0.393909
0.014151 -0.102416 0.737482 36 255 211 0.391419
0.011367 -0.102070 0.738425 36 255 211 0.390971
0.011433 -0.096887 0.733482 40 255 208 0.396300
0.009878 -0.099285 0.736331 36 255 211 0.393715
0.008370 -0.096747 0.734229 40 255 208 0.396123
0.015414 -0.105485 0.739431 30 255 218 0.383433
0.012686 -0.105065 0.740444 33 255 215 0.388237
0.013854 -0.108199 0.742358 33 255 215 0.388638
0.016308 -0.108550 0.741347 36 255 211 0.391062
0.017867 -0.105961 0.738558 36 255 211 0.391141
0.018614 -0.109022 0.740341 36 255 211 0.392369
0.020258 -0.106368 0.737510 36 255 211 0.393122
0.019482 -0.103431 0.735674 36 255 211 0.393071
0.020974 -0.109349 0.739295 36 255 211 0.393457
0.005596 -0.099259 0.737858 40 255 208 0.396482
0.003753 -0.096855 0.735739 40 255 208 0.398150
0.007365 -0.101894 0.739917 40 255 208 0.395016
0.002898 -0.101761 0.741443 40 255 208 0.397929
0.001033 -0.099263 0.739381 43 255 205 0.398857
-0.001006 -0.097024 0.737342 43 255 205 0.399771
0.006759 -0.104671 0.742648 40 255 208 0.396605
0.005867 -0.107487 0.745322 43 255 205 0.398747
0.009862 -0.107793 0.743844 36 255 211 0.392808
0.006460 -0.120308 0.750632 40 255 208 0.396174
0.008575 -0.117388 0.748655 40 255 208 0.395446
0.010286 -0.120883 0.749217 40 255 208 0.395944
0.010471 -0.114325 0.746638 36 255 211 0.391704
0.012401 -0.117854 0.747265 53 255 195 0.411298
0.014355 -0.114794 0.745192 33 255 215 0.388262
0.014191 -0.121348 0.747735 46 255 202 0.404863
0.012280 -0.111312 0.744561 33 255 215 0.389791
0.008236 -0.110802 0.746000 36 255 211 0.394393
0.006435 -0.113798 0.748060 40 255 208 0.396385
0.016891 -0.118464 0.745303 17 250 231 0.370701
0.019039 -0.121776 0.745131 40 255 208 0.396742
0.019143 -0.115473 0.742842 36 255 211 0.393394
0.018937 -0.112270 0.741643 36 255 211 0.392339
0.016642 -0.111840 0.742755 36 255 211 0.391522
0.016856 -0.115155 0.744046 36 255 211 0.392657
-0.016986 -0.090869 0.723105 43 255 205 0.400453
-0.016904 -0.091976 0.725845 43 255 205 0.400585
-0.020354 -0.091484 0.724734 43 255 205 0.400410
-0.020251 -0.092467 0.727424 43 255 205 0.400576
-0.016676 -0.092775 0.728580 43 255 205 0.400903
-0.016216 -0.093359 0.731193 40 255 208 0.396854
-0.012936 -0.092553 0.729795 43 255 205 0.401204
-0.013328 -0.091798 0.727203 43 255 205 0.400932
-0.013530 -0.090879 0.724449 43 255 205 0.400720
-0.009810 -0.091944 0.728559 43 255 205 0.400963
-0.023450 -0.091617 0.726827 43 255 205 0.400372
-0.023225 -0.092164 0.729889 43 255 205 0.400534
-0.020501 -0.093090 0.731031 43 255 205 0.400968
-0.019122 -0.093379 0.733334 43 255 205 0.398492
-0.008487 -0.097565 0.740801 43 255 205 0.400850
-0.010619 -0.096396 0.738475 43 255 205 0.400990
-0.012679 -0.095306 0.736087 43 255 205 0.401252
-0.006023 -0.097340 0.739396 43 255 205 0.400611
-0.014561 -0.094368 0.733672 43 255 205 0.401149
-0.007135 -0.095984 0.736808 43 255 205 0.400821
-0.008193 -0.094617 0.734092 43 255 205 0.401105
-0.003357 -0.095526 0.735102 43 255 205 0.400434
-0.009080 -0.093287 0.731322 43 255 205 0.401103
0.007186 -0.088874 0.717390 43 255 205 0.399143
0.003751 -0.088713 0.717977 43 255 205 0.399186
0.005445 -0.089377 0.720153 43 255 205 0.399240
0.000266 -0.088665 0.718685 43 255 205 0.399179
0.001927 -0.089280 0.720800 43 255 205 0.399261
-0.001780 -0.089380 0.721587 53 255 195 0.411536
-0.003359 -0.088771 0.719535 43 255 205 0.399338
0.003645 -0.089997 0.722928 43 255 205 0.399255
-0.000120 -0.090001 0.723646 43 255 205 0.399536
0.001637 -0.090668 0.725706 43 255 205 0.400545
0.008660 -0.090645 0.724164 43 255 205 0.399068
0.010342 -0.090090 0.721422 43 255 205 0.399017
-0.009360 -0.089377 0.720832 43 255 205 0.399438
-0.007553 -0.089977 0.722893 43 255 205 0.399698
-0.012288 -0.089681 0.721518 43 255 205 0.399690
-0.010576 -0.090404 0.723686 43 255 205 0.401125
-0.008721 -0.090998 0.725802 43 255 205 0.400600
-0.004136 -0.091139 0.726949 43 255 205 0.400223
0.001801 -0.095283 0.733610 43 255 205 0.399110
-0.000233 -0.094006 0.731491 43 255 205 0.399811
0.004876 -0.093482 0.729918 40 255 208 0.398373
0.006612 -0.095079 0.732072 40 255 208 0.397068
0.000570 -0.092348 0.728544 43 255 205 0.399598
-0.004974 -0.092691 0.730031 43 255 205 0.400751
0.009947 -0.095361 0.731450 40 255 208 0.396940
0.013191 -0.095567 0.730732 40 255 208 0.397270
0.011766 -0.094025 0.728658 40 255 208 0.397873
0.016081 -0.095769 0.729866 43 255 205 0.399716
0.014685 -0.094150 0.727754 40 255 208 0.397810
0.013409 -0.092573 0.725681 40 255 208 0.398401
0.010185 -0.092269 0.726417 43 255 205 0.398447
0.006774 -0.092066 0.727089 43 255 205 0.398711
0.008400 -0.093699 0.729355 40 255 208 0.397766
-0.025392 -0.091088 0.728774 43 255 205 0.400401
-0.025211 -0.091297 0.732414 43 255 205 0.400818
-0.022643 -0.092402 0.733413 43 255 205 0.401095
-0.020980 -0.092764 0.735696 43 255 205 0.401363
-0.027279 -0.089988 0.731369 43 255 205 0.400821
-0.023902 -0.091362 0.735760 43 255 205 0.401150
-0.018923 -0.093766 0.737837 43 255 205 0.401570
-0.015080 -0.095263 0.737985 43 255 205 0.401377
-0.017270 -0.094440 0.735698 43 255 205 0.401539
-0.002598 -0.099340 0.740840 43 255 205 0.399864
-0.000551 -0.101681 0.742896 43 255 205 0.398912
0.001186 -0.104380 0.744870 43 255 205 0.398510
0.001404 -0.107115 0.747257 36 255 211 0.393591
-0.003045 -0.101708 0.744013 43 255 205 0.399488
-0.005652 -0.099378 0.742378 43 255 205 0.400350
-0.001865 -0.104254 0.746367 43 255 205 0.399131
-0.001029 -0.107096 0.748639 36 255 211 0.393043
-0.001753 -0.119927 0.754124 43 255 205 0.401009
-0.000481 -0.116604 0.752538 43 255 205 0.400159
0.000396 -0.113361 0.750813 43 255 205 0.399378
0.001648 -0.119925 0.752678 43 255 205 0.400420
0.001006 -0.110146 0.749074 43 255 205 0.398891
0.002959 -0.116726 0.750869 43 255 205 0.399540
0.005083 -0.110455 0.747211 40 255 208 0.397381
0.002968 -0.113495 0.749569 43 255 205 0.398862
-0.005565 -0.101418 0.745735 43 255 205 0.399785
-0.003193 -0.112956 0.753190 43 255 205 0.400144
-0.004491 -0.119601 0.755796 43 255 205 0.400525
-0.003303 -0.109709 0.751965 43 255 205 0.399432
-0.003208 -0.116358 0.754125 43 255 205 0.400719
0.013882 -0.137575 0.742723 43 255 205 0.399122
0.012474 -0.135811 0.744559 43 255 205 0.399239
0.016548 -0.133900 0.744006 40 255 208 0.395058
0.015220 -0.132095 0.745821 17 250 231 0.370056
0.010949 -0.133998 0.746436 43 255 205 0.399126
0.009511 -0.131991 0.748340 43 255 205 0.398929
0.005841 -0.135881 0.747022 43 255 205 0.400031
0.007417 -0.137826 0.745214 43 255 205 0.400155
0.009063 -0.139626 0.743374 43 255 205 0.399953
0.002116 -0.139544 0.745538 43 255 205 0.400869
0.018908 -0.129492 0.744398 40 255 208 0.397875
0.017399 -0.126924 0.745439 40 255 208 0.397206
0.020563 -0.124529 0.744113 40 255 208 0.397261
0.015794 -0.124297 0.746604 40 255 208 0.396254
0.013113 -0.124118 0.748030 40 255 208 0.396011
0.014669 -0.126918 0.746813 40 255 208 0.396962
0.011908 -0.126760 0.748163 40 255 208 0.396385
0.005053 -0.123145 0.751090 43 255 205 0.398893
0.005787 -0.126120 0.750639 43 255 205 0.398838
0.004248 -0.128809 0.750849 43 255 205 0.399684
0.004934 -0.131614 0.750218 43 255 205 0.399649
0.000165 -0.131219 0.751920 43 255 205 0.400820
0.008679 -0.129199 0.749073 40 255 208 0.398122
0.009190 -0.123562 0.749519 40 255 208 0.396283
-0.002390 -0.133032 0.751233 43 255 205 0.401224
-0.004944 -0.134664 0.750533 43 255 205 0.401165
0.000917 -0.135373 0.748710 43 255 205 0.400545
-0.001476 -0.137111 0.747981 43 255 205 0.400370
-0.003890 -0.138751 0.747230 43 255 205 0.401052
-0.007652 -0.136087 0.749838 43 255 205 0.401056
-0.010356 -0.137446 0.749202 43 255 205 0.401013
-0.008343 -0.133951 0.751604 43 255 205 0.401410
-0.005589 -0.132516 0.752256 43 255 205 0.401536
-0.002926 -0.130861 0.752932 43 255 205 0.401472
-0.006226 -0.130310 0.753916 43 255 205 0.401752
-0.009078 -0.131868 0.753316 59 255 189 0.421144
-0.011887 -0.133355 0.752748 43 255 205 0.401730
-0.011248 -0.135341 0.750974 43 255 205 0.401356
-0.013893 -0.136827 0.750356 43 255 205 0.400762
-0.014501 -0.134954 0.752152 43 255 205 0.401858
-0.016909 -0.136548 0.751519 43 255 205 0.400677
0.002347 -0.125848 0.751905 43 255 205 0.400431
-0.000049 -0.122803 0.753188 43 255 205 0.401010
-0.002114 -0.125451 0.753591 43 255 205 0.401577
-0.000913 -0.128413 0.752775 43 255 205 0.401280
-0.004224 -0.127951 0.753813 43 255 205 0.401726
-0.003967 -0.122625 0.754686 53 255 195 0.410476
-0.006122 -0.125123 0.754956 43 255 205 0.402305
-0.008031 -0.127619 0.755204 43 255 205 0.402254
-0.010001 -0.129950 0.755325 43 255 205 0.402162
-0.012773 -0.131616 0.754823 43 255 205 0.402305
-0.015448 -0.133199 0.754254 43 255 205 0.401778
-0.017917 -0.134872 0.753797 43 255 205 0.401360
-0.020272 -0.136582 0.753299 43 255 205 0.400528
-0.013092 -0.130030 0.757295 46 255 202 0.402456
-0.008778 -0.124807 0.756503 46 255 202 0.402590
-0.006720 -0.122237 0.756162 43 255 205 0.402326
-0.022772 -0.137158 0.755358 43 255 205 0.399723
-0.020451 -0.135264 0.755698 43 255 205 0.400809
-0.018314 -0.133567 0.756548 43 255 205 0.401107
-0.015327 -0.131721 0.756504 43 255 205 0.401886
-0.037516 -0.144353 0.744158 62 255 185 0.423502
-0.039806 -0.145355 0.740851 36 255 211 0.394448
-0.042083 -0.146426 0.737615 43 255 205 0.398502
-0.042636 -0.146175 0.740291 17 250 231 0.370615
-0.039268 -0.145589 0.738117 40 255 208 0.396624
-0.036710 -0.144844 0.738965 40 255 208 0.395199
-0.037140 -0.144554 0.741553 36 255 211 0.393245
-0.034551 -0.143824 0.742360 36 255 211 0.393889
-0.045936 -0.147018 0.737614 43 255 205 0.399685
-0.045004 -0.146792 0.734714 43 255 205 0.400245
-0.047955 -0.147101 0.734048 43 255 205 0.400956
-0.042702 -0.146407 0.733292 43 255 205 0.400099
-0.037743 -0.146029 0.730874 40 255 208 0.398258
-0.036649 -0.145850 0.734620 43 255 205 0.398867
-0.034806 -0.145872 0.731630 43 255 205 0.399600
-0.039594 -0.146101 0.733923 43 255 205 0.399592
-0.040735 -0.146281 0.730153 43 255 205 0.400323
-0.031989 -0.145192 0.734607 43 255 205 0.398974
-0.033546 -0.144636 0.737408 40 255 208 0.397296
-0.030559 -0.144044 0.738268 40 255 208 0.396926
-0.027503 -0.143551 0.739088 40 255 208 0.397342
-0.032046 -0.143641 0.741045 40 255 208 0.394881
-0.033723 -0.142416 0.752907 36 255 211 0.393545
-0.030715 -0.140873 0.753133 40 255 208 0.396766
-0.028284 -0.139832 0.754016 40 255 208 0.397215
-0.025904 -0.138489 0.754973 43 255 205 0.398488
-0.038258 -0.143643 0.750463 36 255 211 0.394163
-0.039734 -0.144493 0.748649 36 255 211 0.391497
-0.041996 -0.145459 0.747409 36 255 211 0.391187
-0.035420 -0.142808 0.751039 36 255 211 0.394399
-0.035637 -0.143374 0.745443 36 255 211 0.393230
-0.033658 -0.142537 0.746731 40 255 208 0.395435
-0.033213 -0.142026 0.749225 40 255 208 0.395536
-0.031080 -0.141390 0.750495 40 255 208 0.394682
-0.036071 -0.143034 0.748510 36 255 211 0.394224
-0.027442 -0.139867 0.750339 40 255 208 0.397757
-0.025128 -0.138796 0.751294 53 255 195 0.410252
-0.022778 -0.137652 0.752326 43 255 205 0.399542
-0.052968 -0.148121 0.756255 43 255 205 0.400687
-0.056411 -0.148355 0.756178 43 255 205 0.401417
-0.054195 -0.148337 0.759042 46 255 202 0.406004
-0.059882 -0.148563 0.756097 43 255 205 0.401697
-0.063427 -0.148715 0.756084 43 255 205 0.401714
-0.061541 -0.148985 0.753047 43 255 205 0.401830
-0.057989 -0.148682 0.753090 43 255 205 0.401466
-0.055260 -0.148275 0.761807 43 255 205 0.401613
-0.058580 -0.148126 0.760858 43 255 205 0.401495
-0.059464 -0.147943 0.763496 43 255 205 0.401155
-0.056099 -0.148140 0.764428 43 255 205 0.401465
-0.062353 -0.147942 0.761234 43 255 205 0.400975
-0.066165 -0.147733 0.761593 43 255 205 0.400375
-0.064852 -0.148250 0.758893 43 255 205 0.401447
-0.061003 -0.148384 0.758462 43 255 205 0.401546
-0.078540 -0.146410 0.757051 20 254 228 0.372807
-0.074835 -0.146893 0.756723 43 255 205 0.401428
-0.076692 -0.147136 0.754241 43 255 205 0.401531
-0.071075 -0.147521 0.756449 46 255 202 0.406249
-0.072936 -0.147691 0.753931 43 255 205 0.401684
-0.069095 -0.148259 0.753618 43 255 205 0.401708
-0.074738 -0.147891 0.751318 43 255 205 0.401638
-0.067272 -0.148139 0.756253 49 255 198 0.407689
-0.068639 -0.147612 0.759031 43 255 205 0.400919
-0.072467 -0.146928 0.759256 43 255 205 0.400675
-0.071270 -0.148219 0.751442 43 255 205 0.401830
-0.073012 -0.148265 0.749149 43 255 205 0.401889
-0.069588 -0.148589 0.749286 43 255 205 0.402105
-0.066941 -0.148704 0.750511 43 255 205 0.402052
-0.071303 -0.148585 0.746950 43 255 205 0.402042
-0.064333 -0.148800 0.751769 43 255 205 0.402000
-0.000539 -0.145484 0.733777 43 255 205 0.400368
-0.002187 -0.144969 0.736130 43 255 205 0.400866
0.003158 -0.144420 0.736536 43 255 205 0.400344
0.001468 -0.143928 0.738883 43 255 205 0.400753
-0.004105 -0.144322 0.738501 43 255 205 0.401158
-0.006058 -0.143460 0.740823 43 255 205 0.401236
-0.010528 -0.144184 0.738077 43 255 205 0.401139
-0.008262 -0.145181 0.735710 43 255 205 0.401075
-0.006344 -0.145896 0.733352 43 255 205 0.400917
-0.014897 -0.145014 0.735442 43 255 205 0.400853
0.007148 -0.142868 0.738958 43 255 205 0.400037
0.005532 -0.141852 0.741206 43 255 205 0.400249
0.010551 -0.140619 0.741095 43 255 205 0.399707
0.003824 -0.140801 0.743378 43 255 205 0.400720
-0.002094 -0.141545 0.743147 43 255 205 0.401391
-0.000263 -0.142838 0.741037 49 255 198 0.406983
-0.012214 -0.139490 0.745892 43 255 205 0.400519
-0.015489 -0.138941 0.746813 43 255 205 0.400163
-0.008352 -0.140420 0.744900 43 255 205 0.400966
-0.013559 -0.141841 0.742694 43 255 205 0.400594
-0.016976 -0.141173 0.743712 43 255 205 0.399714
-0.020072 -0.140737 0.744643 56 255 192 0.416424
-0.009737 -0.142716 0.741696 43 255 205 0.401128
-0.021155 -0.142312 0.740944 43 255 205 0.399018
-0.024016 -0.141958 0.741844 40 255 208 0.398196
-0.017897 -0.142765 0.740017 43 255 205 0.399891
-0.022030 -0.144011 0.737331 43 255 205 0.399550
-0.024858 -0.143777 0.738202 43 255 205 0.398888
-0.018667 -0.144463 0.736431 43 255 205 0.400328
-0.014292 -0.143450 0.739055 43 255 205 0.400911
-0.026962 -0.141834 0.743147 40 255 208 0.396926
-0.023232 -0.140591 0.745946 40 255 208 0.398328
-0.026104 -0.140562 0.747287 40 255 208 0.397955
-0.028116 -0.141226 0.745935 43 255 205 0.401070
-0.029991 -0.141991 0.744532 40 255 208 0.395817
-0.028789 -0.142673 0.741768 40 255 208 0.396440
-0.018712 -0.138445 0.748095 43 255 205 0.399909
-0.019411 -0.137484 0.750489 43 255 205 0.400098
-0.021771 -0.138474 0.749383 43 255 205 0.399386
-0.021063 -0.139425 0.747000 43 255 205 0.398975
-0.024025 -0.139477 0.748303 40 255 208 0.397270
-0.030725 -0.141545 0.747525 40 255 208 0.395841
-0.032670 -0.142897 0.743711 46 255 202 0.404157
-0.014772 -0.146189 0.721743 53 255 195 0.413468
-0.017286 -0.146324 0.724415 43 255 205 0.400488
-0.011395 -0.146419 0.724771 43 255 205 0.400583
-0.013811 -0.146509 0.727337 43 255 205 0.400660
-0.020048 -0.146234 0.727036 43 255 205 0.400375
-0.022633 -0.146047 0.729623 43 255 205 0.400232
-0.025699 -0.146095 0.726626 43 255 205 0.400100
-0.023488 -0.146155 0.724088 43 255 205 0.400236
-0.020930 -0.146173 0.721455 43 255 205 0.400398
-0.028644 -0.146162 0.723654 43 255 205 0.400082
-0.007912 -0.146389 0.727793 56 255 192 0.415481
-0.009851 -0.146217 0.730312 43 255 205 0.400828
-0.004309 -0.146132 0.730830 43 255 205 0.400617
-0.012239 -0.145796 0.732907 43 255 205 0.400933
-0.018929 -0.145463 0.732554 43 255 205 0.400472
-0.016230 -0.146110 0.729963 43 255 205 0.400595
-0.027932 -0.144711 0.735243 43 255 205 0.399249
-0.025236 -0.144862 0.734373 43 255 205 0.401092
-0.028427 -0.145796 0.731455 43 255 205 0.399813
-0.030980 -0.145722 0.732291 43 255 205 0.399562
-0.023997 -0.145498 0.732019 43 255 205 0.400105
-0.033639 -0.145998 0.729217 43 255 205 0.399842
-0.031144 -0.145979 0.728426 43 255 205 0.399876
-0.033838 -0.146202 0.725340 53 255 195 0.411402
-0.036359 -0.146164 0.726186 43 255 205 0.400141
-0.029919 -0.146098 0.726046 53 255 195 0.410606
-0.027111 -0.146011 0.729058 43 255 205 0.399978
-0.046635 -0.146680 0.748468 36 255 211 0.393096
-0.048851 -0.147305 0.747371 40 255 208 0.395883
-0.046686 -0.146872 0.745777 40 255 208 0.394736
-0.048863 -0.147486 0.744686 7 238 240 0.358158
-0.051173 -0.148104 0.743601 43 255 205 0.399704
-0.051094 -0.147819 0.746281 17 250 231 0.368731
-0.053387 -0.148484 0.745161 43 255 205 0.400348
-0.048889 -0.147702 0.742009 43 255 205 0.399312
-0.056159 -0.148525 0.741695 43 255 205 0.401665
-0.059111 -0.148467 0.738321 33 255 215 0.389854
-0.059531 -0.148712 0.741240 43 255 205 0.402093
-0.055721 -0.148283 0.738723 43 255 205 0.401882
-0.052646 -0.148031 0.739295 43 255 205 0.400821
-0.048787 -0.147399 0.736948 43 255 205 0.400447
-0.046618 -0.147269 0.740534 43 255 205 0.398860
-0.051875 -0.147726 0.736371 43 255 205 0.401373
-0.055149 -0.148007 0.735850 43 255 205 0.402090
-0.042775 -0.145988 0.742848 27 255 221 0.381230
-0.040141 -0.145192 0.743478 36 255 211 0.391900
-0.059534 -0.148900 0.744176 43 255 205 0.401840
-0.056434 -0.148697 0.744670 53 255 195 0.412366
-0.056435 -0.148857 0.747620 43 255 205 0.401162
-0.059718 -0.149005 0.747146 43 255 205 0.401854
-0.062026 -0.149016 0.745849 43 255 205 0.402110
-0.061890 -0.148884 0.742888 43 255 205 0.402256
-0.064180 -0.148833 0.741599 46 255 202 0.402456
-0.064378 -0.148997 0.744574 46 255 202 0.402348
-0.066705 -0.148930 0.743259 33 255 215 0.387523
-0.048802 -0.147328 0.750835 40 255 208 0.396717
-0.051373 -0.147790 0.749789 40 255 208 0.398091
-0.053868 -0.148327 0.748685 43 255 205 0.399883
-0.054353 -0.148273 0.753249 43 255 205 0.400504
-0.059151 -0.149069 0.750254 43 255 205 0.401624
-0.050954 -0.147790 0.753425 1 230 247 0.348885
-0.062369 -0.149030 0.749849 43 255 205 0.401978
-0.064949 -0.148944 0.748534 43 255 205 0.402140
-0.067546 -0.148851 0.747266 43 255 205 0.402232
-0.069015 -0.148808 0.745102 43 255 205 0.402214
-0.076465 -0.146157 0.760179 17 250 231 0.367911
-0.074311 -0.145963 0.763295 43 255 205 0.398971
-0.070297 -0.146780 0.762444 40 255 208 0.398095
-0.068060 -0.146728 0.765650 40 255 208 0.394560
-0.072132 -0.145842 0.766394 36 255 211 0.391906
-0.069860 -0.145875 0.769543 33 255 215 0.387103
-0.076595 -0.144776 0.766981 69 255 179 0.433167
-0.078708 -0.144988 0.763954 46 255 202 0.404558
-0.080823 -0.145211 0.760907 46 255 202 0.403576
-0.083031 -0.144255 0.764597 46 255 202 0.405859
-0.063478 -0.147533 0.764539 43 255 205 0.399308
-0.060830 -0.147447 0.767517 43 255 205 0.398943
-0.057425 -0.147799 0.768451 43 255 205 0.400540
-0.054025 -0.148347 0.769412 43 255 205 0.401131
-0.055392 -0.147866 0.773413 43 255 205 0.400061
-0.059050 -0.147082 0.772431 40 255 208 0.396272
-0.062649 -0.146538 0.771471 33 255 215 0.389726
-0.065375 -0.146496 0.768531 36 255 211 0.391013
-0.061702 -0.145704 0.780288 36 255 211 0.391578
-0.065407 -0.145179 0.779206 40 255 208 0.396422
-0.064434 -0.145692 0.776640 33 255 215 0.389023
-0.069097 -0.144786 0.778110 43 255 205 0.398515
-0.068091 -0.145179 0.775567 40 255 208 0.395302
-0.071745 -0.144912 0.774543 40 255 208 0.396656
-0.072699 -0.144601 0.777089 43 255 205 0.399688
-0.067114 -0.145692 0.773076 33 255 215 0.387278
-0.070796 -0.145366 0.772073 36 255 211 0.391517
-0.063538 -0.146055 0.774079 30 255 218 0.385520
-0.059935 -0.146576 0.775050 36 255 211 0.390744
-0.060831 -0.146051 0.777618 33 255 215 0.389135
-0.057216 -0.146659 0.778629 36 255 211 0.393817
-0.056306 -0.147262 0.776029 40 255 208 0.397540
-0.058112 -0.146228 0.781288 36 255 211 0.393120
-0.076055 -0.144083 0.775702 43 255 205 0.401899
-0.079566 -0.143572 0.774252 46 255 202 0.405486
-0.078470 -0.143968 0.771916 46 255 202 0.404639
-0.082969 -0.143220 0.772824 49 255 198 0.408973
-0.081869 -0.143561 0.770518 49 255 198 0.408578
-0.085240 -0.143284 0.769175 49 255 198 0.409653
-0.086317 -0.142926 0.771448 69 255 179 0.431513
-0.080759 -0.144057 0.768233 49 255 198 0.407536
-0.084149 -0.143716 0.766900 66 255 182 0.425930
-0.077492 -0.144334 0.769473 0 214 255 0.332776
-0.074161 -0.144758 0.770726 40 255 208 0.397198
-0.075121 -0.144364 0.773183 43 255 205 0.400909
-0.006056 -0.088505 0.753428 43 255 205 0.399249
-0.009180 -0.086092 0.751665 46 255 202 0.403688
-0.012325 -0.083937 0.750089 43 255 205 0.401305
-0.007458 -0.090123 0.751836 43 255 205 0.399533
-0.010705 -0.087934 0.749942 43 255 205 0.400550
-0.015320 -0.081885 0.748686 43 255 205 0.402205
-0.018206 -0.079885 0.747304 46 255 202 0.403202
-0.016536 -0.077551 0.749049 49 255 198 0.407579
-0.013737 -0.079748 0.750394 43 255 205 0.402272
-0.014226 -0.086603 0.748021 43 255 205 0.401609
-0.028001 -0.072906 0.742173 46 255 202 0.403947
-0.025801 -0.074664 0.743942 43 255 205 0.401764
-0.023798 -0.077170 0.744883 43 255 205 0.401597
-0.026523 -0.070159 0.743648 46 255 202 0.404774
-0.021155 -0.078596 0.746151 46 255 202 0.402868
-0.024320 -0.072142 0.745580 49 255 198 0.408385
-0.021761 -0.073861 0.747064 49 255 198 0.406500
-0.024742 -0.067707 0.745308 40 255 208 0.397315
-0.022467 -0.069701 0.747179 36 255 211 0.392610
-0.019033 -0.075362 0.748423 49 255 198 0.408682
-0.020195 -0.125085 0.865518 40 255 208 0.396906
-0.019748 -0.127289 0.861401 40 255 208 0.395573
-0.023283 -0.125208 0.863880 40 255 208 0.397688
-0.022891 -0.127505 0.859751 40 255 208 0.396752
-0.019373 -0.130033 0.857445 30 255 218 0.386347
-0.019010 -0.132867 0.853539 40 255 208 0.396040
-0.015886 -0.132443 0.855297 36 255 211 0.394004
-0.016267 -0.129613 0.859177 30 255 218 0.386021
-0.016712 -0.127003 0.863175 36 255 211 0.393992
-0.012788 -0.132067 0.857002 36 255 211 0.391451
-0.026389 -0.125458 0.862116 40 255 208 0.398189
-0.026014 -0.127886 0.857955 40 255 208 0.397623
-0.029544 -0.125674 0.860414 43 255 205 0.398898
-0.029181 -0.128147 0.856273 40 255 208 0.398030
-0.025678 -0.130703 0.853964 49 255 198 0.409468
-0.025372 -0.133682 0.849966 40 255 208 0.398213
-0.022173 -0.133344 0.851778 62 255 185 0.422618
-0.022533 -0.130280 0.855734 49 255 198 0.407337
-0.016919 -0.140169 0.835971 43 255 205 0.399670
-0.017463 -0.138853 0.840451 36 255 211 0.392115
-0.013707 -0.139881 0.837864 43 255 205 0.399507
-0.017988 -0.137174 0.844957 43 255 205 0.399616
-0.014250 -0.138522 0.842403 43 255 205 0.399450
-0.014788 -0.136762 0.846910 43 255 205 0.399149
-0.010459 -0.139545 0.839794 43 255 205 0.399263
-0.018484 -0.135232 0.849327 43 255 205 0.398650
-0.021712 -0.135504 0.847508 43 255 205 0.399183
-0.021221 -0.137483 0.843125 43 255 205 0.399866
-0.011033 -0.138182 0.844297 43 255 205 0.399092
-0.007280 -0.139249 0.841749 43 255 205 0.399013
-0.011600 -0.136551 0.848719 43 255 205 0.398488
-0.007865 -0.137853 0.846244 43 255 205 0.398690
-0.008500 -0.136202 0.850622 40 255 208 0.397888
-0.004112 -0.138900 0.843640 43 255 205 0.398819
-0.012186 -0.134499 0.852954 40 255 208 0.396971
-0.015308 -0.134845 0.851197 40 255 208 0.397872
-0.032758 -0.125956 0.858655 43 255 205 0.399095
-0.032469 -0.128484 0.854424 40 255 208 0.398122
-0.036051 -0.126151 0.856892 43 255 205 0.399167
-0.035779 -0.128785 0.852719 40 255 208 0.397935
-0.032208 -0.131381 0.850358 40 255 208 0.396797
-0.031977 -0.134046 0.846180 40 255 208 0.397954
-0.028675 -0.133825 0.848070 43 255 205 0.398613
-0.028911 -0.130972 0.852188 40 255 208 0.396975
-0.039290 -0.126442 0.855151 43 255 205 0.399084
-0.038936 -0.129048 0.850941 40 255 208 0.396995
-0.042502 -0.126643 0.853449 43 255 205 0.398750
-0.042162 -0.129172 0.849234 40 255 208 0.396251
-0.038642 -0.131752 0.846795 36 255 211 0.394431
-0.038379 -0.134389 0.842621 46 255 202 0.403502
-0.035187 -0.134190 0.844383 40 255 208 0.397315
-0.035467 -0.131519 0.848568 40 255 208 0.395700
-0.029874 -0.141222 0.828776 43 255 205 0.400015
-0.030452 -0.139942 0.833136 43 255 205 0.400030
-0.026705 -0.140948 0.830477 36 255 211 0.391315
-0.031006 -0.138207 0.837488 43 255 205 0.399658
-0.027310 -0.139616 0.834894 43 255 205 0.399985
-0.027856 -0.137918 0.839315 43 255 205 0.399767
-0.023554 -0.140752 0.832215 43 255 205 0.399902
-0.031516 -0.136191 0.841832 43 255 205 0.398584
-0.034735 -0.136407 0.840081 43 255 205 0.398549
-0.034237 -0.138365 0.835806 43 255 205 0.399417
-0.024065 -0.139428 0.836644 43 255 205 0.399986
-0.020259 -0.140467 0.834062 43 255 205 0.399820
-0.024537 -0.137763 0.841121 43 255 205 0.399817
-0.020749 -0.139099 0.838564 43 255 205 0.399928
-0.024951 -0.135831 0.845591 53 255 195 0.412982
-0.028290 -0.135989 0.843701 43 255 205 0.399205
-0.045496 -0.126839 0.851795 40 255 208 0.398366
-0.044959 -0.129342 0.847642 40 255 208 0.395481
-0.048311 -0.126853 0.850230 40 255 208 0.397988
-0.047798 -0.129372 0.846115 40 255 208 0.395325
-0.044453 -0.131926 0.843550 36 255 211 0.392514
-0.043973 -0.134485 0.839481 36 255 211 0.391339
-0.041166 -0.134464 0.841058 36 255 211 0.393430
-0.041673 -0.131805 0.845131 36 255 211 0.393678
-0.051005 -0.127044 0.848752 40 255 208 0.397396
-0.050371 -0.129461 0.844655 40 255 208 0.395007
-0.053575 -0.127112 0.847340 40 255 208 0.397568
-0.052939 -0.129425 0.843251 36 255 211 0.393020
-0.049718 -0.132073 0.840686 27 255 221 0.379247
-0.049082 -0.134765 0.836794 36 255 211 0.391888
-0.046511 -0.134610 0.838137 36 255 211 0.391208
-0.047145 -0.131944 0.842058 23 255 224 0.375355
-0.040462 -0.141811 0.823251 43 255 205 0.400502
-0.041396 -0.140533 0.827412 43 255 205 0.400121
-0.037906 -0.141704 0.824566 43 255 205 0.400280
-0.042283 -0.138740 0.831446 43 255 205 0.399161
-0.038859 -0.140360 0.828731 43 255 205 0.399929
-0.039796 -0.138585 0.832787 43 255 205 0.399191
-0.035366 -0.141556 0.825871 43 255 205 0.400185
-0.043142 -0.136731 0.835446 40 255 208 0.397841
-0.045713 -0.136775 0.834105 40 255 208 0.397034
-0.044861 -0.138900 0.830169 43 255 205 0.399097
-0.036215 -0.140255 0.830056 43 255 205 0.399825
-0.032638 -0.141369 0.827303 43 255 205 0.400145
-0.036972 -0.138578 0.834275 43 255 205 0.399399
-0.033452 -0.140069 0.831563 43 255 205 0.399958
-0.037711 -0.136571 0.838426 56 255 192 0.415810
-0.040515 -0.136574 0.836881 40 255 208 0.397713
-0.049807 -0.148613 0.767987 43 255 205 0.401421
-0.046966 -0.148640 0.770573 43 255 205 0.401383
-0.043161 -0.148610 0.769434 43 255 205 0.401369
-0.040124 -0.149020 0.772102 43 255 205 0.401400
-0.043972 -0.148916 0.773275 43 255 205 0.401390
-0.040913 -0.149279 0.775914 43 255 205 0.401397
-0.048239 -0.148349 0.774626 30 255 218 0.386177
-0.051101 -0.148286 0.772027 43 255 205 0.401250
-0.036343 -0.148095 0.770160 43 255 205 0.401276
-0.033164 -0.147097 0.770406 43 255 205 0.401080
-0.029904 -0.146206 0.770571 43 255 205 0.401104
-0.026612 -0.146030 0.772438 43 255 205 0.401344
-0.029864 -0.147567 0.773920 43 255 205 0.401492
-0.026461 -0.147472 0.775714 43 255 205 0.401377
-0.033436 -0.148201 0.773956 43 255 205 0.401453
-0.036968 -0.148769 0.774051 43 255 205 0.401438
-0.028041 -0.147953 0.786353 43 255 205 0.400937
-0.032186 -0.147752 0.786414 43 255 205 0.401259
-0.031183 -0.148521 0.783803 43 255 205 0.401066
-0.035315 -0.148259 0.783813 43 255 205 0.401402
-0.036354 -0.147445 0.786404 43 255 205 0.401500
-0.034415 -0.148818 0.781170 43 255 205 0.401325
-0.039421 -0.147982 0.783789 43 255 205 0.401409
-0.038542 -0.148629 0.781176 43 255 205 0.401437
-0.042617 -0.148381 0.781144 43 255 205 0.401316
-0.040418 -0.147226 0.786378 43 255 205 0.401337
-0.043528 -0.147792 0.783767 43 255 205 0.401136
-0.044481 -0.147127 0.786373 43 255 205 0.400822
-0.037689 -0.149094 0.778498 43 255 205 0.401427
-0.041736 -0.148901 0.778548 43 255 205 0.401390
-0.034024 -0.148843 0.778539 36 255 211 0.391453
-0.030368 -0.148395 0.778507 43 255 205 0.401261
-0.030718 -0.148535 0.781152 43 255 205 0.401259
-0.027036 -0.148196 0.781079 43 255 205 0.401152
-0.026668 -0.147942 0.778399 43 255 205 0.401221
-0.027461 -0.148219 0.783739 43 255 205 0.400867
-0.048146 -0.146699 0.785762 43 255 205 0.399746
-0.047203 -0.147442 0.783060 43 255 205 0.400326
-0.050881 -0.146902 0.782455 43 255 205 0.398737
-0.051818 -0.146260 0.785113 40 255 208 0.398031
-0.049989 -0.147557 0.779815 43 255 205 0.400209
-0.054541 -0.146447 0.781867 40 255 208 0.395589
-0.053624 -0.147080 0.779235 43 255 205 0.398697
-0.055442 -0.146027 0.784531 40 255 208 0.397090
-0.052688 -0.147749 0.776630 43 255 205 0.399823
-0.049056 -0.148042 0.777237 30 255 218 0.384778
-0.045394 -0.148451 0.777864 43 255 205 0.401196
-0.046272 -0.147953 0.780453 43 255 205 0.400989
0.011630 -0.082009 0.773210 23 255 224 0.375590
0.010200 -0.078620 0.772599 14 246 234 0.364653
0.010221 -0.075343 0.773451 33 255 215 0.388353
0.008868 -0.072037 0.772709 33 255 215 0.389812
0.009311 -0.068608 0.773048 36 255 211 0.394436
0.005959 -0.068526 0.770572 33 255 215 0.390175
0.012072 -0.072149 0.775262 40 255 208 0.394903
0.012642 -0.068702 0.775415 40 255 208 0.397990
0.013176 -0.075300 0.775950 36 255 211 0.393366
0.014333 -0.078401 0.776583 33 255 215 0.390073
0.014170 -0.081710 0.775858 33 255 215 0.387006
0.016723 -0.081424 0.778367 36 255 211 0.391978
0.004259 -0.065335 0.770219 40 255 208 0.395841
0.006140 -0.065442 0.771595 40 255 208 0.395688
0.004579 -0.062035 0.771054 43 255 205 0.400301
0.002662 -0.061990 0.769757 43 255 205 0.400066
0.006547 -0.062100 0.772318 43 255 205 0.401281
0.003170 -0.058545 0.770404 46 255 202 0.404124
0.005127 -0.058595 0.771656 46 255 202 0.404406
0.003841 -0.054879 0.770888 53 255 195 0.412964
0.001174 -0.058520 0.769175 46 255 202 0.403795
0.001843 -0.054871 0.769655 56 255 192 0.414354
-0.000179 -0.054908 0.768503 53 255 195 0.410281
0.007110 -0.058639 0.772879 46 255 202 0.405742
0.005845 -0.054904 0.772084 53 255 195 0.413137
0.007833 -0.054969 0.773315 49 255 198 0.409892
0.010122 -0.062040 0.774496 43 255 205 0.401297
0.009603 -0.065453 0.773888 43 255 205 0.399235
0.016752 -0.055140 0.778282 49 255 198 0.408056
0.017406 -0.058802 0.778989 49 255 198 0.409204
0.016250 -0.062248 0.778421 49 255 198 0.407209
0.017143 -0.065613 0.778761 46 255 202 0.405196
0.016304 -0.068774 0.777838 46 255 202 0.402480
0.019913 -0.068821 0.780176 49 255 198 0.406611
0.013414 -0.065605 0.776448 43 255 205 0.400830
0.012211 -0.062168 0.775920 46 255 202 0.404045
0.011057 -0.058637 0.775334 49 255 198 0.406408
0.013261 -0.058734 0.776641 56 255 192 0.416113
0.012310 -0.055070 0.775821 53 255 195 0.410852
0.010072 -0.055031 0.774556 53 255 195 0.412018
0.014498 -0.055117 0.777091 49 255 198 0.408825
0.020513 -0.072045 0.780940 46 255 202 0.404361
0.019549 -0.075141 0.780803 43 255 205 0.400451
0.020252 -0.078008 0.781443 17 250 231 0.370945
0.019513 -0.081124 0.780856 40 255 208 0.396067
0.022343 -0.080813 0.783189 40 255 208 0.397786
0.017248 -0.078325 0.779192 40 255 208 0.394993
0.016336 -0.075224 0.778349 137 255 111 0.513309
0.015375 -0.072053 0.777548 43 255 205 0.398615
0.003244 -0.082930 0.763870 40 255 208 0.397577
0.001445 -0.079399 0.763194 14 246 234 0.365584
0.000605 -0.076003 0.763888 0 226 250 0.346790
-0.001197 -0.072684 0.763429 0 226 250 0.347415
-0.001773 -0.069128 0.763936 7 238 240 0.356796
-0.004011 -0.069542 0.761858 0 218 255 0.337733
0.000923 -0.072329 0.765589 11 242 237 0.360834
0.000438 -0.068788 0.765950 20 254 228 0.372848
0.002681 -0.075673 0.766034 88 255 160 0.456171
0.004443 -0.079053 0.766490 7 238 240 0.357917
0.005174 -0.082678 0.766009 17 250 231 0.368436
0.007053 -0.082446 0.768185 14 246 234 0.366208
-0.005922 -0.066533 0.761631 7 238 240 0.358559
-0.006626 -0.063143 0.762404 33 255 215 0.387115
-0.008328 -0.060080 0.761880 33 255 215 0.390347
-0.008610 -0.056540 0.762131 40 255 208 0.394962
-0.010917 -0.057265 0.760089 27 255 221 0.382280
-0.006023 -0.059406 0.764044 40 255 208 0.398353
-0.006263 -0.055783 0.764101 43 255 205 0.401998
-0.004352 -0.062656 0.764474 36 255 211 0.393717
-0.002571 -0.065861 0.764791 30 255 218 0.386344
-0.000297 -0.062227 0.767801 43 255 205 0.398774
0.001445 -0.065490 0.768061 36 255 211 0.392911
0.003171 -0.068671 0.768326 30 255 218 0.384449
-0.003365 -0.058967 0.765993 43 255 205 0.400767
-0.003261 -0.055295 0.766382 49 255 198 0.409743
0.005978 -0.072027 0.770314 30 255 218 0.386445
0.007488 -0.075371 0.770884 27 255 221 0.379622
0.007831 -0.078797 0.770228 17 250 231 0.369528
0.009422 -0.082249 0.770742 17 250 231 0.367913
0.004954 -0.075501 0.768430 17 250 231 0.368397
0.003313 -0.072132 0.767804 79 255 169 0.443408
-0.010739 -0.081996 0.751877 43 255 205 0.399907
-0.014616 -0.075454 0.750902 49 255 198 0.407855
-0.011719 -0.077737 0.752354 46 255 202 0.403429
-0.008849 -0.080113 0.753691 40 255 208 0.397630
-0.006980 -0.083605 0.753968 69 255 179 0.431767
-0.004444 -0.086734 0.755096 40 255 208 0.397885
-0.019806 -0.071564 0.748869 49 255 198 0.408920
-0.022760 -0.065426 0.747320 36 255 211 0.393826
-0.020322 -0.067528 0.749342 23 255 224 0.375480
-0.017728 -0.069381 0.750876 20 254 228 0.373814
-0.016257 -0.072463 0.750856 36 255 211 0.392590
-0.018250 -0.061458 0.752448 17 250 231 0.369675
-0.016474 -0.064215 0.753363 0 222 253 0.339910
-0.015365 -0.067500 0.753384 0 206 255 0.326857
-0.013247 -0.069998 0.753851 20 254 228 0.372176
-0.011662 -0.072918 0.753540 36 255 211 0.393462
-0.018843 -0.066114 0.750860 11 242 237 0.360888
-0.019753 -0.062654 0.750578 30 255 218 0.384941
-0.008219 -0.074953 0.755717 30 255 218 0.385033
-0.006619 -0.078538 0.755691 36 255 211 0.392538
-0.004388 -0.081610 0.756498 36 255 211 0.391956
-0.002663 -0.085223 0.756931 40 255 208 0.395127
-0.008799 -0.142584 0.798894 43 255 205 0.398507
-0.006928 -0.141556 0.795097 43 255 205 0.398998
-0.011025 -0.143414 0.797422 43 255 205 0.398631
-0.005044 -0.140409 0.791252 75 255 172 0.439810
-0.009267 -0.142429 0.793663 43 255 205 0.398853
-0.007382 -0.141227 0.789851 43 255 205 0.399238
-0.013355 -0.144101 0.795902 43 255 205 0.399029
-0.003238 -0.138817 0.787446 43 255 205 0.400049
-0.001628 -0.136853 0.783586 43 255 205 0.400737
0.000405 -0.136064 0.784683 43 255 205 0.400912
-0.001301 -0.138052 0.788553 36 255 211 0.393447
-0.003159 -0.139569 0.792426 43 255 205 0.400165
0.002337 -0.135307 0.785789 43 255 205 0.401685
-0.011175 -0.143153 0.792394 43 255 205 0.399193
-0.015321 -0.144816 0.794591 43 255 205 0.399270
-0.013255 -0.143777 0.791198 43 255 205 0.399667
-0.009998 -0.142195 0.788284 43 255 205 0.399673
-0.017452 -0.145276 0.793321 43 255 205 0.399669
-0.006839 -0.140194 0.785253 43 255 205 0.400071
-0.005026 -0.138064 0.781790 43 255 205 0.400534
0.003563 -0.120205 0.773037 43 255 205 0.401575
0.002301 -0.124803 0.775530 72 255 176 0.434846
0.001057 -0.129214 0.778040 88 255 160 0.454312
0.005952 -0.119268 0.774357 43 255 205 0.401766
-0.000161 -0.133241 0.780776 53 255 195 0.410717
-0.002821 -0.134171 0.779477 36 255 211 0.390824
0.005215 -0.123736 0.776997 46 255 202 0.404198
0.004468 -0.127931 0.779754 46 255 202 0.403865
0.008097 -0.118492 0.775628 79 255 169 0.443550
0.007468 -0.122866 0.778330 46 255 202 0.404103
0.003540 -0.131821 0.782678 46 255 202 0.403009
-0.011681 -0.142393 0.802505 40 255 208 0.397635
-0.015768 -0.142511 0.805388 40 255 208 0.396738
-0.018524 -0.142624 0.809068 40 255 208 0.395610
-0.022453 -0.143119 0.811954 40 255 208 0.396674
-0.019860 -0.142828 0.813522 40 255 208 0.395907
-0.021089 -0.142987 0.807484 20 254 228 0.373797
-0.025068 -0.143360 0.810397 40 255 208 0.396767
-0.018204 -0.142987 0.803839 40 255 208 0.396985
-0.015153 -0.143467 0.800229 40 255 208 0.398349
-0.022441 -0.142430 0.817425 40 255 208 0.397015
-0.026353 -0.142048 0.820558 43 255 205 0.399425
-0.028859 -0.141726 0.824332 43 255 205 0.401839
-0.031629 -0.141913 0.822876 43 255 205 0.400131
-0.029050 -0.142326 0.819029 43 255 205 0.399522
-0.026429 -0.142718 0.815148 40 255 208 0.397706
-0.037924 -0.142379 0.819460 30 255 218 0.384279
-0.034125 -0.142603 0.816246 43 255 205 0.400222
-0.031369 -0.142990 0.812330 33 255 215 0.389818
-0.027430 -0.143503 0.809014 40 255 208 0.397498
-0.029826 -0.143638 0.807593 40 255 208 0.398117
-0.029006 -0.142851 0.813704 40 255 208 0.397792
-0.031647 -0.142475 0.817598 43 255 205 0.399928
-0.034202 -0.142102 0.821444 36 255 211 0.392431
-0.026801 -0.143640 0.803911 43 255 205 0.399147
-0.022654 -0.143820 0.800990 43 255 205 0.399322
-0.019497 -0.144471 0.797516 43 255 205 0.399433
-0.017412 -0.144029 0.798798 43 255 205 0.399035
-0.020482 -0.143435 0.802360 40 255 208 0.397895
-0.023391 -0.143270 0.806027 40 255 208 0.397035
-0.051482 -0.143335 0.813598 43 255 205 0.401379
-0.051491 -0.143776 0.809140 43 255 205 0.402004
-0.055388 -0.143540 0.812230 43 255 205 0.401456
-0.055426 -0.143971 0.807757 43 255 205 0.402090
-0.051527 -0.144044 0.804623 46 255 202 0.403267
-0.051461 -0.144317 0.800004 46 255 202 0.403908
-0.046370 -0.144033 0.801053 40 255 208 0.397544
-0.046503 -0.143595 0.805680 43 255 205 0.401209
-0.046578 -0.143303 0.810199 43 255 205 0.401795
-0.041343 -0.143993 0.802114 43 255 205 0.400821
-0.060349 -0.143927 0.810871 43 255 205 0.401293
-0.062808 -0.143949 0.809997 43 255 205 0.401273
-0.061541 -0.144373 0.806400 46 255 202 0.406030
-0.065301 -0.144057 0.809132 43 255 205 0.401203
-0.064015 -0.144457 0.805538 43 255 205 0.401796
-0.062664 -0.144628 0.801857 46 255 202 0.402973
-0.060676 -0.144527 0.797964 49 255 198 0.406376
-0.059630 -0.144377 0.802514 46 255 202 0.403522
-0.057644 -0.144381 0.798665 46 255 202 0.405727
-0.056557 -0.144195 0.803185 46 255 202 0.403537
-0.058472 -0.144126 0.807085 43 255 205 0.401921
-0.054583 -0.144315 0.799311 46 255 202 0.404673
-0.057125 -0.145315 0.787907 43 255 205 0.401722
-0.053538 -0.145402 0.788504 43 255 205 0.401291
-0.055251 -0.144910 0.791948 46 255 202 0.403732
-0.049889 -0.145659 0.789091 43 255 205 0.400850
-0.051662 -0.144906 0.792485 46 255 202 0.403044
-0.048010 -0.145081 0.793058 46 255 202 0.402656
-0.046221 -0.146011 0.789702 43 255 205 0.400488
-0.053384 -0.144552 0.795987 46 255 202 0.403929
-0.049777 -0.144525 0.796494 46 255 202 0.403064
-0.056452 -0.144532 0.795295 46 255 202 0.404736
-0.059486 -0.144594 0.794616 46 255 202 0.405357
-0.058323 -0.144848 0.791267 46 255 202 0.403755
-0.039557 -0.146214 0.790228 43 255 205 0.399462
-0.042858 -0.145287 0.794122 43 255 205 0.401074
-0.035487 -0.146351 0.790234 43 255 205 0.401730
-0.038801 -0.145212 0.794094 43 255 205 0.401242
-0.034708 -0.145211 0.794014 43 255 205 0.402001
-0.031417 -0.146483 0.790224 43 255 205 0.401370
-0.042075 -0.144540 0.798086 43 255 205 0.401309
-0.038085 -0.144279 0.797981 53 255 195 0.413310
0.003110 -0.138453 0.806454 46 255 202 0.404818
0.000352 -0.138772 0.810281 46 255 202 0.404044
-0.003998 -0.139540 0.813128 82 255 166 0.447093
-0.006620 -0.140141 0.816771 36 255 211 0.393491
-0.010686 -0.141164 0.819369 36 255 211 0.393176
-0.007471 -0.140619 0.821360 36 255 211 0.393917
-0.009838 -0.140860 0.814782 36 255 211 0.391454
-0.013888 -0.141746 0.817350 36 255 211 0.393792
-0.007159 -0.140375 0.811105 40 255 208 0.394575
-0.004433 -0.140076 0.807340 43 255 205 0.399208
-0.000062 -0.139397 0.804561 43 255 205 0.402043
-0.003208 -0.140373 0.802589 30 255 218 0.385887
-0.009927 -0.140521 0.825093 40 255 208 0.394984
-0.013972 -0.140655 0.827844 40 255 208 0.397688
-0.016314 -0.140543 0.831436 43 255 205 0.399432
-0.019605 -0.140855 0.829622 43 255 205 0.399645
-0.017216 -0.141047 0.825931 40 255 208 0.397749
-0.014788 -0.141257 0.822150 40 255 208 0.395153
-0.025933 -0.141434 0.826039 43 255 205 0.399888
-0.023441 -0.141744 0.822270 43 255 205 0.399118
-0.019397 -0.141898 0.819356 17 250 231 0.369023
-0.016862 -0.142293 0.815439 40 255 208 0.394628
-0.020353 -0.141413 0.824087 40 255 208 0.398356
-0.022770 -0.141183 0.827742 43 255 205 0.399885
-0.015819 -0.142130 0.810865 36 255 211 0.393977
-0.013117 -0.141821 0.807178 40 255 208 0.396105
-0.008949 -0.141341 0.804461 40 255 208 0.398401
-0.005983 -0.141495 0.800745 43 255 205 0.398687
-0.010215 -0.141133 0.809106 40 255 208 0.394810
-0.012819 -0.141572 0.812752 36 255 211 0.392845
0.012615 -0.085508 0.774194 20 254 228 0.372906
0.012539 -0.089455 0.774097 11 242 237 0.361696
0.013646 -0.093360 0.775024 14 246 234 0.367070
0.013629 -0.097825 0.774823 23 255 224 0.378357
0.015567 -0.097229 0.777122 20 254 228 0.373992
0.011658 -0.093864 0.772707 17 250 231 0.367426
0.011660 -0.098306 0.772567 27 255 221 0.380737
0.010538 -0.089833 0.771592 11 242 237 0.362459
0.009415 -0.085985 0.770485 14 246 234 0.366155
0.015800 -0.101411 0.778589 20 254 228 0.373858
0.015148 -0.106267 0.778888 33 255 215 0.388589
0.015429 -0.110837 0.780257 40 255 208 0.395322
0.014686 -0.115825 0.780665 43 255 205 0.400528
0.016677 -0.114945 0.782650 43 255 205 0.399984
0.013448 -0.111724 0.778294 40 255 208 0.397259
0.012521 -0.116665 0.778884 43 255 205 0.401269
0.013216 -0.107004 0.776757 33 255 215 0.390383
0.012996 -0.102437 0.775210 30 255 218 0.382952
0.008956 -0.113278 0.774382 43 255 205 0.399146
0.009814 -0.108148 0.773302 36 255 211 0.393964
0.009665 -0.103325 0.771500 33 255 215 0.389825
0.010051 -0.098653 0.770742 27 255 221 0.380148
0.008530 -0.098906 0.768843 30 255 218 0.386303
0.011188 -0.102982 0.773248 30 255 218 0.383505
0.011385 -0.107646 0.774933 36 255 211 0.391023
0.011565 -0.112376 0.776550 40 255 208 0.397968
0.010709 -0.117454 0.777440 0 222 253 0.342412
0.007384 -0.094493 0.767439 27 255 221 0.380934
0.007000 -0.090340 0.767181 20 254 228 0.371272
0.005627 -0.086446 0.766011 20 254 228 0.371408
0.007446 -0.086278 0.768201 17 250 231 0.367405
0.008673 -0.090124 0.769301 17 250 231 0.367462
0.009805 -0.094169 0.770414 20 254 228 0.372890
-0.006235 -0.093880 0.752471 43 255 205 0.399317
-0.004398 -0.096998 0.754387 43 255 205 0.398944
-0.002857 -0.100616 0.756672 43 255 205 0.398672
-0.001465 -0.104293 0.759410 43 255 205 0.399000
-0.004830 -0.092559 0.754033 43 255 205 0.398940
-0.003020 -0.095936 0.756074 40 255 208 0.398303
-0.000979 -0.099348 0.758801 40 255 208 0.398216
0.000659 -0.103141 0.761618 43 255 205 0.398507
-0.001605 -0.121875 0.769843 43 255 205 0.401575
-0.001316 -0.117267 0.767486 43 255 205 0.401186
-0.001209 -0.112785 0.764978 43 255 205 0.400504
-0.003490 -0.121856 0.767734 43 255 205 0.401692
-0.003165 -0.117288 0.765357 43 255 205 0.401373
-0.001224 -0.108373 0.762203 23 255 224 0.376587
0.000414 -0.107521 0.763889 43 255 205 0.399315
-0.005133 -0.121499 0.765537 43 255 205 0.401801
-0.003297 -0.113091 0.762480 43 255 205 0.400525
0.000540 -0.111833 0.766473 43 255 205 0.400308
0.002139 -0.106448 0.765156 43 255 205 0.398994
0.002303 -0.101997 0.762924 40 255 208 0.397967
0.002323 -0.111080 0.767777 30 255 218 0.384718
0.001141 -0.116303 0.769408 43 255 205 0.400981
0.000348 -0.121369 0.771245 43 255 205 0.401610
-0.001671 -0.094465 0.757592 40 255 208 0.397972
-0.003554 -0.091041 0.755609 43 255 205 0.399271
-0.001898 -0.089517 0.757273 40 255 208 0.396829
-0.000101 -0.093173 0.759130 40 255 208 0.396768
0.001021 -0.097614 0.760744 40 255 208 0.397228
0.000260 -0.087841 0.759487 36 255 211 0.393442
0.001410 -0.091946 0.760636 40 255 208 0.394964
0.003038 -0.096092 0.762448 30 255 218 0.385915
0.003872 -0.100906 0.764072 40 255 208 0.397715
0.004877 -0.104989 0.767054 40 255 208 0.397612
0.004064 -0.110101 0.768804 59 255 189 0.418866
0.003612 -0.115226 0.770812 43 255 205 0.400845
-0.004317 -0.126518 0.771721 43 255 205 0.401359
-0.007371 -0.130615 0.772314 43 255 205 0.400906
-0.010041 -0.134872 0.774061 43 255 205 0.399861
-0.013014 -0.138580 0.774578 43 255 205 0.399501
-0.011925 -0.139308 0.776954 43 255 205 0.400751
-0.011026 -0.134056 0.771682 43 255 205 0.399989
-0.014104 -0.137626 0.772141 75 255 172 0.437719
-0.009151 -0.130106 0.769585 43 255 205 0.400967
-0.005993 -0.126174 0.769109 43 255 205 0.401514
-0.015557 -0.142534 0.779282 43 255 205 0.401481
-0.015503 -0.141645 0.776721 43 255 205 0.401377
-0.019264 -0.144464 0.779084 43 255 205 0.401297
-0.019510 -0.144948 0.781722 43 255 205 0.401171
-0.019172 -0.143742 0.776461 23 255 224 0.377364
-0.023211 -0.146753 0.781414 43 255 205 0.401140
-0.023031 -0.146171 0.778815 43 255 205 0.401289
-0.023691 -0.146757 0.784083 43 255 205 0.401009
-0.022807 -0.145668 0.776120 43 255 205 0.401452
-0.020331 -0.142984 0.773925 43 255 205 0.401077
-0.016701 -0.140853 0.774277 43 255 205 0.400250
-0.020487 -0.141273 0.770666 43 255 205 0.399137
-0.017543 -0.139108 0.770203 43 255 205 0.398744
-0.014566 -0.136655 0.769710 43 255 205 0.399154
-0.023465 -0.144522 0.773220 43 255 205 0.401241
-0.009624 -0.128896 0.767355 43 255 205 0.401286
-0.012106 -0.132928 0.768541 43 255 205 0.400512
0.009729 -0.121883 0.779681 46 255 202 0.404038
0.008551 -0.126267 0.782014 46 255 202 0.404252
0.010614 -0.125440 0.783336 4 234 244 0.354829
0.011659 -0.121075 0.781046 46 255 202 0.403848
0.008158 -0.129957 0.785247 46 255 202 0.404110
0.007534 -0.133263 0.788660 46 255 202 0.403149
0.004956 -0.134314 0.787241 46 255 202 0.402515
0.005606 -0.131005 0.783810 46 255 202 0.403522
0.013957 -0.120074 0.782854 46 255 202 0.403144
0.013184 -0.124307 0.785144 46 255 202 0.404414
0.015300 -0.123368 0.786923 46 255 202 0.404063
0.016075 -0.119230 0.784704 46 255 202 0.402566
0.013217 -0.127879 0.788534 46 255 202 0.404701
0.013014 -0.131050 0.792068 46 255 202 0.404634
0.010341 -0.132194 0.790313 46 255 202 0.403898
0.010620 -0.129012 0.786723 46 255 202 0.404382
0.004307 -0.137442 0.801955 46 255 202 0.405252
0.005514 -0.136351 0.797518 20 254 228 0.374484
0.001163 -0.138465 0.800138 46 255 202 0.403307
