ply
format ascii 1.0
comment VCGLIB generated
element vertex 965
property float x
property float y
property float z
property uchar red
property uchar green
property uchar blue
property float quality
end_header
-0.000276 -0.107213 0.749879 101 255 147 0.471669
-0.001177 -0.119906 0.755406 104 255 143 0.472762
0.000166 -0.116633 0.753773 101 255 147 0.472325
0.001093 -0.113441 0.752016 101 255 147 0.471648
0.002281 -0.120027 0.753904 101 255 147 0.472131
0.001732 -0.110267 0.750277 101 255 147 0.471424
0.003610 -0.116870 0.752013 101 255 147 0.471631
0.005794 -0.110692 0.748292 101 255 147 0.469849
0.003656 -0.113642 0.750702 101 255 147 0.471295
-0.004769 -0.101679 0.747011 101 255 147 0.471958
-0.002534 -0.112928 0.754502 101 255 147 0.472421
-0.003997 -0.119490 0.757182 104 255 143 0.473234
-0.002580 -0.109729 0.753243 101 255 147 0.471906
-0.002612 -0.116301 0.755455 104 255 143 0.472764
0.014659 -0.137890 0.743343 79 255 169 0.444431
0.013235 -0.136179 0.745152 101 255 147 0.471158
0.017274 -0.134294 0.744508 101 255 147 0.470798
0.015940 -0.132533 0.746327 101 255 147 0.470817
0.011693 -0.134388 0.747028 101 255 147 0.471224
0.010171 -0.132330 0.749006 88 255 160 0.455544
0.006498 -0.136165 0.747748 101 255 147 0.471804
0.008177 -0.138173 0.745905 101 255 147 0.471901
0.009890 -0.139970 0.744070 88 255 160 0.455943
0.002808 -0.139800 0.746308 101 255 147 0.472398
0.019593 -0.129963 0.744804 85 255 163 0.452564
0.018099 -0.127395 0.745878 101 255 147 0.470000
0.021230 -0.125048 0.744460 101 255 147 0.469950
0.016529 -0.124780 0.747060 101 255 147 0.469378
0.013780 -0.124516 0.748712 101 255 147 0.469387
0.015368 -0.127384 0.747315 101 255 147 0.469767
0.012565 -0.127129 0.748844 101 255 147 0.469367
0.005656 -0.123325 0.752153 101 255 147 0.471041
0.006364 -0.126308 0.751623 101 255 147 0.470718
0.004814 -0.128954 0.751853 101 255 147 0.471331
0.005500 -0.131804 0.751108 101 255 147 0.471297
0.000684 -0.131269 0.752991 101 255 147 0.472136
0.009275 -0.129471 0.749858 101 255 147 0.470396
0.009807 -0.123841 0.750441 98 255 150 0.468578
-0.001922 -0.132984 0.752257 101 255 147 0.472423
-0.004531 -0.134509 0.751520 101 255 147 0.472400
0.001444 -0.135477 0.749568 101 255 147 0.471944
-0.000973 -0.137153 0.748825 101 255 147 0.472208
-0.003387 -0.138742 0.748082 101 255 147 0.472329
-0.007288 -0.135846 0.750782 101 255 147 0.472388
-0.010061 -0.137101 0.750169 124 255 124 0.498498
-0.007989 -0.133657 0.752641 101 255 147 0.472633
-0.005192 -0.132326 0.753311 104 255 143 0.472724
-0.002453 -0.130794 0.754058 104 255 143 0.472725
-0.005811 -0.130104 0.755069 104 255 143 0.472874
-0.008722 -0.131545 0.754423 104 255 143 0.473123
-0.011571 -0.132948 0.753819 104 255 143 0.472963
-0.010946 -0.134963 0.752010 101 255 147 0.472602
-0.013610 -0.136428 0.751418 101 255 147 0.472221
-0.014222 -0.134511 0.753270 104 255 143 0.472762
-0.016662 -0.136087 0.752634 101 255 147 0.472372
0.002925 -0.125975 0.753013 98 255 150 0.465086
0.000529 -0.122852 0.754406 101 255 147 0.472542
-0.001600 -0.125428 0.754800 104 255 143 0.472879
-0.000399 -0.128438 0.753944 101 255 147 0.472564
-0.003781 -0.127813 0.754997 104 255 143 0.472936
-0.003487 -0.122512 0.755979 104 255 143 0.473242
-0.005713 -0.124913 0.756210 104 255 143 0.473373
-0.007643 -0.127357 0.756432 104 255 143 0.473308
-0.009632 -0.129623 0.756529 104 255 143 0.473215
-0.012450 -0.131198 0.756010 104 255 143 0.473360
-0.015151 -0.132744 0.755441 104 255 143 0.472959
-0.017627 -0.134423 0.754981 104 255 143 0.472739
-0.019986 -0.136176 0.754488 101 255 147 0.472106
-0.012742 -0.129637 0.758555 101 255 147 0.472280
-0.008410 -0.124486 0.757801 104 255 143 0.473717
-0.006312 -0.122008 0.757496 104 255 143 0.473711
-0.022446 -0.136830 0.756619 101 255 147 0.471545
-0.020120 -0.134891 0.756948 101 255 147 0.472292
-0.017960 -0.133186 0.757816 101 255 147 0.472345
-0.014978 -0.131310 0.757740 104 255 143 0.473294
-0.037058 -0.144285 0.745429 98 255 150 0.468681
-0.039254 -0.145405 0.742077 101 255 147 0.469858
-0.041467 -0.146576 0.738799 101 255 147 0.472337
-0.042088 -0.146262 0.741516 124 255 124 0.496172
-0.038661 -0.145698 0.739286 101 255 147 0.471342
-0.036142 -0.144872 0.740134 101 255 147 0.470482
-0.036631 -0.144534 0.742782 101 255 147 0.468825
-0.034079 -0.143728 0.743581 101 255 147 0.469267
-0.045369 -0.147203 0.738831 104 255 143 0.473145
-0.044336 -0.147020 0.735874 104 255 143 0.473532
-0.047334 -0.147372 0.735207 104 255 143 0.473919
-0.041985 -0.146650 0.734422 104 255 143 0.473352
-0.036970 -0.146290 0.731992 114 255 134 0.488064
-0.035946 -0.146047 0.735744 101 255 147 0.472370
-0.034049 -0.146154 0.732737 104 255 143 0.472711
-0.038876 -0.146317 0.735061 104 255 143 0.472969
-0.039938 -0.146572 0.731232 104 255 143 0.473287
-0.031317 -0.145393 0.735726 101 255 147 0.472267
-0.032939 -0.144722 0.738546 101 255 147 0.471304
-0.030017 -0.144058 0.739436 101 255 147 0.470631
-0.027015 -0.143517 0.740236 101 255 147 0.470781
-0.031565 -0.143563 0.742237 88 255 160 0.453665
-0.033367 -0.142296 0.754309 98 255 150 0.468367
-0.030385 -0.140681 0.754507 101 255 147 0.470367
-0.027937 -0.139665 0.755358 101 255 147 0.470567
-0.025548 -0.138256 0.756286 101 255 147 0.471106
-0.037877 -0.143550 0.751866 101 255 147 0.469490
-0.039320 -0.144460 0.750036 98 255 150 0.467827
-0.041566 -0.145462 0.748783 98 255 150 0.468094
-0.035065 -0.142697 0.752428 101 255 147 0.469363
-0.035220 -0.143243 0.746729 101 255 147 0.469083
-0.033293 -0.142343 0.748032 101 255 147 0.469993
-0.032861 -0.141849 0.750567 101 255 147 0.469801
-0.030750 -0.141169 0.751826 101 255 147 0.469207
-0.035677 -0.142910 0.749869 101 255 147 0.469450
-0.027124 -0.139590 0.751623 101 255 147 0.471012
-0.024840 -0.138450 0.752573 101 255 147 0.471274
-0.022487 -0.137293 0.753567 101 255 147 0.471708
-0.052740 -0.148327 0.757915 104 255 143 0.473753
-0.056240 -0.148575 0.757830 104 255 143 0.474110
-0.053957 -0.148592 0.760749 104 255 143 0.474170
-0.059787 -0.148782 0.757750 104 255 143 0.474249
-0.063402 -0.148911 0.757729 104 255 143 0.474265
-0.061478 -0.149207 0.754629 104 255 143 0.474333
-0.057856 -0.148897 0.754689 104 255 143 0.474133
-0.055038 -0.148555 0.763555 104 255 143 0.474238
-0.058454 -0.148357 0.762584 104 255 143 0.474176
-0.059348 -0.148165 0.765236 104 255 143 0.473955
-0.055878 -0.148417 0.766185 104 255 143 0.474142
-0.062317 -0.148123 0.762947 104 255 143 0.473816
-0.066249 -0.147852 0.763308 104 255 143 0.473422
-0.064883 -0.148409 0.760577 104 255 143 0.474095
-0.060920 -0.148599 0.760147 104 255 143 0.474178
-0.078940 -0.146476 0.758824 104 255 143 0.474822
-0.075141 -0.146981 0.758434 104 255 143 0.474256
-0.077037 -0.147253 0.755961 104 255 143 0.474295
-0.071292 -0.147640 0.758124 104 255 143 0.474126
-0.073176 -0.147841 0.755599 104 255 143 0.474308
-0.069196 -0.148448 0.755225 104 255 143 0.474266
-0.075000 -0.148073 0.752958 104 255 143 0.474229
-0.067360 -0.148305 0.757907 104 255 143 0.474177
-0.068798 -0.147725 0.760730 104 255 143 0.473728
-0.072730 -0.146994 0.760969 104 255 143 0.473662
-0.071425 -0.148425 0.753049 104 255 143 0.474297
-0.073201 -0.148505 0.750718 104 255 143 0.474251
-0.069704 -0.148842 0.750814 104 255 143 0.474458
-0.066992 -0.148951 0.752049 104 255 143 0.474481
-0.071433 -0.148875 0.748448 104 255 143 0.474361
-0.064326 -0.149030 0.753321 104 255 143 0.474450
0.000466 -0.145777 0.734781 101 255 147 0.472097
-0.001237 -0.145290 0.737101 101 255 147 0.472380
0.004129 -0.144713 0.737478 101 255 147 0.471859
0.002392 -0.144238 0.739785 111 255 137 0.480554
-0.003244 -0.144614 0.739455 101 255 147 0.472634
-0.005312 -0.143679 0.741726 104 255 143 0.472782
-0.009771 -0.144394 0.739086 104 255 143 0.472835
-0.007377 -0.145469 0.736733 104 255 143 0.472718
-0.005353 -0.146225 0.734404 101 255 147 0.472509
-0.014141 -0.145222 0.736543 104 255 143 0.472818
0.008081 -0.143171 0.739802 101 255 147 0.471666
0.006403 -0.142178 0.742015 101 255 147 0.471978
0.011395 -0.140918 0.741822 101 255 147 0.471499
0.004629 -0.141129 0.744168 101 255 147 0.472236
-0.001375 -0.141771 0.743973 101 255 147 0.472654
0.000577 -0.143153 0.741886 101 255 147 0.472611
-0.011882 -0.139184 0.746847 101 255 147 0.472155
-0.015225 -0.138544 0.747809 101 255 147 0.472091
-0.007893 -0.140284 0.745792 104 255 143 0.474431
-0.013123 -0.141662 0.743641 101 255 147 0.472325
-0.016634 -0.140885 0.744734 101 255 147 0.471599
-0.019805 -0.140390 0.745737 101 255 147 0.471121
-0.009143 -0.142723 0.742614 104 255 143 0.472706
-0.020754 -0.142165 0.742041 101 255 147 0.471227
-0.023650 -0.141742 0.742976 91 255 156 0.459565
-0.017437 -0.142675 0.741077 101 255 147 0.472046
-0.021503 -0.144065 0.738455 101 255 147 0.472026
-0.024359 -0.143771 0.739332 101 255 147 0.471607
-0.018046 -0.144585 0.737547 98 255 150 0.466848
-0.013688 -0.143488 0.740092 104 255 143 0.472701
-0.026588 -0.141612 0.744319 101 255 147 0.470380
-0.022969 -0.140226 0.747089 101 255 147 0.470871
-0.025814 -0.140220 0.748508 101 255 147 0.470910
-0.027780 -0.140965 0.747183 101 255 147 0.469948
-0.029605 -0.141781 0.745778 108 255 140 0.478776
-0.028362 -0.142528 0.742949 101 255 147 0.469753
-0.018484 -0.138009 0.749192 101 255 147 0.472061
-0.019172 -0.137038 0.751638 101 255 147 0.471702
-0.021534 -0.138048 0.750574 101 255 147 0.471677
-0.020828 -0.139016 0.748146 101 255 147 0.471459
-0.023774 -0.139087 0.749496 101 255 147 0.470702
-0.030380 -0.141334 0.748844 101 255 147 0.469883
-0.032245 -0.142748 0.744959 101 255 147 0.469073
-0.013746 -0.146415 0.722782 101 255 147 0.472484
-0.016323 -0.146636 0.725556 101 255 147 0.472535
-0.010349 -0.146679 0.725839 101 255 147 0.472450
-0.012806 -0.146820 0.728467 101 255 147 0.472570
-0.019177 -0.146583 0.728205 101 255 147 0.472582
-0.021843 -0.146396 0.730796 101 255 147 0.472611
-0.024886 -0.146461 0.727765 101 255 147 0.472598
-0.022648 -0.146507 0.725216 101 255 147 0.472572
-0.020042 -0.146471 0.722554 101 255 147 0.472561
-0.027813 -0.146544 0.724767 101 255 147 0.472611
-0.006861 -0.146665 0.728853 91 255 156 0.459582
-0.008852 -0.146541 0.731404 101 255 147 0.472502
-0.003264 -0.146436 0.731876 114 255 134 0.486285
-0.011331 -0.146127 0.734022 104 255 143 0.472737
-0.018152 -0.145755 0.733717 104 255 143 0.472709
-0.015316 -0.146448 0.731122 101 255 147 0.472653
-0.027318 -0.144851 0.736386 101 255 147 0.472176
-0.024606 -0.145061 0.735526 101 255 147 0.472371
-0.027711 -0.146074 0.732612 121 255 127 0.492233
-0.030252 -0.145986 0.733420 101 255 147 0.472485
-0.023279 -0.145806 0.733177 101 255 147 0.472593
-0.032847 -0.146333 0.730305 104 255 143 0.472783
-0.030356 -0.146326 0.729545 101 255 147 0.472654
-0.032996 -0.146576 0.726422 104 255 143 0.472850
-0.035525 -0.146497 0.727251 104 255 143 0.472935
-0.029099 -0.146469 0.727165 101 255 147 0.472643
-0.026338 -0.146357 0.730211 101 255 147 0.472600
-0.046269 -0.146724 0.749903 101 255 147 0.469483
-0.048502 -0.147413 0.748802 101 255 147 0.470784
-0.046263 -0.146988 0.747140 101 255 147 0.469874
-0.048466 -0.147624 0.746047 101 255 147 0.471359
-0.050830 -0.148287 0.744972 104 255 143 0.472833
-0.050781 -0.147938 0.747717 101 255 147 0.471870
-0.053132 -0.148674 0.746584 104 255 143 0.473166
-0.048458 -0.147861 0.743319 101 255 147 0.472651
-0.055921 -0.148789 0.743056 104 255 143 0.474119
-0.058931 -0.148797 0.739625 104 255 143 0.474715
-0.059387 -0.149019 0.742607 104 255 143 0.474490
-0.055449 -0.148578 0.740007 104 255 143 0.474339
-0.052283 -0.148298 0.740580 104 255 143 0.473736
-0.048243 -0.147632 0.738157 104 255 143 0.473987
-0.046116 -0.147418 0.741796 101 255 147 0.472547
-0.051427 -0.148008 0.737597 104 255 143 0.474085
-0.054821 -0.148324 0.737091 104 255 143 0.474570
-0.042275 -0.146052 0.744124 59 255 189 0.419268
-0.039653 -0.145211 0.744748 98 255 150 0.468495
-0.059397 -0.149184 0.745589 104 255 143 0.474350
-0.056246 -0.148925 0.746094 104 255 143 0.473703
-0.056267 -0.149065 0.749103 104 255 143 0.473783
-0.059609 -0.149268 0.748619 104 255 143 0.474321
-0.061957 -0.149305 0.747297 104 255 143 0.474544
-0.061814 -0.149204 0.744282 104 255 143 0.474633
-0.064146 -0.149176 0.742985 104 255 143 0.474813
-0.064342 -0.149325 0.746012 104 255 143 0.474679
-0.066712 -0.149277 0.744668 104 255 143 0.474697
-0.048484 -0.147433 0.752346 101 255 147 0.471086
-0.051110 -0.147923 0.751297 101 255 147 0.471857
-0.053632 -0.148507 0.750172 104 255 143 0.472840
-0.054153 -0.148478 0.754853 104 255 143 0.473599
-0.059037 -0.149300 0.751789 104 255 143 0.474184
-0.050689 -0.147943 0.755011 104 255 143 0.472749
-0.062323 -0.149279 0.751376 104 255 143 0.474429
-0.064948 -0.149220 0.750029 104 255 143 0.474524
-0.067597 -0.149139 0.748740 104 255 143 0.474562
-0.069082 -0.149132 0.746555 104 255 143 0.474517
-0.076841 -0.146179 0.761926 104 255 143 0.475019
-0.074634 -0.145961 0.765021 101 255 147 0.472282
-0.070528 -0.146822 0.764169 101 255 147 0.471538
-0.068198 -0.146772 0.767385 101 255 147 0.468824
-0.072393 -0.145834 0.768085 98 255 150 0.468209
-0.070037 -0.145889 0.771222 49 255 198 0.408671
-0.076962 -0.144732 0.768661 104 255 143 0.473902
-0.079118 -0.144962 0.765682 134 255 114 0.509880
-0.081269 -0.145221 0.762683 104 255 143 0.476123
-0.083499 -0.144238 0.766314 166 255 82 0.547296
-0.063453 -0.147679 0.766270 104 255 143 0.472786
-0.060717 -0.147632 0.769278 101 255 147 0.472638
-0.057205 -0.148051 0.770206 104 255 143 0.473679
-0.053718 -0.148657 0.771163 104 255 143 0.474036
-0.055111 -0.148126 0.775151 104 255 143 0.473659
-0.058859 -0.147278 0.774151 101 255 147 0.471421
-0.062567 -0.146675 0.773182 98 255 150 0.467797
-0.065413 -0.146582 0.770242 98 255 150 0.467060
-0.061556 -0.145798 0.781941 101 255 147 0.470551
-0.065361 -0.145236 0.780832 101 255 147 0.471679
-0.064372 -0.145782 0.778288 98 255 150 0.468520
-0.069177 -0.144807 0.779709 101 255 147 0.471918
-0.068151 -0.145214 0.777193 101 255 147 0.470079
-0.071932 -0.144903 0.776154 101 255 147 0.470489
-0.072885 -0.144586 0.778664 101 255 147 0.472136
-0.067160 -0.145741 0.774747 98 255 150 0.466109
-0.070970 -0.145362 0.773727 98 255 150 0.466890
-0.063479 -0.146157 0.775760 98 255 150 0.465955
-0.059759 -0.146731 0.776751 101 255 147 0.469323
-0.060672 -0.146175 0.779283 98 255 150 0.467977
-0.056969 -0.146826 0.780301 101 255 147 0.470973
-0.056049 -0.147470 0.777729 104 255 143 0.472709
-0.057871 -0.146344 0.782951 101 255 147 0.472060
-0.076340 -0.144041 0.777270 104 255 143 0.472971
-0.079916 -0.143522 0.775817 104 255 143 0.474875
-0.078847 -0.143916 0.773519 104 255 143 0.474504
-0.083373 -0.143181 0.774384 108 255 140 0.477491
-0.082291 -0.143515 0.772124 108 255 140 0.477463
-0.085700 -0.143264 0.770786 108 255 140 0.479142
-0.086748 -0.142908 0.773013 108 255 140 0.479829
-0.081188 -0.144007 0.769887 108 255 140 0.477286
-0.084616 -0.143696 0.768563 130 255 117 0.504175
-0.077863 -0.144283 0.771119 104 255 143 0.473998
-0.074446 -0.144724 0.772358 101 255 147 0.471088
-0.075406 -0.144326 0.774782 101 255 147 0.472607
-0.005246 -0.088971 0.754498 101 255 147 0.471315
-0.008364 -0.086601 0.752755 101 255 147 0.471456
-0.011514 -0.084456 0.751215 101 255 147 0.471915
-0.006634 -0.090609 0.752935 75 255 172 0.440816
-0.009876 -0.088489 0.751042 101 255 147 0.471990
-0.014487 -0.082406 0.749853 101 255 147 0.472085
-0.017396 -0.080400 0.748508 101 255 147 0.472589
-0.015764 -0.077970 0.750256 101 255 147 0.471463
-0.012934 -0.080180 0.751552 88 255 160 0.453824
-0.013401 -0.087198 0.749188 101 255 147 0.472410
-0.027237 -0.073418 0.743393 104 255 143 0.473437
-0.025030 -0.075155 0.745180 101 255 147 0.471504
-0.023005 -0.077690 0.746140 101 255 147 0.472172
-0.025764 -0.070639 0.744836 101 255 147 0.472125
-0.020362 -0.079101 0.747393 101 255 147 0.472649
-0.023567 -0.072614 0.746792 98 255 150 0.468321
-0.020999 -0.074320 0.748279 101 255 147 0.469584
-0.023996 -0.068173 0.746473 101 255 147 0.469113
-0.021723 -0.070164 0.748369 79 255 169 0.445213
-0.018277 -0.075789 0.749657 101 255 147 0.470596
-0.019926 -0.124738 0.866702 101 255 147 0.470746
-0.019467 -0.127098 0.862641 101 255 147 0.470325
-0.022976 -0.124870 0.865099 101 255 147 0.471360
-0.022595 -0.127346 0.861006 91 255 156 0.460190
-0.019101 -0.130056 0.858746 98 255 150 0.467519
-0.018725 -0.133103 0.854908 101 255 147 0.471640
-0.015612 -0.132605 0.856634 101 255 147 0.470500
-0.016015 -0.129580 0.860428 98 255 150 0.465594
-0.016467 -0.126801 0.864371 101 255 147 0.469249
-0.012550 -0.132178 0.858279 101 255 147 0.468855
-0.026065 -0.125169 0.863345 104 255 143 0.475827
-0.025697 -0.127806 0.859232 101 255 147 0.471556
-0.029206 -0.125419 0.861653 101 255 147 0.472076
-0.028832 -0.128122 0.857563 101 255 147 0.471783
-0.025349 -0.130873 0.855322 101 255 147 0.471362
-0.025049 -0.134057 0.851375 101 255 147 0.472546
-0.021863 -0.133665 0.853174 101 255 147 0.472350
-0.022231 -0.130355 0.857063 101 255 147 0.470904
-0.016522 -0.140517 0.837251 101 255 147 0.472370
-0.017097 -0.139273 0.841757 101 255 147 0.472642
-0.013339 -0.140186 0.839145 101 255 147 0.472394
-0.017648 -0.137621 0.846313 104 255 143 0.472742
-0.013895 -0.138897 0.843712 101 255 147 0.472513
-0.014466 -0.137162 0.848268 114 255 134 0.487019
-0.010100 -0.139805 0.841077 101 255 147 0.472348
-0.018174 -0.135623 0.850716 98 255 150 0.465257
-0.021393 -0.135961 0.848905 104 255 143 0.472730
-0.020868 -0.137970 0.844474 104 255 143 0.472815
-0.010691 -0.138507 0.845617 101 255 147 0.472318
-0.006921 -0.139463 0.843039 101 255 147 0.472147
-0.011293 -0.136901 0.850068 101 255 147 0.472193
-0.007534 -0.138134 0.847554 101 255 147 0.472122
-0.008210 -0.136511 0.851939 101 255 147 0.471796
-0.003762 -0.139095 0.844918 101 255 147 0.471977
-0.011909 -0.134763 0.854287 101 255 147 0.471567
-0.015012 -0.135169 0.852569 101 255 147 0.472140
-0.032394 -0.125768 0.859899 101 255 147 0.472251
-0.032105 -0.128543 0.855742 101 255 147 0.471905
-0.035660 -0.126017 0.858147 101 255 147 0.472336
-0.035401 -0.128905 0.854059 101 255 147 0.471571
-0.031854 -0.131664 0.851751 101 255 147 0.471303
-0.031622 -0.134465 0.847593 101 255 147 0.471611
-0.028341 -0.134242 0.849479 101 255 147 0.472285
-0.028568 -0.131208 0.853559 101 255 147 0.471596
-0.038892 -0.126351 0.856421 101 255 147 0.472172
-0.038552 -0.129172 0.852283 101 255 147 0.470818
-0.042105 -0.126586 0.854738 101 255 147 0.471883
-0.041774 -0.129310 0.850581 101 255 147 0.470263
-0.038267 -0.132041 0.848195 101 255 147 0.469225
-0.038015 -0.134768 0.844048 75 255 172 0.441398
-0.034831 -0.134596 0.845797 124 255 124 0.499104
-0.035102 -0.131798 0.849964 101 255 147 0.470037
-0.029411 -0.141560 0.830232 101 255 147 0.472603
-0.030030 -0.140376 0.834541 101 255 147 0.472571
-0.026260 -0.141309 0.831874 101 255 147 0.472565
-0.030613 -0.138677 0.838892 101 255 147 0.472480
-0.026902 -0.140066 0.836263 95 255 153 0.461754
-0.027474 -0.138408 0.840692 104 255 143 0.472849
-0.023126 -0.141122 0.833560 101 255 147 0.472527
-0.031150 -0.136666 0.843243 101 255 147 0.471970
-0.034361 -0.136858 0.841505 101 255 147 0.471815
-0.033844 -0.138818 0.837245 114 255 134 0.486561
-0.023680 -0.139880 0.837974 104 255 143 0.472672
-0.019862 -0.140833 0.835360 101 255 147 0.472523
-0.024169 -0.138257 0.842474 104 255 143 0.472766
-0.020375 -0.139543 0.839865 101 255 147 0.470401
-0.024616 -0.136319 0.846988 104 255 143 0.472692
-0.027937 -0.136482 0.845098 101 255 147 0.472584
-0.045096 -0.126805 0.853091 101 255 147 0.471627
-0.044571 -0.129471 0.848999 101 255 147 0.469623
-0.047901 -0.126825 0.851531 101 255 147 0.471309
-0.047405 -0.129490 0.847466 111 255 137 0.482134
-0.044074 -0.132171 0.844952 98 255 150 0.467868
-0.043597 -0.134810 0.840918 98 255 150 0.468364
-0.040791 -0.134821 0.842490 101 255 147 0.469317
-0.041295 -0.132073 0.846535 98 255 150 0.468542
-0.050603 -0.127034 0.850055 101 255 147 0.471025
-0.049978 -0.129571 0.846015 101 255 147 0.469594
-0.053161 -0.127088 0.848644 101 255 147 0.471241
-0.052533 -0.129512 0.844624 98 255 150 0.468329
-0.049326 -0.132285 0.842114 95 255 153 0.461445
-0.048694 -0.135054 0.838288 98 255 150 0.468165
-0.046124 -0.134917 0.839593 98 255 150 0.468225
-0.046763 -0.132178 0.843459 91 255 156 0.458051
-0.040012 -0.142088 0.824903 104 255 143 0.473005
-0.040974 -0.140883 0.829018 104 255 143 0.472743
-0.037446 -0.142009 0.826179 104 255 143 0.472852
-0.041878 -0.139131 0.832997 101 255 147 0.472086
-0.038430 -0.140734 0.830291 101 255 147 0.472590
-0.039402 -0.138999 0.834280 101 255 147 0.472159
-0.034908 -0.141863 0.827436 104 255 143 0.472735
-0.042756 -0.137109 0.836923 101 255 147 0.471221
-0.045318 -0.137136 0.835618 101 255 147 0.470924
-0.044456 -0.139277 0.831754 101 255 147 0.472110
-0.035790 -0.140649 0.831550 101 255 147 0.472543
-0.032175 -0.141698 0.828805 101 255 147 0.472652
-0.036577 -0.139015 0.835733 101 255 147 0.472219
-0.033031 -0.140487 0.833014 101 255 147 0.472561
-0.037339 -0.136993 0.839869 101 255 147 0.471722
-0.040140 -0.136973 0.838340 101 255 147 0.471294
-0.049415 -0.148996 0.769743 104 255 143 0.474101
-0.046520 -0.149058 0.772321 104 255 143 0.474059
-0.042647 -0.149065 0.771205 104 255 143 0.474011
-0.039540 -0.149510 0.773877 104 255 143 0.474007
-0.043448 -0.149354 0.775037 104 255 143 0.474058
-0.040307 -0.149725 0.777680 104 255 143 0.474017
-0.047808 -0.148715 0.776352 104 255 143 0.474028
-0.050714 -0.148627 0.773779 104 255 143 0.474048
-0.035716 -0.148559 0.771949 104 255 143 0.473931
-0.032500 -0.147495 0.772190 104 255 143 0.473797
-0.029206 -0.146572 0.772340 104 255 143 0.473839
-0.025830 -0.146437 0.774213 104 255 143 0.473817
-0.029071 -0.148044 0.775714 104 255 143 0.473917
-0.025581 -0.148001 0.777501 104 255 143 0.473881
-0.032697 -0.148696 0.775741 82 255 166 0.446018
-0.036301 -0.149262 0.775847 104 255 143 0.474027
-0.027181 -0.148210 0.788166 104 255 143 0.473420
-0.031398 -0.147920 0.788165 104 255 143 0.473697
-0.030359 -0.148820 0.785620 104 255 143 0.473543
-0.034566 -0.148503 0.785579 104 255 143 0.473873
-0.035631 -0.147558 0.788108 104 255 143 0.473908
-0.033658 -0.149176 0.782962 104 255 143 0.473831
-0.038752 -0.148173 0.785494 104 255 143 0.473970
-0.037875 -0.148917 0.782922 104 255 143 0.473985
-0.042040 -0.148643 0.782854 104 255 143 0.474006
-0.039784 -0.147293 0.788037 104 255 143 0.473941
-0.042970 -0.147930 0.785446 104 255 143 0.473934
-0.043945 -0.147139 0.788007 101 255 147 0.470823
-0.037006 -0.149499 0.780269 104 255 143 0.474007
-0.041136 -0.149252 0.780293 104 255 143 0.474032
-0.033269 -0.149294 0.780326 104 255 143 0.473800
-0.029535 -0.148876 0.780325 104 255 143 0.473726
-0.029882 -0.148954 0.782973 104 255 143 0.473733
-0.026128 -0.148663 0.782916 101 255 147 0.470000
-0.025768 -0.148459 0.780216 104 255 143 0.473670
-0.026572 -0.148589 0.785575 104 255 143 0.473406
-0.047696 -0.146738 0.787402 104 255 143 0.473798
-0.046722 -0.147604 0.784727 104 255 143 0.473738
-0.050480 -0.147053 0.784103 104 255 143 0.473455
-0.051440 -0.146325 0.786746 104 255 143 0.473670
-0.049573 -0.147798 0.781491 104 255 143 0.473660
-0.054222 -0.146572 0.783525 101 255 147 0.472380
-0.053293 -0.147285 0.780912 104 255 143 0.473267
-0.055142 -0.146092 0.786173 104 255 143 0.473320
-0.052339 -0.148016 0.778341 104 255 143 0.473593
-0.048623 -0.148362 0.778947 104 255 143 0.473893
-0.044876 -0.148786 0.779578 104 255 143 0.473985
-0.045761 -0.148201 0.782134 104 255 143 0.473900
0.012247 -0.082694 0.775070 95 255 153 0.463230
0.010823 -0.079364 0.774393 95 255 153 0.464374
0.010846 -0.076177 0.775208 98 255 150 0.467527
0.009478 -0.072928 0.774404 98 255 150 0.468218
0.009912 -0.069613 0.774639 101 255 147 0.468901
0.006534 -0.069405 0.772178 98 255 150 0.466944
0.012684 -0.073160 0.776916 101 255 147 0.470091
0.013249 -0.069812 0.776968 101 255 147 0.471616
0.013801 -0.076235 0.777677 101 255 147 0.470335
0.014943 -0.079267 0.778370 101 255 147 0.469011
0.014768 -0.082454 0.777726 98 255 150 0.468190
0.017309 -0.082224 0.780219 101 255 147 0.470463
0.004789 -0.066227 0.771749 101 255 147 0.469992
0.006699 -0.066408 0.773107 101 255 147 0.470314
0.005101 -0.062994 0.772468 101 255 147 0.471400
0.003175 -0.062873 0.771211 101 255 147 0.471429
0.007079 -0.063139 0.773730 101 255 147 0.472088
0.003677 -0.059499 0.771749 101 255 147 0.472462
0.005646 -0.059602 0.772988 101 255 147 0.472570
0.004368 -0.055840 0.772169 104 255 143 0.475320
0.001681 -0.059401 0.770542 101 255 147 0.472635
0.002349 -0.055783 0.770958 108 255 140 0.476604
0.000322 -0.055763 0.769800 104 255 143 0.475996
0.007641 -0.059701 0.774199 104 255 143 0.472972
0.006365 -0.055942 0.773354 104 255 143 0.473371
0.008353 -0.056063 0.774578 104 255 143 0.473339
0.010689 -0.063156 0.775883 101 255 147 0.471851
0.010187 -0.066523 0.775377 101 255 147 0.470834
0.017294 -0.056427 0.779537 176 255 72 0.560696
0.017930 -0.060105 0.780336 104 255 143 0.474865
0.016802 -0.063547 0.779772 104 255 143 0.475509
0.017720 -0.066929 0.780157 104 255 143 0.476188
0.016909 -0.070021 0.779326 104 255 143 0.474971
0.020509 -0.070150 0.781601 108 255 140 0.477201
0.013998 -0.066805 0.777901 150 255 98 0.529117
0.012781 -0.063340 0.777294 104 255 143 0.472741
0.011601 -0.059792 0.776644 104 255 143 0.473333
0.013805 -0.059941 0.777970 156 255 92 0.538315
0.012834 -0.056272 0.777092 153 255 95 0.535102
0.010597 -0.056169 0.775833 104 255 143 0.473501
0.015027 -0.056372 0.778353 101 255 147 0.470703
0.021114 -0.073321 0.782410 104 255 143 0.473625
0.020151 -0.076264 0.782396 104 255 143 0.473900
0.020840 -0.079005 0.783134 104 255 143 0.473035
0.020074 -0.081976 0.782671 79 255 169 0.442827
0.022856 -0.081751 0.784914 104 255 143 0.472937
0.017857 -0.079255 0.780950 101 255 147 0.471948
0.016959 -0.076248 0.780025 101 255 147 0.472251
0.015999 -0.073165 0.779140 101 255 147 0.472379
0.003876 -0.083421 0.765456 88 255 160 0.453808
0.002077 -0.079885 0.764712 82 255 166 0.447837
0.001200 -0.076542 0.765401 75 255 172 0.438037
-0.000627 -0.073254 0.764930 75 255 172 0.439356
-0.001227 -0.069740 0.765467 82 255 166 0.447353
-0.003454 -0.070104 0.763324 72 255 176 0.436035
0.001481 -0.072964 0.767147 85 255 163 0.449671
0.000975 -0.069480 0.767513 88 255 160 0.456918
0.003273 -0.076282 0.767644 82 255 166 0.446618
0.005060 -0.079625 0.768133 82 255 166 0.446351
0.005797 -0.083205 0.767681 85 255 163 0.452156
0.007686 -0.083021 0.769940 85 255 163 0.452834
-0.005386 -0.067094 0.763112 82 255 166 0.448640
-0.006132 -0.063750 0.763889 147 255 101 0.525933
-0.007865 -0.060716 0.763352 98 255 150 0.468237
-0.008170 -0.057231 0.763567 101 255 147 0.470001
-0.010473 -0.057895 0.761555 95 255 153 0.464699
-0.005564 -0.060094 0.765481 101 255 147 0.471339
-0.005813 -0.056516 0.765496 104 255 143 0.473549
-0.003865 -0.063345 0.765959 98 255 150 0.468658
-0.002061 -0.066531 0.766303 95 255 153 0.463974
0.000203 -0.063032 0.769271 101 255 147 0.471667
0.001958 -0.066302 0.769569 130 255 117 0.506015
0.003718 -0.069453 0.769929 95 255 153 0.463897
-0.002885 -0.059734 0.767408 101 255 147 0.472638
-0.002791 -0.056086 0.767741 104 255 143 0.476100
0.006557 -0.072821 0.771996 143 255 104 0.519617
0.008102 -0.076119 0.772627 95 255 153 0.463356
0.008460 -0.079467 0.771995 91 255 156 0.458398
0.010053 -0.082875 0.772566 88 255 160 0.455495
0.005554 -0.076180 0.770115 88 255 160 0.456820
0.003877 -0.072837 0.769436 66 255 182 0.426696
-0.009936 -0.082444 0.752992 101 255 147 0.470206
-0.013871 -0.075822 0.752091 95 255 153 0.461942
-0.010944 -0.078094 0.753521 98 255 150 0.467552
-0.008064 -0.080493 0.754832 98 255 150 0.468397
-0.006212 -0.084020 0.755091 101 255 147 0.470530
-0.003673 -0.087163 0.756194 124 255 124 0.498920
-0.019054 -0.072006 0.750052 82 255 166 0.449143
-0.022031 -0.065880 0.748515 98 255 150 0.467275
-0.019608 -0.067982 0.750548 82 255 166 0.447246
-0.017009 -0.069810 0.752074 75 255 172 0.439868
-0.015529 -0.072853 0.752025 85 255 163 0.452287
-0.017633 -0.061945 0.753814 82 255 166 0.447285
-0.015834 -0.064674 0.754691 62 255 185 0.424948
-0.014696 -0.067925 0.754653 56 255 192 0.415902
-0.012565 -0.070394 0.755093 79 255 169 0.444340
-0.010949 -0.073280 0.754739 95 255 153 0.463203
-0.018147 -0.066555 0.752100 79 255 169 0.442746
-0.019086 -0.063120 0.751871 91 255 156 0.459461
-0.007517 -0.075325 0.756930 91 255 156 0.458376
-0.005880 -0.078891 0.756876 98 255 150 0.464924
-0.003658 -0.081981 0.757690 98 255 150 0.466428
-0.001935 -0.085605 0.758131 101 255 147 0.469118
-0.008258 -0.142411 0.800745 101 255 147 0.470755
-0.006332 -0.141494 0.797018 121 255 127 0.495694
-0.010413 -0.143321 0.799267 101 255 147 0.471046
-0.004390 -0.140491 0.793204 101 255 147 0.471696
-0.008623 -0.142454 0.795567 101 255 147 0.471082
-0.006696 -0.141368 0.791806 101 255 147 0.471599
-0.012669 -0.144083 0.797748 101 255 147 0.471480
-0.002545 -0.138994 0.789428 101 255 147 0.472189
-0.000909 -0.137113 0.785554 104 255 143 0.472722
0.001114 -0.136280 0.786662 104 255 143 0.472935
-0.000623 -0.138194 0.790529 104 255 143 0.472749
-0.002539 -0.139595 0.794370 101 255 147 0.472113
0.003055 -0.135518 0.787746 104 255 143 0.473885
-0.010473 -0.143250 0.794288 101 255 147 0.471517
-0.014572 -0.144845 0.796422 101 255 147 0.471815
-0.012489 -0.143933 0.793088 101 255 147 0.471915
-0.009229 -0.142443 0.790224 101 255 147 0.471914
-0.016667 -0.145329 0.795133 101 255 147 0.472138
-0.006077 -0.140474 0.787213 101 255 147 0.471987
-0.004273 -0.138392 0.783732 101 255 147 0.472460
0.004142 -0.120454 0.774731 104 255 143 0.474800
0.002882 -0.125040 0.777297 104 255 143 0.475372
0.001692 -0.129466 0.779900 104 255 143 0.475869
0.006557 -0.119572 0.776125 104 255 143 0.475330
0.000542 -0.133514 0.782729 104 255 143 0.473903
-0.002121 -0.134477 0.781401 108 255 140 0.480227
0.005844 -0.124025 0.778853 104 255 143 0.476403
0.005166 -0.128197 0.781680 104 255 143 0.476077
0.008722 -0.118832 0.777480 104 255 143 0.475567
0.008152 -0.123178 0.780232 108 255 140 0.477340
0.004285 -0.132080 0.784602 104 255 143 0.474910
-0.011150 -0.142157 0.804219 101 255 147 0.469771
-0.015207 -0.142285 0.806998 101 255 147 0.469007
-0.017959 -0.142448 0.810644 82 255 166 0.448444
-0.021861 -0.143023 0.813508 101 255 147 0.470178
-0.019306 -0.142733 0.815069 101 255 147 0.469223
-0.020483 -0.142804 0.809058 101 255 147 0.469958
-0.024450 -0.143232 0.811972 101 255 147 0.470402
-0.017590 -0.142777 0.805449 101 255 147 0.470065
-0.014533 -0.143313 0.801945 101 255 147 0.470852
-0.021903 -0.142443 0.818953 101 255 147 0.470373
-0.025820 -0.142177 0.822081 101 255 147 0.472083
-0.028360 -0.141960 0.825841 101 255 147 0.472572
-0.031132 -0.142147 0.824431 104 255 143 0.472693
-0.028508 -0.142453 0.820592 101 255 147 0.472247
-0.025849 -0.142720 0.816713 101 255 147 0.471052
-0.037437 -0.142575 0.821119 104 255 143 0.473054
-0.033589 -0.142682 0.817891 104 255 143 0.472798
-0.030771 -0.142924 0.813941 101 255 147 0.471759
-0.026795 -0.143332 0.810601 101 255 147 0.471316
-0.029180 -0.143420 0.809196 101 255 147 0.472236
-0.028418 -0.142837 0.815293 101 255 147 0.471328
-0.031107 -0.142590 0.819200 101 255 147 0.472513
-0.033706 -0.142306 0.823055 104 255 143 0.472802
-0.026116 -0.143384 0.805483 88 255 160 0.453910
-0.021945 -0.143608 0.802596 101 255 147 0.472017
-0.018764 -0.144373 0.799226 101 255 147 0.472023
-0.016720 -0.143901 0.800510 101 255 147 0.471608
-0.019813 -0.143223 0.803972 101 255 147 0.471093
-0.022734 -0.143042 0.807596 101 255 147 0.470487
-0.051153 -0.143489 0.815333 104 255 143 0.473686
-0.051166 -0.143834 0.810862 104 255 143 0.474015
-0.055124 -0.143717 0.813964 104 255 143 0.473732
-0.055170 -0.144063 0.809487 104 255 143 0.474094
-0.051210 -0.143982 0.806329 104 255 143 0.474548
-0.051165 -0.144147 0.801651 104 255 143 0.474737
-0.045952 -0.143776 0.802679 104 255 143 0.474013
-0.046108 -0.143459 0.807373 88 255 160 0.456563
-0.046169 -0.143313 0.811923 104 255 143 0.473778
-0.040814 -0.143689 0.803736 104 255 143 0.473498
-0.060160 -0.144141 0.812620 104 255 143 0.473655
-0.062658 -0.144166 0.811775 104 255 143 0.473623
-0.061391 -0.144527 0.808155 104 255 143 0.473933
-0.065179 -0.144290 0.810919 104 255 143 0.473501
-0.063885 -0.144625 0.807305 104 255 143 0.473886
-0.062530 -0.144717 0.803597 104 255 143 0.474593
-0.060509 -0.144509 0.799676 104 255 143 0.476221
-0.059456 -0.144416 0.804252 104 255 143 0.474852
-0.057432 -0.144317 0.800367 104 255 143 0.475746
-0.056345 -0.144192 0.804893 104 255 143 0.474861
-0.058277 -0.144241 0.808836 104 255 143 0.474060
-0.054334 -0.144194 0.800983 104 255 143 0.475108
-0.056873 -0.145298 0.789547 104 255 143 0.475143
-0.053221 -0.145350 0.790139 104 255 143 0.474779
-0.054979 -0.144795 0.793593 104 255 143 0.475372
-0.049502 -0.145577 0.790707 104 255 143 0.472922
-0.051334 -0.144735 0.794098 104 255 143 0.475075
-0.047597 -0.144875 0.794655 101 255 147 0.470583
-0.045747 -0.145898 0.791303 108 255 140 0.478708
-0.053098 -0.144383 0.797626 104 255 143 0.475051
-0.049427 -0.144290 0.798113 104 255 143 0.474632
-0.056218 -0.144416 0.796961 104 255 143 0.475382
-0.059299 -0.144527 0.796304 104 255 143 0.475810
-0.058103 -0.144778 0.792939 104 255 143 0.475431
-0.038905 -0.146096 0.791839 104 255 143 0.473868
-0.042320 -0.145037 0.795692 104 255 143 0.473935
-0.034761 -0.146283 0.791887 104 255 143 0.474071
-0.038170 -0.144968 0.795665 104 255 143 0.473730
-0.033999 -0.145005 0.795610 104 255 143 0.474269
-0.030631 -0.146490 0.791930 104 255 143 0.473793
-0.041540 -0.144217 0.799658 104 255 143 0.473835
-0.037469 -0.143948 0.799546 104 255 143 0.473548
0.003609 -0.138033 0.808105 104 255 143 0.476137
0.000796 -0.138276 0.811886 104 255 143 0.473636
-0.003599 -0.139070 0.814711 95 255 153 0.464483
-0.006238 -0.139754 0.818305 121 255 127 0.493603
-0.010289 -0.140956 0.820858 95 255 153 0.464152
-0.007114 -0.140328 0.822821 95 255 153 0.463295
-0.009422 -0.140571 0.816323 95 255 153 0.462154
-0.013442 -0.141592 0.818865 111 255 137 0.482054
-0.006753 -0.139989 0.812714 95 255 153 0.464766
-0.004012 -0.139658 0.809011 101 255 147 0.469006
0.000411 -0.139001 0.806275 104 255 143 0.472818
-0.002732 -0.140029 0.804369 101 255 147 0.471237
-0.009585 -0.140365 0.826498 98 255 150 0.466334
-0.013599 -0.140718 0.829206 101 255 147 0.470190
-0.015930 -0.140764 0.832744 101 255 147 0.472123
-0.019180 -0.141093 0.830989 101 255 147 0.472304
-0.016790 -0.141160 0.827333 101 255 147 0.470461
-0.014370 -0.141222 0.823600 98 255 150 0.467909
-0.025449 -0.141678 0.827501 101 255 147 0.472475
-0.022925 -0.141881 0.823762 101 255 147 0.471807
-0.018897 -0.141906 0.820855 101 255 147 0.469077
-0.016357 -0.142189 0.816967 98 255 150 0.467836
-0.019874 -0.141544 0.825542 101 255 147 0.471122
-0.022313 -0.141429 0.829147 101 255 147 0.472348
-0.015306 -0.141946 0.812435 98 255 150 0.466954
-0.012607 -0.141570 0.808797 98 255 150 0.468148
-0.008482 -0.141039 0.806156 101 255 147 0.469210
-0.005495 -0.141229 0.802572 101 255 147 0.470835
-0.009773 -0.140822 0.810719 98 255 150 0.465577
-0.012355 -0.141357 0.814310 95 255 153 0.464702
0.013223 -0.086124 0.776103 95 255 153 0.463672
0.013137 -0.090027 0.776022 221 255 27 0.614427
0.014262 -0.093907 0.776980 91 255 156 0.457677
0.014274 -0.098377 0.776742 95 255 153 0.464240
0.016209 -0.097783 0.779079 95 255 153 0.463206
0.012273 -0.094399 0.774608 91 255 156 0.459404
0.012307 -0.098825 0.774443 95 255 153 0.464531
0.011150 -0.090378 0.773458 88 255 160 0.455558
0.010038 -0.086547 0.772329 88 255 160 0.455241
0.016446 -0.101993 0.780536 95 255 153 0.463159
0.015830 -0.106865 0.780780 101 255 147 0.470599
0.016112 -0.111430 0.782110 104 255 143 0.473066
0.015427 -0.116350 0.782468 104 255 143 0.475158
0.017422 -0.115522 0.784443 85 255 163 0.450841
0.014122 -0.112261 0.780162 104 255 143 0.474129
0.013243 -0.117139 0.780712 104 255 143 0.475500
0.013874 -0.107572 0.778661 101 255 147 0.471464
0.013648 -0.102980 0.777120 98 255 150 0.467158
0.009584 -0.113691 0.776244 104 255 143 0.474325
0.010452 -0.108622 0.775172 101 255 147 0.471735
0.010309 -0.103786 0.773340 98 255 150 0.468019
0.010683 -0.099148 0.772591 95 255 153 0.463363
0.009169 -0.099333 0.770614 98 255 150 0.465269
0.011831 -0.103498 0.775125 179 255 69 0.562797
0.012025 -0.108183 0.776852 101 255 147 0.471805
0.012223 -0.112874 0.778443 104 255 143 0.474514
0.011392 -0.117872 0.779315 104 255 143 0.475575
0.008028 -0.094914 0.769188 95 255 153 0.461890
0.007639 -0.090810 0.768923 88 255 160 0.455755
0.006263 -0.086943 0.767699 88 255 160 0.453231
0.008073 -0.086810 0.769991 88 255 160 0.453433
0.009307 -0.090636 0.771098 82 255 166 0.447823
0.010429 -0.094677 0.772273 91 255 156 0.457617
-0.005411 -0.094298 0.753611 121 255 127 0.492798
-0.003591 -0.097295 0.755605 101 255 147 0.471451
-0.002072 -0.100834 0.757973 69 255 179 0.433195
-0.000738 -0.104484 0.760820 101 255 147 0.471986
-0.004020 -0.092983 0.755143 101 255 147 0.471307
-0.002228 -0.096268 0.757275 101 255 147 0.471173
-0.000204 -0.099630 0.760107 101 255 147 0.471341
0.001382 -0.103415 0.763021 101 255 147 0.471897
-0.001065 -0.122019 0.771437 114 255 134 0.485329
-0.000764 -0.117405 0.769067 104 255 143 0.473711
-0.000631 -0.112923 0.766549 104 255 143 0.473403
-0.002971 -0.121920 0.769308 104 255 143 0.473588
-0.002647 -0.117340 0.766937 101 255 147 0.471721
-0.000577 -0.108524 0.763728 104 255 143 0.472727
0.001059 -0.107735 0.765435 104 255 143 0.472719
-0.004648 -0.121499 0.767107 104 255 143 0.473580
-0.002717 -0.113159 0.764032 104 255 143 0.473149
0.001135 -0.112035 0.768036 104 255 143 0.473397
0.002791 -0.106725 0.766695 101 255 147 0.472471
0.003014 -0.102318 0.764366 101 255 147 0.471613
0.002928 -0.111313 0.769368 104 255 143 0.473382
0.001709 -0.116514 0.771028 104 255 143 0.473752
0.000909 -0.121567 0.772877 104 255 143 0.473975
-0.000913 -0.094804 0.758831 104 255 143 0.475408
-0.002763 -0.091456 0.756716 101 255 147 0.470878
-0.001158 -0.089895 0.758467 101 255 147 0.469762
0.000630 -0.093529 0.760405 101 255 147 0.470133
0.001767 -0.097944 0.762097 101 255 147 0.470833
0.000953 -0.088213 0.760805 121 255 127 0.495191
0.002108 -0.092318 0.761987 101 255 147 0.468903
0.003732 -0.096464 0.763877 101 255 147 0.470053
0.004567 -0.101275 0.765535 101 255 147 0.471504
0.005518 -0.105355 0.768612 101 255 147 0.471992
0.004677 -0.110411 0.770388 104 255 143 0.473539
0.004198 -0.115491 0.772437 104 255 143 0.473977
-0.003770 -0.126649 0.773371 104 255 143 0.473184
-0.006797 -0.130758 0.773947 121 255 127 0.495284
-0.009402 -0.135105 0.775743 101 255 147 0.471143
-0.012299 -0.138886 0.776300 101 255 147 0.471766
-0.011158 -0.139707 0.778755 101 255 147 0.472456
-0.010420 -0.134209 0.773297 101 255 147 0.471466
-0.013446 -0.137829 0.773784 101 255 147 0.470800
-0.008586 -0.130162 0.771161 75 255 172 0.439201
-0.005450 -0.126247 0.770681 104 255 143 0.473081
-0.014630 -0.143044 0.781092 104 255 143 0.473408
-0.014647 -0.142102 0.778514 95 255 153 0.462658
-0.018308 -0.144990 0.780906 104 255 143 0.473494
-0.018550 -0.145449 0.783574 104 255 143 0.473424
-0.018260 -0.144248 0.778250 104 255 143 0.473754
-0.022258 -0.147266 0.783266 104 255 143 0.473469
-0.022094 -0.146681 0.780640 104 255 143 0.473622
-0.022767 -0.147167 0.785928 104 255 143 0.473253
-0.021887 -0.146192 0.777906 104 255 143 0.473873
-0.019501 -0.143395 0.775673 104 255 143 0.473508
-0.015917 -0.141229 0.776013 104 255 143 0.472743
-0.019792 -0.141499 0.772346 101 255 147 0.471811
-0.016865 -0.139303 0.771829 104 255 143 0.475683
-0.013931 -0.136773 0.771276 101 255 147 0.470868
-0.022645 -0.144932 0.774997 104 255 143 0.473853
-0.009090 -0.128896 0.768867 104 255 143 0.472660
-0.011522 -0.132995 0.770078 101 255 147 0.471843
0.010480 -0.122240 0.781518 101 255 147 0.470539
0.009327 -0.126572 0.783840 108 255 140 0.476843
0.011432 -0.125799 0.785097 108 255 140 0.476802
0.012441 -0.121472 0.782841 108 255 140 0.476816
0.008971 -0.130247 0.787068 104 255 143 0.476135
0.008328 -0.133496 0.790485 104 255 143 0.475428
0.005694 -0.134524 0.789154 117 255 130 0.489564
0.006377 -0.131279 0.785688 104 255 143 0.475638
0.014764 -0.120529 0.784608 108 255 140 0.476665
0.014054 -0.124735 0.786830 108 255 140 0.476901
0.016175 -0.123847 0.788562 108 255 140 0.476653
0.016884 -0.119763 0.786414 104 255 143 0.476048
0.014128 -0.128293 0.790170 108 255 140 0.476745
0.013904 -0.131383 0.793670 108 255 140 0.476577
0.011178 -0.132478 0.792032 104 255 143 0.475963
0.011484 -0.129353 0.788455 85 255 163 0.449300
0.004890 -0.137205 0.803651 108 255 140 0.476708
0.006198 -0.136322 0.799284 98 255 150 0.468600
0.001722 -0.138233 0.801945 104 255 143 0.474867
0.002966 -0.137395 0.797606 104 255 143 0.474821
0.007314 -0.135177 0.794827 104 255 143 0.475836
0.010255 -0.134177 0.796388 108 255 140 0.476642
0.009059 -0.135382 0.800853 108 255 140 0.477724
-0.001116 -0.139266 0.800292 101 255 147 0.472364
0.000411 -0.138434 0.796104 104 255 143 0.473383
-0.004018 -0.140469 0.798541 101 255 147 0.471460
0.001877 -0.137205 0.791899 104 255 143 0.473885
0.004436 -0.136210 0.793312 104 255 143 0.474845
0.054030 -0.021231 0.804636 101 255 147 0.469495
0.056739 -0.020817 0.806160 101 255 147 0.469443
0.057080 -0.024820 0.804842 98 255 150 0.467357
0.059482 -0.020427 0.807682 101 255 147 0.469317
0.059820 -0.024464 0.806428 98 255 150 0.467373
0.062553 -0.024099 0.808043 82 255 166 0.448520
0.062272 -0.020011 0.809219 101 255 147 0.469540
0.060126 -0.028600 0.805028 98 255 150 0.468193
0.062880 -0.028251 0.806723 98 255 150 0.466094
0.063161 -0.032424 0.805114 101 255 147 0.472366
0.060547 -0.032827 0.803586 104 255 143 0.473434
0.057555 -0.028951 0.803515 101 255 147 0.469085
0.057899 -0.033250 0.802153 104 255 143 0.473735
0.054961 -0.029369 0.802067 101 255 147 0.469921
0.054531 -0.025205 0.803392 98 255 150 0.467602
0.051977 -0.025653 0.801973 101 255 147 0.468882
0.055170 -0.033769 0.800766 104 255 143 0.472920
0.052315 -0.029825 0.800660 101 255 147 0.469612
0.052410 -0.034336 0.799450 101 255 147 0.472117
0.051479 -0.021702 0.803252 101 255 147 0.469392
0.065116 -0.019559 0.810587 101 255 147 0.469928
0.068183 -0.019082 0.812084 101 255 147 0.470576
0.068150 -0.023279 0.810928 98 255 150 0.466591
0.071287 -0.018576 0.813569 82 255 166 0.446273
0.071164 -0.022871 0.812532 98 255 150 0.467453
0.071171 -0.027097 0.811345 121 255 127 0.493037
0.071423 -0.031356 0.809911 95 255 153 0.461745
0.068368 -0.027502 0.809789 95 255 153 0.462828
0.068682 -0.031678 0.808231 98 255 150 0.467750
0.065605 -0.027883 0.808230 95 255 153 0.464057
0.065332 -0.023698 0.809472 98 255 150 0.466232
0.065925 -0.032025 0.806620 101 255 147 0.470725
0.069797 -0.049489 0.805161 108 255 140 0.480025
0.070192 -0.045245 0.805982 111 255 137 0.482309
0.067439 -0.045639 0.804817 111 255 137 0.481055
0.067172 -0.049778 0.803975 108 255 140 0.478637
0.067969 -0.041039 0.805497 108 255 140 0.479947
0.064785 -0.045936 0.803567 108 255 140 0.479758
0.065224 -0.041471 0.804316 111 255 137 0.480523
0.062524 -0.041892 0.803160 111 255 137 0.480533
0.064477 -0.050266 0.802838 108 255 140 0.478041
0.062090 -0.046436 0.802406 108 255 140 0.478627
0.061744 -0.050800 0.801703 104 255 143 0.475459
0.065636 -0.036744 0.805219 108 255 140 0.477739
0.062956 -0.037189 0.803984 108 255 140 0.478110
0.068485 -0.036331 0.806720 108 255 140 0.477665
0.071267 -0.035953 0.808323 108 255 140 0.476896
0.070923 -0.040500 0.806887 111 255 137 0.481101
0.059289 -0.051164 0.800420 104 255 143 0.473416
0.059332 -0.046998 0.801050 108 255 140 0.476973
0.056862 -0.047404 0.799733 104 255 143 0.474044
0.056810 -0.051676 0.799177 101 255 147 0.471693
0.057007 -0.042964 0.800448 104 255 143 0.476324
0.054364 -0.047852 0.798417 101 255 147 0.472315
0.054458 -0.043486 0.799162 104 255 143 0.474363
0.051965 -0.043954 0.797888 104 255 143 0.472836
0.054313 -0.052197 0.797960 101 255 147 0.470999
0.051839 -0.048466 0.797243 101 255 147 0.470362
0.051879 -0.052673 0.796691 101 255 147 0.470104
0.054759 -0.038762 0.799866 104 255 143 0.475356
0.052131 -0.039376 0.798702 104 255 143 0.473854
0.057536 -0.038188 0.801207 108 255 140 0.476612
0.060270 -0.037630 0.802578 108 255 140 0.478317
0.059776 -0.042436 0.801812 108 255 140 0.478318
0.033670 -0.001405 0.845539 101 255 147 0.471356
0.036874 -0.001436 0.847224 101 255 147 0.471382
0.038107 -0.002970 0.844948 104 255 143 0.472943
0.040091 -0.001525 0.848900 101 255 147 0.471460
0.041301 -0.003010 0.846651 104 255 143 0.473358
0.044589 -0.003131 0.848379 104 255 143 0.473869
0.043363 -0.001708 0.850648 101 255 147 0.472246
0.042560 -0.004343 0.844216 104 255 143 0.474168
0.045847 -0.004427 0.845942 104 255 143 0.474521
0.047199 -0.005406 0.843373 104 255 143 0.474645
0.043983 -0.005411 0.841602 104 255 143 0.474411
0.039448 -0.004373 0.842488 104 255 143 0.473832
0.040870 -0.005448 0.839916 104 255 143 0.474173
0.036328 -0.004447 0.840811 104 255 143 0.473775
0.034977 -0.003025 0.843249 104 255 143 0.472852
0.031785 -0.003032 0.841579 104 255 143 0.472680
0.037739 -0.005530 0.838237 104 255 143 0.474026
0.033135 -0.004480 0.839158 104 255 143 0.473450
0.034560 -0.005592 0.836576 104 255 143 0.473994
0.030469 -0.001406 0.843859 101 255 147 0.471098
0.046911 -0.001813 0.852540 104 255 143 0.472955
0.050556 -0.002005 0.854481 108 255 140 0.477584
0.051720 -0.003391 0.852175 104 255 143 0.474837
0.054208 -0.002342 0.856369 104 255 143 0.474605
0.055376 -0.003668 0.854076 104 255 143 0.473371
0.056623 -0.004789 0.851619 104 255 143 0.475401
0.058005 -0.005570 0.848991 104 255 143 0.475479
0.052986 -0.004606 0.849732 104 255 143 0.475211
0.054355 -0.005479 0.847107 104 255 143 0.475368
0.049406 -0.004480 0.847831 111 255 137 0.482311
0.048118 -0.003219 0.850259 104 255 143 0.474391
0.050756 -0.005428 0.845228 104 255 143 0.474906
0.062030 -0.005879 0.839937 104 255 143 0.475274
0.058452 -0.006066 0.838223 104 255 143 0.475275
0.056915 -0.006391 0.841330 104 255 143 0.475399
0.054954 -0.006284 0.836502 104 255 143 0.475085
0.053434 -0.006483 0.839551 104 255 143 0.475142
0.050004 -0.006648 0.837815 104 255 143 0.474828
0.051527 -0.006432 0.834756 104 255 143 0.474850
0.051982 -0.006232 0.842445 104 255 143 0.475082
0.048549 -0.006281 0.840680 104 255 143 0.474775
0.055589 -0.006185 0.844320 104 255 143 0.475363
0.059266 -0.006190 0.846191 104 255 143 0.475524
0.060589 -0.006284 0.843156 104 255 143 0.475494
0.048314 -0.006527 0.833070 104 255 143 0.474599
0.045256 -0.006625 0.831387 104 255 143 0.474460
0.043626 -0.006785 0.834436 104 255 143 0.474393
0.042197 -0.006714 0.829731 104 255 143 0.474314
0.040584 -0.006854 0.832764 104 255 143 0.474272
0.037496 -0.006991 0.831111 104 255 143 0.474186
0.039096 -0.006930 0.828095 104 255 143 0.474233
0.039064 -0.006447 0.835583 104 255 143 0.474207
0.035990 -0.006565 0.833921 104 255 143 0.474135
0.042208 -0.006355 0.837269 104 255 143 0.474356
0.045332 -0.006295 0.838950 104 255 143 0.474590
0.046768 -0.006682 0.836145 104 255 143 0.474599
-0.007732 -0.124417 0.873253 101 255 147 0.469950
-0.007337 -0.126360 0.869234 98 255 150 0.468701
-0.010847 -0.124528 0.871666 101 255 147 0.469775
-0.010483 -0.126459 0.867642 98 255 150 0.468285
-0.006994 -0.128708 0.865322 95 255 153 0.464292
-0.006565 -0.131521 0.861589 98 255 150 0.466894
-0.003508 -0.131075 0.863258 98 255 150 0.467541
-0.003951 -0.128314 0.867044 98 255 150 0.467019
-0.004354 -0.126033 0.870964 101 255 147 0.469457
-0.000483 -0.130595 0.864891 101 255 147 0.469081
-0.013850 -0.124616 0.869970 101 255 147 0.469689
-0.013361 -0.126699 0.865925 98 255 150 0.468383
-0.016931 -0.124625 0.868383 101 255 147 0.470009
-0.012940 -0.129259 0.862052 95 255 153 0.463668
-0.009531 -0.131803 0.859914 98 255 150 0.467084
-0.009996 -0.128985 0.863744 91 255 156 0.458778
-0.004414 -0.137724 0.849316 101 255 147 0.471830
-0.000709 -0.138773 0.846738 98 255 150 0.467720
-0.005106 -0.136102 0.853586 98 255 150 0.468084
-0.001406 -0.137366 0.851099 101 255 147 0.471542
-0.002192 -0.135583 0.855351 101 255 147 0.470944
0.002319 -0.138482 0.848535 101 255 147 0.472167
-0.005863 -0.133835 0.857656 101 255 147 0.470011
