ply
format ascii 1.0
comment VCGLIB generated
element vertex 958
property float x
property float y
property float z
property uchar red
property uchar green
property uchar blue
property float quality
end_header
-0.009719 -0.050067 0.763073 147 255 101 0.523660
-0.009642 -0.046642 0.763855 147 255 101 0.524890
-0.012818 -0.054788 0.759353 114 255 134 0.486047
-0.013307 -0.051649 0.760002 121 255 127 0.495846
-0.014914 -0.049114 0.759315 0 186 255 0.308014
-0.015204 -0.045710 0.759647 108 255 140 0.479470
-0.017659 -0.047230 0.757292 104 255 143 0.473744
-0.012425 -0.047633 0.761609 40 255 208 0.398016
-0.010442 -0.053705 0.761515 134 255 114 0.508776
-0.019673 -0.045375 0.756760 91 255 156 0.459511
-0.020353 -0.042483 0.757360 101 255 147 0.470737
-0.022302 -0.040604 0.756584 23 255 224 0.378132
-0.022781 -0.037656 0.756890 140 255 108 0.516697
-0.025520 -0.039729 0.754216 53 255 195 0.411265
-0.017140 -0.043581 0.759202 255 213 0 0.681723
0.005001 -0.022901 0.779438 137 255 111 0.511823
0.002286 -0.023550 0.777692 134 255 114 0.511559
0.001188 -0.020550 0.779617 134 255 114 0.509699
-0.000361 -0.024134 0.776043 134 255 114 0.511594
-0.001426 -0.021188 0.777844 137 255 111 0.512423
-0.003957 -0.021806 0.776174 137 255 111 0.512168
-0.002910 -0.024658 0.774390 134 255 114 0.508803
-0.002574 -0.018438 0.779897 137 255 111 0.513630
-0.005099 -0.019073 0.778085 127 255 121 0.500590
-0.006270 -0.016472 0.780211 137 255 111 0.513831
-0.003699 -0.015956 0.781852 137 255 111 0.514427
0.000079 -0.017857 0.781465 137 255 111 0.514071
-0.001109 -0.015403 0.783495 137 255 111 0.514822
0.002797 -0.017241 0.783074 137 255 111 0.514339
0.003934 -0.019903 0.781121 137 255 111 0.513245
0.001552 -0.014800 0.785141 137 255 111 0.515266
-0.005699 -0.025003 0.773388 134 255 114 0.511214
-0.008613 -0.025564 0.771510 134 255 114 0.510616
-0.009432 -0.022548 0.773883 134 255 114 0.511157
-0.011462 -0.026064 0.769572 130 255 117 0.506397
-0.012242 -0.023110 0.771837 134 255 114 0.510881
-0.014994 -0.023548 0.769774 134 255 114 0.510863
-0.014267 -0.026473 0.767551 121 255 127 0.494790
-0.013129 -0.020228 0.774413 137 255 111 0.512089
-0.015869 -0.020726 0.772218 134 255 114 0.511704
-0.016809 -0.017966 0.774920 147 255 101 0.526107
-0.014261 -0.017689 0.776255 137 255 111 0.512967
-0.010513 -0.019890 0.775635 140 255 108 0.517570
-0.011662 -0.017336 0.777578 137 255 111 0.513191
-0.007846 -0.019493 0.776847 137 255 111 0.512734
-0.006733 -0.022200 0.774993 124 255 124 0.497481
-0.008992 -0.016930 0.778887 140 255 108 0.519377
-0.021619 -0.011105 0.787451 137 255 111 0.513510
-0.019141 -0.010975 0.788759 137 255 111 0.513360
-0.017834 -0.012344 0.785607 137 255 111 0.513576
-0.015301 -0.012105 0.786854 137 255 111 0.513777
-0.016638 -0.010772 0.790008 137 255 111 0.513577
-0.014010 -0.013605 0.783772 137 255 111 0.513665
-0.012726 -0.011833 0.788091 137 255 111 0.514199
-0.011404 -0.013243 0.784962 137 255 111 0.514139
-0.008733 -0.012845 0.786117 137 255 111 0.514696
-0.014115 -0.010573 0.791279 137 255 111 0.513879
-0.010135 -0.011504 0.789306 137 255 111 0.514664
-0.011558 -0.010338 0.792551 137 255 111 0.514372
-0.010122 -0.014935 0.781962 137 255 111 0.513809
-0.007452 -0.014497 0.783078 137 255 111 0.514356
-0.012790 -0.015316 0.780560 137 255 111 0.513411
-0.015400 -0.015665 0.779147 137 255 111 0.513159
-0.016596 -0.013899 0.782292 137 255 111 0.513406
-0.019146 -0.014125 0.780794 140 255 108 0.516006
-0.017956 -0.015937 0.777703 137 255 111 0.513237
-0.020368 -0.012556 0.784075 137 255 111 0.513454
-0.009148 -0.010184 0.794004 137 255 111 0.514521
-0.007745 -0.011263 0.791119 137 255 111 0.514921
-0.005212 -0.010989 0.792527 137 255 111 0.515460
-0.006659 -0.009992 0.795465 137 255 111 0.515024
-0.003786 -0.012132 0.789666 137 255 111 0.515379
-0.002598 -0.010693 0.793974 140 255 108 0.515975
-0.001150 -0.011762 0.791050 140 255 108 0.515900
-0.004089 -0.009768 0.796990 140 255 108 0.515728
0.000225 -0.013084 0.788242 137 255 111 0.515604
-0.002410 -0.013585 0.786504 137 255 111 0.515166
-0.004949 -0.014070 0.784797 137 255 111 0.514639
-0.006305 -0.012514 0.787905 137 255 111 0.514950
-0.023038 -0.010170 0.790558 137 255 111 0.511845
-0.020594 -0.010086 0.791820 134 255 114 0.511527
-0.022025 -0.009158 0.794893 130 255 117 0.505983
-0.024496 -0.009240 0.793642 130 255 117 0.507348
-0.019566 -0.009084 0.796154 130 255 117 0.506679
-0.023466 -0.008186 0.797915 127 255 121 0.500257
-0.020977 -0.008105 0.799201 127 255 121 0.503824
-0.022388 -0.006934 0.802206 127 255 121 0.500489
-0.025929 -0.008216 0.796672 124 255 124 0.498763
-0.024877 -0.007022 0.800907 124 255 124 0.498482
-0.027393 -0.007059 0.799626 127 255 121 0.500555
-0.018490 -0.007981 0.800481 130 255 117 0.504061
-0.019892 -0.006823 0.803490 127 255 121 0.501581
-0.017393 -0.006685 0.804804 166 255 82 0.549361
-0.015983 -0.007868 0.801830 134 255 114 0.508066
-0.017075 -0.008970 0.797451 130 255 117 0.506571
-0.014553 -0.008862 0.798771 134 255 114 0.507847
-0.015601 -0.009817 0.794375 137 255 111 0.511721
-0.018101 -0.009951 0.793098 156 255 92 0.538236
-0.013075 -0.009643 0.795658 137 255 111 0.512165
-0.028903 -0.006096 0.802474 127 255 121 0.500768
-0.026390 -0.006013 0.803828 127 255 121 0.500562
-0.027918 -0.004973 0.806729 228 255 20 0.624482
-0.030446 -0.005066 0.805363 130 255 117 0.506953
-0.025433 -0.004842 0.808072 130 255 117 0.507755
-0.029476 -0.003854 0.809626 143 255 104 0.521701
-0.026954 -0.003713 0.810963 147 255 101 0.523498
-0.032028 -0.003954 0.808264 0 202 255 0.324030
-0.024437 -0.003508 0.812301 137 255 111 0.513996
-0.021887 -0.003319 0.813563 134 255 114 0.507948
-0.022914 -0.004708 0.809359 33 255 215 0.389972
-0.020391 -0.004536 0.810646 127 255 121 0.501397
-0.021398 -0.005816 0.806428 127 255 121 0.502684
-0.023900 -0.005927 0.805121 127 255 121 0.502758
-0.018883 -0.005671 0.807722 127 255 121 0.503247
-0.014320 -0.002896 0.817771 156 255 92 0.535570
-0.012880 -0.004233 0.814927 127 255 121 0.502218
-0.015412 -0.004374 0.813444 127 255 121 0.501813
-0.011433 -0.005474 0.812066 134 255 114 0.509058
-0.013977 -0.005561 0.810589 134 255 114 0.508011
-0.012514 -0.006601 0.807680 134 255 114 0.509932
-0.009962 -0.006510 0.809171 134 255 114 0.511171
-0.016430 -0.005627 0.809120 130 255 117 0.505437
-0.014981 -0.006668 0.806223 130 255 117 0.507654
-0.017933 -0.004466 0.812032 127 255 121 0.501043
-0.019415 -0.003216 0.814947 130 255 117 0.504961
-0.016902 -0.003062 0.816355 127 255 121 0.500683
-0.008495 -0.007644 0.806155 137 255 111 0.513449
-0.007066 -0.008535 0.803195 137 255 111 0.514102
-0.009578 -0.008663 0.801590 137 255 111 0.511804
-0.005610 -0.009202 0.800144 137 255 111 0.514399
-0.008144 -0.009385 0.798579 137 255 111 0.513600
-0.010610 -0.009516 0.797011 137 255 111 0.512637
-0.012089 -0.008780 0.800169 134 255 114 0.510018
-0.013538 -0.007838 0.803244 134 255 114 0.511015
-0.011058 -0.007758 0.804679 137 255 111 0.512545
-0.023151 -0.012610 0.783240 137 255 111 0.513368
-0.021924 -0.014230 0.779971 137 255 111 0.513272
-0.024714 -0.014228 0.779091 137 255 111 0.513910
-0.020741 -0.016022 0.776935 137 255 111 0.513307
-0.023529 -0.016024 0.776036 137 255 111 0.513722
-0.022423 -0.017995 0.773184 137 255 111 0.512968
-0.019607 -0.018020 0.774118 137 255 111 0.512765
-0.026424 -0.015976 0.775023 137 255 111 0.514013
-0.025317 -0.017924 0.772139 137 255 111 0.513436
-0.028353 -0.017792 0.770984 108 255 140 0.480204
-0.029265 -0.016064 0.773837 137 255 111 0.514885
-0.027397 -0.014357 0.778031 137 255 111 0.514250
-0.030238 -0.014440 0.776836 137 255 111 0.515080
-0.028423 -0.012897 0.781179 137 255 111 0.514203
-0.025758 -0.012778 0.782236 137 255 111 0.513416
-0.026794 -0.011472 0.785508 101 255 147 0.470442
-0.031212 -0.012958 0.780001 137 255 111 0.515140
-0.029455 -0.011566 0.784466 137 255 111 0.513596
-0.032220 -0.011610 0.783328 137 255 111 0.514910
-0.024186 -0.011310 0.786499 137 255 111 0.513175
-0.019247 -0.019880 0.771661 137 255 111 0.512419
-0.018399 -0.022633 0.769164 134 255 114 0.510576
-0.021838 -0.021664 0.768459 137 255 111 0.512340
-0.017666 -0.025533 0.766907 134 255 114 0.510499
-0.021048 -0.024478 0.766127 134 255 114 0.511383
-0.020380 -0.027414 0.764005 134 255 114 0.510238
-0.017025 -0.028495 0.764932 134 255 114 0.509894
-0.024541 -0.023409 0.765168 137 255 111 0.512783
-0.023841 -0.026246 0.763012 137 255 111 0.511798
-0.027407 -0.025079 0.761865 137 255 111 0.513646
-0.027569 -0.023187 0.763884 137 255 111 0.513684
-0.024738 -0.021539 0.767296 137 255 111 0.512789
-0.027791 -0.021340 0.766091 137 255 111 0.513673
-0.025023 -0.019687 0.769651 137 255 111 0.513077
-0.022101 -0.019817 0.770701 137 255 111 0.512604
-0.028059 -0.019544 0.768478 137 255 111 0.513887
-0.041086 -0.023446 0.758543 140 255 108 0.518459
-0.041167 -0.021873 0.760640 140 255 108 0.518443
-0.037696 -0.021975 0.761606 140 255 108 0.517385
-0.037810 -0.020484 0.763756 140 255 108 0.517338
-0.041323 -0.020395 0.762798 140 255 108 0.518553
-0.034395 -0.020624 0.764728 140 255 108 0.515804
-0.037906 -0.019034 0.766053 140 255 108 0.517514
-0.034543 -0.019117 0.766957 140 255 108 0.516170
-0.034670 -0.017679 0.769333 140 255 108 0.516291
-0.041450 -0.018973 0.765109 140 255 108 0.518731
-0.038053 -0.017584 0.768449 140 255 108 0.517729
-0.041619 -0.017513 0.767554 140 255 108 0.518752
-0.031293 -0.019225 0.767842 127 255 121 0.501462
-0.031453 -0.017738 0.770182 137 255 111 0.515126
-0.031054 -0.020976 0.765451 137 255 111 0.514506
-0.030791 -0.022774 0.763165 137 255 111 0.514562
-0.034200 -0.022353 0.762418 108 255 140 0.478126
-0.034014 -0.024156 0.760144 140 255 108 0.515955
-0.030627 -0.024591 0.761022 127 255 121 0.500337
-0.037482 -0.023762 0.759356 140 255 108 0.517546
-0.042400 -0.016092 0.770258 140 255 108 0.518861
-0.039078 -0.015879 0.771355 140 255 108 0.517869
-0.039894 -0.014525 0.774162 140 255 108 0.517947
-0.043192 -0.014751 0.773089 140 255 108 0.518982
-0.036703 -0.014327 0.775258 140 255 108 0.516777
-0.040685 -0.013255 0.777081 140 255 108 0.517906
-0.037453 -0.013085 0.778201 140 255 108 0.516820
-0.038168 -0.011923 0.781215 140 255 108 0.516641
-0.044018 -0.013437 0.775977 140 255 108 0.519172
-0.041405 -0.012053 0.780089 140 255 108 0.517986
-0.044787 -0.012200 0.778924 140 255 108 0.518994
-0.034387 -0.012903 0.779266 140 255 108 0.515854
-0.035110 -0.011806 0.782330 137 255 111 0.515598
-0.033380 -0.014390 0.776078 140 255 108 0.515715
-0.032399 -0.016018 0.773035 137 255 111 0.515415
-0.035683 -0.015951 0.772196 140 255 108 0.516769
-0.034505 -0.004144 0.807175 143 255 104 0.519564
-0.032917 -0.005259 0.804254 130 255 117 0.505784
-0.035443 -0.005393 0.803129 130 255 117 0.505177
-0.031365 -0.006287 0.801373 124 255 124 0.496204
-0.033874 -0.006429 0.800278 121 255 127 0.494926
-0.032328 -0.007379 0.797478 117 255 130 0.488952
-0.029843 -0.007246 0.798561 121 255 127 0.492296
-0.036435 -0.006509 0.799161 121 255 127 0.495300
-0.034865 -0.007464 0.796359 121 255 127 0.493381
-0.037524 -0.007516 0.795169 134 255 114 0.508778
-0.039030 -0.006603 0.797892 130 255 117 0.507049
-0.037956 -0.005539 0.801900 130 255 117 0.505369
-0.040540 -0.005640 0.800621 134 255 114 0.509874
-0.039476 -0.004500 0.804702 255 180 0 0.715992
-0.036951 -0.004346 0.805960 137 255 111 0.514971
-0.042085 -0.004612 0.803405 137 255 111 0.514655
-0.028532 -0.008303 0.795699 124 255 124 0.497053
-0.027072 -0.009357 0.792663 130 255 117 0.506391
-0.029663 -0.009439 0.791671 130 255 117 0.506322
-0.025620 -0.010336 0.789590 137 255 111 0.511722
-0.028209 -0.010476 0.788608 134 255 114 0.511230
-0.030865 -0.010517 0.787537 137 255 111 0.511964
-0.033507 -0.010624 0.786314 137 255 111 0.513526
-0.032179 -0.009573 0.790530 130 255 117 0.506561
-0.034818 -0.009633 0.789307 134 255 114 0.510939
-0.033508 -0.008557 0.793465 121 255 127 0.495296
-0.030996 -0.008458 0.794615 121 255 127 0.494052
-0.036149 -0.008613 0.792266 130 255 117 0.507094
-0.045888 -0.011221 0.781713 140 255 108 0.518997
-0.042715 -0.010967 0.783031 140 255 108 0.518014
-0.043822 -0.010026 0.785904 140 255 108 0.518031
-0.046985 -0.010243 0.784564 140 255 108 0.519011
-0.040768 -0.009847 0.787184 140 255 108 0.516019
-0.044965 -0.009056 0.788774 140 255 108 0.518171
-0.041919 -0.008886 0.790055 137 255 111 0.515569
-0.043061 -0.007899 0.792857 140 255 108 0.516229
-0.048085 -0.009255 0.787447 140 255 108 0.519073
-0.046088 -0.008071 0.791630 140 255 108 0.518443
-0.049190 -0.008237 0.790317 140 255 108 0.519192
-0.039038 -0.008699 0.791271 137 255 111 0.511814
-0.040185 -0.007720 0.794081 134 255 114 0.511571
-0.037706 -0.009754 0.788285 137 255 111 0.513083
-0.036408 -0.010787 0.785301 137 255 111 0.514574
-0.039495 -0.010866 0.784161 140 255 108 0.516481
-0.050527 -0.007372 0.792997 140 255 108 0.519329
-0.047567 -0.007137 0.794399 140 255 108 0.518730
-0.048897 -0.006244 0.797050 140 255 108 0.519183
-0.051856 -0.006467 0.795656 140 255 108 0.519490
-0.046044 -0.006008 0.798391 140 255 108 0.517466
-0.050252 -0.005285 0.799688 143 255 104 0.519558
-0.047436 -0.005052 0.801024 140 255 108 0.518112
-0.053157 -0.005522 0.798266 143 255 104 0.519682
-0.044750 -0.004811 0.802319 137 255 111 0.515461
-0.043234 -0.005836 0.799549 137 255 111 0.513389
-0.041713 -0.006801 0.796813 137 255 111 0.511893
-0.044562 -0.006974 0.795638 140 255 108 0.516414
-0.047872 -0.012628 0.777959 143 255 104 0.519761
-0.048926 -0.011703 0.780544 127 255 121 0.500132
-0.051991 -0.012150 0.779647 143 255 104 0.519937
-0.050961 -0.013086 0.777035 143 255 104 0.520038
-0.053040 -0.011201 0.782197 143 255 104 0.519785
-0.055077 -0.012646 0.778657 143 255 104 0.519653
-0.056044 -0.011694 0.781318 140 255 108 0.519281
-0.059073 -0.012214 0.780325 140 255 108 0.518527
-0.053999 -0.013634 0.776161 143 255 104 0.519803
-0.058068 -0.013202 0.777794 140 255 108 0.518879
-0.057044 -0.014198 0.775265 140 255 108 0.519378
-0.057055 -0.010699 0.783895 140 255 108 0.518955
-0.060084 -0.011228 0.782958 140 255 108 0.518263
-0.061089 -0.010218 0.785576 140 255 108 0.517877
-0.058107 -0.009630 0.786722 140 255 108 0.518593
-0.054109 -0.010171 0.785033 140 255 108 0.519450
-0.055159 -0.009120 0.787872 111 255 137 0.480993
-0.051093 -0.009687 0.786224 124 255 124 0.496699
-0.050025 -0.010696 0.783337 143 255 104 0.519685
-0.052129 -0.008653 0.789113 140 255 108 0.519423
-0.059961 -0.015065 0.774586 140 255 108 0.518511
-0.060906 -0.014119 0.776935 140 255 108 0.517959
-0.063791 -0.015019 0.776284 140 255 108 0.516625
-0.062835 -0.015999 0.773964 140 255 108 0.516744
-0.064735 -0.014049 0.778663 140 255 108 0.515694
-0.066655 -0.015983 0.775730 137 255 111 0.515057
-0.067586 -0.014981 0.778043 59 255 189 0.421089
-0.070462 -0.015977 0.777509 137 255 111 0.513440
-0.065669 -0.016980 0.773421 140 255 108 0.515780
-0.069424 -0.016978 0.775248 137 255 111 0.514022
-0.068461 -0.018009 0.772984 137 255 111 0.514299
-0.068605 -0.013992 0.780413 137 255 111 0.514458
-0.071423 -0.014939 0.779840 72 255 176 0.436631
-0.072394 -0.013926 0.782189 137 255 111 0.512380
-0.069651 -0.012913 0.782955 137 255 111 0.513959
-0.065788 -0.013021 0.781178 137 255 111 0.515568
-0.066845 -0.011979 0.783745 137 255 111 0.514849
-0.062965 -0.012102 0.782005 140 255 108 0.516757
-0.061924 -0.013114 0.779453 140 255 108 0.516965
-0.063978 -0.011082 0.784591 140 255 108 0.516741
-0.073306 -0.010307 0.790137 134 255 114 0.510893
-0.070529 -0.009325 0.791135 137 255 111 0.513161
-0.069258 -0.010256 0.788623 137 255 111 0.513290
-0.067687 -0.008417 0.792183 137 255 111 0.515010
-0.066442 -0.009329 0.789698 137 255 111 0.515376
-0.063609 -0.008469 0.790725 140 255 108 0.517049
-0.064790 -0.007560 0.793271 140 255 108 0.516765
-0.065228 -0.010228 0.787077 140 255 108 0.515780
-0.062339 -0.009352 0.788191 137 255 111 0.514691
-0.068053 -0.011111 0.786195 137 255 111 0.514643
-0.070909 -0.012056 0.785376 137 255 111 0.513136
-0.072117 -0.011172 0.787772 137 255 111 0.512108
-0.074869 -0.012149 0.786979 134 255 114 0.510370
-0.073642 -0.013024 0.784609 134 255 114 0.511478
-0.076006 -0.011224 0.789349 134 255 114 0.509763
-0.061834 -0.007008 0.794422 140 255 108 0.517559
-0.058890 -0.006474 0.795683 140 255 108 0.518789
-0.057616 -0.007410 0.793083 140 255 108 0.518769
-0.056012 -0.005967 0.797000 140 255 108 0.519491
-0.054706 -0.006920 0.794383 140 255 108 0.519412
-0.053386 -0.007818 0.791741 140 255 108 0.519394
-0.056372 -0.008270 0.790529 140 255 108 0.518880
-0.059364 -0.008789 0.789343 140 255 108 0.518063
-0.060596 -0.007917 0.791901 140 255 108 0.517703
-0.001185 -0.093195 0.700680 137 255 111 0.514374
0.002124 -0.093460 0.699838 137 255 111 0.514288
0.004229 -0.094914 0.698141 137 255 111 0.513971
0.007507 -0.095289 0.697400 137 255 111 0.513462
0.005204 -0.097707 0.695611 137 255 111 0.513710
0.001788 -0.097248 0.696388 137 255 111 0.514116
-0.000319 -0.095754 0.698032 137 255 111 0.514325
-0.003801 -0.095462 0.698727 137 255 111 0.514428
-0.005992 -0.094195 0.700456 137 255 111 0.514416
-0.008545 -0.096284 0.698765 137 255 111 0.514501
0.012020 -0.094611 0.697346 137 255 111 0.512790
0.015318 -0.095121 0.696309 137 255 111 0.512199
0.013082 -0.097633 0.694483 137 255 111 0.512806
0.009731 -0.097034 0.695472 137 255 111 0.513114
0.011410 -0.105220 0.690232 137 255 111 0.513062
0.008924 -0.103211 0.691869 137 255 111 0.513359
0.005466 -0.102639 0.692894 137 255 111 0.513850
0.003082 -0.100608 0.694465 137 255 111 0.514007
0.000981 -0.103421 0.693295 137 255 111 0.514227
0.007626 -0.099656 0.694091 137 255 111 0.513422
0.010998 -0.100272 0.693009 137 255 111 0.513076
-0.002553 -0.102854 0.694275 137 255 111 0.514573
-0.004907 -0.101023 0.695626 137 255 111 0.514590
-0.008454 -0.100606 0.696384 137 255 111 0.514619
-0.010853 -0.098911 0.697684 137 255 111 0.514632
-0.013161 -0.101510 0.696630 137 255 111 0.514786
-0.006134 -0.097978 0.697375 137 255 111 0.514526
-0.002692 -0.098330 0.696625 137 255 111 0.514500
-0.000345 -0.100125 0.695293 137 255 111 0.514437
0.011275 -0.111461 0.688178 137 255 111 0.513154
0.009835 -0.114306 0.688187 137 255 111 0.513377
0.008401 -0.117093 0.688080 137 255 111 0.513829
0.005461 -0.128113 0.689851 140 255 108 0.515803
0.001267 -0.127826 0.690874 140 255 108 0.515741
-0.002408 -0.126128 0.691615 137 255 111 0.515578
-0.006405 -0.125854 0.692529 137 255 111 0.515468
-0.010003 -0.124085 0.693184 147 255 101 0.524627
-0.010767 -0.126994 0.693648 137 255 111 0.515562
-0.005652 -0.122971 0.692059 137 255 111 0.515047
-0.009256 -0.121190 0.692701 137 255 111 0.514661
-0.001759 -0.123382 0.691084 137 255 111 0.515049
0.002154 -0.123806 0.690113 137 255 111 0.515294
0.005903 -0.125504 0.689349 137 255 111 0.515315
0.006402 -0.122845 0.688710 137 255 111 0.515023
-0.014719 -0.126586 0.694389 137 255 111 0.515456
-0.018161 -0.124588 0.694989 137 255 111 0.515344
-0.022094 -0.124095 0.695756 140 255 108 0.515687
-0.025533 -0.121941 0.696346 140 255 108 0.515848
-0.026722 -0.125043 0.696669 140 255 108 0.516235
-0.021084 -0.120988 0.695415 137 255 111 0.515215
-0.024462 -0.118894 0.695961 140 255 108 0.515660
-0.017264 -0.121564 0.694590 147 255 101 0.525508
-0.013477 -0.122119 0.693782 137 255 111 0.514459
-0.021340 -0.112666 0.695633 137 255 111 0.515447
-0.017709 -0.113308 0.694800 137 255 111 0.514415
-0.014732 -0.115445 0.694094 137 255 111 0.513943
-0.011038 -0.116059 0.693212 137 255 111 0.513823
-0.007954 -0.118139 0.692480 137 255 111 0.514164
-0.006629 -0.115006 0.692173 137 255 111 0.514125
-0.012316 -0.119117 0.693471 137 255 111 0.514040
-0.016140 -0.118532 0.694298 137 255 111 0.514168
-0.019889 -0.117946 0.695129 137 255 111 0.514834
-0.022882 -0.115778 0.695872 137 255 111 0.515425
-0.002876 -0.115557 0.691160 137 255 111 0.514260
0.000354 -0.117540 0.690313 137 255 111 0.514415
0.004111 -0.118065 0.689297 137 255 111 0.514338
0.007419 -0.120008 0.688418 137 255 111 0.514610
0.003078 -0.120961 0.689657 137 255 111 0.514976
-0.000843 -0.120527 0.690637 137 255 111 0.514754
-0.004747 -0.120105 0.691631 137 255 111 0.514633
-0.016757 -0.101036 0.697237 137 255 111 0.514970
-0.019065 -0.099374 0.698325 137 255 111 0.514970
-0.022805 -0.098987 0.699003 137 255 111 0.515012
-0.025219 -0.097420 0.700341 137 255 111 0.514948
-0.027751 -0.099646 0.699493 137 255 111 0.515186
-0.020184 -0.096576 0.700042 137 255 111 0.514860
-0.022694 -0.095086 0.701453 137 255 111 0.514846
-0.016635 -0.096941 0.699389 137 255 111 0.514744
-0.013125 -0.097244 0.698785 137 255 111 0.514684
-0.030666 -0.099139 0.700055 137 255 111 0.515386
-0.032149 -0.097645 0.701134 137 255 111 0.515333
-0.034972 -0.097339 0.701729 140 255 108 0.515845
-0.032362 -0.095321 0.703133 137 255 111 0.515428
-0.029611 -0.095523 0.702345 137 255 111 0.515209
-0.026833 -0.095913 0.701659 137 255 111 0.514990
-0.025572 -0.092806 0.704788 137 255 111 0.514844
-0.022768 -0.092973 0.703906 137 255 111 0.514783
-0.019938 -0.093176 0.703136 137 255 111 0.514772
-0.029843 -0.093602 0.704885 137 255 111 0.515231
-0.014922 -0.092266 0.703256 150 255 98 0.529671
-0.011543 -0.092582 0.702511 137 255 111 0.514639
-0.009358 -0.093945 0.701042 137 255 111 0.514561
-0.014088 -0.094586 0.700758 137 255 111 0.514671
-0.017673 -0.094323 0.701457 137 255 111 0.514717
-0.024995 -0.111998 0.696303 140 255 108 0.516243
-0.027768 -0.109838 0.697176 140 255 108 0.516172
-0.031486 -0.109048 0.697715 150 255 98 0.530559
-0.034083 -0.107048 0.698256 140 255 108 0.516236
-0.036020 -0.109607 0.697922 140 255 108 0.517197
-0.029513 -0.106389 0.697848 111 255 137 0.483032
-0.032149 -0.104414 0.698389 140 255 108 0.515869
-0.025760 -0.107167 0.697145 140 255 108 0.515784
-0.022117 -0.107832 0.696429 140 255 108 0.515628
-0.019446 -0.109840 0.695741 137 255 111 0.515296
-0.017527 -0.106932 0.695728 137 255 111 0.515158
-0.038875 -0.108916 0.698058 140 255 108 0.516983
-0.040679 -0.107025 0.698499 140 255 108 0.516924
-0.043542 -0.106357 0.698705 140 255 108 0.517326
-0.045492 -0.104455 0.699223 143 255 104 0.521251
-0.047537 -0.106917 0.698712 140 255 108 0.517838
-0.041580 -0.103943 0.699173 140 255 108 0.516910
-0.043518 -0.102092 0.699716 140 255 108 0.517062
-0.038790 -0.104537 0.698924 140 255 108 0.516413
-0.036006 -0.105135 0.698673 140 255 108 0.516298
-0.037300 -0.099379 0.700665 140 255 108 0.516113
-0.034569 -0.099877 0.700201 140 255 108 0.515658
-0.032804 -0.101508 0.699414 137 255 111 0.515623
-0.029934 -0.102082 0.698940 137 255 111 0.515422
-0.036728 -0.102155 0.699450 140 255 108 0.516192
-0.039525 -0.101587 0.699777 140 255 108 0.516512
-0.041234 -0.099976 0.700655 140 255 108 0.516864
-0.025136 -0.101427 0.698399 160 255 88 0.539211
-0.021454 -0.101968 0.697677 137 255 111 0.515082
-0.018931 -0.103781 0.696817 137 255 111 0.515297
-0.015360 -0.104280 0.696226 137 255 111 0.515023
-0.023632 -0.104524 0.697282 137 255 111 0.515471
-0.027384 -0.103891 0.698044 137 255 111 0.515529
-0.010688 -0.103352 0.695717 137 255 111 0.514666
-0.007125 -0.103845 0.694845 137 255 111 0.514483
-0.004615 -0.105785 0.693762 137 255 111 0.514562
-0.001010 -0.106210 0.692861 137 255 111 0.514416
-0.003043 -0.109090 0.692321 137 255 111 0.514353
-0.006734 -0.108606 0.693223 134 255 114 0.508093
-0.009257 -0.106654 0.694328 137 255 111 0.514334
-0.012870 -0.106153 0.695205 137 255 111 0.514748
0.003499 -0.105444 0.692138 137 255 111 0.514057
0.006988 -0.106019 0.691101 137 255 111 0.513682
0.009579 -0.108045 0.689808 137 255 111 0.513508
0.007711 -0.110865 0.689214 137 255 111 0.513542
0.005135 -0.108815 0.690520 137 255 111 0.513647
0.001518 -0.108229 0.691590 137 255 111 0.514171
0.005455 -0.115157 0.689180 137 255 111 0.513969
0.001764 -0.114619 0.690171 137 255 111 0.514105
-0.001132 -0.112665 0.691286 137 255 111 0.514168
-0.004830 -0.112105 0.692257 130 255 117 0.505297
0.003388 -0.111715 0.690278 137 255 111 0.513941
-0.009418 -0.112995 0.693149 137 255 111 0.513776
-0.013160 -0.112465 0.694021 137 255 111 0.513741
-0.015824 -0.110431 0.694895 137 255 111 0.514514
-0.011280 -0.109518 0.694109 137 255 111 0.513951
-0.072648 -0.096201 0.704924 143 255 104 0.521312
-0.075662 -0.097045 0.705374 121 255 127 0.494274
-0.075883 -0.099316 0.704515 143 255 104 0.521029
-0.078669 -0.097883 0.705733 143 255 104 0.520489
-0.078958 -0.100207 0.704917 143 255 104 0.520478
-0.082019 -0.101077 0.705179 143 255 104 0.520254
-0.079190 -0.102533 0.704140 143 255 104 0.520737
-0.081758 -0.098676 0.705974 143 255 104 0.519911
-0.084760 -0.099581 0.706222 140 255 108 0.519458
-0.081150 -0.096158 0.706768 143 255 104 0.520063
-0.078026 -0.095416 0.706536 143 255 104 0.520220
-0.075040 -0.094614 0.706157 143 255 104 0.520953
-0.077391 -0.093036 0.707464 143 255 104 0.520536
-0.081947 -0.103929 0.704887 104 255 143 0.475795
-0.081439 -0.106570 0.704542 143 255 104 0.520345
-0.084647 -0.105357 0.705626 143 255 104 0.519782
-0.084169 -0.108004 0.705317 143 255 104 0.519966
-0.086790 -0.109483 0.706097 108 255 140 0.479798
-0.083617 -0.110682 0.705092 143 255 104 0.520422
-0.087335 -0.106804 0.706356 140 255 108 0.519153
-0.089937 -0.108322 0.707093 140 255 108 0.518887
-0.087519 -0.103872 0.706496 140 255 108 0.519208
-0.084787 -0.102458 0.705880 114 255 134 0.488051
-0.095826 -0.105710 0.709415 140 255 108 0.517505
-0.094558 -0.103308 0.709214 140 255 108 0.517808
-0.091802 -0.101765 0.708463 140 255 108 0.518328
-0.090359 -0.099429 0.708311 108 255 140 0.478368
-0.087397 -0.097985 0.707604 140 255 108 0.518922
-0.090026 -0.096305 0.708878 140 255 108 0.518733
-0.087667 -0.101052 0.707014 140 255 108 0.518983
-0.090262 -0.105442 0.707403 140 255 108 0.518660
-0.092957 -0.107054 0.708294 140 255 108 0.518481
-0.087969 -0.094511 0.709318 137 255 111 0.512820
-0.084837 -0.093672 0.708974 140 255 108 0.518861
-0.082790 -0.092017 0.709413 140 255 108 0.519395
-0.079649 -0.091246 0.709035 143 255 104 0.519940
-0.081858 -0.089431 0.710542 143 255 104 0.519548
-0.080548 -0.093772 0.707872 143 255 104 0.519762
-0.084303 -0.097055 0.707226 140 255 108 0.519404
-0.079589 -0.088227 0.711376 143 255 104 0.519673
-0.076426 -0.088020 0.711394 130 255 117 0.507507
-0.074256 -0.086890 0.712206 134 255 114 0.511187
-0.071109 -0.086630 0.712104 130 255 117 0.505135
-0.073048 -0.084835 0.713841 143 255 104 0.521326
-0.072241 -0.088689 0.710452 143 255 104 0.521091
-0.069158 -0.088409 0.710312 143 255 104 0.521602
-0.073188 -0.090642 0.708862 143 255 104 0.520878
-0.076411 -0.090954 0.708980 143 255 104 0.520311
-0.070791 -0.084036 0.714899 121 255 127 0.495457
-0.067689 -0.084210 0.715048 147 255 101 0.523452
-0.065612 -0.083428 0.716113 147 255 101 0.524211
-0.063891 -0.085229 0.714214 147 255 101 0.523468
-0.065001 -0.086853 0.712298 143 255 104 0.522685
-0.068039 -0.086807 0.712294 124 255 124 0.497632
-0.060042 -0.088498 0.710912 143 255 104 0.522404
-0.060829 -0.090009 0.709140 143 255 104 0.522091
-0.063005 -0.088494 0.710779 143 255 104 0.522511
-0.063883 -0.090065 0.708981 124 255 124 0.498669
-0.067002 -0.090037 0.708830 143 255 104 0.521754
-0.064843 -0.091585 0.707334 143 255 104 0.521820
-0.066089 -0.088458 0.710568 143 255 104 0.522079
-0.061991 -0.086917 0.712538 137 255 111 0.515443
-0.067986 -0.091955 0.707507 143 255 104 0.521388
-0.068679 -0.093809 0.706093 143 255 104 0.521409
-0.071028 -0.092292 0.707496 143 255 104 0.521108
-0.071883 -0.094222 0.706194 143 255 104 0.521428
-0.074262 -0.092651 0.707502 143 255 104 0.520900
-0.070059 -0.090304 0.708854 143 255 104 0.521176
-0.050056 -0.096639 0.703126 140 255 108 0.519032
-0.049409 -0.098669 0.701612 140 255 108 0.518854
-0.052075 -0.099026 0.701439 140 255 108 0.519500
-0.052885 -0.096851 0.702896 143 255 104 0.519828
-0.055873 -0.097127 0.702711 143 255 104 0.520508
-0.044367 -0.098853 0.701398 140 255 108 0.517508
-0.047053 -0.100892 0.700317 140 255 108 0.517914
-0.050311 -0.104479 0.699506 140 255 108 0.518501
-0.053357 -0.101988 0.700460 143 255 104 0.519578
-0.053726 -0.105014 0.699453 140 255 108 0.519186
-0.049962 -0.101478 0.700432 140 255 108 0.516159
-0.057447 -0.103707 0.700098 156 255 92 0.538660
-0.055863 -0.100691 0.701145 143 255 104 0.520302
-0.058958 -0.101234 0.701132 143 255 104 0.520914
-0.062228 -0.101736 0.701111 143 255 104 0.521374
-0.069558 -0.095742 0.704971 143 255 104 0.521432
-0.065628 -0.093423 0.706064 143 255 104 0.521538
-0.061557 -0.093782 0.705403 143 255 104 0.521437
-0.062269 -0.095552 0.704243 143 255 104 0.521552
-0.065217 -0.096006 0.704356 143 255 104 0.521517
-0.065845 -0.097835 0.703298 143 255 104 0.521560
-0.068957 -0.098318 0.703362 143 255 104 0.521554
-0.061833 -0.091535 0.707590 143 255 104 0.522745
-0.057972 -0.089950 0.709290 143 255 104 0.521833
-0.055016 -0.092005 0.707232 143 255 104 0.521001
-0.057827 -0.092134 0.707036 143 255 104 0.521342
-0.058594 -0.093592 0.705527 143 255 104 0.521211
-0.052036 -0.093989 0.705441 143 255 104 0.519921
-0.054752 -0.094110 0.705168 143 255 104 0.520676
-0.058705 -0.097579 0.702762 143 255 104 0.520933
-0.061618 -0.098072 0.702792 143 255 104 0.521406
-0.064907 -0.100393 0.701993 143 255 104 0.521596
-0.068481 -0.072299 0.725616 143 255 104 0.521793
-0.065752 -0.071676 0.726602 143 255 104 0.521210
-0.062997 -0.072233 0.726728 143 255 104 0.520264
-0.060332 -0.071571 0.727648 140 255 108 0.518044
-0.057619 -0.072121 0.727720 140 255 108 0.516883
-0.057743 -0.069391 0.729079 140 255 108 0.516054
-0.060114 -0.074104 0.726105 140 255 108 0.518193
-0.057399 -0.074670 0.726108 140 255 108 0.515673
-0.062480 -0.074828 0.725092 143 255 104 0.520356
-0.064862 -0.075489 0.724016 143 255 104 0.521564
-0.067684 -0.074912 0.723853 143 255 104 0.522399
-0.066795 -0.077357 0.721911 143 255 104 0.523096
-0.055009 -0.069119 0.730165 137 255 111 0.513419
-0.052506 -0.070097 0.730590 134 255 114 0.511493
-0.049849 -0.069861 0.731594 134 255 114 0.509173
-0.050173 -0.072473 0.730392 134 255 114 0.510175
-0.052686 -0.072827 0.729339 134 255 114 0.511683
-0.055064 -0.073120 0.728147 137 255 111 0.514167
-0.052331 -0.076587 0.727068 137 255 111 0.513250
-0.054539 -0.076866 0.725853 137 255 111 0.513924
-0.056719 -0.077033 0.724518 140 255 108 0.515962
-0.050088 -0.075098 0.728968 137 255 111 0.512968
-0.058615 -0.078794 0.722523 140 255 108 0.517651
-0.060716 -0.079554 0.721477 114 255 134 0.487906
-0.063445 -0.078998 0.721246 137 255 111 0.514569
-0.065635 -0.079604 0.720128 147 255 101 0.523517
-0.061720 -0.077236 0.723307 111 255 137 0.483934
-0.059345 -0.076635 0.724394 140 255 108 0.518224
-0.067188 -0.081489 0.718105 147 255 101 0.524535
-0.069427 -0.082264 0.717046 150 255 98 0.529221
-0.072502 -0.081973 0.716984 143 255 104 0.521418
-0.074797 -0.082808 0.715934 143 255 104 0.520778
-0.076335 -0.080642 0.717920 143 255 104 0.519738
-0.073901 -0.079861 0.718912 143 255 104 0.521163
-0.070906 -0.080137 0.719017 143 255 104 0.522928
-0.068548 -0.079311 0.720015 147 255 101 0.523745
-0.076204 -0.084972 0.714114 143 255 104 0.519737
-0.078387 -0.086141 0.713275 140 255 108 0.518807
-0.081641 -0.086260 0.713427 140 255 108 0.518396
-0.083887 -0.087453 0.712607 140 255 108 0.518761
-0.085747 -0.085405 0.714621 98 255 150 0.465261
-0.083318 -0.084238 0.715499 91 255 156 0.457775
-0.080197 -0.084088 0.715314 140 255 108 0.517695
-0.077856 -0.082913 0.716160 140 255 108 0.518608
-0.089740 -0.081065 0.719456 140 255 108 0.515786
-0.087078 -0.079787 0.720207 137 255 111 0.515573
-0.083828 -0.079715 0.719909 137 255 111 0.515620
-0.081175 -0.078547 0.720673 79 255 169 0.443519
-0.077900 -0.078410 0.720240 140 255 108 0.518036
-0.079384 -0.076021 0.722390 140 255 108 0.517191
-0.079712 -0.080736 0.718400 140 255 108 0.516959
-0.082005 -0.081960 0.717588 140 255 108 0.516137
-0.085385 -0.082078 0.717979 95 255 153 0.464128
-0.087814 -0.083246 0.717026 140 255 108 0.516607
-0.076595 -0.075100 0.723206 140 255 108 0.518177
-0.073497 -0.075423 0.723119 143 255 104 0.520372
-0.070774 -0.074539 0.723955 143 255 104 0.521428
-0.069947 -0.077008 0.722076 143 255 104 0.522917
-0.072333 -0.077858 0.721117 143 255 104 0.521970
-0.075487 -0.077485 0.721171 140 255 108 0.519218
-0.031973 -0.069474 0.740502 140 255 108 0.517655
-0.036125 -0.066880 0.737938 140 255 108 0.517444
-0.033558 -0.067073 0.739664 140 255 108 0.519486
-0.029353 -0.069811 0.741974 143 255 104 0.520795
-0.041278 -0.066273 0.736158 137 255 111 0.512471
-0.043474 -0.064754 0.735547 137 255 111 0.515349
-0.045945 -0.064495 0.734483 137 255 111 0.515390
-0.038219 -0.065550 0.737554 95 255 153 0.463563
-0.043820 -0.058646 0.737139 88 255 160 0.453154
-0.041040 -0.059296 0.738273 140 255 108 0.516182
-0.038895 -0.060846 0.738722 140 255 108 0.516374
-0.036169 -0.061388 0.739654 140 255 108 0.517235
-0.034057 -0.062877 0.739939 140 255 108 0.518265
-0.044699 -0.060907 0.736017 140 255 108 0.517899
-0.030867 -0.062573 0.742462 56 255 192 0.414111
-0.029327 -0.064900 0.743151 137 255 111 0.513134
-0.027142 -0.066282 0.744106 137 255 111 0.512186
-0.024898 -0.042609 0.754196 72 255 176 0.435431
-0.022944 -0.044479 0.755092 91 255 156 0.458667
-0.022128 -0.047232 0.754742 79 255 169 0.444836
-0.020041 -0.048989 0.755293 88 255 160 0.454727
-0.022384 -0.050813 0.753121 88 255 160 0.454242
-0.024684 -0.049478 0.752490 85 255 163 0.449313
-0.025526 -0.046737 0.752818 85 255 163 0.451334
-0.027737 -0.045242 0.751908 101 255 147 0.468929
-0.028491 -0.042434 0.752069 117 255 130 0.492045
-0.031438 -0.045143 0.749805 114 255 134 0.485053
-0.017193 -0.050321 0.757277 82 255 166 0.448633
-0.015551 -0.052859 0.757948 91 255 156 0.459649
-0.014850 -0.055737 0.757530 79 255 169 0.444591
-0.013011 -0.058095 0.757847 49 255 198 0.408019
-0.014939 -0.059019 0.755831 49 255 198 0.407821
-0.016948 -0.057117 0.755461 56 255 192 0.416529
-0.017713 -0.054222 0.755983 82 255 166 0.447492
-0.019525 -0.052100 0.755241 69 255 179 0.431642
-0.020545 -0.059764 0.751566 66 255 182 0.426851
-0.021571 -0.057168 0.751920 72 255 176 0.434932
-0.023667 -0.055357 0.751023 0 66 255 0.190544
-0.024527 -0.052642 0.751042 98 255 150 0.466065
-0.026731 -0.054484 0.748852 108 255 140 0.478348
-0.021562 -0.053539 0.753231 72 255 176 0.435999
-0.019747 -0.055666 0.753984 85 255 163 0.450283
-0.018675 -0.058259 0.753639 36 255 211 0.391850
-0.016629 -0.060157 0.753993 75 255 172 0.438079
-0.029229 -0.053551 0.748213 95 255 153 0.462439
-0.030447 -0.051212 0.748510 0 130 255 0.252886
-0.032963 -0.050200 0.747672 104 255 143 0.476557
-0.034184 -0.047790 0.747769 85 255 163 0.451699
-0.036867 -0.050529 0.745658 114 255 134 0.486785
-0.030298 -0.047545 0.749735 101 255 147 0.471671
-0.028046 -0.048972 0.750599 91 255 156 0.458771
-0.026851 -0.051310 0.750348 91 255 156 0.460335
-0.038276 -0.025104 0.757515 140 255 108 0.517776
-0.034765 -0.025475 0.758446 140 255 108 0.516619
-0.035567 -0.026810 0.756692 140 255 108 0.516638
-0.031408 -0.025906 0.759361 137 255 111 0.515223
-0.032188 -0.027267 0.757689 137 255 111 0.515483
-0.028944 -0.027761 0.758642 101 255 147 0.469054
-0.028170 -0.026409 0.760198 137 255 111 0.514219
-0.032970 -0.028669 0.756027 140 255 108 0.515831
-0.029709 -0.029159 0.757073 137 255 111 0.515060
-0.030516 -0.030572 0.755516 137 255 111 0.514797
-0.036950 -0.029634 0.753703 140 255 108 0.517132
-0.039621 -0.027845 0.754371 140 255 108 0.517775
-0.042408 -0.026136 0.755228 140 255 108 0.518609
-0.043791 -0.028916 0.752290 140 255 108 0.518655
-0.025406 -0.027615 0.761058 82 255 166 0.448337
-0.021900 -0.028840 0.762216 134 255 114 0.510408
-0.023527 -0.030254 0.760371 134 255 114 0.510287
-0.018525 -0.029982 0.763180 134 255 114 0.509524
-0.020132 -0.031466 0.761569 134 255 114 0.509131
-0.021754 -0.032919 0.759885 134 255 114 0.508377
-0.022554 -0.034340 0.758530 134 255 114 0.508103
-0.024300 -0.031666 0.759025 134 255 114 0.509976
-0.025091 -0.033088 0.757570 134 255 114 0.510246
-0.026934 -0.030390 0.758034 137 255 111 0.512590
-0.026169 -0.028991 0.759563 82 255 166 0.447299
-0.027737 -0.031814 0.756574 137 255 111 0.512412
-0.028077 -0.038719 0.753378 130 255 117 0.505126
-0.029330 -0.036407 0.753714 134 255 114 0.508464
-0.031974 -0.035327 0.752614 137 255 111 0.512182
-0.033347 -0.033061 0.752918 137 255 111 0.514631
-0.036140 -0.035566 0.750268 137 255 111 0.515591
-0.025343 -0.036387 0.755961 130 255 117 0.506455
-0.039227 -0.035218 0.749534 140 255 108 0.516563
-0.041114 -0.033529 0.749973 140 255 108 0.517308
-0.044349 -0.033283 0.749314 140 255 108 0.518248
-0.046325 -0.031696 0.749940 140 255 108 0.518821
-0.048837 -0.034570 0.747713 140 255 108 0.518618
-0.041768 -0.030501 0.751601 140 255 108 0.518109
-0.035075 -0.031301 0.753200 140 255 108 0.516162
-0.049440 -0.067077 0.732716 134 255 114 0.510893
-0.052173 -0.067450 0.731809 134 255 114 0.511504
-0.054727 -0.066421 0.731483 137 255 111 0.514439
-0.057455 -0.066682 0.730402 88 255 160 0.456766
-0.057077 -0.063972 0.731652 140 255 108 0.517925
-0.054183 -0.063895 0.732619 137 255 111 0.515339
-0.051642 -0.064943 0.732967 137 255 111 0.513436
-0.048480 -0.063544 0.734236 137 255 111 0.515287
-0.060638 -0.068706 0.729148 140 255 108 0.517921
-0.063315 -0.069464 0.728317 143 255 104 0.520008
-0.066294 -0.068689 0.728328 137 255 111 0.512868
-0.068971 -0.069436 0.727389 147 255 101 0.526153
-0.069320 -0.066567 0.729001 143 255 104 0.520640
-0.066284 -0.065972 0.729760 143 255 104 0.520711
-0.063362 -0.066563 0.729723 143 255 104 0.519584
-0.060347 -0.065967 0.730422 140 255 108 0.517729
-0.068907 -0.060646 0.732363 143 255 104 0.519957
-0.065667 -0.060153 0.732886 143 255 104 0.520331
-0.062727 -0.060869 0.732695 143 255 104 0.519900
-0.059435 -0.060386 0.733180 143 255 104 0.519570
-0.056476 -0.061250 0.732978 140 255 108 0.518889
-0.055836 -0.058557 0.734317 140 255 108 0.519117
-0.060054 -0.063049 0.731780 140 255 108 0.519091
-0.063133 -0.063720 0.731148 143 255 104 0.520068
-0.066079 -0.062937 0.731395 143 255 104 0.520508
-0.069132 -0.063659 0.730753 143 255 104 0.520284
-0.052809 -0.058591 0.735140 140 255 108 0.518183
-0.050239 -0.059742 0.735294 140 255 108 0.516774
-0.047276 -0.059806 0.735989 140 255 108 0.517050
-0.051000 -0.062284 0.734071 140 255 108 0.515802
-0.053578 -0.061042 0.733855 140 255 108 0.516999
-0.047264 -0.036326 0.747250 134 255 114 0.510222
-0.044038 -0.036503 0.747730 140 255 108 0.517462
-0.045729 -0.038124 0.746822 140 255 108 0.517401
-0.040908 -0.036783 0.748497 140 255 108 0.516286
-0.042568 -0.038391 0.747510 140 255 108 0.515756
-0.039500 -0.038718 0.748247 137 255 111 0.513869
-0.037819 -0.037101 0.749236 137 255 111 0.515042
-0.044255 -0.039960 0.746466 140 255 108 0.515852
-0.041141 -0.040312 0.747208 137 255 111 0.513384
-0.042790 -0.041835 0.746093 137 255 111 0.513811
-0.045929 -0.041684 0.745463 137 255 111 0.515587
-0.047439 -0.039867 0.745875 140 255 108 0.517202
-0.049149 -0.041567 0.744910 140 255 108 0.517502
-0.050644 -0.039823 0.745397 140 255 108 0.518325
-0.048947 -0.038060 0.746314 137 255 111 0.512551
-0.052199 -0.038095 0.745916 130 255 117 0.507144
-0.052285 -0.041546 0.744458 140 255 108 0.518391
-0.053822 -0.039827 0.745023 140 255 108 0.518737
-0.055410 -0.041564 0.743999 140 255 108 0.518773
-0.050549 -0.036324 0.746822 147 255 101 0.525214
-0.035017 -0.037980 0.750317 134 255 114 0.511178
-0.032280 -0.039034 0.751393 130 255 117 0.505051
-0.031183 -0.041408 0.751280 121 255 127 0.492984
-0.034193 -0.044357 0.748996 114 255 134 0.486286
-0.035427 -0.041948 0.749177 117 255 130 0.489011
-0.036973 -0.043535 0.748100 124 255 124 0.496825
-0.038269 -0.041122 0.748235 130 255 117 0.507554
-0.036650 -0.039568 0.749308 134 255 114 0.509382
-0.039843 -0.042658 0.747110 130 255 117 0.507690
-0.039856 -0.049979 0.744869 124 255 124 0.497477
-0.041368 -0.047782 0.745038 124 255 124 0.499207
-0.044384 -0.047204 0.744081 134 255 114 0.508532
-0.045923 -0.045027 0.744215 137 255 111 0.513491
-0.048860 -0.048294 0.742139 137 255 111 0.514554
-0.036940 -0.047010 0.746940 117 255 130 0.491472
-0.052068 -0.048325 0.741613 140 255 108 0.517214
-0.050495 -0.046499 0.742521 140 255 108 0.516367
-0.053675 -0.046544 0.742024 140 255 108 0.518049
-0.055200 -0.048323 0.740998 140 255 108 0.518505
-0.052094 -0.044766 0.742955 140 255 108 0.518068
-0.056864 -0.046652 0.741503 140 255 108 0.519006
-0.055329 -0.044860 0.742491 140 255 108 0.518771
-0.058457 -0.045076 0.742089 111 255 137 0.484323
-0.058350 -0.048428 0.740567 140 255 108 0.519266
-0.060003 -0.046805 0.741083 140 255 108 0.519136
-0.061548 -0.048521 0.740049 140 255 108 0.519181
-0.056991 -0.043329 0.743117 140 255 108 0.518880
-0.088981 -0.027725 0.772557 147 255 101 0.524871
-0.087496 -0.025454 0.774471 137 255 111 0.515420
-0.090464 -0.025612 0.775830 140 255 108 0.519401
-0.085988 -0.023201 0.776394 130 255 117 0.506095
-0.088972 -0.023411 0.777809 137 255 111 0.513963
-0.087431 -0.021234 0.779816 130 255 117 0.504443
-0.091901 -0.023566 0.779153 140 255 108 0.516517
-0.084447 -0.020987 0.778338 127 255 121 0.501036
-0.082855 -0.018778 0.780336 127 255 121 0.502331
-0.081131 -0.020900 0.776336 127 255 121 0.502950
-0.082659 -0.023176 0.774470 127 255 121 0.502057
-0.084197 -0.025497 0.772604 130 255 117 0.504495
-0.079339 -0.023079 0.772459 127 255 121 0.502678
-0.090709 -0.021463 0.781481 134 255 114 0.510140
-0.093661 -0.021827 0.782654 137 255 111 0.514617
-0.089544 -0.019419 0.783821 156 255 92 0.536680
-0.092450 -0.019819 0.785056 130 255 117 0.504225
-0.087295 -0.018239 0.784159 14 246 234 0.363757
-0.084976 -0.017001 0.784491 124 255 124 0.498580
-0.077602 -0.013330 0.786407 130 255 117 0.505074
-0.080182 -0.014510 0.785866 127 255 121 0.500805
-0.076365 -0.014220 0.784059 130 255 117 0.507634
-0.079036 -0.015455 0.783544 82 255 166 0.447775
-0.077803 -0.016365 0.781232 130 255 117 0.505004
-0.075185 -0.015159 0.781693 134 255 114 0.509014
-0.081572 -0.016638 0.783066 127 255 121 0.500534
-0.080359 -0.017590 0.780789 127 255 121 0.502832
-0.083659 -0.014925 0.787257 121 255 127 0.495247
-0.073353 -0.017182 0.777291 134 255 114 0.510233
-0.076113 -0.018363 0.777113 130 255 117 0.505785
-0.072333 -0.018227 0.775046 134 255 114 0.510660
-0.075097 -0.019470 0.774892 130 255 117 0.506984
-0.074087 -0.020565 0.772719 108 255 140 0.478016
-0.071277 -0.019278 0.772863 121 255 127 0.494312
-0.077774 -0.020687 0.774737 130 255 117 0.504017
-0.076740 -0.021834 0.772589 127 255 121 0.503745
-0.065011 -0.018257 0.771007 140 255 108 0.517962
-0.062172 -0.017235 0.771475 140 255 108 0.517108
-0.061537 -0.018511 0.769037 140 255 108 0.517566
-0.059351 -0.016275 0.772076 140 255 108 0.518435
-0.058677 -0.017529 0.769547 140 255 108 0.518670
-0.055733 -0.016585 0.770137 143 255 104 0.519645
-0.056403 -0.015388 0.772671 143 255 104 0.519648
-0.057986 -0.018789 0.767104 140 255 108 0.518715
-0.055044 -0.017839 0.767657 143 255 104 0.519610
-0.054394 -0.019113 0.765219 143 255 104 0.519616
-0.057381 -0.019967 0.764949 140 255 108 0.518756
-0.060944 -0.019698 0.766886 140 255 108 0.517379
-0.060352 -0.020891 0.764770 140 255 108 0.517313
-0.063900 -0.020649 0.766744 134 255 114 0.510393
-0.064461 -0.019434 0.768880 140 255 108 0.515828
-0.067260 -0.020394 0.768784 137 255 111 0.513567
-0.063252 -0.021873 0.764683 140 255 108 0.515768
-0.066651 -0.021618 0.766708 85 255 163 0.450680
-0.066004 -0.022871 0.764645 137 255 111 0.513988
-0.067860 -0.019192 0.770880 137 255 111 0.514120
-0.053221 -0.014953 0.773255 143 255 104 0.520004
-0.050128 -0.014392 0.774122 143 255 104 0.520064
-0.049310 -0.015733 0.771252 143 255 104 0.519996
-0.047061 -0.013883 0.775020 121 255 127 0.495016
-0.046288 -0.015215 0.772143 143 255 104 0.519695
-0.045457 -0.016597 0.769335 140 255 108 0.519373
-0.044791 -0.017837 0.766913 140 255 108 0.519390
-0.048649 -0.016953 0.768733 143 255 104 0.519903
-0.047958 -0.018192 0.766287 143 255 104 0.519839
-0.051858 -0.017367 0.768169 143 255 104 0.520041
-0.052542 -0.016133 0.770679 143 255 104 0.520088
-0.051214 -0.018619 0.765726 143 255 104 0.519874
-0.044281 -0.023600 0.758091 140 255 108 0.518908
-0.044276 -0.022184 0.759973 140 255 108 0.519071
-0.047561 -0.022429 0.759588 140 255 108 0.519481
-0.047520 -0.023842 0.757687 117 255 130 0.489615
-0.047599 -0.021086 0.761559 143 255 104 0.519542
-0.050813 -0.022749 0.759271 140 255 108 0.519484
-0.050881 -0.021400 0.761245 143 255 104 0.519653
-0.054153 -0.021809 0.761021 140 255 108 0.519296
-0.050737 -0.024173 0.757389 140 255 108 0.519395
-0.054094 -0.023160 0.759081 140 255 108 0.519243
-0.053984 -0.024557 0.757187 137 255 111 0.512775
-0.051017 -0.020100 0.763292 143 255 104 0.519798
-0.054295 -0.020475 0.763087 140 255 108 0.519423
-0.047752 -0.019650 0.763843 143 255 104 0.519645
-0.044603 -0.019275 0.764453 140 255 108 0.519227
-0.044416 -0.020717 0.762158 143 255 104 0.519933
-0.057029 -0.025386 0.757272 140 255 108 0.516243
-0.060015 -0.024971 0.759044 140 255 108 0.516976
-0.062886 -0.025934 0.759296 137 255 111 0.515213
-0.065771 -0.025602 0.761230 137 255 111 0.512162
-0.065603 -0.028238 0.757947 137 255 111 0.512143
-0.063032 -0.023288 0.762616 137 255 111 0.515596
-0.060214 -0.022285 0.762712 140 255 108 0.517279
-0.057245 -0.021351 0.762845 140 255 108 0.518616
-0.057205 -0.022726 0.760805 140 255 108 0.518463
-0.063357 -0.028669 0.756365 137 255 111 0.514852
-0.060549 -0.027710 0.756102 140 255 108 0.516541
-0.058191 -0.028207 0.754570 140 255 108 0.517724
-0.055226 -0.027386 0.754383 140 255 108 0.518693
-0.056447 -0.030213 0.751789 140 255 108 0.518405
-0.059427 -0.031099 0.752103 140 255 108 0.517393
-0.061733 -0.030590 0.753634 140 255 108 0.516286
-0.064573 -0.031586 0.754024 98 255 150 0.468637
-0.066765 -0.031168 0.755646 134 255 114 0.510592
-0.067883 -0.034019 0.753310 134 255 114 0.510816
-0.048799 -0.026576 0.754425 124 255 124 0.496943
-0.045591 -0.026331 0.754790 140 255 108 0.519035
-0.046950 -0.029136 0.752013 140 255 108 0.519010
-0.050144 -0.029405 0.751814 140 255 108 0.518999
-0.052673 -0.028338 0.753047 140 255 108 0.519001
-0.050712 -0.033373 0.748557 140 255 108 0.518790
-0.053874 -0.033830 0.748649 140 255 108 0.518747
-0.056992 -0.034410 0.748761 140 255 108 0.518416
-0.058843 -0.033421 0.749865 140 255 108 0.517854
-0.061114 -0.036571 0.747963 137 255 111 0.515602
-0.054506 -0.031210 0.750652 140 255 108 0.518681
-0.063961 -0.037508 0.748379 140 255 108 0.516241
-0.066744 -0.038522 0.748861 137 255 111 0.514234
-0.064499 -0.035220 0.750506 137 255 111 0.515075
-0.067237 -0.036282 0.751066 137 255 111 0.512071
-0.069963 -0.037404 0.751661 130 255 117 0.507378
-0.069477 -0.039539 0.749341 134 255 114 0.511519
-0.072143 -0.040650 0.749801 130 255 117 0.506316
-0.061718 -0.034309 0.750170 104 255 143 0.475199
-0.072265 -0.063322 0.731169 140 255 108 0.519069
-0.075568 -0.065824 0.729863 140 255 108 0.518126
-0.072456 -0.066205 0.729485 140 255 108 0.519473
-0.075765 -0.068582 0.728098 140 255 108 0.518251
-0.078864 -0.068344 0.728615 137 255 111 0.512653
-0.082083 -0.070706 0.727058 140 255 108 0.515670
-0.082417 -0.067946 0.729435 137 255 111 0.515018
-0.079190 -0.065472 0.730837 140 255 108 0.516046
-0.075907 -0.062839 0.732025 111 255 137 0.481611
-0.082659 -0.065235 0.731866 137 255 111 0.514214
-0.071886 -0.069127 0.727615 143 255 104 0.520046
-0.074367 -0.071543 0.725948 140 255 108 0.518849
-0.071428 -0.071826 0.725753 143 255 104 0.520592
-0.077650 -0.072432 0.725342 140 255 108 0.517857
-0.080870 -0.073335 0.724713 140 255 108 0.516476
-0.088773 -0.077523 0.723048 150 255 98 0.530685
-0.091677 -0.078970 0.722628 137 255 111 0.512531
-0.085877 -0.076114 0.723549 91 255 156 0.460822
-0.087718 -0.073855 0.726489 134 255 114 0.510851
-0.090464 -0.075439 0.726141 134 255 114 0.509220
-0.093224 -0.077043 0.725800 134 255 114 0.508232
-0.083958 -0.073491 0.725379 137 255 111 0.514955
-0.082677 -0.076013 0.722915 137 255 111 0.515057
-0.093984 -0.075927 0.727749 130 255 117 0.505355
-0.091298 -0.073063 0.729370 130 255 117 0.504343
-0.094763 -0.074848 0.729694 124 255 124 0.498350
-0.087840 -0.071371 0.729115 72 255 176 0.437261
-0.092037 -0.071950 0.731245 124 255 124 0.497101
-0.088703 -0.070138 0.730839 130 255 117 0.505745
-0.089481 -0.068946 0.732652 124 255 124 0.499834
