ply
format ascii 1.0
comment Seamless Cloth Simulation with High Geometric Fidelity 
comment Mon Apr 29 12:33:41 2019
element vertex 1015
property float x
property float y
property float z
property float quality
property uchar red
property uchar green
property uchar blue
end_header
0.533525 -0.67753 5.85717 0.876045 255 0 255 
0.500711 -0.672883 5.84863 0.872786 255 0 255 
0.489564 -0.648302 5.84164 0.913251 255 0 255 
0.478526 -0.623585 5.83298 0.933614 255 0 255 
0.468669 -0.668784 5.83824 0.877173 255 0 255 
0.569857 -0.609797 5.84623 0.931172 255 0 255 
0.58052 -0.636761 5.8553 0.91431 255 0 255 
0.6052 -0.612943 5.85185 0.908555 255 0 255 
0.574401 -0.660916 5.85905 0.8905 255 0 255 
0.567317 -0.684361 5.86146 0.853406 255 0 255 
0.537478 -0.747905 5.88531 0.804725 255 0 255 
0.547321 -0.726677 5.87788 0.829836 255 0 255 
0.515754 -0.71813 5.87295 0.850973 255 0 255 
0.506539 -0.739527 5.88038 0.818813 255 0 255 
0.541006 -0.701659 5.86777 0.855277 255 0 255 
0.574275 -0.709539 5.87142 0.828399 255 0 255 
0.476491 -0.734064 5.87419 0.827121 255 0 255 
0.483936 -0.71253 5.86637 0.851927 255 0 255 
0.453896 -0.70825 5.85658 0.860793 255 0 255 
0.446585 -0.729225 5.86639 0.833041 255 0 255 
0.476497 -0.690631 5.85265 0.858345 255 0 255 
0.508562 -0.695066 5.86199 0.852745 255 0 255 
0.629742 -1.01444 6.68602 0.924309 255 0 255 
0.643496 -1.00828 6.69748 0.943536 255 0 255 
0.639616 -1.02204 6.66816 0.923291 255 0 255 
0.653004 -1.01579 6.67957 0.941422 255 0 255 
0.662704 -1.02316 6.66172 0.940801 255 0 255 
0.64907 -1.02932 6.65006 0.917182 255 0 255 
0.666712 -1.01104 6.69134 0.955135 255 0 255 
0.676288 -1.01833 6.67357 0.953898 255 0 255 
0.690375 -1.01485 6.68575 0.959112 255 0 255 
0.675362 -1.00415 6.71172 0.959235 255 0 255 
0.651665 -1.00003 6.71728 0.953947 255 0 255 
0.669212 -1.04377 6.61657 0.902381 255 0 255 
0.679613 -1.03433 6.6395 0.932198 255 0 255 
0.681375 -1.05243 6.59428 0.891522 255 0 255 
0.691444 -1.04312 6.61734 0.92277 255 0 255 
0.703736 -1.05153 6.59499 0.91124 255 0 255 
0.693529 -1.06063 6.57186 0.878139 255 0 255 
0.702318 -1.03525 6.64052 0.938608 255 0 255 
0.71436 -1.04375 6.61824 0.928224 255 0 255 
0.725133 -1.0374 6.64136 0.935963 255 0 255 
0.707848 -1.02634 6.66383 0.951211 255 0 255 
0.782237 -0.990947 6.70589 0.976126 255 0 255 
0.756523 -0.996249 6.69956 0.974851 255 0 255 
0.767729 -0.983646 6.71898 0.967551 255 0 255 
0.73342 -1.00153 6.69434 0.975021 255 0 255 
0.742679 -0.988694 6.71269 0.964619 255 0 255 
0.719559 -0.99401 6.70737 0.965239 255 0 255 
0.75335 -0.976108 6.73179 0.953528 255 0 255 
0.71159 -1.00769 6.68986 0.972352 255 0 255 
0.729377 -1.01901 6.66791 0.97162 255 0 255 
0.751206 -1.01256 6.67209 0.977644 255 0 255 
0.728025 -0.979809 6.73214 0.954705 255 0 255 
0.742256 -0.969504 6.74725 0.944706 255 0 255 
0.704503 -0.983522 6.73321 0.957441 255 0 255 
0.717288 -0.972909 6.7475 0.946596 255 0 255 
0.689601 -0.99331 6.72217 0.966007 255 0 255 
0.799433 -0.97362 6.71683 0.956132 255 0 255 
0.778895 -0.963505 6.73352 0.929328 255 0 255 
0.762331 -0.953826 6.75245 0.909099 255 0 255 
0.777985 -1.00554 6.68094 0.980018 255 0 255 
0.775097 -1.02015 6.65678 0.974559 255 0 255 
0.749276 -1.02824 6.64871 0.964448 255 0 255 
0.747428 -1.04445 6.62533 0.925015 255 0 255 
0.772837 -1.03522 6.63306 0.952566 255 0 255 
0.770637 -1.05077 6.60934 0.90682 255 0 255 
0.792555 -1.02493 6.64563 0.966945 255 0 255 
0.796242 -1.01049 6.67041 0.978488 255 0 255 
0.80109 -0.996171 6.69591 0.979778 255 0 255 
0.819486 -1.00126 6.68529 0.978321 255 0 255 
0.732587 -1.04711 6.60985 0.92588 255 0 255 
0.722188 -1.05407 6.58676 0.918064 255 0 255 
0.740756 -1.05655 6.57844 0.91791 255 0 255 
0.711682 -1.06233 6.56359 0.891751 255 0 255 
0.73008 -1.06404 6.55527 0.901265 255 0 255 
0.71916 -1.07321 6.53221 0.84803 255 0 255 
0.700986 -1.07216 6.54047 0.829089 255 0 255 
0.748358 -1.0658 6.54683 0.90509 255 0 255 
0.73733 -1.07423 6.5238 0.862521 255 0 255 
0.755294 -1.07544 6.51529 0.869446 255 0 255 
0.763284 -1.06151 6.5622 0.916044 255 0 255 
0.755172 -1.05304 6.59366 0.918823 255 0 255 
0.809665 -1.07685 6.49432 0.860379 255 0 255 
0.812151 -1.07027 6.51737 0.892268 255 0 255 
0.802924 -1.06388 6.54616 0.908543 255 0 255 
0.804839 -1.05896 6.56956 0.904617 255 0 255 
0.794877 -1.05362 6.5989 0.905602 255 0 255 
0.818722 -1.05623 6.58774 0.894352 255 0 255 
0.781014 -1.05699 6.58039 0.913522 255 0 255 
0.772994 -1.06841 6.53343 0.905304 255 0 255 
0.782358 -1.07594 6.5049 0.872387 255 0 255 
0.82737 -1.04362 6.60706 0.926041 255 0 255 
0.827605 -1.03003 6.63147 0.948899 255 0 255 
0.83757 -1.01829 6.65203 0.960268 255 0 255 
0.818358 -1.01516 6.66022 0.970004 255 0 255 
0.79356 -1.03919 6.6221 0.94359 255 0 255 
0.906234 -1.05418 6.56685 0.864621 255 0 255 
0.894888 -1.05712 6.54538 0.879413 255 0 255 
0.903185 -1.05869 6.52242 0.882143 255 0 255 
0.901341 -1.06201 6.50003 0.883326 255 0 255 
0.908914 -1.06481 6.4776 0.866641 255 0 255 
0.890352 -1.06793 6.47903 0.868559 255 0 255 
0.921381 -1.05923 6.49907 0.871988 255 0 255 
0.928937 -1.06159 6.47655 0.866115 255 0 255 
0.922757 -1.05657 6.52024 0.871762 255 0 255 
0.923963 -1.05471 6.54174 0.858838 255 0 255 
0.940093 -1.05756 6.49713 0.863743 255 0 255 
0.948088 -1.0593 6.47622 0.85029 255 0 255 
0.935913 -1.01329 6.30453 0.91406 255 0 255 
0.919161 -1.02748 6.32969 0.914818 255 0 255 
0.911259 -1.03882 6.35481 0.913113 255 0 255 
0.893776 -1.05255 6.3803 0.892245 255 0 255 
0.912517 -1.0484 6.37964 0.88943 255 0 255 
0.892323 -1.04374 6.35513 0.910944 255 0 255 
0.874596 -1.05706 6.3804 0.893501 255 0 255 
0.899675 -1.03236 6.32881 0.920505 255 0 255 
0.906571 -1.021 6.30264 0.916116 255 0 255 
0.907663 -1.05187 6.40445 0.902917 255 0 255 
0.893376 -1.05779 6.43073 0.906701 255 0 255 
0.887213 -1.06294 6.45549 0.898878 255 0 255 
0.871543 -1.07055 6.48144 0.869286 255 0 255 
0.868979 -1.06609 6.45787 0.899732 255 0 255 
0.853063 -1.07362 6.48367 0.861296 255 0 255 
0.874708 -1.06115 6.43222 0.910776 255 0 255 
0.879443 -1.05739 6.40622 0.911749 255 0 255 
0.815489 -1.07141 6.46728 0.910558 255 0 255 
0.83238 -1.06607 6.43903 0.932844 255 0 255 
0.836561 -1.06317 6.41167 0.932161 255 0 255 
0.85201 -1.06008 6.38302 0.906086 255 0 255 
0.829326 -1.06371 6.38541 0.909138 255 0 255 
0.859202 -1.06044 6.40904 0.922975 255 0 255 
0.85461 -1.06388 6.43522 0.925865 255 0 255 
0.848834 -1.06841 6.46096 0.907165 255 0 255 
0.831446 -1.07505 6.48926 0.861653 255 0 255 
0.837127 -1.05324 6.35738 0.930246 255 0 255 
0.855896 -1.0411 6.32989 0.934187 255 0 255 
0.862748 -1.03056 6.30212 0.93162 255 0 255 
0.885369 -1.02593 6.30283 0.928851 255 0 255 
0.878622 -1.03677 6.32919 0.925954 255 0 255 
0.871345 -1.04761 6.35547 0.917508 255 0 255 
0.882964 -1.06433 6.50277 0.887519 255 0 255 
0.884216 -1.06061 6.52471 0.887246 255 0 255 
0.876829 -1.05808 6.54915 0.884852 255 0 255 
0.878015 -1.05553 6.5719 0.875723 255 0 255 
0.859715 -1.05656 6.57551 0.877301 255 0 255 
0.857594 -1.0597 6.55179 0.892639 255 0 255 
0.865614 -1.0623 6.52775 0.890738 255 0 255 
0.863467 -1.06677 6.50483 0.890061 255 0 255 
0.895929 -1.04386 6.59001 0.881001 255 0 255 
0.875346 -1.03381 6.61537 0.912813 255 0 255 
0.876551 -1.04483 6.59353 0.900304 255 0 255 
0.85856 -1.02022 6.64516 0.947155 255 0 255 
0.847807 -1.03179 6.62432 0.93768 255 0 255 
0.848325 -1.04413 6.60121 0.915504 255 0 255 
0.838926 -1.05633 6.58162 0.89159 255 0 255 
0.82793 -1.05972 6.56135 0.902189 255 0 255 
0.825227 -1.06412 6.53774 0.905727 255 0 255 
0.834303 -1.06884 6.51219 0.895654 255 0 255 
0.845883 -1.06362 6.53179 0.897101 255 0 255 
0.773981 -1.04899 6.31135 0.900666 255 0 255 
0.772276 -1.05229 6.34056 0.936776 255 0 255 
0.792676 -1.04369 6.30982 0.928284 255 0 255 
0.794124 -1.04963 6.33913 0.94215 255 0 255 
0.773032 -1.05782 6.37005 0.945885 255 0 255 
0.775521 -1.06675 6.39917 0.928608 255 0 255 
0.762018 -1.06602 6.40124 0.933386 255 0 255 
0.760584 -1.05864 6.37202 0.945487 255 0 255 
0.749412 -1.06624 6.40342 0.933166 255 0 255 
0.749194 -1.06048 6.37422 0.936825 255 0 255 
0.761902 -1.05483 6.34282 0.924731 255 0 255 
0.737467 -1.06756 6.40591 0.921247 255 0 255 
0.815889 -1.03949 6.30567 0.928657 255 0 255 
0.820104 -1.046 6.33221 0.943725 255 0 255 
0.839504 -1.03505 6.30288 0.931519 255 0 255 
0.811651 -1.05517 6.36232 0.943753 255 0 255 
0.802249 -1.06469 6.39234 0.92846 255 0 255 
0.788456 -1.07114 6.47618 0.920401 255 0 255 
0.79378 -1.06792 6.44736 0.944377 255 0 255 
0.766776 -1.06804 6.45737 0.951529 255 0 255 
0.761394 -1.07106 6.48634 0.925921 255 0 255 
0.784739 -1.06624 6.42338 0.949939 255 0 255 
0.811632 -1.06507 6.41629 0.94212 255 0 255 
0.747747 -1.06896 6.4887 0.934273 255 0 255 
0.729746 -1.06833 6.49702 0.926211 255 0 255 
0.739873 -1.0651 6.46187 0.957039 255 0 255 
0.711741 -1.06802 6.50543 0.914998 255 0 255 
0.722318 -1.06509 6.47036 0.946679 255 0 255 
0.732021 -1.06495 6.43509 0.949379 255 0 255 
0.744415 -1.06462 6.43261 0.956845 255 0 255 
0.75752 -1.06524 6.43031 0.95585 255 0 255 
0.753263 -1.06635 6.45963 0.95598 255 0 255 
0.972692 -1.04984 6.45198 0.862865 255 0 255 
0.97724 -1.04351 6.42871 0.864411 255 0 255 
0.991377 -1.0375 6.40579 0.866172 255 0 255 
1.00588 -1.03109 6.38321 0.851329 255 0 255 
0.986472 -1.03293 6.38261 0.866514 255 0 255 
0.994614 -1.02038 6.35908 0.872121 255 0 255 
1.01272 -1.00801 6.33649 0.873999 255 0 255 
1.02062 -0.995946 6.31337 0.875853 255 0 255 
1.04126 -0.994636 6.31474 0.867139 255 0 255 
1.01404 -1.01926 6.35974 0.853817 255 0 255 
0.905533 -1.05997 6.45432 0.890774 255 0 255 
0.911128 -1.05439 6.42953 0.90392 255 0 255 
0.924975 -1.04786 6.40452 0.896971 255 0 255 
0.929774 -1.0438 6.37975 0.891247 255 0 255 
0.948506 -1.03951 6.3804 0.884212 255 0 255 
0.943468 -1.04402 6.40396 0.88875 255 0 255 
0.929123 -1.05092 6.42856 0.892513 255 0 255 
0.923932 -1.0567 6.45266 0.882435 255 0 255 
0.929236 -1.03454 6.35545 0.907733 255 0 255 
0.937236 -1.02265 6.33053 0.908613 255 0 255 
0.953626 -1.00855 6.30688 0.909542 255 0 255 
0.97278 -1.00378 6.30862 0.906384 255 0 255 
0.954795 -1.0179 6.33177 0.909776 255 0 255 
0.947123 -1.02961 6.35592 0.91046 255 0 255 
1.00121 -0.998909 6.31229 0.893258 255 0 255 
0.993232 -1.01035 6.33541 0.889311 255 0 255 
0.975659 -1.02413 6.35821 0.886679 255 0 255 
0.96707 -1.03611 6.38151 0.871651 255 0 255 
0.973894 -1.01389 6.33348 0.896846 255 0 255 
0.972201 -1.03963 6.40586 0.877445 255 0 255 
0.958206 -1.04663 6.4293 0.874183 255 0 255 
0.953371 -1.05256 6.45262 0.866855 255 0 255 
-0.46357 -0.59019 5.18376 0.969652 255 0 255 
-0.448399 -0.585924 5.19206 0.966856 255 0 255 
-0.429068 -0.588532 5.19488 0.960906 255 0 255 
-0.414374 -0.583766 5.20347 0.953422 255 0 255 
-0.395863 -0.586059 5.20614 0.945114 255 0 255 
-0.404663 -0.571267 5.21703 0.944633 255 0 255 
-0.404893 -0.597597 5.19139 0.95615 255 0 255 
-0.385984 -0.59933 5.19313 0.947745 255 0 255 
-0.412685 -0.608227 5.17575 0.963178 255 0 255 
-0.432532 -0.606456 5.1736 0.965951 255 0 255 
-0.452136 -0.603903 5.1709 0.967573 255 0 255 
-0.440302 -0.616177 5.15778 0.958618 255 0 255 
-0.38923 -0.570134 5.22624 0.929661 255 0 255 
-0.371408 -0.575015 5.23022 0.915383 255 0 255 
-0.35628 -0.573288 5.23937 0.899557 255 0 255 
-0.338444 -0.577446 5.24176 0.884549 255 0 255 
-0.345835 -0.593005 5.22144 0.903059 255 0 255 
-0.377274 -0.590999 5.20927 0.932591 255 0 255 
-0.315859 -0.612579 5.20948 0.886642 255 0 255 
-0.333078 -0.610054 5.20638 0.900578 255 0 255 
-0.339442 -0.617904 5.19036 0.927106 255 0 255 
-0.356899 -0.614712 5.18625 0.937793 255 0 255 
-0.363297 -0.621396 5.16988 0.941893 255 0 255 
-0.3549 -0.601489 5.20767 0.918169 255 0 255 
-0.328477 -0.596321 5.22551 0.888679 255 0 255 
-0.382014 -0.621163 5.16766 0.952576 255 0 255 
-0.387354 -0.630179 5.15134 0.94731 255 0 255 
-0.406905 -0.629265 5.14901 0.950528 255 0 255 
-0.426933 -0.627727 5.14627 0.947249 255 0 255 
-0.413055 -0.638364 5.13397 0.921713 255 0 255 
-0.420744 -0.618102 5.16138 0.96258 255 0 255 
-0.071974 -0.666216 5.40793 0.404257 255 0 255 
-0.0578858 -0.6854 5.41943 0.321609 255 0 255 
-0.0468127 -0.708272 5.42974 0.249685 255 0 255 
-0.036327 -0.732318 5.44412 0.209897 255 0 255 
-0.0307421 -0.760681 5.45626 0.129354 255 0 255 
-0.0645983 -0.694373 5.40895 0.237661 255 0 255 
-0.0784009 -0.676973 5.39731 0.33694 255 0 255 
-0.029809 -0.786314 5.47694 0.13322 255 0 255 
-0.0356284 -0.814725 5.48625 0.111561 255 0 255 
-0.0419869 -0.844175 5.4982 0.191235 255 0 255 
-0.0502687 -0.873104 5.5038 0.246505 255 0 255 
-0.0368404 -0.788749 5.46361 0.0985999 255 0 255 
-0.0564275 -0.868338 5.48398 0.178698 255 0 255 
-0.0495883 -0.841741 5.47566 0.115165 255 0 255 
-0.0430714 -0.815221 5.46751 0.0662843 255 0 255 
-0.0364168 -0.764522 5.44271 0.0471728 255 0 255 
-0.044676 -0.741213 5.42551 0.0684358 255 0 255 
-0.0544026 -0.718156 5.41441 0.187451 255 0 255 
-0.0397414 -0.790778 5.44627 0 255 0 255 
-0.0512517 -0.864401 5.46839 0.115251 255 0 255 
-0.0409043 -0.815321 5.45021 0.0645778 255 0 255 
-0.0437179 -0.839379 5.4576 0.0492207 255 0 255 
-0.0341586 -0.767827 5.42198 0.0280038 255 0 255 
-0.0834541 -0.696945 5.36875 0.256922 255 0 255 
-0.0692378 -0.710281 5.38326 0.138765 255 0 255 
-0.0562177 -0.726309 5.39848 0.0677195 255 0 255 
-0.0439624 -0.7455 5.4097 0.0287564 255 0 255 
-0.0832335 -0.688689 5.38343 0.267324 255 0 255 
-0.063089 -0.901708 5.51862 0.358029 255 0 255 
-0.0803119 -0.925698 5.51849 0.48109 255 0 255 
-0.0966625 -0.95036 5.52468 0.628014 255 0 255 
-0.113515 -0.972382 5.52451 0.720975 255 0 255 
-0.0696813 -0.895652 5.50187 0.298118 255 0 255 
-0.133914 -0.995166 5.53888 0.818997 255 0 255 
-0.155188 -1.00737 5.53453 0.858429 255 0 255 
-0.176096 -1.02311 5.53746 0.878258 255 0 255 
-0.196618 -1.03379 5.53322 0.88651 255 0 255 
-0.177026 -1.0131 5.51676 0.864776 255 0 255 
-0.156888 -0.998278 5.51585 0.81881 255 0 255 
-0.135369 -0.985475 5.52016 0.772671 255 0 255 
-0.19363 -1.01777 5.49879 0.875025 255 0 255 
-0.17534 -1.00299 5.49857 0.833538 255 0 255 
-0.155731 -0.988481 5.49805 0.75665 255 0 255 
-0.135894 -0.975587 5.50241 0.698398 255 0 255 
-0.116024 -0.961306 5.50586 0.637054 255 0 255 
-0.101423 -0.935288 5.49502 0.451245 255 0 255 
-0.0856872 -0.915225 5.49517 0.331931 255 0 255 
-0.179293 -0.99901 5.46597 0.793568 255 0 255 
-0.16236 -0.984189 5.46772 0.700344 255 0 255 
-0.145312 -0.972893 5.47271 0.649685 255 0 255 
-0.127053 -0.958363 5.47429 0.564749 255 0 255 
-0.109145 -0.946144 5.47945 0.515704 255 0 255 
-0.170569 -0.993518 5.48203 0.764358 255 0 255 
-0.188572 -1.00741 5.48165 0.826639 255 0 255 
-0.0916522 -0.923399 5.47183 0.349377 255 0 255 
-0.078263 -0.905063 5.47211 0.304423 255 0 255 
-0.0645472 -0.88422 5.46926 0.196268 255 0 255 
-0.0702064 -0.889874 5.48505 0.249297 255 0 255 
-0.322623 -1.05528 5.40779 0.964399 255 0 255 
-0.306016 -1.04857 5.4165 0.958115 255 0 255 
-0.292334 -1.04406 5.42943 0.949703 255 0 255 
-0.274664 -1.03963 5.43801 0.93945 255 0 255 
-0.259903 -1.03746 5.45107 0.927824 255 0 255 
-0.285756 -1.04545 5.45362 0.948574 255 0 255 
-0.305078 -1.04978 5.44566 0.953898 255 0 255 
-0.319182 -1.05361 5.43246 0.962513 255 0 255 
-0.337671 -1.06037 5.42493 0.960403 255 0 255 
-0.236418 -1.0238 5.447 0.886398 255 0 255 
-0.220479 -1.01784 5.45744 0.866331 255 0 255 
-0.202047 -1.00848 5.46357 0.826143 255 0 255 
-0.247827 -1.03277 5.46611 0.918035 255 0 255 
-0.215204 -1.02548 5.49498 0.902437 255 0 255 
-0.234124 -1.03063 5.4859 0.917907 255 0 255 
-0.27079 -1.0465 5.47229 0.939129 255 0 255 
-0.256229 -1.04087 5.48697 0.930469 255 0 255 
-0.296447 -1.05361 5.47612 0.940859 255 0 255 
-0.313725 -1.05587 5.46308 0.952659 255 0 255 
-0.334589 -1.06023 5.45616 0.955471 255 0 255 
-0.350927 -1.0645 5.44289 0.95354 255 0 255 
-0.239142 -1.03807 5.50277 0.922357 255 0 255 
-0.218531 -1.03526 5.51575 0.911052 255 0 255 
-0.26099 -1.0477 5.50452 0.926175 255 0 255 
-0.281857 -1.0579 5.50602 0.913955 255 0 255 
-0.277287 -1.0517 5.4888 0.933268 255 0 255 
-0.242279 -1.04889 5.53001 0.90823 255 0 255 
-0.21915 -1.04559 5.539 0.882231 255 0 255 
-0.264584 -1.05937 5.53556 0.878183 255 0 255 
-0.287161 -1.06853 5.54104 0.843401 255 0 255 
-0.284644 -1.06358 5.52362 0.87894 255 0 255 
-0.381785 -1.07169 5.52073 0.918615 255 0 255 
-0.356549 -1.06927 5.51713 0.91825 255 0 255 
-0.376464 -1.0712 5.50183 0.926663 255 0 255 
-0.331318 -1.06663 5.51354 0.913804 255 0 255 
-0.350953 -1.06771 5.49787 0.926991 255 0 255 
-0.326055 -1.06367 5.49411 0.929258 255 0 255 
-0.370469 -1.07007 5.48213 0.933616 255 0 255 
-0.30626 -1.06274 5.50982 0.916275 255 0 255 
-0.309525 -1.0668 5.52724 0.886299 255 0 255 
-0.334666 -1.06932 5.53067 0.893425 255 0 255 
-0.34351 -1.06416 5.47565 0.941737 255 0 255 
-0.361671 -1.06776 5.46202 0.942075 255 0 255 
-0.344975 -1.02495 5.16682 0.847179 255 0 255 
-0.344098 -1.03502 5.19168 0.863944 255 0 255 
-0.343788 -1.04566 5.21644 0.85237 255 0 255 
-0.323942 -1.04029 5.19663 0.836914 255 0 255 
-0.364761 -1.04023 5.21204 0.878054 255 0 255 
-0.388515 -1.03336 5.20572 0.901691 255 0 255 
-0.366005 -1.02892 5.18594 0.879136 255 0 255 
-0.389785 -1.02191 5.17985 0.893586 255 0 255 
-0.308661 -1.04778 5.21644 0.837793 255 0 255 
-0.32459 -1.0514 5.23832 0.851833 255 0 255 
-0.304328 -1.05299 5.24255 0.859885 255 0 255 
-0.284231 -1.05432 5.24725 0.850349 255 0 255 
-0.32052 -1.05686 5.26461 0.873347 255 0 255 
-0.342442 -1.05515 5.25947 0.877041 255 0 255 
-0.361729 -1.04913 5.23773 0.888608 255 0 255 
-0.370863 -1.06317 5.29229 0.887028 255 0 255 
-0.382357 -1.05554 5.26453 0.900471 255 0 255 
-0.394183 -1.04704 5.23695 0.898317 255 0 255 
-0.405079 -1.0524 5.25797 0.903209 255 0 255 
-0.361037 -1.05767 5.27034 0.884648 255 0 255 
-0.42633 -1.04098 5.23504 0.924225 255 0 255 
-0.410982 -1.03401 5.21546 0.917515 255 0 255 
-0.433148 -1.02658 5.20814 0.92792 255 0 255 
-0.455595 -1.01932 5.20021 0.925287 255 0 255 
-0.418088 -1.02028 5.18842 0.918193 255 0 255 
-0.223756 -0.590873 5.31556 0.696242 255 0 255 
-0.238985 -0.592878 5.30453 0.699078 255 0 255 
-0.252694 -0.594122 5.29225 0.717112 255 0 255 
-0.224097 -0.606806 5.30193 0.643414 255 0 255 
-0.238255 -0.608262 5.28965 0.661715 255 0 255 
-0.265865 -0.593818 5.27903 0.756883 255 0 255 
-0.278718 -0.592834 5.26504 0.801403 255 0 255 
-0.282269 -0.574381 5.28047 0.814587 255 0 255 
-0.269071 -0.575231 5.29458 0.784611 255 0 255 
-0.246778 -0.61367 5.27116 0.712298 255 0 255 
-0.22042 -0.623106 5.28308 0.640159 255 0 255 
-0.231627 -0.62373 5.26927 0.68198 255 0 255 
-0.25785 -0.613381 5.25791 0.761845 255 0 255 
-0.268125 -0.612128 5.24354 0.811365 255 0 255 
-0.311138 -0.603699 5.22961 0.866915 255 0 255 
-0.30573 -0.593104 5.24903 0.831164 255 0 255 
-0.285946 -0.604224 5.24696 0.823148 255 0 255 
-0.291801 -0.612931 5.22653 0.84975 255 0 255 
-0.323852 -0.579634 5.2513 0.860249 255 0 255 
-0.311248 -0.573928 5.26517 0.839457 255 0 255 
-0.298379 -0.567607 5.27808 0.829668 255 0 255 
-0.0941928 -0.652687 5.39482 0.480307 255 0 255 
-0.11607 -0.64079 5.38391 0.487629 255 0 255 
-0.135963 -0.62864 5.3731 0.537579 255 0 255 
-0.154662 -0.616058 5.36276 0.586479 255 0 255 
-0.148692 -0.600847 5.37304 0.659488 255 0 255 
-0.130146 -0.613404 5.38348 0.631254 255 0 255 
-0.100495 -0.664986 5.38418 0.393373 255 0 255 
-0.121927 -0.655144 5.3724 0.392342 255 0 255 
-0.142303 -0.644696 5.36169 0.399558 255 0 255 
-0.159234 -0.634106 5.34888 0.480883 255 0 255 
-0.208723 -0.598966 5.32891 0.619452 255 0 255 
-0.192123 -0.605315 5.34068 0.579497 255 0 255 
-0.219761 -0.569772 5.32971 0.794029 255 0 255 
-0.204552 -0.578033 5.34227 0.713628 255 0 255 
-0.173891 -0.611109 5.35181 0.565392 255 0 255 
-0.213803 -0.546506 5.34287 0.859817 255 0 255 
-0.185851 -0.580805 5.35729 0.705551 255 0 255 
-0.198463 -0.557003 5.35527 0.813751 255 0 255 
-0.167026 -0.58842 5.36727 0.684784 255 0 255 
-0.253547 -0.573177 5.30755 0.768513 255 0 255 
-0.281524 -0.551168 5.29598 0.871776 255 0 255 
-0.265897 -0.550058 5.30938 0.85918 255 0 255 
-0.249035 -0.549875 5.32133 0.851385 255 0 255 
-0.235568 -0.564082 5.32361 0.804579 255 0 255 
-0.314655 -0.549914 5.28193 0.871987 255 0 255 
-0.329309 -0.557388 5.26752 0.877609 255 0 255 
-0.344862 -0.547119 5.26356 0.900417 255 0 255 
-0.330219 -0.539794 5.27809 0.902295 255 0 255 
-0.34563 -0.528775 5.27352 0.923276 255 0 255 
-0.296875 -0.542677 5.29369 0.886965 255 0 255 
-0.340325 -0.490895 5.29122 0.948088 255 0 255 
-0.322659 -0.493662 5.2997 0.950032 255 0 255 
-0.307069 -0.504258 5.30353 0.941574 255 0 255 
-0.289274 -0.505485 5.31031 0.942459 255 0 255 
-0.274047 -0.515378 5.31241 0.93075 255 0 255 
-0.31089 -0.523107 5.2955 0.917268 255 0 255 
-0.326344 -0.512032 5.29203 0.933308 255 0 255 
-0.343279 -0.510383 5.28332 0.939428 255 0 255 
-0.254555 -0.50651 5.32949 0.945585 255 0 255 
-0.242201 -0.523669 5.33419 0.923623 255 0 255 
-0.227194 -0.531887 5.34172 0.911121 255 0 255 
-0.104663 -0.676551 5.37165 0.28728 255 0 255 
-0.126099 -0.667272 5.35926 0.311433 255 0 255 
-0.145351 -0.658287 5.3465 0.306123 255 0 255 
-0.161732 -0.647566 5.33594 0.390695 255 0 255 
-0.125504 -0.676814 5.34432 0.257273 255 0 255 
-0.104884 -0.685672 5.35613 0.255425 255 0 255 
-0.206981 -0.634331 5.29384 0.537502 255 0 255 
-0.193651 -0.641163 5.30878 0.475504 255 0 255 
-0.178348 -0.644373 5.32266 0.428365 255 0 255 
-0.210139 -0.61954 5.31145 0.571663 255 0 255 
-0.19492 -0.625639 5.3252 0.519148 255 0 255 
-0.177827 -0.630117 5.33762 0.48552 255 0 255 
-0.193869 -0.647371 5.2393 0.719767 255 0 255 
-0.202891 -0.647385 5.20925 0.814143 255 0 255 
-0.187548 -0.650932 5.21513 0.787488 255 0 255 
-0.171211 -0.652878 5.22041 0.78596 255 0 255 
-0.211595 -0.646192 5.17917 0.821715 255 0 255 
-0.219362 -0.64303 5.20488 0.821179 255 0 255 
-0.235045 -0.636948 5.20006 0.83386 255 0 255 
-0.159725 -0.651256 5.19817 0.823101 255 0 255 
-0.146747 -0.647213 5.17529 0.790693 255 0 255 
-0.137534 -0.649767 5.20355 0.817896 255 0 255 
-0.168319 -0.648145 5.17069 0.798898 255 0 255 
-0.190137 -0.64698 5.16665 0.795201 255 0 255 
-0.20812 -0.659478 5.11925 0.68304 255 0 255 
-0.219487 -0.654627 5.13979 0.77114 255 0 255 
-0.231234 -0.650218 5.16146 0.833657 255 0 255 
-0.239779 -0.654065 5.13643 0.771522 255 0 255 
-0.198841 -0.652773 5.14242 0.744103 255 0 255 
-0.177921 -0.650425 5.14559 0.734207 255 0 255 
-0.256565 -0.649753 5.14818 0.822571 255 0 255 
-0.258543 -0.643845 5.16774 0.861577 255 0 255 
-0.274676 -0.641861 5.16468 0.867934 255 0 255 
-0.232858 -0.643478 5.1798 0.844673 255 0 255 
-0.10281 -0.642755 5.19152 0.778388 255 0 255 
-0.0808724 -0.63873 5.18555 0.698395 255 0 255 
-0.10327 -0.641226 5.16131 0.663455 255 0 255 
-0.0822638 -0.639487 5.15651 0.628321 255 0 255 
-0.0617731 -0.63923 5.15229 0.571909 255 0 255 
-0.0600629 -0.63815 5.18078 0.654808 255 0 255 
-0.0381521 -0.636792 5.17702 0.577971 255 0 255 
-0.0840183 -0.640857 5.12791 0.485821 255 0 255 
-0.104835 -0.640774 5.13223 0.532978 255 0 255 
-0.125304 -0.641314 5.13816 0.580385 255 0 255 
-0.12508 -0.643604 5.16738 0.721702 255 0 255 
-0.146804 -0.644324 5.14586 0.677811 255 0 255 
-0.0128443 -0.636526 5.17136 0.460651 255 0 255 
0.00143715 -0.637689 5.15393 0.356806 255 0 255 
0.0256403 -0.638512 5.14944 0.277578 255 0 255 
0.00344202 -0.641265 5.12515 0.267418 255 0 255 
-0.0215983 -0.640107 5.12942 0.395207 255 0 255 
-0.0475076 -0.640137 5.13452 0.480326 255 0 255 
-0.0510104 -0.662348 5.07524 0.371796 255 0 255 
-0.0651439 -0.65658 5.08873 0.41324 255 0 255 
-0.0907525 -0.655642 5.0938 0.478013 255 0 255 
-0.105784 -0.650827 5.10856 0.511845 255 0 255 
-0.126358 -0.65899 5.09058 0.464429 255 0 255 
-0.0687843 -0.645691 5.11269 0.44259 255 0 255 
-0.0436752 -0.646457 5.1075 0.394783 255 0 255 
-0.0191082 -0.647897 5.10299 0.306799 255 0 255 
-0.146743 -0.657633 5.09614 0.49554 255 0 255 
-0.167945 -0.657895 5.1033 0.547579 255 0 255 
-0.145786 -0.64984 5.11998 0.565763 255 0 255 
-0.18839 -0.65856 5.11102 0.605594 255 0 255 
-0.12544 -0.649496 5.11357 0.556478 255 0 255 
-0.274888 -0.635943 5.18494 0.872577 255 0 255 
-0.275416 -0.629255 5.20525 0.86096 255 0 255 
-0.290688 -0.632516 5.18099 0.890884 255 0 255 
-0.259015 -0.63139 5.20779 0.843825 255 0 255 
-0.294399 -0.621813 5.20696 0.874032 255 0 255 
-0.271885 -0.621169 5.2246 0.821387 255 0 255 
-0.236922 -0.628137 5.25056 0.739356 255 0 255 
-0.211618 -0.635944 5.26339 0.657875 255 0 255 
-0.242736 -0.630536 5.2312 0.779432 255 0 255 
-0.216013 -0.639851 5.24473 0.718613 255 0 255 
-0.28198 -0.654795 5.13515 0.839617 255 0 255 
-0.280033 -0.664546 5.11646 0.78676 255 0 255 
-0.295813 -0.664945 5.11176 0.787903 255 0 255 
-0.298369 -0.655371 5.13125 0.848034 255 0 255 
-0.314911 -0.65536 5.12712 0.850834 255 0 255 
-0.248293 -0.665128 5.11405 0.729576 255 0 255 
-0.22836 -0.662744 5.11672 0.710135 255 0 255 
-0.237614 -0.675149 5.0964 0.666847 255 0 255 
-0.257964 -0.677011 5.09296 0.690218 255 0 255 
-0.284 -0.706923 5.06673 0.712396 255 0 255 
-0.296317 -0.693449 5.07932 0.71902 255 0 255 
-0.309164 -0.680182 5.09346 0.761945 255 0 255 
-0.317853 -0.695838 5.07659 0.738331 255 0 255 
-0.287835 -0.677464 5.0956 0.741401 255 0 255 
-0.275858 -0.690243 5.08105 0.704371 255 0 255 
-0.336672 -0.688502 5.08422 0.771431 255 0 255 
-0.340073 -0.675404 5.09914 0.813437 255 0 255 
-0.358424 -0.676235 5.09502 0.807124 255 0 255 
-0.311826 -0.667156 5.10902 0.808872 255 0 255 
-0.362895 -0.635198 5.14919 0.93482 255 0 255 
-0.345392 -0.635859 5.1535 0.92939 255 0 255 
-0.368502 -0.6443 5.13486 0.922318 255 0 255 
-0.387228 -0.644117 5.13174 0.918955 255 0 255 
-0.392782 -0.653515 5.11821 0.889307 255 0 255 
-0.317591 -0.624162 5.18877 0.912064 255 0 255 
-0.317695 -0.635099 5.16746 0.915326 255 0 255 
-0.290326 -0.642057 5.16038 0.888436 255 0 255 
-0.316946 -0.645386 5.1472 0.895655 255 0 255 
-0.331838 -0.656261 5.12336 0.867613 255 0 255 
-0.349415 -0.657588 5.11955 0.871996 255 0 255 
-0.36732 -0.657695 5.11589 0.871049 255 0 255 
0.122605 -0.703757 5.28301 0.509196 255 0 255 
0.131315 -0.724634 5.29795 0.533122 255 0 255 
0.11053 -0.720981 5.30459 0.594018 255 0 255 
0.102039 -0.70165 5.28962 0.570922 255 0 255 
0.11916 -0.742405 5.31909 0.590473 255 0 255 
0.0888006 -0.717651 5.30953 0.636334 255 0 255 
0.0982518 -0.738334 5.32412 0.625181 255 0 255 
0.078017 -0.736096 5.33032 0.645558 255 0 255 
0.0790078 -0.698882 5.29455 0.627178 255 0 255 
0.0675209 -0.716113 5.31499 0.649723 255 0 255 
0.0568646 -0.697922 5.29962 0.675332 255 0 255 
0.107146 -0.760193 5.33856 0.615897 255 0 255 
0.0872981 -0.757467 5.34506 0.621037 255 0 255 
0.095505 -0.779845 5.35908 0.600786 255 0 255 
0.11336 -0.782047 5.35266 0.598744 255 0 255 
0.125087 -0.763433 5.33268 0.570832 255 0 255 
0.130275 -0.785238 5.34595 0.547396 255 0 255 
0.14258 -0.766261 5.32548 0.515669 255 0 255 
0.137195 -0.74531 5.31188 0.540981 255 0 255 
0.147526 -0.787505 5.33873 0.48841 255 0 255 
0.0364816 -0.716007 5.32525 0.614948 255 0 255 
0.0234904 -0.698661 5.30988 0.652605 255 0 255 
0.0490018 -0.734982 5.34031 0.587391 255 0 255 
0.0166682 -0.73413 5.35067 0.442719 255 0 255 
0.00341706 -0.716092 5.33562 0.502975 255 0 255 
-0.0109506 -0.699818 5.3208 0.538509 255 0 255 
0.044398 -0.755063 5.35985 0.499387 255 0 255 
0.0378776 -0.775437 5.37894 0.442477 255 0 255 
0.0666931 -0.77731 5.36895 0.59847 255 0 255 
0.0424259 -0.867992 5.41726 0.43401 255 0 255 
0.0574867 -0.846637 5.40344 0.475913 255 0 255 
0.0699051 -0.871687 5.40773 0.489527 255 0 255 
0.0711009 -0.824327 5.38921 0.58497 255 0 255 
0.0849706 -0.849554 5.39406 0.56749 255 0 255 
0.0989536 -0.827217 5.37963 0.589906 255 0 255 
0.0977849 -0.874536 5.39804 0.499219 255 0 255 
0.0841063 -0.802409 5.37454 0.600253 255 0 255 
0.0550233 -0.799208 5.38418 0.511387 255 0 255 
0.0420744 -0.821018 5.39878 0.429522 255 0 255 
0.117114 -0.853315 5.38175 0.518636 255 0 255 
0.132575 -0.877155 5.381 0.382207 255 0 255 
0.133792 -0.831597 5.36427 0.531922 255 0 255 
0.132433 -0.808565 5.35555 0.539404 255 0 255 
0.11563 -0.805612 5.36298 0.587378 255 0 255 
0.117035 -0.829477 5.37241 0.546068 255 0 255 
-0.124659 -0.654615 5.2175 0.816749 255 0 255 
-0.123999 -0.662061 5.237 0.764331 255 0 255 
-0.148885 -0.658404 5.22871 0.75857 255 0 255 
-0.148061 -0.665043 5.24789 0.660213 255 0 255 
-0.122361 -0.667495 5.25646 0.662736 255 0 255 
-0.119193 -0.671517 5.2751 0.575007 255 0 255 
-0.0955557 -0.666339 5.26542 0.692646 255 0 255 
-0.0983318 -0.661134 5.24683 0.773457 255 0 255 
-0.0997663 -0.65489 5.2272 0.809081 255 0 255 
-0.0730785 -0.662568 5.25679 0.767077 255 0 255 
-0.171207 -0.658682 5.2433 0.68002 255 0 255 
-0.169571 -0.662299 5.26514 0.56531 255 0 255 
-0.149895 -0.66901 5.27351 0.52416 255 0 255 
-0.140093 -0.671167 5.29007 0.463169 255 0 255 
-0.0649807 -0.703084 5.3453 0.280879 255 0 255 
-0.0798524 -0.694238 5.32813 0.364664 255 0 255 
-0.0942547 -0.685988 5.31065 0.430483 255 0 255 
-0.0471817 -0.70186 5.33511 0.431652 255 0 255 
-0.107494 -0.678909 5.2931 0.515157 255 0 255 
-0.054789 -0.691846 5.31632 0.493281 255 0 255 
-0.0619858 -0.681858 5.2966 0.578747 255 0 255 
-0.027496 -0.688838 5.30444 0.596561 255 0 255 
-0.068065 -0.672167 5.27664 0.672659 255 0 255 
0.0489214 -0.64244 5.17745 0.262009 255 0 255 
0.024033 -0.641185 5.1816 0.39868 255 0 255 
0.0362885 -0.645823 5.19733 0.444388 255 0 255 
-0.00105225 -0.640674 5.18661 0.52124 255 0 255 
0.0108944 -0.645021 5.20189 0.584144 255 0 255 
-0.0156796 -0.645552 5.20725 0.708171 255 0 255 
-0.0270621 -0.641355 5.19243 0.666151 255 0 255 
0.0232588 -0.650019 5.21725 0.6204 255 0 255 
-0.00375704 -0.649933 5.22225 0.72194 255 0 255 
0.00886015 -0.654584 5.23716 0.735696 255 0 255 
0.0594644 -0.654615 5.22647 0.451452 255 0 255 
0.0716757 -0.650854 5.20674 0.329108 255 0 255 
-0.0698936 -0.645116 5.20156 0.7812 255 0 255 
-0.0569078 -0.649331 5.21641 0.808618 255 0 255 
-0.0908794 -0.646995 5.20637 0.803656 255 0 255 
-0.0785481 -0.651932 5.22189 0.82426 255 0 255 
-0.0652211 -0.656151 5.23712 0.818531 255 0 255 
-0.0324132 -0.657459 5.24577 0.79129 255 0 255 
0.00970775 -0.687337 5.29434 0.689719 255 0 255 
-0.00468871 -0.678081 5.27886 0.738315 255 0 255 
0.0321438 -0.674636 5.2681 0.729181 255 0 255 
0.0444771 -0.686033 5.28386 0.707443 255 0 255 
0.00124864 -0.666358 5.25775 0.784887 255 0 255 
-0.038525 -0.66836 5.26772 0.74266 255 0 255 
0.0684784 -0.687978 5.27959 0.677157 255 0 255 
0.0919483 -0.689448 5.27467 0.603155 255 0 255 
0.0817658 -0.678454 5.25938 0.584152 255 0 255 
0.112934 -0.69089 5.26858 0.515531 255 0 255 
0.102991 -0.679426 5.25305 0.506001 255 0 255 
0.0938278 -0.668363 5.23787 0.423265 255 0 255 
0.0704393 -0.666106 5.24296 0.568709 255 0 255 
0.0458026 -0.664622 5.24763 0.67755 255 0 255 
0.0574513 -0.676148 5.26418 0.6879 255 0 255 
-0.185327 -0.654338 5.25704 0.627473 255 0 255 
-0.183962 -0.65555 5.28294 0.491817 255 0 255 
-0.165488 -0.663739 5.29032 0.423972 255 0 255 
-0.153655 -0.666377 5.30689 0.401174 255 0 255 
-0.198931 -0.646039 5.27539 0.548786 255 0 255 
-0.174727 -0.655942 5.30699 0.390484 255 0 255 
-0.139027 -0.673904 5.32251 0.281447 255 0 255 
-0.111522 -0.685171 5.32402 0.31773 255 0 255 
-0.126976 -0.678904 5.30728 0.368814 255 0 255 
-0.0228286 -0.716596 5.34579 0.380236 255 0 255 
-0.00831238 -0.733679 5.36077 0.318966 255 0 255 
0.00411471 -0.753303 5.37514 0.319536 255 0 255 
0.00565375 -0.773223 5.39235 0.240995 255 0 255 
-0.0263226 -0.733914 5.36863 0.225402 255 0 255 
-0.0448655 -0.716747 5.35666 0.278323 255 0 255 
-0.0178812 -0.75264 5.38563 0.186188 255 0 255 
-0.0118715 -0.773365 5.40207 0.142342 255 0 255 
-0.0162635 -0.866347 5.44134 0.217916 255 0 255 
-0.00751766 -0.842176 5.4301 0.215191 255 0 255 
-0.00145971 -0.818578 5.41787 0.214577 255 0 255 
0.00784135 -0.865767 5.43127 0.270656 255 0 255 
0.00280473 -0.795262 5.40543 0.226457 255 0 255 
0.0171384 -0.842514 5.41853 0.346507 255 0 255 
0.032258 -0.79701 5.39248 0.393844 255 0 255 
0.0170914 -0.819238 5.40926 0.328188 255 0 255 
-0.0444914 -0.731774 5.38094 0.150713 255 0 255 
-0.0270222 -0.816205 5.43448 0.0648963 255 0 255 
-0.0355194 -0.864413 5.45286 0.13534 255 0 255 
-0.0281142 -0.792653 5.42584 0.0327381 255 0 255 
-0.0268275 -0.840823 5.44111 0.053527 255 0 255 
0.0950802 -0.991997 5.36258 0.150774 255 0 255 
0.0849786 -0.979053 5.37589 0.300591 255 0 255 
0.114506 -0.965188 5.37234 0.139196 255 0 255 
0.104904 -0.951946 5.38538 0.275072 255 0 255 
0.0742259 -0.96593 5.38921 0.436725 255 0 255 
0.0642865 -0.951754 5.40244 0.462008 255 0 255 
0.0378939 -0.979974 5.39276 0.52153 255 0 255 
0.0487362 -0.993761 5.37995 0.469108 255 0 255 
0.060238 -1.00675 5.36676 0.292986 255 0 255 
0.0111108 -1.0067 5.38186 0.537652 255 0 255 
0.131641 -0.93306 5.37562 0.15521 255 0 255 
0.120737 -0.914518 5.38288 0.353423 255 0 255 
0.143646 -0.897062 5.37385 0.297997 255 0 255 
0.109069 -0.895542 5.39106 0.476203 255 0 255 
0.0901541 -0.89473 5.39999 0.522541 255 0 255 
0.101109 -0.914564 5.39231 0.470539 255 0 255 
0.0815286 -0.913833 5.40108 0.523312 255 0 255 
0.0324327 -0.888607 5.42048 0.42713 255 0 255 
0.037815 -0.909986 5.41747 0.468972 255 0 255 
0.0268314 -0.929535 5.41901 0.474997 255 0 255 
0.0317443 -0.949605 5.41485 0.487378 255 0 255 
-0.00220856 -0.947353 5.42635 0.469505 255 0 255 
0.0584824 -0.931823 5.40719 0.516874 255 0 255 
0.0620814 -0.891139 5.40984 0.511582 255 0 255 
-0.0202738 -0.960922 5.42164 0.524862 255 0 255 
-0.038232 -0.973228 5.41675 0.560317 255 0 255 
0.0031741 -0.977165 5.40422 0.566459 255 0 255 
-0.0138715 -0.989995 5.39904 0.590401 255 0 255 
-0.0311595 -1.00204 5.39364 0.601044 255 0 255 
-0.0573824 -0.983931 5.41189 0.621915 255 0 255 
-0.0764325 -0.994253 5.40724 0.65166 255 0 255 
-0.062211 -0.968814 5.42425 0.581344 255 0 255 
-0.0428624 -0.957822 5.42879 0.493063 255 0 255 
-0.0240738 -0.945372 5.43338 0.478304 255 0 255 
-0.047367 -0.94207 5.44038 0.487216 255 0 255 
-0.0675757 -0.95384 5.43624 0.517531 255 0 255 
-0.0874275 -0.965053 5.43224 0.576234 255 0 255 
-0.0828402 -0.979186 5.41969 0.618603 255 0 255 
-0.101652 -0.990178 5.41524 0.668807 255 0 255 
-0.105978 -0.976798 5.42786 0.643932 255 0 255 
-0.123275 -0.988299 5.42333 0.692753 255 0 255 
0.0131141 -0.908325 5.42621 0.40657 255 0 255 
-0.00410959 -0.886675 5.43494 0.315002 255 0 255 
-0.0184644 -0.906155 5.43773 0.328956 255 0 255 
-0.00992841 -0.927235 5.43217 0.438571 255 0 255 
-0.0332986 -0.924652 5.43949 0.417127 255 0 255 
-0.0316747 -0.88616 5.44523 0.258066 255 0 255 
-0.0467519 -0.904629 5.44735 0.301124 255 0 255 
-0.0602829 -0.922862 5.44928 0.354955 255 0 255 
-0.0742282 -0.940062 5.45028 0.45889 255 0 255 
-0.0939361 -0.952471 5.44679 0.515492 255 0 255 
-0.112912 -0.964159 5.44273 0.566064 255 0 255 
-0.13059 -0.976305 5.43943 0.64263 255 0 255 
-0.147549 -0.988587 5.43589 0.712607 255 0 255 
-0.0963869 -0.940809 5.4643 0.458321 255 0 255 
-0.0656122 -0.902807 5.45831 0.258588 255 0 255 
-0.0510875 -0.883885 5.45572 0.203431 255 0 255 
-0.165747 -0.992332 5.45039 0.735937 255 0 255 
-0.149053 -0.978753 5.45291 0.664792 255 0 255 
-0.133766 -0.966522 5.45897 0.610095 255 0 255 
-0.112332 -0.953225 5.45871 0.527144 255 0 255 
-0.272785 -1.04311 5.36959 0.951844 255 0 255 
-0.289747 -1.04975 5.3459 0.953495 255 0 255 
-0.306475 -1.05701 5.32263 0.931934 255 0 255 
-0.310211 -1.05543 5.34178 0.949686 255 0 255 
-0.286114 -1.05117 5.32642 0.942831 255 0 255 
-0.267428 -1.04614 5.33254 0.94468 255 0 255 
-0.270306 -1.0443 5.35099 0.947297 255 0 255 
-0.251399 -1.03944 5.35685 0.940822 255 0 255 
-0.334222 -1.06106 5.32246 0.923543 255 0 255 
-0.327852 -1.0592 5.30181 0.910429 255 0 255 
-0.348969 -1.06127 5.29693 0.906712 255 0 255 
-0.311411 -1.0564 5.29171 0.90466 255 0 255 
-0.27579 -1.05364 5.27442 0.886062 255 0 255 
-0.26759 -1.05268 5.30141 0.912587 255 0 255 
-0.254502 -1.0525 5.27989 0.891824 255 0 255 
-0.288931 -1.05438 5.2963 0.911705 255 0 255 
-0.297504 -1.05532 5.26927 0.88225 255 0 255 
-0.233801 -1.04796 5.30137 0.909359 255 0 255 
-0.244716 -1.04449 5.32143 0.930449 255 0 255 
-0.222889 -1.04056 5.32762 0.923423 255 0 255 
-0.200578 -1.0373 5.33361 0.913248 255 0 255 
-0.233357 -1.03804 5.34758 0.9298 255 0 255 
-0.244943 -1.02937 5.43223 0.91033 255 0 255 
-0.22312 -1.01851 5.43398 0.865599 255 0 255 
-0.205592 -1.01099 5.44046 0.840047 255 0 255 
-0.188383 -1.00158 5.44747 0.789108 255 0 255 
-0.277823 -1.03809 5.41455 0.939474 255 0 255 
-0.288631 -1.04394 5.40149 0.953756 255 0 255 
-0.305056 -1.05073 5.3926 0.962909 255 0 255 
-0.257179 -1.03222 5.41877 0.924858 255 0 255 
-0.259037 -1.03633 5.37879 0.939322 255 0 255 
-0.244563 -1.03052 5.38808 0.926124 255 0 255 
-0.241196 -1.0269 5.40588 0.905254 255 0 255 
-0.225711 -1.0225 5.41513 0.883551 255 0 255 
-0.262069 -1.03388 5.40069 0.931271 255 0 255 
-0.199322 -1.01179 5.4142 0.829929 255 0 255 
-0.182583 -1.00421 5.42119 0.80249 255 0 255 
-0.165622 -0.996094 5.42869 0.759264 255 0 255 
-0.383493 -1.06884 5.45516 0.948708 255 0 255 
-0.408094 -1.07049 5.4546 0.947886 255 0 255 
-0.392347 -1.07024 5.47508 0.943065 255 0 255 
-0.432839 -1.072 5.45398 0.93884 255 0 255 
-0.458086 -1.07316 5.45386 0.929411 255 0 255 
-0.444663 -1.07496 5.43219 0.917322 255 0 255 
-0.419404 -1.0728 5.43252 0.934841 255 0 255 
-0.399941 -1.06976 5.4949 0.943422 255 0 255 
-0.423523 -1.06889 5.48809 0.952042 255 0 255 
-0.42984 -1.06767 5.50709 0.957643 255 0 255 
-0.405998 -1.06884 5.51379 0.944136 255 0 255 
-0.450355 -1.06779 5.49086 0.958977 255 0 255 
-0.477376 -1.06656 5.49341 0.959548 255 0 255 
-0.468055 -1.07006 5.47396 0.946773 255 0 255 
-0.440824 -1.07077 5.4709 0.945187 255 0 255 
-0.565283 -1.05718 5.46026 0.927099 255 0 255 
-0.538967 -1.06057 5.45813 0.941529 255 0 255 
-0.552208 -1.06212 5.44017 0.906709 255 0 255 
-0.512244 -1.06491 5.4563 0.943919 255 0 255 
-0.525529 -1.06597 5.43815 0.918019 255 0 255 
-0.498416 -1.06989 5.43613 0.918309 255 0 255 
-0.538479 -1.06721 5.41936 0.878347 255 0 255 
-0.485325 -1.06915 5.45502 0.939442 255 0 255 
-0.494906 -1.06567 5.47494 0.954051 255 0 255 
-0.522053 -1.06094 5.47649 0.959316 255 0 255 
-0.513886 -1.06947 5.42041 0.89774 255 0 255 
-0.526304 -1.06966 5.40395 0.865728 255 0 255 
-0.50193 -1.0719 5.40513 0.885294 255 0 255 
-0.483105 -1.07281 5.41394 0.902929 255 0 255 
-0.514193 -1.07174 5.38837 0.853184 255 0 255 
-0.464566 -1.07356 5.423 0.912681 255 0 255 
-0.00937083 -1.04941 5.29615 0.593594 255 0 255 
-0.020953 -1.04562 5.31326 0.635078 255 0 255 
0.0172897 -1.04168 5.31638 0.492217 255 0 255 
0.00542274 -1.03811 5.33344 0.49817 255 0 255 
-0.0343122 -1.04108 5.33038 0.632747 255 0 255 
-0.0477542 -1.03525 5.34728 0.658236 255 0 255 
-0.0797027 -1.04075 5.32698 0.756814 255 0 255 
-0.0641433 -1.04746 5.30992 0.721371 255 0 255 
-0.0509218 -1.05237 5.29287 0.665357 255 0 255 
-0.111008 -1.04671 5.30759 0.810914 255 0 255 
0.0460812 -1.03033 5.33447 0.348626 255 0 255 
0.0347265 -1.02293 5.35063 0.418091 255 0 255 
0.070834 -1.01405 5.35033 0.239448 255 0 255 
0.0228633 -1.01538 5.36629 0.490423 255 0 255 
-0.0192151 -1.02131 5.36436 0.627983 255 0 255 
-0.00657314 -1.03031 5.34901 0.547104 255 0 255 
-0.0898656 -1.009 5.38346 0.752701 255 0 255 
-0.113118 -1.00542 5.38998 0.765145 255 0 255 
-0.0628049 -1.01475 5.37663 0.709217 255 0 255 
-0.100008 -1.02544 5.36046 0.786256 255 0 255 
-0.124076 -1.0212 5.36751 0.819737 255 0 255 
-0.14607 -1.01829 5.37395 0.853321 255 0 255 
-0.0733269 -1.03084 5.35343 0.73204 255 0 255 
-0.154417 -1.02881 5.34729 0.879696 255 0 255 
-0.174894 -1.02658 5.35366 0.890908 255 0 255 
-0.13123 -1.03185 5.34072 0.862862 255 0 255 
-0.161232 -1.0403 5.32111 0.886004 255 0 255 
-0.181554 -1.03875 5.32737 0.904421 255 0 255 
-0.13746 -1.04315 5.31467 0.852052 255 0 255 
-0.105991 -1.03616 5.33392 0.818533 255 0 255 
-0.196151 -1.02569 5.36278 0.906872 255 0 255 
-0.16884 -1.01728 5.38311 0.847535 255 0 255 
-0.189642 -1.017 5.39243 0.86775 255 0 255 
-0.204334 -1.02146 5.38262 0.880633 255 0 255 
-0.2181 -1.02677 5.37251 0.908286 255 0 255 
-0.20959 -1.03142 5.35283 0.917179 255 0 255 
-0.13608 -1.00215 5.39877 0.775707 255 0 255 
-0.141208 -0.995117 5.41579 0.73038 255 0 255 
-0.158169 -1.00225 5.40775 0.777948 255 0 255 
-0.153042 -1.00912 5.39079 0.806442 255 0 255 
-0.174462 -1.00945 5.39994 0.82519 255 0 255 
-0.223211 -1.02359 5.39381 0.895295 255 0 255 
-0.237625 -1.03299 5.36653 0.924807 255 0 255 
-0.111609 -1.05486 5.20906 0.783923 255 0 255 
-0.129236 -1.05554 5.22792 0.791556 255 0 255 
-0.0875294 -1.05642 5.23079 0.774456 255 0 255 
-0.104534 -1.05688 5.24909 0.773164 255 0 255 
-0.148569 -1.05484 5.24669 0.807104 255 0 255 
-0.166755 -1.05353 5.26528 0.826084 255 0 255 
-0.188968 -1.05372 5.24377 0.819415 255 0 255 
-0.173185 -1.05418 5.22552 0.809151 255 0 255 
-0.155123 -1.05448 5.20665 0.769513 255 0 255 
-0.210298 -1.05409 5.22237 0.788785 255 0 255 
-0.0625092 -1.05609 5.2527 0.737299 255 0 255 
-0.0761686 -1.05472 5.27072 0.746404 255 0 255 
-0.0365955 -1.05411 5.2747 0.703074 255 0 255 
-0.0927137 -1.05174 5.28931 0.764032 255 0 255 
-0.14002 -1.04959 5.28653 0.841586 255 0 255 
-0.121317 -1.054 5.26783 0.803802 255 0 255 
-0.204242 -1.04478 5.3059 0.905316 255 0 255 
-0.184811 -1.04571 5.29963 0.889821 255 0 255 
-0.208249 -1.05198 5.27851 0.865169 255 0 255 
-0.226687 -1.05155 5.28461 0.876593 255 0 255 
-0.176228 -1.04983 5.28264 0.865036 255 0 255 
-0.246188 -1.05316 5.26255 0.86261 255 0 255 
-0.228126 -1.05302 5.25674 0.855369 255 0 255 
-0.24784 -1.05441 5.23468 0.814578 255 0 255 
-0.266037 -1.05428 5.24079 0.840084 255 0 255 
-0.219434 -1.0537 5.23959 0.818175 255 0 255 
-0.198969 -1.05323 5.26126 0.847301 255 0 255 
-0.338356 -1.05913 5.39993 0.964418 255 0 255 
-0.35428 -1.06339 5.39201 0.958202 255 0 255 
-0.338974 -1.06036 5.38079 0.962935 255 0 255 
-0.354628 -1.06456 5.37287 0.94896 255 0 255 
-0.371051 -1.06884 5.36498 0.926631 255 0 255 
-0.370369 -1.067 5.38406 0.945485 255 0 255 
-0.386713 -1.07149 5.376 0.92111 255 0 255 
-0.354977 -1.06603 5.35375 0.932362 255 0 255 
-0.406702 -1.07147 5.35121 0.902958 255 0 255 
-0.427711 -1.07075 5.327 0.876041 255 0 255 
-0.430626 -1.0726 5.34782 0.885038 255 0 255 
-0.40367 -1.06961 5.33004 0.896126 255 0 255 
-0.38183 -1.06794 5.33422 0.913957 255 0 255 
-0.354697 -1.06355 5.31766 0.911904 255 0 255 
-0.338815 -1.063 5.3433 0.937998 255 0 255 
-0.376613 -1.06569 5.31336 0.903525 255 0 255 
-0.399781 -1.06752 5.30951 0.882124 255 0 255 
-0.311007 -1.05422 5.36003 0.961693 255 0 255 
-0.291896 -1.04874 5.36466 0.958755 255 0 255 
-0.430563 -1.07403 5.36882 0.893818 255 0 255 
-0.408458 -1.07283 5.37238 0.908234 255 0 255 
-0.408364 -1.07406 5.39349 0.915614 255 0 255 
-0.431774 -1.07489 5.39003 0.903876 255 0 255 
-0.448257 -1.07482 5.38073 0.891521 255 0 255 
-0.447337 -1.07378 5.35955 0.88107 255 0 255 
-0.46369 -1.0733 5.35029 0.860833 255 0 255 
-0.465059 -1.07452 5.37154 0.873488 255 0 255 
-0.481655 -1.07393 5.36214 0.853305 255 0 255 
-0.353796 -1.06356 5.41672 0.959919 255 0 255 
-0.372146 -1.06676 5.40911 0.954007 255 0 255 
-0.390036 -1.07042 5.40123 0.939892 255 0 255 
-0.393374 -1.06996 5.43367 0.947441 255 0 255 
-0.427679 -1.0755 5.41223 0.910557 255 0 255 
-0.369111 -1.06669 5.43508 0.954955 255 0 255 
-0.450614 -1.07511 5.40931 0.904451 255 0 255 
-0.468998 -1.07439 5.3999 0.894351 255 0 255 
-0.48747 -1.07361 5.39077 0.87559 255 0 255 
-0.498014 -1.07318 5.37526 0.852845 255 0 255 
-0.550448 -1.05562 5.48298 0.960764 255 0 255 
-0.535125 -1.05441 5.50562 0.978738 255 0 255 
-0.506579 -1.06007 5.49954 0.973591 255 0 255 
-0.490814 -1.05976 5.52269 0.979794 255 0 255 
-0.519653 -1.05365 5.52822 0.986155 255 0 255 
-0.503612 -1.05391 5.5511 0.989551 255 0 255 
-0.551443 -1.04616 5.53246 0.986088 255 0 255 
-0.566474 -1.04749 5.51035 0.977641 255 0 255 
-0.581614 -1.04887 5.48811 0.957848 255 0 255 
-0.597448 -1.04218 5.51498 0.969077 255 0 255 
-0.458455 -1.06508 5.51468 0.967397 255 0 255 
-0.439621 -1.06437 5.53612 0.969078 255 0 255 
-0.415554 -1.0666 5.54288 0.957005 255 0 255 
-0.391375 -1.07024 5.54984 0.930638 255 0 255 
-0.401156 -1.06707 5.57882 0.950956 255 0 255 
-0.427084 -1.06178 5.5718 0.974458 255 0 255 
-0.452592 -1.05816 5.56491 0.984122 255 0 255 
-0.471813 -1.05802 5.54362 0.986226 255 0 255 
-0.446066 -1.05245 5.62887 0.992533 255 0 255 
-0.472345 -1.04885 5.62116 0.99187 255 0 255 
-0.465398 -1.05237 5.6025 0.991444 255 0 255 
-0.498458 -1.04619 5.61334 0.990498 255 0 255 
-0.491272 -1.04894 5.59484 0.991185 255 0 255 
-0.517152 -1.04719 5.58749 0.99061 255 0 255 
-0.524047 -1.04499 5.60603 0.990396 255 0 255 
-0.484296 -1.0525 5.57668 0.991531 255 0 255 
-0.51036 -1.05035 5.56946 0.990807 255 0 255 
-0.458921 -1.05487 5.58385 0.989887 255 0 255 
-0.433403 -1.05836 5.59081 0.983567 255 0 255 
-0.43983 -1.05479 5.60952 0.99026 255 0 255 
-0.414147 -1.05892 5.61682 0.98012 255 0 255 
-0.407621 -1.06301 5.59787 0.964347 255 0 255 
-0.420549 -1.05607 5.63609 0.988793 255 0 255 
-0.547868 -1.04132 5.596 0.987388 255 0 255 
-0.572934 -1.0376 5.5855 0.984277 255 0 255 
-0.564913 -1.04046 5.56841 0.984909 255 0 255 
-0.597285 -1.03495 5.57514 0.982138 255 0 255 
-0.589282 -1.03744 5.55828 0.98163 255 0 255 
-0.613434 -1.03527 5.54848 0.97553 255 0 255 
-0.621303 -1.03272 5.56512 0.978437 255 0 255 
-0.581233 -1.041 5.54155 0.981091 255 0 255 
-0.605527 -1.03836 5.53183 0.973353 255 0 255 
-0.557891 -1.04306 5.5506 0.985869 255 0 255 
-0.534238 -1.04608 5.55977 0.988819 255 0 255 
-0.541136 -1.0433 5.57767 0.987733 255 0 255 
-0.0477326 -0.637811 5.43745 0.618353 255 0 255 
-0.0701728 -0.620044 5.4246 0.671142 255 0 255 
-0.0927281 -0.604299 5.41297 0.745028 255 0 255 
-0.057922 -0.649342 5.42582 0.526264 255 0 255 
-0.0811689 -0.633083 5.41206 0.611215 255 0 255 
-0.114337 -0.58928 5.40257 0.769786 255 0 255 
-0.135009 -0.574728 5.39233 0.817432 255 0 255 
-0.122887 -0.558342 5.40507 0.887208 255 0 255 
-0.102832 -0.57427 5.41501 0.857757 255 0 255 
-0.106444 -0.623119 5.39776 0.632764 255 0 255 
-0.205528 -0.524074 5.35495 0.935319 255 0 255 
-0.189662 -0.536806 5.36768 0.899825 255 0 255 
-0.175272 -0.554856 5.37442 0.828558 255 0 255 
-0.194903 -0.504456 5.36579 0.965419 255 0 255 
-0.156193 -0.565294 5.38374 0.802446 255 0 255 
-0.178967 -0.518836 5.37967 0.955241 255 0 255 
-0.160528 -0.531296 5.3905 0.93255 255 0 255 
-0.182017 -0.486891 5.37794 0.971938 255 0 255 
-0.165602 -0.501318 5.39137 0.983474 255 0 255 
-0.14081 -0.542371 5.40029 0.921504 255 0 255 
-0.147045 -0.905321 6.24652 0.90425 255 0 255 
-0.143897 -0.92052 6.21652 0.942021 255 0 255 
-0.1695 -0.906288 6.23455 0.901642 255 0 255 
-0.166665 -0.922012 6.20454 0.942177 255 0 255 
-0.141178 -0.939363 6.18764 0.964645 255 0 255 
-0.138554 -0.958819 6.15911 0.949277 255 0 255 
-0.115938 -0.95601 6.17194 0.94971 255 0 255 
-0.118611 -0.936485 6.20034 0.962442 255 0 255 
-0.121807 -0.918498 6.2295 0.940627 255 0 255 
-0.0934243 -0.953456 6.18444 0.962318 255 0 255 
-0.192048 -0.907948 6.22178 0.902181 255 0 255 
-0.189333 -0.9245 6.19151 0.944161 255 0 255 
-0.214904 -0.909318 6.20944 0.903919 255 0 255 
-0.212286 -0.926154 6.17931 0.945693 255 0 255 
-0.186879 -0.943696 6.16233 0.967418 255 0 255 
-0.184645 -0.964169 6.13318 0.94614 255 0 255 
-0.161479 -0.961953 6.14631 0.946857 255 0 255 
-0.164074 -0.940969 6.1752 0.966806 255 0 255 
-0.123845 -1.01091 6.03245 0.855241 255 0 255 
-0.127637 -1.00105 6.06473 0.869544 255 0 255 
-0.10054 -1.00892 6.04613 0.850313 255 0 255 
-0.131323 -0.988855 6.09709 0.898233 255 0 255 
-0.104373 -0.998776 6.07879 0.865403 255 0 255 
-0.108164 -0.986005 6.11119 0.898405 255 0 255 
-0.0770421 -1.00661 6.06004 0.837919 255 0 255 
-0.134849 -0.975118 6.12858 0.914185 255 0 255 
-0.158202 -0.976926 6.11541 0.917131 255 0 255 
-0.15474 -0.990951 6.0839 0.899845 255 0 255 
-0.0811038 -0.996439 6.09244 0.858831 255 0 255 
-0.0540611 -1.00453 6.07415 0.824614 255 0 255 
-0.0850963 -0.984591 6.12427 0.88913 255 0 255 
-0.0581924 -0.994162 6.1065 0.843118 255 0 255 
