ply
format ascii 1.0
comment VCGLIB generated
element vertex 1001
property float x
property float y
property float z
property uchar red
property uchar green
property uchar blue
property float quality
end_header
0.050140 -0.121533 0.960489 218 255 30 0.611635
0.054322 -0.126321 0.949937 198 255 49 0.587310
0.055614 -0.127451 0.950785 205 255 43 0.596727
0.053304 -0.125099 0.953843 234 255 14 0.630732
0.056742 -0.128563 0.951505 211 255 36 0.605299
0.054499 -0.126209 0.954559 218 255 30 0.611666
0.055582 -0.127209 0.955180 231 255 17 0.628869
0.057834 -0.129576 0.952107 218 255 30 0.609938
0.052187 -0.123818 0.957600 237 255 11 0.634420
0.053329 -0.124839 0.958228 221 255 27 0.613379
0.051286 -0.122870 0.956733 215 255 33 0.605810
0.050241 -0.121890 0.955763 211 255 36 0.602057
0.052300 -0.124115 0.952862 202 255 46 0.591647
0.058530 -0.129682 0.953021 218 255 30 0.610683
0.060171 -0.129925 0.953487 218 255 30 0.609999
0.057014 -0.127332 0.956896 218 255 30 0.611744
0.062044 -0.130253 0.954096 240 254 7 0.637114
0.058860 -0.127540 0.957384 234 255 14 0.629308
0.060855 -0.128071 0.958168 189 255 59 0.576405
0.063933 -0.131005 0.955002 215 255 33 0.609323
0.055705 -0.124901 0.960760 215 255 33 0.607981
0.057681 -0.125249 0.961392 237 255 11 0.634925
0.054797 -0.124910 0.959889 218 255 30 0.609404
0.053980 -0.124912 0.959049 218 255 30 0.611023
0.056257 -0.127315 0.956041 221 255 27 0.615800
0.038813 -0.100302 0.970706 244 250 4 0.643311
0.039859 -0.100910 0.971866 221 255 27 0.616142
0.038230 -0.095710 0.973552 218 255 30 0.612881
0.040721 -0.101499 0.972802 224 255 24 0.617846
0.039188 -0.096329 0.974480 218 255 30 0.613123
0.040099 -0.096963 0.975292 221 255 27 0.614201
0.041535 -0.102070 0.973642 237 255 11 0.634847
0.037567 -0.091129 0.976125 228 255 20 0.621236
0.038579 -0.091766 0.976913 224 255 24 0.618822
0.036942 -0.086606 0.978534 237 255 11 0.635787
0.035950 -0.086189 0.977873 253 239 0 0.654276
0.036609 -0.090709 0.975292 231 255 17 0.625309
0.034887 -0.085751 0.977085 247 246 1 0.646025
0.035520 -0.090265 0.974375 247 246 1 0.646123
0.037233 -0.095304 0.972538 221 255 27 0.615562
0.033728 -0.085294 0.976215 237 255 11 0.635074
0.043027 -0.101919 0.975285 221 255 27 0.613860
0.041670 -0.096805 0.976831 218 255 30 0.610953
0.043836 -0.101826 0.976080 218 255 30 0.611632
0.042561 -0.096758 0.977650 215 255 33 0.608695
0.043540 -0.096713 0.978559 215 255 33 0.607461
0.044716 -0.101747 0.976883 218 255 30 0.610352
0.041242 -0.091667 0.979188 218 255 30 0.613026
0.042284 -0.091648 0.980131 218 255 30 0.611500
0.040996 -0.086593 0.981736 224 255 24 0.618982
0.038910 -0.086613 0.980061 231 255 17 0.625739
0.038239 -0.070012 0.983620 244 250 4 0.644134
0.037465 -0.075475 0.981820 240 254 7 0.639472
0.035511 -0.069817 0.982072 247 246 1 0.645874
0.035063 -0.075396 0.980472 250 243 0 0.651467
0.037030 -0.081038 0.980086 237 255 11 0.633476
0.039350 -0.081087 0.981752 231 255 17 0.626592
0.040059 -0.075606 0.983581 234 255 14 0.631600
0.032823 -0.069305 0.980616 247 246 1 0.645033
0.032566 -0.074429 0.978986 253 239 0 0.652446
0.033689 -0.080072 0.978068 240 254 7 0.637441
0.034841 -0.080546 0.978753 237 255 11 0.636425
0.033792 -0.074925 0.979773 255 217 0 0.679258
0.046524 -0.100653 0.978891 224 255 24 0.620770
0.047674 -0.105412 0.977406 215 255 33 0.606470
0.045364 -0.095896 0.980300 208 255 40 0.601155
0.047324 -0.094663 0.982693 205 255 43 0.595898
0.048408 -0.099401 0.981312 195 255 53 0.585333
0.049442 -0.104162 0.979864 211 255 36 0.604130
0.045152 -0.090511 0.982797 231 255 17 0.627591
0.045065 -0.085186 0.985302 215 255 33 0.609204
0.043003 -0.085884 0.983461 218 255 30 0.613048
0.050319 -0.097961 0.983299 202 255 46 0.590535
0.051355 -0.102429 0.982171 221 255 27 0.617043
0.049317 -0.093541 0.984461 189 255 59 0.575793
0.051250 -0.091866 0.986593 198 255 49 0.588069
0.052203 -0.096262 0.985519 198 255 49 0.589308
0.053189 -0.100744 0.984442 205 255 43 0.595214
0.049277 -0.088314 0.986552 205 255 43 0.594105
0.049235 -0.083131 0.988594 211 255 36 0.602951
0.047158 -0.084135 0.986880 211 255 36 0.604246
0.047204 -0.089367 0.984796 208 255 40 0.598042
0.047865 -0.069450 0.989479 231 255 17 0.626186
0.046958 -0.074622 0.988069 218 255 30 0.610175
0.045584 -0.069684 0.988153 255 232 0 0.660308
0.044687 -0.074935 0.986740 224 255 24 0.617550
0.045966 -0.079874 0.986657 211 255 36 0.602480
0.048127 -0.078907 0.988256 176 255 72 0.560178
0.049108 -0.073745 0.989645 218 255 30 0.609861
0.043228 -0.070063 0.986617 237 255 11 0.635945
0.042361 -0.075493 0.984961 228 255 20 0.623794
0.040792 -0.070097 0.985134 240 254 7 0.638965
0.041569 -0.081022 0.983308 224 255 24 0.619400
0.043820 -0.080363 0.985100 218 255 30 0.610684
0.054355 -0.094976 0.987136 195 255 53 0.582934
0.055280 -0.099246 0.986225 198 255 49 0.589789
0.053477 -0.090781 0.988073 195 255 53 0.582970
0.055493 -0.089342 0.989712 192 255 56 0.581923
0.056366 -0.093542 0.988855 189 255 59 0.577753
0.057207 -0.097832 0.987997 198 255 49 0.588962
0.053647 -0.085893 0.989792 198 255 49 0.589325
0.053920 -0.081123 0.991559 221 255 27 0.616394
0.051608 -0.082103 0.990037 211 255 36 0.601918
0.051419 -0.086947 0.988337 202 255 46 0.592744
0.058451 -0.092437 0.990263 153 255 95 0.534256
0.059261 -0.096560 0.989428 192 255 56 0.578186
0.057748 -0.088376 0.991147 192 255 56 0.580236
0.059898 -0.087142 0.992631 192 255 56 0.578145
0.060584 -0.091218 0.991786 185 255 62 0.572900
0.061258 -0.095337 0.990923 150 255 98 0.529356
0.058151 -0.083760 0.992745 198 255 49 0.587799
0.058745 -0.079210 0.994443 208 255 40 0.597743
0.056360 -0.080153 0.992961 208 255 40 0.600914
0.055893 -0.084709 0.991331 198 255 49 0.589686
0.058051 -0.067165 0.995075 228 255 20 0.623721
0.056546 -0.071790 0.993809 218 255 30 0.610348
0.055451 -0.067702 0.993705 228 255 20 0.621569
0.053993 -0.072359 0.992430 218 255 30 0.611431
0.055180 -0.076453 0.992621 211 255 36 0.603680
0.057645 -0.075501 0.994045 211 255 36 0.602958
0.059156 -0.070848 0.995295 221 255 27 0.613355
0.052817 -0.068421 0.992257 221 255 27 0.614162
0.051542 -0.073287 0.990970 218 255 30 0.610151
0.050283 -0.068815 0.990934 224 255 24 0.620956
0.050392 -0.078184 0.989769 208 255 40 0.598749
0.052777 -0.077211 0.991198 211 255 36 0.602633
0.062654 -0.090235 0.993170 189 255 59 0.578071
0.063348 -0.094263 0.992365 189 255 59 0.574550
0.062123 -0.086277 0.994074 189 255 59 0.575555
0.064326 -0.085164 0.995511 198 255 49 0.588740
0.064795 -0.089122 0.994658 185 255 62 0.570965
0.065415 -0.093170 0.993871 185 255 62 0.573119
0.062668 -0.081814 0.995614 195 255 53 0.584953
0.063350 -0.077423 0.997193 202 255 46 0.593276
0.060982 -0.078322 0.995718 205 255 43 0.596545
0.060398 -0.082694 0.994170 202 255 46 0.592772
0.066970 -0.088214 0.996297 185 255 62 0.571720
0.067429 -0.092170 0.995443 179 255 69 0.566028
0.066461 -0.084321 0.997111 192 255 56 0.578318
0.067134 -0.079962 0.998720 192 255 56 0.579451
0.066682 -0.076136 0.999457 202 255 46 0.590949
0.064921 -0.080819 0.997107 195 255 53 0.584794
0.066220 -0.068779 0.999580 218 255 30 0.611007
0.065406 -0.065102 0.999318 240 254 7 0.637790
0.064027 -0.069368 0.998094 218 255 30 0.611655
0.064676 -0.073091 0.998342 208 255 40 0.600555
0.063027 -0.065837 0.997909 228 255 20 0.623877
0.061568 -0.070259 0.996710 231 255 17 0.625889
0.060602 -0.066429 0.996487 228 255 20 0.624225
0.060074 -0.074733 0.995508 211 255 36 0.603696
0.062424 -0.073837 0.996858 208 255 40 0.599908
0.014264 -0.062395 0.964796 247 246 1 0.647256
0.012525 -0.057973 0.963876 221 255 27 0.613789
0.012956 -0.066074 0.961812 224 255 24 0.619170
0.011289 -0.061597 0.960924 224 255 24 0.617587
0.009911 -0.065186 0.958063 224 255 24 0.617969
0.009681 -0.057273 0.960000 224 255 24 0.620178
0.011526 -0.069776 0.958902 228 255 20 0.623314
0.010175 -0.073515 0.956112 231 255 17 0.626688
0.011820 -0.074292 0.957848 234 255 14 0.630141
0.013179 -0.070508 0.960798 240 254 7 0.639705
0.013540 -0.075066 0.959731 234 255 14 0.629338
0.014896 -0.071233 0.962722 231 255 17 0.626890
0.014592 -0.066718 0.963801 224 255 24 0.618792
0.015286 -0.075840 0.961568 234 255 14 0.632340
0.008316 -0.060836 0.957261 234 255 14 0.631182
0.006892 -0.056828 0.956300 228 255 20 0.621758
0.006847 -0.064456 0.954661 228 255 20 0.624522
0.005521 -0.060383 0.953604 231 255 17 0.625128
0.003999 -0.063903 0.951227 234 255 14 0.629440
0.004165 -0.056443 0.952626 231 255 17 0.626701
0.005347 -0.068069 0.952098 231 255 17 0.628776
0.003892 -0.071775 0.949713 237 255 11 0.633537
0.006985 -0.072612 0.952860 234 255 14 0.629534
0.008406 -0.068844 0.955482 231 255 17 0.627345
0.007726 -0.084011 0.946264 244 250 4 0.640982
0.009545 -0.084466 0.947549 240 254 7 0.639222
0.008528 -0.080373 0.949305 255 213 0 0.682278
0.011367 -0.084911 0.948909 240 254 7 0.640120
0.010330 -0.080874 0.950786 231 255 17 0.628722
0.012115 -0.081412 0.952327 234 255 14 0.631948
0.013221 -0.085397 0.950365 240 254 7 0.637739
0.009312 -0.076877 0.952658 234 255 14 0.630853
0.011104 -0.077442 0.954271 231 255 17 0.628356
0.006126 -0.075987 0.949574 237 255 11 0.634841
0.005307 -0.079535 0.946541 244 250 4 0.643177
0.015015 -0.086184 0.952014 240 254 7 0.637864
0.017009 -0.087175 0.953700 240 254 7 0.639892
0.015606 -0.082995 0.955788 237 255 11 0.633792
0.019119 -0.088163 0.955400 247 246 1 0.645336
0.017653 -0.083956 0.957564 240 254 7 0.637247
0.016352 -0.079780 0.959620 240 254 7 0.638192
0.014522 -0.079024 0.957740 234 255 14 0.631661
0.012782 -0.078252 0.955961 234 255 14 0.629164
0.013837 -0.082180 0.954050 234 255 14 0.632286
0.022960 -0.032405 0.962636 234 255 14 0.631363
0.019302 -0.035569 0.962083 240 254 7 0.637390
0.019489 -0.032594 0.959365 247 246 1 0.647894
0.015988 -0.035713 0.958607 234 255 14 0.629851
0.015819 -0.038673 0.961356 240 254 7 0.638467
0.012685 -0.042140 0.960138 237 255 11 0.633675
0.015536 -0.042233 0.963913 234 255 14 0.629875
0.018853 -0.038869 0.964814 234 255 14 0.631887
0.016018 -0.032351 0.956183 240 254 7 0.639124
0.012652 -0.035447 0.955401 231 255 17 0.628539
0.012258 -0.032088 0.953146 234 255 14 0.629411
0.009172 -0.035441 0.952026 231 255 17 0.627741
0.009735 -0.038768 0.954142 228 255 20 0.623002
0.007115 -0.042282 0.952660 224 255 24 0.620633
0.009867 -0.042211 0.956397 195 255 53 0.584531
0.012742 -0.038780 0.957700 231 255 17 0.625890
0.006429 -0.052875 0.954292 253 239 0 0.654821
0.008478 -0.049223 0.956274 221 255 27 0.616197
0.009105 -0.053209 0.958054 221 255 27 0.616731
0.011192 -0.049538 0.960002 221 255 27 0.616779
0.010538 -0.045685 0.958289 208 255 40 0.599376
0.007920 -0.045812 0.954322 221 255 27 0.616496
0.005907 -0.049356 0.952349 228 255 20 0.624669
0.011850 -0.053467 0.961993 224 255 24 0.620106
0.013859 -0.049611 0.964186 231 255 17 0.626034
0.014652 -0.054075 0.965953 231 255 17 0.626089
0.016136 -0.045863 0.966011 234 255 14 0.630192
0.013242 -0.045787 0.962142 234 255 14 0.632714
0.002543 -0.059965 0.950501 234 255 14 0.630992
0.001236 -0.056331 0.949598 234 255 14 0.632542
0.000895 -0.063553 0.948403 237 255 11 0.634763
-0.000392 -0.059866 0.947575 250 243 0 0.650290
-0.002104 -0.063408 0.945742 240 254 7 0.638284
-0.001732 -0.056274 0.946809 253 239 0 0.652949
-0.000756 -0.067220 0.946511 240 254 7 0.637460
-0.002390 -0.071101 0.944916 234 255 14 0.631196
0.000757 -0.071398 0.947139 253 239 0 0.652803
0.002336 -0.067597 0.949095 237 255 11 0.633749
-0.003530 -0.059818 0.945250 240 254 7 0.638667
-0.004956 -0.056350 0.944632 221 255 27 0.613767
-0.005353 -0.063486 0.943980 244 250 4 0.640691
-0.006804 -0.059872 0.943359 237 255 11 0.636133
-0.008667 -0.063614 0.942416 244 250 4 0.643208
-0.008464 -0.056359 0.942867 244 250 4 0.642309
-0.007123 -0.067265 0.942902 244 250 4 0.641342
-0.008947 -0.071321 0.942082 244 250 4 0.642971
-0.005579 -0.071215 0.943385 240 254 7 0.640413
-0.003872 -0.067190 0.944358 240 254 7 0.639963
-0.007411 -0.088371 0.938920 244 250 4 0.644053
-0.006108 -0.083786 0.940236 244 250 4 0.643940
-0.003963 -0.088056 0.939848 244 250 4 0.643725
-0.004778 -0.079277 0.941511 231 255 17 0.628093
-0.002626 -0.083483 0.941182 244 250 4 0.641427
-0.001307 -0.079027 0.942634 240 254 7 0.638925
-0.000472 -0.087716 0.940824 244 250 4 0.642974
-0.003528 -0.075003 0.943017 240 254 7 0.639507
-0.006833 -0.075217 0.941788 240 254 7 0.636888
-0.008144 -0.079547 0.940461 244 250 4 0.642981
0.000821 -0.083358 0.942501 237 255 11 0.636240
0.003170 -0.087815 0.942195 244 250 4 0.642103
0.001944 -0.079236 0.944481 240 254 7 0.639092
0.004321 -0.083530 0.944113 240 254 7 0.639922
0.002918 -0.075360 0.946867 240 254 7 0.636903
-0.000242 -0.075039 0.944642 240 254 7 0.638349
-0.113389 -0.108680 0.883972 253 239 0 0.655021
-0.116290 -0.109081 0.881543 255 232 0 0.662868
-0.114365 -0.110642 0.879417 255 235 0 0.656773
-0.117311 -0.111211 0.877111 247 246 1 0.648241
-0.119231 -0.109622 0.879176 255 232 0 0.661411
-0.115365 -0.112881 0.875080 218 255 30 0.609540
-0.120279 -0.111843 0.874888 247 246 1 0.644551
-0.118309 -0.113559 0.872932 240 254 7 0.639373
-0.121322 -0.114308 0.870799 240 254 7 0.639221
-0.122201 -0.110199 0.876899 253 239 0 0.653336
-0.123209 -0.112553 0.872727 244 250 4 0.640656
-0.125165 -0.110864 0.874677 247 246 1 0.645112
-0.116365 -0.115259 0.870971 250 243 0 0.648562
-0.119325 -0.115975 0.868839 240 254 7 0.638676
-0.117310 -0.117736 0.866919 240 254 7 0.638567
-0.114375 -0.117278 0.868897 240 254 7 0.639527
-0.113435 -0.114833 0.873005 255 228 0 0.664676
-0.111465 -0.116804 0.870899 240 254 7 0.639641
-0.110501 -0.114447 0.875061 240 254 7 0.638827
-0.112438 -0.112505 0.877186 247 246 1 0.644722
-0.109501 -0.112186 0.879352 250 243 0 0.649437
-0.108560 -0.116396 0.872930 240 254 7 0.638236
-0.107598 -0.114095 0.877177 240 254 7 0.638835
-0.105662 -0.116070 0.875036 240 254 7 0.637417
-0.111479 -0.110382 0.881618 253 239 0 0.655953
-0.128403 -0.110710 0.872433 247 246 1 0.644923
-0.126537 -0.112428 0.870499 240 254 7 0.640531
-0.129886 -0.112387 0.868344 244 250 4 0.640973
-0.131680 -0.110670 0.870219 244 250 4 0.643502
-0.127996 -0.114135 0.866434 240 254 7 0.638923
-0.133189 -0.112383 0.866202 240 254 7 0.640211
-0.131363 -0.114120 0.864361 240 254 7 0.638907
-0.134640 -0.114060 0.862273 240 254 7 0.637200
-0.135006 -0.110649 0.868027 244 250 4 0.643507
-0.136530 -0.112351 0.864124 240 254 7 0.639092
-0.138346 -0.110656 0.865929 244 250 4 0.642017
-0.129401 -0.115824 0.862422 240 254 7 0.638106
-0.132738 -0.115762 0.860341 240 254 7 0.637039
-0.130674 -0.117440 0.858379 240 254 7 0.637415
-0.127317 -0.117581 0.860497 240 254 7 0.637963
-0.125945 -0.115879 0.864534 240 254 7 0.638002
-0.123896 -0.117631 0.862614 240 254 7 0.637860
-0.122602 -0.115909 0.866668 240 254 7 0.637062
-0.124616 -0.114179 0.868590 234 255 14 0.631692
-0.120578 -0.117666 0.864751 234 255 14 0.629313
-0.120167 -0.121528 0.848771 240 254 7 0.638930
-0.116978 -0.121878 0.850807 240 254 7 0.639019
-0.119680 -0.121387 0.853407 240 254 7 0.638586
-0.116463 -0.121625 0.855454 240 254 7 0.638679
-0.113880 -0.122227 0.852843 240 254 7 0.638930
-0.118996 -0.120631 0.857976 240 254 7 0.638813
-0.113327 -0.121839 0.857464 240 254 7 0.638629
-0.115798 -0.120784 0.860014 240 254 7 0.639116
-0.112625 -0.120895 0.862068 240 254 7 0.638635
-0.110816 -0.122448 0.854849 240 254 7 0.638753
-0.110223 -0.122021 0.859509 240 254 7 0.638419
-0.107791 -0.122736 0.856919 240 254 7 0.638508
-0.118183 -0.119345 0.862487 250 243 0 0.650094
-0.114998 -0.119433 0.864536 240 254 7 0.639027
-0.121485 -0.119265 0.860349 240 254 7 0.638525
-0.124861 -0.119143 0.858213 240 254 7 0.638034
-0.122312 -0.120452 0.855849 240 254 7 0.638343
-0.125626 -0.120195 0.853706 240 254 7 0.637906
-0.128229 -0.118950 0.856069 240 254 7 0.637501
-0.122936 -0.121048 0.851258 240 254 7 0.638422
-0.105065 -0.122608 0.858670 240 254 7 0.638352
-0.107448 -0.121644 0.861520 240 254 7 0.638332
-0.104692 -0.121499 0.863311 240 254 7 0.638093
-0.102408 -0.122543 0.860494 240 254 7 0.638130
-0.106950 -0.120045 0.866085 240 254 7 0.638163
-0.101965 -0.121418 0.865202 240 254 7 0.637827
-0.104160 -0.119900 0.867916 240 254 7 0.637822
-0.101428 -0.119881 0.869830 240 254 7 0.637488
-0.099770 -0.122522 0.862437 240 254 7 0.637935
-0.099260 -0.121469 0.867167 240 254 7 0.637489
-0.097079 -0.122550 0.864365 240 254 7 0.637687
-0.106326 -0.118104 0.870561 240 254 7 0.637769
-0.103537 -0.118006 0.872440 240 254 7 0.637364
-0.109195 -0.118499 0.868500 240 254 7 0.638270
-0.112081 -0.118988 0.866511 240 254 7 0.638666
-0.109751 -0.120424 0.864045 240 254 7 0.638476
-0.082418 -0.121333 0.875321 237 255 11 0.636032
-0.081996 -0.122402 0.870669 237 255 11 0.636552
-0.085617 -0.121633 0.872975 237 255 11 0.636369
-0.081521 -0.123018 0.865888 240 254 7 0.637223
-0.085201 -0.122732 0.868286 240 254 7 0.636834
-0.084672 -0.123271 0.863484 240 254 7 0.637620
-0.088842 -0.122011 0.870623 240 254 7 0.636738
-0.080981 -0.123152 0.860977 240 254 7 0.638418
-0.080400 -0.123151 0.856083 240 254 7 0.639780
-0.077542 -0.123282 0.858017 240 254 7 0.639650
-0.078099 -0.123213 0.862927 240 254 7 0.637931
-0.078608 -0.123061 0.867859 240 254 7 0.636948
-0.074674 -0.123324 0.859944 240 254 7 0.639328
-0.090923 -0.122079 0.869020 240 254 7 0.636962
-0.088715 -0.122809 0.865773 240 254 7 0.637241
-0.090754 -0.122839 0.864203 240 254 7 0.637689
-0.092960 -0.122218 0.867445 240 254 7 0.637177
-0.088493 -0.123084 0.860855 240 254 7 0.638178
-0.092742 -0.122895 0.862654 240 254 7 0.639339
-0.090448 -0.123019 0.859314 240 254 7 0.638637
-0.092477 -0.123036 0.857786 240 254 7 0.638884
-0.095016 -0.122364 0.865891 240 254 7 0.637444
-0.094803 -0.123057 0.861116 240 254 7 0.638135
-0.088206 -0.122880 0.855898 240 254 7 0.640612
-0.090180 -0.122862 0.854381 244 250 4 0.641200
-0.087870 -0.122566 0.850917 240 254 7 0.640492
-0.084143 -0.122867 0.853465 240 254 7 0.640357
-0.084413 -0.123047 0.858470 240 254 7 0.639307
-0.079841 -0.124809 0.836760 237 255 11 0.636698
-0.079839 -0.123445 0.841201 237 255 11 0.636686
-0.076097 -0.124829 0.838861 237 255 11 0.636243
-0.079940 -0.122806 0.845964 240 254 7 0.637030
-0.076124 -0.123522 0.843340 240 254 7 0.636737
-0.076258 -0.123085 0.848254 240 254 7 0.636747
-0.072367 -0.124996 0.840997 247 246 1 0.647096
-0.080169 -0.122820 0.850978 237 255 11 0.633431
-0.083893 -0.122568 0.848411 240 254 7 0.638172
-0.083670 -0.122792 0.843506 240 254 7 0.637368
-0.072804 -0.123659 0.845419 237 255 11 0.636490
-0.069492 -0.125067 0.842664 237 255 11 0.635876
-0.073379 -0.123040 0.850137 237 255 11 0.636690
-0.069966 -0.123727 0.847148 237 255 11 0.636073
-0.070560 -0.123170 0.851894 240 254 7 0.636748
-0.066640 -0.125185 0.844358 237 255 11 0.635222
-0.073993 -0.122994 0.855029 240 254 7 0.637553
-0.076865 -0.122995 0.853114 237 255 11 0.633041
-0.101268 -0.124895 0.825090 240 254 7 0.637058
-0.098355 -0.124725 0.826626 240 254 7 0.636817
-0.100091 -0.122943 0.829637 240 254 7 0.637110
-0.097232 -0.122972 0.831167 240 254 7 0.637072
-0.095491 -0.124607 0.828133 237 255 11 0.636575
-0.099204 -0.121878 0.834297 240 254 7 0.637339
-0.094423 -0.122988 0.832676 240 254 7 0.636963
-0.096376 -0.122038 0.835852 240 254 7 0.637470
-0.093604 -0.122249 0.837423 240 254 7 0.637332
-0.092667 -0.124577 0.829643 237 255 11 0.636406
-0.091666 -0.123154 0.834228 240 254 7 0.636874
-0.089854 -0.124655 0.831203 237 255 11 0.636331
-0.098497 -0.121609 0.839157 240 254 7 0.638160
-0.095715 -0.121934 0.840787 240 254 7 0.638052
-0.097903 -0.121952 0.844272 240 254 7 0.639840
-0.100661 -0.121589 0.842403 240 254 7 0.640039
-0.101264 -0.121377 0.837396 240 254 7 0.638335
-0.103457 -0.121324 0.840601 240 254 7 0.640437
-0.104053 -0.121190 0.835658 240 254 7 0.639317
-0.101995 -0.121811 0.832589 234 255 14 0.632074
-0.104848 -0.121808 0.830874 240 254 7 0.638320
-0.106268 -0.121030 0.838825 244 250 4 0.640709
-0.106917 -0.121075 0.833931 250 243 0 0.648933
-0.109166 -0.120884 0.837080 244 250 4 0.642477
-0.102950 -0.123084 0.827931 240 254 7 0.637582
-0.087388 -0.124619 0.832554 237 255 11 0.636407
-0.089210 -0.123062 0.835698 240 254 7 0.636719
-0.086687 -0.123120 0.837078 240 254 7 0.636825
-0.084878 -0.124598 0.833906 240 254 7 0.636809
-0.088680 -0.122341 0.840515 240 254 7 0.637258
-0.084221 -0.123303 0.838552 240 254 7 0.636967
-0.086188 -0.122521 0.841978 240 254 7 0.637327
-0.082364 -0.124645 0.835315 244 250 4 0.643088
-0.088258 -0.122272 0.845626 244 250 4 0.641209
-0.090412 -0.122376 0.849209 240 254 7 0.640458
-0.090755 -0.122054 0.843962 240 254 7 0.638391
-0.092915 -0.122217 0.847541 240 254 7 0.640130
-0.093228 -0.121992 0.842358 240 254 7 0.637991
-0.091152 -0.122219 0.838927 240 254 7 0.637256
-0.095420 -0.122012 0.845864 240 254 7 0.638308
-0.097423 -0.122888 0.859368 240 254 7 0.638291
-0.100028 -0.122713 0.857438 240 254 7 0.638644
-0.097639 -0.122608 0.854344 240 254 7 0.640122
-0.102630 -0.122688 0.855579 240 254 7 0.638980
-0.100219 -0.122485 0.852452 244 250 4 0.640699
-0.102786 -0.122547 0.850687 244 250 4 0.641063
-0.105265 -0.122719 0.853797 240 254 7 0.639218
-0.097811 -0.122225 0.849257 244 250 4 0.642954
-0.100310 -0.122247 0.847517 244 250 4 0.643257
-0.095274 -0.122372 0.850911 244 250 4 0.642838
-0.092746 -0.122561 0.852624 244 250 4 0.642083
-0.095075 -0.122780 0.856046 240 254 7 0.639601
-0.108232 -0.122486 0.851927 240 254 7 0.639544
-0.111195 -0.122141 0.849886 240 254 7 0.639983
-0.108518 -0.121851 0.846943 244 250 4 0.642998
-0.114225 -0.121874 0.847905 240 254 7 0.640157
-0.111472 -0.121516 0.844947 244 250 4 0.643876
-0.114498 -0.121260 0.842928 244 250 4 0.643760
-0.117346 -0.121553 0.845866 240 254 7 0.640225
-0.108807 -0.121202 0.841961 244 250 4 0.643261
-0.111760 -0.120915 0.839965 244 250 4 0.642942
-0.105931 -0.121576 0.843811 244 250 4 0.644314
-0.103120 -0.121880 0.845631 244 250 4 0.643461
-0.105634 -0.122220 0.848800 244 250 4 0.641827
-0.085299 -0.044784 0.947066 240 254 7 0.637501
-0.085520 -0.045792 0.945139 240 254 7 0.637751
-0.084488 -0.042787 0.943295 237 255 11 0.635027
-0.084518 -0.043735 0.941451 237 255 11 0.635091
-0.085450 -0.046745 0.943175 240 254 7 0.637506
-0.083676 -0.040499 0.939661 240 254 7 0.637212
-0.084567 -0.044663 0.939539 218 255 30 0.610941
-0.083743 -0.041429 0.937862 240 254 7 0.637026
-0.083761 -0.042281 0.935915 237 255 11 0.636611
-0.085518 -0.047670 0.941298 240 254 7 0.636885
-0.084708 -0.045549 0.937704 237 255 11 0.633053
-0.085719 -0.048693 0.939534 237 255 11 0.636530
-0.083111 -0.038089 0.936174 224 255 24 0.618685
-0.083168 -0.038777 0.934203 237 255 11 0.636027
-0.082874 -0.035239 0.932812 237 255 11 0.632965
-0.082806 -0.034700 0.934905 228 255 20 0.623940
-0.083108 -0.037388 0.938313 237 255 11 0.633476
-0.082704 -0.034175 0.937138 240 254 7 0.637763
-0.083115 -0.036837 0.940465 240 254 7 0.639041
-0.083747 -0.039937 0.941824 231 255 17 0.626850
-0.083679 -0.039263 0.943912 224 255 24 0.621000
-0.082716 -0.033692 0.939413 240 254 7 0.639570
-0.083081 -0.036195 0.942665 240 254 7 0.638995
-0.084488 -0.042148 0.945436 218 255 30 0.610031
-0.085868 -0.049454 0.937755 237 255 11 0.636448
-0.084809 -0.046115 0.935781 231 255 17 0.626328
-0.084998 -0.046813 0.933977 237 255 11 0.635269
-0.086108 -0.050280 0.935995 240 254 7 0.637244
-0.083921 -0.043331 0.932194 240 254 7 0.639433
-0.084660 -0.047636 0.932583 240 254 7 0.639395
-0.083678 -0.043928 0.930807 244 250 4 0.641467
-0.083750 -0.044547 0.929452 244 250 4 0.641557
-0.085979 -0.051232 0.934392 244 250 4 0.642266
-0.084549 -0.048373 0.931206 237 255 11 0.634111
-0.085686 -0.052145 0.932968 255 235 0 0.657498
-0.083204 -0.040157 0.929088 224 255 24 0.620128
-0.083443 -0.040633 0.927676 234 255 14 0.631639
-0.083515 -0.036851 0.926106 244 250 4 0.643796
-0.083159 -0.036626 0.927670 255 232 0 0.660819
-0.083218 -0.039802 0.930627 240 254 7 0.637655
-0.083029 -0.036268 0.929240 240 254 7 0.639452
-0.083302 -0.039383 0.932403 240 254 7 0.637600
-0.083928 -0.042720 0.933938 237 255 11 0.636359
-0.083056 -0.035838 0.930926 240 254 7 0.638387
-0.090136 -0.021768 0.922868 240 254 7 0.639200
-0.089321 -0.021309 0.924987 240 254 7 0.638849
-0.087714 -0.024921 0.924682 240 254 7 0.637637
-0.086930 -0.024641 0.926734 240 254 7 0.638065
-0.088489 -0.020859 0.927198 240 254 7 0.637321
-0.085520 -0.028447 0.926829 240 254 7 0.638001
-0.086262 -0.024204 0.928916 240 254 7 0.638754
-0.085035 -0.028031 0.928945 240 254 7 0.637825
-0.084461 -0.027655 0.931224 237 255 11 0.635553
-0.087751 -0.020373 0.929352 224 255 24 0.618993
-0.085658 -0.023803 0.931145 240 254 7 0.639600
-0.087045 -0.019952 0.931433 255 232 0 0.662490
-0.083968 -0.031964 0.929591 237 255 11 0.636469
-0.083562 -0.031549 0.931768 240 254 7 0.638014
-0.084133 -0.032253 0.927766 228 255 20 0.623940
-0.084363 -0.032692 0.926063 240 254 7 0.637297
-0.085890 -0.028802 0.924947 240 254 7 0.638641
-0.086360 -0.029161 0.923155 240 254 7 0.638455
-0.084749 -0.032973 0.924451 240 254 7 0.639075
-0.088220 -0.025471 0.922623 240 254 7 0.637963
-0.086583 -0.019537 0.933697 244 250 4 0.643704
-0.085301 -0.023117 0.933352 244 250 4 0.640705
-0.085013 -0.022884 0.935646 240 254 7 0.640148
-0.086151 -0.019250 0.935979 244 250 4 0.641788
-0.084024 -0.026579 0.935756 237 255 11 0.633153
-0.083794 -0.026225 0.938042 208 255 40 0.599604
-0.083151 -0.029823 0.938459 224 255 24 0.620521
-0.083218 -0.030369 0.936188 231 255 17 0.625700
-0.083338 -0.030958 0.934031 240 254 7 0.637341
-0.084207 -0.027017 0.933481 221 255 27 0.614167
-0.096954 -0.053970 0.955565 240 254 7 0.639837
-0.096391 -0.052729 0.957624 240 254 7 0.640550
-0.097391 -0.051621 0.960595 247 246 1 0.647409
-0.100669 -0.051809 0.962176 240 254 7 0.638088
-0.101516 -0.053071 0.959893 240 254 7 0.636960
-0.100569 -0.054232 0.956941 240 254 7 0.637418
-0.104118 -0.054383 0.958474 240 254 7 0.640154
-0.107211 -0.050865 0.964771 237 255 11 0.633760
-0.108309 -0.052088 0.962396 237 255 11 0.633817
-0.107693 -0.053710 0.959476 237 255 11 0.634362
-0.111166 -0.053008 0.960640 237 255 11 0.633294
-0.104892 -0.052839 0.961234 237 255 11 0.635268
-0.103949 -0.051597 0.963509 237 255 11 0.635196
-0.111478 -0.050989 0.963549 237 255 11 0.635915
-0.110307 -0.049713 0.965940 237 255 11 0.632850
-0.113212 -0.048179 0.967027 234 255 14 0.631683
-0.114560 -0.049522 0.964380 234 255 14 0.631726
-0.114341 -0.051524 0.961513 234 255 14 0.632203
-0.117460 -0.050223 0.962186 234 255 14 0.631237
-0.118453 -0.044560 0.968523 234 255 14 0.629648
-0.120077 -0.046119 0.965509 231 255 17 0.627858
-0.120239 -0.048446 0.962510 234 255 14 0.629844
-0.123009 -0.046787 0.962827 224 255 24 0.620412
-0.117369 -0.047919 0.965141 234 255 14 0.630399
-0.115944 -0.046468 0.967841 234 255 14 0.630800
-0.124698 -0.048267 0.959840 234 255 14 0.630943
-0.124835 -0.050438 0.957136 237 255 11 0.632929
-0.126462 -0.051859 0.954336 250 243 0 0.652183
-0.126523 -0.054007 0.951796 237 255 11 0.635581
-0.129659 -0.052659 0.951467 237 255 11 0.634371
-0.123310 -0.053336 0.954710 237 255 11 0.633614
-0.123360 -0.055504 0.952053 237 255 11 0.634043
-0.121828 -0.051989 0.957211 234 255 14 0.632229
-0.120312 -0.050646 0.959811 234 255 14 0.631342
-0.131299 -0.054239 0.948640 237 255 11 0.636613
-0.131216 -0.056459 0.946115 237 255 11 0.634854
-0.132774 -0.058079 0.943094 231 255 17 0.628242
-0.132603 -0.060373 0.940315 231 255 17 0.627638
-0.136008 -0.059562 0.939005 237 255 11 0.635022
-0.129396 -0.059214 0.944006 237 255 11 0.634115
-0.129199 -0.061470 0.941311 237 255 11 0.634173
-0.127927 -0.057670 0.946697 237 255 11 0.635404
-0.126433 -0.056148 0.949416 255 235 0 0.658495
-0.121568 -0.062945 0.942544 237 255 11 0.635983
-0.120217 -0.061593 0.944919 237 255 11 0.636603
-0.120709 -0.059739 0.947273 250 243 0 0.650440
-0.119348 -0.058385 0.949666 237 255 11 0.635385
-0.119806 -0.056541 0.951996 237 255 11 0.633796
-0.116192 -0.057798 0.951831 237 255 11 0.634561
-0.122977 -0.057405 0.949641 234 255 14 0.630070
-0.124424 -0.058740 0.947143 237 255 11 0.635302
-0.125902 -0.060158 0.944569 237 255 11 0.634311
-0.125425 -0.062066 0.942026 228 255 20 0.624899
-0.114901 -0.056488 0.954134 237 255 11 0.633974
-0.115288 -0.054676 0.956589 237 255 11 0.633094
-0.114036 -0.053491 0.958754 234 255 14 0.632776
-0.117223 -0.052176 0.959477 234 255 14 0.632118
-0.118642 -0.053393 0.957032 234 255 14 0.632584
-0.120088 -0.054688 0.954547 237 255 11 0.632991
-0.086299 -0.045383 0.950189 240 254 7 0.638874
-0.088925 -0.048528 0.952690 240 254 7 0.639465
-0.087907 -0.048144 0.949526 237 255 11 0.636314
-0.090513 -0.051151 0.951891 240 254 7 0.639496
-0.094280 -0.050943 0.958674 255 235 0 0.656431
-0.093229 -0.051474 0.955688 244 250 4 0.642005
-0.093746 -0.052709 0.953578 250 243 0 0.650697
-0.110504 -0.054545 0.958029 237 255 11 0.633801
-0.111762 -0.055698 0.955900 237 255 11 0.633917
-0.111106 -0.057260 0.953359 237 255 11 0.634943
-0.112365 -0.058358 0.951367 237 255 11 0.634902
-0.108398 -0.059122 0.950695 240 254 7 0.636719
-0.107231 -0.057989 0.952510 244 250 4 0.644011
-0.107983 -0.056452 0.954990 237 255 11 0.635429
-0.106942 -0.055309 0.956885 237 255 11 0.635803
-0.116825 -0.060505 0.947406 240 254 7 0.640379
-0.116120 -0.062016 0.945045 237 255 11 0.636339
-0.117505 -0.063228 0.942759 237 255 11 0.636256
-0.113279 -0.063728 0.942823 237 255 11 0.636641
-0.112080 -0.062431 0.945074 237 255 11 0.636425
-0.112851 -0.060939 0.947302 237 255 11 0.636124
-0.111587 -0.059846 0.949140 237 255 11 0.635778
-0.104381 -0.063393 0.941539 240 254 7 0.638662
-0.103302 -0.062267 0.943277 240 254 7 0.638521
-0.102180 -0.061192 0.944857 240 254 7 0.638399
-0.106436 -0.061361 0.945944 240 254 7 0.637535
-0.105389 -0.060204 0.947632 240 254 7 0.637178
-0.104324 -0.059053 0.949379 240 254 7 0.637183
-0.101142 -0.060020 0.946597 240 254 7 0.637926
-0.100180 -0.058839 0.948288 240 254 7 0.638077
-0.107703 -0.062448 0.944075 240 254 7 0.640274
-0.108985 -0.063515 0.942242 240 254 7 0.637879
-0.099261 -0.057661 0.949990 244 250 4 0.641053
-0.100303 -0.056581 0.952520 240 254 7 0.637885
-0.101361 -0.055472 0.955054 240 254 7 0.636766
-0.097661 -0.055243 0.953609 247 246 1 0.647850
-0.104191 -0.056762 0.953798 237 255 11 0.632872
-0.103249 -0.057885 0.951234 240 254 7 0.636751
-0.096556 -0.055773 0.950863 240 254 7 0.639048
-0.095413 -0.056307 0.948106 240 254 7 0.639321
-0.096234 -0.057463 0.946462 247 246 1 0.644626
-0.092292 -0.055905 0.944721 240 254 7 0.638726
-0.091822 -0.054666 0.946539 240 254 7 0.638383
-0.092995 -0.054314 0.949117 240 254 7 0.639005
-0.092518 -0.053163 0.950961 240 254 7 0.639621
-0.097640 -0.059744 0.943068 255 235 0 0.658281
-0.098603 -0.060944 0.941393 244 250 4 0.642344
-0.099655 -0.062124 0.939736 240 254 7 0.640605
-0.094772 -0.060515 0.938026 244 250 4 0.641540
-0.094083 -0.059264 0.939700 250 243 0 0.650532
-0.093464 -0.058122 0.941352 244 250 4 0.640900
-0.094882 -0.057835 0.943862 240 254 7 0.640478
-0.089580 -0.054393 0.938729 240 254 7 0.638847
-0.089241 -0.053471 0.940462 240 254 7 0.638108
-0.089007 -0.052552 0.942230 240 254 7 0.638163
-0.090027 -0.055534 0.937030 244 250 4 0.640665
-0.090341 -0.056812 0.935437 250 243 0 0.649277
-0.088309 -0.050212 0.945735 237 255 11 0.636134
-0.088151 -0.049180 0.947647 224 255 24 0.620937
-0.088632 -0.051349 0.944003 240 254 7 0.637862
-0.092500 -0.018880 0.923580 255 213 0 0.680877
-0.091465 -0.018494 0.925731 244 250 4 0.642935
-0.093751 -0.015630 0.926612 240 254 7 0.640229
-0.094852 -0.016139 0.924462 244 250 4 0.641140
-0.092779 -0.015161 0.928755 240 254 7 0.640221
-0.096134 -0.012947 0.927777 240 254 7 0.639433
-0.095072 -0.012382 0.929930 244 250 4 0.642137
-0.097305 -0.009836 0.931048 240 254 7 0.638514
-0.097260 -0.013502 0.925491 240 254 7 0.638973
-0.098471 -0.010470 0.928887 240 254 7 0.638313
-0.099655 -0.011135 0.926637 240 254 7 0.638338
-0.094053 -0.011933 0.932052 240 254 7 0.639802
-0.096266 -0.009247 0.933369 240 254 7 0.638865
-0.095252 -0.008712 0.935671 240 254 7 0.639166
-0.093221 -0.011312 0.934273 240 254 7 0.639881
-0.091967 -0.014666 0.930923 240 254 7 0.640022
-0.091160 -0.014128 0.933050 240 254 7 0.640170
-0.089855 -0.017498 0.929983 240 254 7 0.640182
-0.090610 -0.017988 0.927852 244 250 4 0.643726
-0.089067 -0.016971 0.932062 244 250 4 0.641242
-0.103055 -0.007916 0.930440 240 254 7 0.637687
-0.104349 -0.008710 0.927723 240 254 7 0.637401
-0.101729 -0.007155 0.932968 240 254 7 0.638378
-0.106041 -0.004881 0.934272 244 250 4 0.641960
-0.107383 -0.005650 0.931649 237 255 11 0.636623
-0.108681 -0.006600 0.928797 240 254 7 0.636916
-0.102637 -0.005220 0.936246 250 243 0 0.651261
-0.103460 -0.003279 0.939801 244 250 4 0.644082
-0.099432 -0.005802 0.937795 240 254 7 0.639170
-0.096445 -0.006634 0.939376 240 254 7 0.638933
-0.100424 -0.003746 0.941789 240 254 7 0.638697
-0.089830 -0.013375 0.937727 244 250 4 0.640986
-0.088443 -0.016602 0.934405 244 250 4 0.641451
-0.090448 -0.013695 0.935408 244 250 4 0.640883
-0.092439 -0.010884 0.936651 240 254 7 0.640163
-0.111325 -0.005027 0.932377 237 255 11 0.635670
-0.112832 -0.005987 0.929445 237 255 11 0.636354
-0.109886 -0.004197 0.935254 237 255 11 0.635951
-0.113837 -0.003425 0.935900 244 250 4 0.640675
-0.115327 -0.004378 0.932654 237 255 11 0.635520
-0.116769 -0.005465 0.929646 240 254 7 0.639379
-0.110408 -0.002888 0.938628 237 255 11 0.635706
-0.110825 -0.001559 0.942267 237 255 11 0.635375
-0.107163 -0.002390 0.941104 244 250 4 0.642990
-0.106643 -0.003630 0.937586 240 254 7 0.638011
-0.118828 -0.005110 0.933053 237 255 11 0.635196
-0.120304 -0.006153 0.929658 250 243 0 0.648728
-0.117277 -0.004040 0.936339 237 255 11 0.634519
-0.120727 -0.004517 0.936345 237 255 11 0.633742
-0.122253 -0.005662 0.932952 237 255 11 0.634647
-0.123756 -0.006754 0.929417 237 255 11 0.635064
-0.117392 -0.003286 0.939787 237 255 11 0.633859
-0.117464 -0.002483 0.943478 237 255 11 0.633507
-0.114202 -0.002074 0.942928 237 255 11 0.634395
-0.114075 -0.002761 0.939264 237 255 11 0.634768
-0.110928 -0.000752 0.946432 237 255 11 0.635411
-0.114185 -0.001116 0.947208 237 255 11 0.634831
-0.104035 -0.001945 0.943754 244 250 4 0.644036
-0.107652 -0.000962 0.945235 237 255 11 0.636677
0.050756 0.004731 0.908754 240 254 7 0.638533
0.053100 0.004973 0.906308 240 254 7 0.638330
0.049843 0.005523 0.904791 240 254 7 0.638515
0.055532 0.005173 0.903806 240 254 7 0.638942
0.052268 0.005703 0.902253 240 254 7 0.638788
0.054726 0.005796 0.899679 240 254 7 0.639012
0.058019 0.005304 0.901275 240 254 7 0.639122
0.049029 0.006116 0.900729 240 254 7 0.638502
0.051486 0.006194 0.898148 240 254 7 0.638838
0.048237 0.006470 0.896558 240 254 7 0.638777
0.046002 0.006333 0.899241 240 254 7 0.638140
0.046843 0.005847 0.903336 240 254 7 0.638030
0.043827 0.006049 0.901810 234 255 14 0.630570
0.044750 0.005488 0.905778 240 254 7 0.637863
0.047742 0.005167 0.907296 240 254 7 0.638302
0.045666 0.004679 0.909666 240 254 7 0.637961
0.041732 0.005671 0.904233 240 254 7 0.637446
0.042693 0.004924 0.908111 240 254 7 0.637658
0.039703 0.005068 0.906530 240 254 7 0.637416
0.048660 0.004285 0.911182 240 254 7 0.638282
0.060064 0.005140 0.898749 240 254 7 0.639409
0.062322 0.004851 0.896336 240 254 7 0.639341
0.058754 0.005354 0.894524 240 254 7 0.639650
0.064604 0.004519 0.893947 234 255 14 0.630865
0.060966 0.005031 0.892052 240 254 7 0.639976
0.063183 0.004604 0.889551 244 250 4 0.640665
0.066913 0.004023 0.891535 240 254 7 0.640195
0.057599 0.005415 0.890226 240 254 7 0.639883
0.059789 0.005047 0.887689 240 254 7 0.640214
0.056429 0.005379 0.885813 240 254 7 0.639966
0.054385 0.005644 0.888483 240 254 7 0.639639
0.055545 0.005672 0.892868 240 254 7 0.639418
0.052303 0.005893 0.891183 240 254 7 0.639230
0.053513 0.005936 0.895510 240 254 7 0.639029
0.056713 0.005578 0.897089 240 254 7 0.639187
0.050258 0.006196 0.893891 240 254 7 0.638983
0.042934 0.005944 0.878404 240 254 7 0.639781
0.041000 0.006137 0.881255 240 254 7 0.639251
0.044303 0.006167 0.883049 240 254 7 0.639461
0.042392 0.006392 0.885912 240 254 7 0.639190
0.039094 0.006358 0.884111 240 254 7 0.638927
0.045648 0.006357 0.887646 240 254 7 0.639189
0.040520 0.006678 0.888769 240 254 7 0.638621
0.043756 0.006636 0.890513 240 254 7 0.638926
0.041900 0.006890 0.893307 240 254 7 0.638547
0.037231 0.006647 0.886954 240 254 7 0.637920
0.038660 0.006951 0.891567 240 254 7 0.637798
0.035377 0.006923 0.889741 231 255 17 0.627327
0.046950 0.006490 0.892179 240 254 7 0.638970
0.045098 0.006735 0.894979 240 254 7 0.638729
0.049011 0.006183 0.889445 240 254 7 0.639183
0.051068 0.005886 0.886744 240 254 7 0.639542
0.047718 0.006082 0.884921 240 254 7 0.639512
0.049815 0.005821 0.882196 240 254 7 0.639745
0.053163 0.005647 0.884021 240 254 7 0.639714
0.046404 0.005921 0.880313 240 254 7 0.639782
0.033430 0.006647 0.892461 228 255 20 0.624402
0.036462 0.006732 0.894213 240 254 7 0.636837
0.034568 0.006376 0.896851 237 255 11 0.632950
0.031555 0.006266 0.895086 231 255 17 0.627248
0.037539 0.006405 0.898525 240 254 7 0.637639
0.032737 0.005798 0.899342 240 254 7 0.637091
0.035683 0.005866 0.901012 240 254 7 0.637552
0.033898 0.005045 0.903345 240 254 7 0.637220
0.029752 0.005626 0.897556 240 254 7 0.636928
0.030971 0.004889 0.901657 240 254 7 0.637277
0.027968 0.004646 0.899899 240 254 7 0.639482
0.038611 0.005865 0.902613 240 254 7 0.637627
0.036816 0.005097 0.904945 240 254 7 0.637284
0.040708 0.006269 0.900208 240 254 7 0.637716
0.042879 0.006577 0.897649 240 254 7 0.638185
0.039683 0.006709 0.895967 240 254 7 0.638069
-0.010338 -0.059965 0.942036 244 250 4 0.644522
-0.012072 -0.056350 0.941575 247 246 1 0.646714
-0.012173 -0.063856 0.941385 247 246 1 0.645932
-0.013896 -0.060046 0.940876 247 246 1 0.647762
-0.015711 -0.063984 0.940245 247 246 1 0.648298
-0.015686 -0.056332 0.940414 250 243 0 0.648906
-0.014000 -0.067844 0.940786 247 246 1 0.646615
-0.015833 -0.072144 0.940444 247 246 1 0.646670
-0.012305 -0.071742 0.941270 247 246 1 0.645291
-0.010482 -0.067521 0.941703 240 254 7 0.638913
-0.017469 -0.060215 0.939875 250 243 0 0.649249
-0.019274 -0.056395 0.939348 250 243 0 0.648943
-0.019189 -0.064291 0.939330 250 243 0 0.649141
-0.020949 -0.060394 0.938739 250 243 0 0.649334
-0.022612 -0.064493 0.938151 250 243 0 0.649140
-0.022784 -0.056477 0.938050 250 243 0 0.648730
-0.020932 -0.068529 0.938999 247 246 1 0.647178
-0.022705 -0.073062 0.938827 244 250 4 0.643285
-0.019275 -0.072642 0.939690 247 246 1 0.645053
-0.017466 -0.068165 0.939879 247 246 1 0.648216
-0.021038 -0.091225 0.936335 237 255 11 0.636503
-0.019789 -0.086312 0.937438 240 254 7 0.640009
-0.017580 -0.090534 0.936990 240 254 7 0.638151
-0.018508 -0.081475 0.938464 244 250 4 0.643216
-0.016328 -0.085529 0.938043 250 243 0 0.650450
-0.015022 -0.080643 0.938980 247 246 1 0.645849
-0.014183 -0.089619 0.937499 244 250 4 0.640736
-0.017154 -0.076702 0.939448 247 246 1 0.645922
-0.020556 -0.077238 0.938705 244 250 4 0.644109
-0.021886 -0.081992 0.937665 244 250 4 0.641079
-0.012965 -0.084820 0.938693 244 250 4 0.642547
-0.010767 -0.088974 0.938173 244 250 4 0.642560
-0.011616 -0.080120 0.939769 247 246 1 0.646228
-0.009506 -0.084228 0.939357 253 239 0 0.655217
-0.010297 -0.075591 0.940862 244 250 4 0.643904
-0.013696 -0.076062 0.940123 247 246 1 0.646202
0.016977 0.005756 0.865356 240 254 7 0.639166
0.015457 0.005924 0.868150 240 254 7 0.638339
0.018394 0.005951 0.869569 240 254 7 0.638817
0.016846 0.006182 0.872344 240 254 7 0.638372
0.013913 0.006140 0.870901 240 254 7 0.638219
0.019821 0.006204 0.873843 240 254 7 0.638110
0.015302 0.006451 0.875108 240 254 7 0.638039
0.018273 0.006450 0.876633 240 254 7 0.637810
0.016765 0.006714 0.879396 240 254 7 0.637439
0.012388 0.006408 0.873646 240 254 7 0.638148
0.013791 0.006682 0.877851 240 254 7 0.637805
0.010865 0.006600 0.876355 240 254 7 0.638180
0.021259 0.006457 0.878187 237 255 11 0.636084
0.019740 0.006721 0.881002 240 254 7 0.636761
0.022738 0.006732 0.882659 234 255 14 0.632377
0.024375 0.006473 0.879877 240 254 7 0.637673
0.022926 0.006207 0.875427 234 255 14 0.630670
0.026061 0.006219 0.877088 240 254 7 0.638258
0.024637 0.006008 0.872645 240 254 7 0.638552
0.021511 0.005970 0.871089 240 254 7 0.638811
0.023231 0.005845 0.868299 240 254 7 0.639428
0.027817 0.006001 0.874223 240 254 7 0.638992
0.026395 0.005869 0.869821 240 254 7 0.639530
0.029571 0.005862 0.871349 240 254 7 0.639563
0.020077 0.005819 0.866813 240 254 7 0.639313
0.009234 0.006132 0.879154 240 254 7 0.637813
0.012043 0.006262 0.880568 240 254 7 0.637505
0.010406 0.005595 0.883354 240 254 7 0.637542
0.007552 0.005440 0.881958 240 254 7 0.637353
0.013283 0.005729 0.884810 240 254 7 0.636922
0.008759 0.004704 0.886124 244 250 4 0.643812
0.011662 0.004859 0.887588 240 254 7 0.637233
0.010028 0.003761 0.890320 237 255 11 0.636551
0.005899 0.004546 0.884734 240 254 7 0.636959
0.007123 0.003671 0.888914 237 255 11 0.636285
0.004203 0.003560 0.887572 237 255 11 0.635395
0.014602 0.004969 0.889054 240 254 7 0.636827
0.012960 0.003886 0.891786 237 255 11 0.636713
0.015939 0.004000 0.893256 240 254 7 0.637012
0.017677 0.005088 0.890683 244 250 4 0.642555
0.016348 0.005838 0.886417 231 255 17 0.628870
0.019395 0.005927 0.888063 240 254 7 0.637048
0.018048 0.006402 0.883745 231 255 17 0.625728
0.015036 0.006338 0.882113 240 254 7 0.636763
0.021059 0.006452 0.885416 237 255 11 0.636567
0.026648 0.005609 0.895795 240 254 7 0.637525
0.028450 0.006290 0.893334 240 254 7 0.637183
0.025307 0.006232 0.891514 240 254 7 0.637873
0.030309 0.006699 0.890729 240 254 7 0.637208
0.027150 0.006677 0.888951 244 250 4 0.642230
0.029093 0.006915 0.886248 240 254 7 0.638103
0.032261 0.006932 0.888020 240 254 7 0.637413
0.024002 0.006599 0.887150 240 254 7 0.637410
0.025913 0.006832 0.884449 234 255 14 0.631301
0.022356 0.006104 0.889781 240 254 7 0.637589
0.020693 0.005298 0.892351 240 254 7 0.637681
0.023684 0.005475 0.894058 240 254 7 0.637798
0.022007 0.004407 0.896575 244 250 4 0.642742
0.018998 0.004202 0.894888 240 254 7 0.637304
0.025019 0.004551 0.898252 240 254 7 0.637878
0.033926 0.006693 0.885169 237 255 11 0.635677
0.035795 0.006395 0.882343 240 254 7 0.638651
0.032451 0.006372 0.880533 240 254 7 0.638842
0.037685 0.006165 0.879487 237 255 11 0.635269
0.034349 0.006150 0.877707 240 254 7 0.639104
0.036275 0.006009 0.874839 240 254 7 0.639464
0.039625 0.006012 0.876624 240 254 7 0.639495
0.031008 0.006093 0.875909 240 254 7 0.639178
0.032942 0.005960 0.873080 240 254 7 0.639525
0.029251 0.006311 0.878802 240 254 7 0.638769
0.027539 0.006605 0.881672 240 254 7 0.637962
0.030752 0.006662 0.883421 240 254 7 0.638346
0.026008 0.002886 0.902202 255 235 0 0.656837
0.028796 0.003148 0.903850 237 255 11 0.636583
0.026844 0.001206 0.906084 234 255 14 0.632031
0.024014 0.000899 0.904479 234 255 14 0.631994
0.029594 0.001486 0.907674 234 255 14 0.632307
0.024813 -0.000781 0.908411 244 250 4 0.642242
0.027592 -0.000535 0.909926 231 255 17 0.627172
0.025490 -0.002410 0.912417 237 255 11 0.633016
0.021944 -0.001041 0.906898 237 255 11 0.634493
0.022635 -0.002569 0.911001 240 254 7 0.636792
0.019734 -0.002735 0.909576 240 254 7 0.639842
0.030323 -0.000268 0.911459 231 255 17 0.627250
0.028295 -0.002264 0.913859 231 255 17 0.628745
0.031046 -0.002128 0.915354 231 255 17 0.625690
0.033269 -0.000040 0.913059 234 255 14 0.630307
0.032529 0.001794 0.909319 237 255 11 0.633885
0.035423 0.001917 0.910926 237 255 11 0.634930
0.034678 0.003560 0.907159 237 255 11 0.636328
0.031761 0.003406 0.905538 237 255 11 0.635995
0.037559 0.003617 0.908740 237 255 11 0.636679
0.017331 -0.004349 0.912681 247 246 1 0.645627
0.020013 -0.004409 0.913997 244 250 4 0.644007
0.017556 -0.005776 0.917155 253 239 0 0.653458
0.014847 -0.005667 0.915882 255 224 0 0.671722
0.020262 -0.005935 0.918427 250 243 0 0.649719
0.015060 -0.007190 0.920309 255 232 0 0.660337
0.017738 -0.007419 0.921630 255 235 0 0.658908
0.015260 -0.008910 0.924786 253 239 0 0.652787
0.012363 -0.007012 0.919032 255 235 0 0.659636
0.012593 -0.008638 0.923428 250 243 0 0.650689
0.009964 -0.008392 0.922048 247 246 1 0.647214
0.020391 -0.007627 0.922970 255 235 0 0.656833
0.017953 -0.009206 0.926091 253 239 0 0.653875
0.020680 -0.009386 0.927339 240 254 7 0.637122
0.023333 -0.007925 0.924243 250 243 0 0.652278
0.023138 -0.006080 0.919769 247 246 1 0.646675
0.025989 -0.006336 0.921031 244 250 4 0.642967
0.025773 -0.004518 0.916612 240 254 7 0.638521
0.022916 -0.004506 0.915278 244 250 4 0.641381
0.028566 -0.004496 0.918015 237 255 11 0.636296
0.031078 -0.008423 0.928425 244 250 4 0.640920
0.033891 -0.006648 0.925369 237 255 11 0.634096
0.031090 -0.006644 0.923899 240 254 7 0.637682
0.036648 -0.004363 0.922580 231 255 17 0.628518
0.033884 -0.004384 0.921038 234 255 14 0.629679
0.036535 -0.001772 0.918553 234 255 14 0.629923
0.039251 -0.001767 0.920164 234 255 14 0.631683
0.031094 -0.004485 0.919499 234 255 14 0.632778
0.033833 -0.001936 0.916953 231 255 17 0.626635
0.028560 -0.006543 0.922442 244 250 4 0.640686
0.025990 -0.008078 0.925606 250 243 0 0.649576
0.028531 -0.008305 0.927048 247 246 1 0.645937
0.025999 -0.009807 0.930132 250 243 0 0.649044
0.023351 -0.009538 0.928745 237 255 11 0.635719
0.028634 -0.010045 0.931425 247 246 1 0.645474
0.041404 0.000193 0.917915 237 255 11 0.635273
0.043796 0.001844 0.915731 240 254 7 0.636725
0.040831 0.002032 0.914126 237 255 11 0.636360
0.046209 0.003212 0.913501 240 254 7 0.637674
0.043243 0.003503 0.911936 240 254 7 0.637262
0.040269 0.003637 0.910332 240 254 7 0.636956
0.038136 0.002019 0.912532 237 255 11 0.635704
0.036006 0.000131 0.914704 237 255 11 0.632896
0.038719 0.000244 0.916318 237 255 11 0.634503
0.068699 0.003199 0.889102 244 250 4 0.640975
0.070564 0.002237 0.886732 244 250 4 0.640768
0.066674 0.002951 0.884566 231 255 17 0.626582
0.072437 0.001142 0.884374 240 254 7 0.640192
0.068495 0.001875 0.882120 240 254 7 0.638464
0.070273 0.000710 0.879724 224 255 24 0.620903
0.074292 -0.000024 0.882031 240 254 7 0.638432
0.064958 0.002591 0.880116 240 254 7 0.639897
0.066710 0.001436 0.877678 240 254 7 0.638732
0.063309 0.002052 0.875687 240 254 7 0.638747
0.061618 0.003058 0.878156 240 254 7 0.639913
0.063209 0.003536 0.882634 240 254 7 0.640265
0.059893 0.003977 0.880691 240 254 7 0.640222
0.061499 0.004328 0.885151 244 250 4 0.640656
0.064935 0.003838 0.887041 247 246 1 0.647872
0.058175 0.004732 0.883230 240 254 7 0.640161
0.075731 -0.001417 0.879648 240 254 7 0.640469
0.077188 -0.002715 0.877254 240 254 7 0.638540
0.073040 -0.002024 0.874985 240 254 7 0.638040
0.078678 -0.003836 0.874848 240 254 7 0.638851
0.074503 -0.003281 0.872576 240 254 7 0.638058
0.075975 -0.004309 0.870162 240 254 7 0.637880
0.080158 -0.004740 0.872430 240 254 7 0.639104
0.070918 -0.002556 0.870615 240 254 7 0.637400
0.072368 -0.003676 0.868231 224 255 24 0.619227
0.068895 -0.003071 0.866384 237 255 11 0.635544
0.067495 -0.001948 0.868702 237 255 11 0.634543
0.069500 -0.001341 0.872950 255 228 0 0.667895
0.066103 -0.000679 0.871006 234 255 14 0.632774
0.068105 0.000039 0.875294 240 254 7 0.637010
0.071659 -0.000711 0.877347 237 255 11 0.635701
0.064713 0.000692 0.873339 237 255 11 0.635749
0.055119 -0.001112 0.858964 234 255 14 0.630655
0.053812 0.000056 0.861186 234 255 14 0.629946
0.057279 -0.000283 0.863123 231 255 17 0.625686
0.055971 0.000948 0.865345 205 255 43 0.595284
0.052503 0.001311 0.863387 237 255 11 0.633426
0.059381 0.000500 0.867253 234 255 14 0.631580
0.054613 0.002187 0.867574 237 255 11 0.634229
0.058035 0.001765 0.869505 237 255 11 0.636159
0.056674 0.003010 0.871822 240 254 7 0.638356
0.051159 0.002529 0.865615 237 255 11 0.636099
0.053246 0.003360 0.869864 240 254 7 0.637907
0.049771 0.003646 0.867901 231 255 17 0.627877
0.061386 0.001289 0.871448 237 255 11 0.636171
0.060023 0.002585 0.873777 240 254 7 0.638533
0.062776 -0.000049 0.869142 234 255 14 0.631553
0.064157 -0.001337 0.866880 234 255 14 0.631397
0.060770 -0.000818 0.865014 231 255 17 0.628772
0.062159 -0.001953 0.862761 234 255 14 0.632533
0.065539 -0.002473 0.864588 237 255 11 0.634145
0.058656 -0.001493 0.860873 234 255 14 0.630955
0.048108 0.004363 0.870411 240 254 7 0.638610
0.051525 0.004183 0.872319 240 254 7 0.638922
0.049829 0.004846 0.874943 240 254 7 0.639288
