ply
format ascii 1.0
comment VCGLIB generated
element vertex 976
property float x
property float y
property float z
property uchar red
property uchar green
property uchar blue
property float quality
end_header
0.014321 -0.115558 0.779730 134 255 114 0.508927
0.016320 -0.114663 0.781711 130 255 117 0.506527
0.013111 -0.111473 0.777324 127 255 121 0.501785
0.012153 -0.116419 0.777937 134 255 114 0.510913
0.012895 -0.106759 0.775772 117 255 130 0.489040
0.012681 -0.102209 0.774225 104 255 143 0.473640
0.008612 -0.113073 0.773419 134 255 114 0.509617
0.009471 -0.107938 0.772335 192 255 56 0.581919
0.009321 -0.103133 0.770558 114 255 134 0.486999
0.009729 -0.098462 0.769791 101 255 147 0.471536
0.008191 -0.098743 0.767930 114 255 134 0.484487
0.010864 -0.102770 0.772279 108 255 140 0.478607
0.011058 -0.107413 0.773946 127 255 121 0.501996
0.011225 -0.112137 0.775568 130 255 117 0.504885
0.010349 -0.117230 0.776477 137 255 111 0.512966
0.007049 -0.094339 0.766545 104 255 143 0.473367
0.006674 -0.090170 0.766296 91 255 156 0.459210
0.005314 -0.086263 0.765141 91 255 156 0.460590
0.007149 -0.086076 0.767290 140 255 108 0.516134
0.008366 -0.089929 0.768369 85 255 163 0.449627
0.009494 -0.093977 0.769460 91 255 156 0.457769
-0.006661 -0.093722 0.751846 140 255 108 0.516453
-0.004834 -0.096893 0.753733 134 255 114 0.511189
-0.003294 -0.100548 0.755970 134 255 114 0.510528
-0.001887 -0.104235 0.758660 134 255 114 0.510894
-0.005253 -0.092408 0.753420 134 255 114 0.510997
-0.003450 -0.095823 0.755423 134 255 114 0.509220
-0.001411 -0.099255 0.758098 134 255 114 0.508035
0.000235 -0.103046 0.760874 134 255 114 0.509806
-0.001914 -0.121767 0.768989 140 255 108 0.517329
-0.001647 -0.117179 0.766632 140 255 108 0.516164
-0.001559 -0.112723 0.764131 137 255 111 0.514130
-0.003785 -0.121790 0.766889 140 255 108 0.518582
-0.003478 -0.117246 0.764507 140 255 108 0.516417
-0.001612 -0.108318 0.761402 134 255 114 0.511195
0.000025 -0.107441 0.763076 127 255 121 0.503493
-0.005414 -0.121463 0.764695 153 255 95 0.531582
-0.003645 -0.113064 0.761648 137 255 111 0.514736
0.000185 -0.111740 0.765631 137 255 111 0.513247
0.001749 -0.106342 0.764347 134 255 114 0.508849
0.001890 -0.101882 0.762166 140 255 108 0.515666
0.001963 -0.110971 0.766936 137 255 111 0.512509
0.000808 -0.116186 0.768539 137 255 111 0.515046
0.000027 -0.121233 0.770382 140 255 108 0.516824
-0.002083 -0.094347 0.756928 130 255 117 0.506831
-0.003964 -0.090894 0.754998 134 255 114 0.508083
-0.002286 -0.089391 0.756628 127 255 121 0.503188
-0.000499 -0.093055 0.758451 127 255 121 0.502894
0.000606 -0.097501 0.760024 127 255 121 0.503495
-0.000100 -0.087721 0.758790 121 255 127 0.493289
0.001035 -0.091824 0.759922 124 255 124 0.498130
0.002646 -0.095964 0.761710 114 255 134 0.486425
0.003462 -0.100775 0.763307 127 255 121 0.500870
0.004503 -0.104845 0.766232 130 255 117 0.505449
0.003703 -0.109966 0.767960 134 255 114 0.511307
0.003264 -0.115084 0.769946 137 255 111 0.514172
-0.004608 -0.126402 0.770846 140 255 108 0.517371
-0.007659 -0.130490 0.771456 140 255 108 0.517620
-0.010340 -0.134702 0.773173 140 255 108 0.517106
-0.013336 -0.138378 0.773676 140 255 108 0.516430
-0.012273 -0.139061 0.776024 140 255 108 0.518627
-0.011311 -0.133923 0.770823 140 255 108 0.516620
-0.014399 -0.137481 0.771275 137 255 111 0.514435
-0.009426 -0.130026 0.768738 140 255 108 0.517779
-0.006281 -0.126090 0.768258 140 255 108 0.518072
-0.015969 -0.142235 0.778344 143 255 104 0.520018
-0.015880 -0.141379 0.775794 140 255 108 0.518867
-0.019681 -0.144162 0.778142 140 255 108 0.518441
-0.019933 -0.144655 0.780770 140 255 108 0.518383
-0.019566 -0.143454 0.775532 140 255 108 0.518363
-0.023624 -0.146463 0.780469 140 255 108 0.517817
-0.023430 -0.145880 0.777878 140 255 108 0.518286
-0.024097 -0.146509 0.783133 140 255 108 0.517460
-0.023195 -0.145376 0.775199 140 255 108 0.517019
-0.020680 -0.142750 0.773021 140 255 108 0.517309
-0.017042 -0.140633 0.773378 140 255 108 0.517194
-0.020780 -0.141122 0.769791 137 255 111 0.515335
-0.017837 -0.138963 0.769350 137 255 111 0.515260
-0.014849 -0.136541 0.768877 127 255 121 0.503572
-0.023809 -0.144281 0.772306 140 255 108 0.517975
-0.009886 -0.128851 0.766530 140 255 108 0.518044
-0.012378 -0.132838 0.767715 140 255 108 0.516710
0.009343 -0.121664 0.778739 140 255 108 0.517934
0.008159 -0.126049 0.781081 140 255 108 0.518432
0.010201 -0.125205 0.782434 140 255 108 0.518555
0.011267 -0.120840 0.780122 140 255 108 0.516901
0.007750 -0.129740 0.784324 114 255 134 0.488105
0.007140 -0.133073 0.787730 140 255 108 0.518022
0.004582 -0.134131 0.786278 140 255 108 0.518135
0.005217 -0.130798 0.782859 137 255 111 0.512505
0.013560 -0.119819 0.781950 137 255 111 0.514745
0.012756 -0.124052 0.784274 140 255 108 0.517403
0.014873 -0.123089 0.786074 134 255 114 0.509394
0.015672 -0.118945 0.783817 137 255 111 0.513373
0.012776 -0.127620 0.787687 140 255 108 0.519181
0.012580 -0.130815 0.791245 143 255 104 0.520025
0.009925 -0.131981 0.789436 140 255 108 0.519299
0.010191 -0.128778 0.785840 140 255 108 0.516874
0.004023 -0.137481 0.801077 137 255 111 0.513255
0.005184 -0.136291 0.796615 140 255 108 0.519233
0.000885 -0.138505 0.799216 140 255 108 0.517998
0.002006 -0.137390 0.794790 140 255 108 0.518838
0.006203 -0.134883 0.792118 143 255 104 0.519985
0.009061 -0.133833 0.793847 143 255 104 0.520595
0.007970 -0.135289 0.798359 140 255 108 0.518251
-0.001933 -0.139500 0.797462 140 255 108 0.516611
-0.000514 -0.138406 0.793209 140 255 108 0.517323
-0.004854 -0.140594 0.795637 137 255 111 0.515193
0.000841 -0.136956 0.788958 140 255 108 0.518295
0.003381 -0.135957 0.790452 140 255 108 0.519090
0.053118 -0.020610 0.802726 137 255 111 0.511808
0.055807 -0.020229 0.804206 137 255 111 0.512037
0.056184 -0.024137 0.802772 150 255 98 0.528103
0.058517 -0.019880 0.805694 143 255 104 0.522008
0.058879 -0.023816 0.804318 134 255 114 0.508187
0.061581 -0.023483 0.805883 130 255 117 0.504755
0.061247 -0.019498 0.807205 134 255 114 0.511210
0.059198 -0.027861 0.802906 130 255 117 0.503988
0.061916 -0.027528 0.804515 124 255 124 0.498970
0.062169 -0.031643 0.803064 127 255 121 0.502429
0.059594 -0.031999 0.801618 130 255 117 0.506175
0.056647 -0.028197 0.801472 130 255 117 0.506475
0.057001 -0.032367 0.800231 130 255 117 0.507545
0.054086 -0.028592 0.800086 134 255 114 0.507828
0.053654 -0.024513 0.801373 169 255 79 0.553950
0.051121 -0.024934 0.800008 134 255 114 0.511104
0.054342 -0.032825 0.798878 134 255 114 0.508073
0.051492 -0.029003 0.798736 130 255 117 0.506911
0.051677 -0.033304 0.797596 130 255 117 0.507174
0.050586 -0.021041 0.801370 134 255 114 0.510643
0.063983 -0.019106 0.808535 134 255 114 0.509660
0.066906 -0.018709 0.810004 134 255 114 0.509070
0.067018 -0.022731 0.808638 127 255 121 0.501928
0.069824 -0.018309 0.811466 134 255 114 0.509135
0.069901 -0.022393 0.810183 127 255 121 0.500551
0.069987 -0.026475 0.808854 114 255 134 0.486686
0.070262 -0.030657 0.807497 108 255 140 0.480460
0.067296 -0.026823 0.807392 117 255 130 0.491078
0.067596 -0.030952 0.805950 117 255 130 0.491995
0.064607 -0.027175 0.805932 121 255 127 0.495498
0.064298 -0.023104 0.807248 127 255 121 0.502592
0.064893 -0.031272 0.804468 124 255 124 0.498514
0.069062 -0.048277 0.803325 147 255 101 0.526369
0.069288 -0.044220 0.804148 143 255 104 0.522564
0.066674 -0.044490 0.802934 198 255 49 0.586146
0.066477 -0.048531 0.802158 150 255 98 0.527541
0.066977 -0.040124 0.803658 124 255 124 0.499667
0.064091 -0.044730 0.801718 147 255 101 0.524491
0.064346 -0.040457 0.802482 137 255 111 0.512473
0.061736 -0.040785 0.801321 137 255 111 0.512730
0.063865 -0.048890 0.801006 147 255 101 0.524071
0.061458 -0.045129 0.800573 140 255 108 0.518782
0.061206 -0.049313 0.799903 143 255 104 0.520365
0.064611 -0.035924 0.803303 130 255 117 0.505697
0.062004 -0.036294 0.802112 130 255 117 0.507326
0.067389 -0.035570 0.804718 127 255 121 0.500389
0.070097 -0.035234 0.806205 117 255 130 0.489619
0.069810 -0.039698 0.805009 130 255 117 0.507588
0.058783 -0.049609 0.798646 140 255 108 0.516559
0.058785 -0.045568 0.799244 137 255 111 0.514648
0.056354 -0.045906 0.797984 137 255 111 0.513002
0.056345 -0.050021 0.797418 140 255 108 0.516684
0.056420 -0.041611 0.798633 134 255 114 0.510427
0.053907 -0.046264 0.796724 137 255 111 0.512969
0.053924 -0.042065 0.797423 137 255 111 0.513455
0.051480 -0.042445 0.796189 179 255 69 0.565157
0.053874 -0.050438 0.796248 172 255 75 0.558179
0.051418 -0.046771 0.795582 137 255 111 0.512733
0.051458 -0.050819 0.795032 137 255 111 0.512563
0.054066 -0.037557 0.798068 134 255 114 0.508099
0.051554 -0.038050 0.796912 130 255 117 0.506510
0.056745 -0.037114 0.799374 134 255 114 0.508830
0.059389 -0.036663 0.800725 134 255 114 0.508739
0.059086 -0.041201 0.799969 137 255 111 0.512323
0.032565 -0.001306 0.843721 124 255 124 0.499276
0.035720 -0.001309 0.845390 127 255 121 0.500053
0.036941 -0.002663 0.843135 130 255 117 0.507035
0.038880 -0.001357 0.847050 124 255 124 0.499623
0.040080 -0.002690 0.844816 130 255 117 0.507238
0.043263 -0.002773 0.846509 130 255 117 0.507284
0.042048 -0.001501 0.848758 114 255 134 0.487446
0.041331 -0.003847 0.842443 137 255 111 0.511835
0.044508 -0.003897 0.844128 137 255 111 0.512594
0.045828 -0.004748 0.841635 137 255 111 0.514450
0.042717 -0.004755 0.839902 137 255 111 0.514030
0.038264 -0.003867 0.840733 134 255 114 0.511233
0.039645 -0.004782 0.838221 137 255 111 0.513412
0.035189 -0.003953 0.839053 134 255 114 0.510616
0.033855 -0.002725 0.841447 130 255 117 0.506586
0.030715 -0.002765 0.839768 130 255 117 0.505072
0.036563 -0.004890 0.836527 137 255 111 0.513007
0.032043 -0.004019 0.837379 134 255 114 0.509727
0.033436 -0.004983 0.834850 137 255 111 0.512550
0.029426 -0.001332 0.842037 124 255 124 0.496156
0.045451 -0.001580 0.850575 124 255 124 0.498760
0.048908 -0.001735 0.852445 121 255 127 0.492816
0.050065 -0.002980 0.850157 134 255 114 0.508493
0.052374 -0.002019 0.854293 127 255 121 0.501202
0.053537 -0.003212 0.852008 134 255 114 0.510129
0.054768 -0.004180 0.849587 137 255 111 0.513678
0.056111 -0.004863 0.847039 137 255 111 0.515599
0.051329 -0.004024 0.847775 137 255 111 0.513166
0.052667 -0.004783 0.845237 137 255 111 0.515576
0.047915 -0.003925 0.845954 137 255 111 0.512985
0.046639 -0.002841 0.848320 134 255 114 0.508518
0.049242 -0.004742 0.843430 137 255 111 0.515088
0.059973 -0.005487 0.838369 140 255 108 0.518218
0.056633 -0.005640 0.836722 140 255 108 0.518486
0.055155 -0.005745 0.839687 140 255 108 0.517922
0.053312 -0.005806 0.835044 140 255 108 0.518301
0.051852 -0.005837 0.837979 140 255 108 0.517551
0.048544 -0.005973 0.836284 140 255 108 0.516757
0.050030 -0.005947 0.833346 140 255 108 0.517115
0.050438 -0.005496 0.840763 140 255 108 0.516531
0.047139 -0.005569 0.839044 140 255 108 0.515958
0.053874 -0.005464 0.842553 140 255 108 0.517058
0.057321 -0.005481 0.844335 140 255 108 0.517041
0.058599 -0.005676 0.841440 140 255 108 0.517857
0.046894 -0.006045 0.831672 124 255 124 0.497802
0.043901 -0.006153 0.829996 140 255 108 0.516154
0.042321 -0.006125 0.832917 140 255 108 0.515679
0.040903 -0.006275 0.828327 140 255 108 0.516017
0.039345 -0.006238 0.831231 137 255 111 0.515445
0.036318 -0.006404 0.829562 137 255 111 0.514512
0.037874 -0.006509 0.826674 137 255 111 0.513445
0.037862 -0.005766 0.833947 137 255 111 0.514658
0.034841 -0.005900 0.832279 137 255 111 0.514119
0.040944 -0.005656 0.835650 137 255 111 0.514980
0.044024 -0.005592 0.837336 137 255 111 0.515504
0.045405 -0.006029 0.834623 137 255 111 0.515526
-0.007757 -0.124443 0.871555 130 255 117 0.507406
-0.007402 -0.126353 0.867512 130 255 117 0.504055
-0.010965 -0.124732 0.869938 130 255 117 0.505756
-0.010649 -0.126597 0.865877 127 255 121 0.501096
-0.007101 -0.128594 0.863557 121 255 127 0.495961
-0.006758 -0.131261 0.859749 124 255 124 0.497329
-0.003607 -0.130714 0.861472 127 255 121 0.501891
-0.003976 -0.128054 0.865311 127 255 121 0.503230
-0.004338 -0.125880 0.869269 130 255 117 0.507531
-0.000502 -0.130092 0.863147 130 255 117 0.506139
-0.014069 -0.124950 0.868198 130 255 117 0.504996
-0.013634 -0.126950 0.864113 124 255 124 0.499464
-0.017226 -0.125064 0.866581 130 255 117 0.505406
-0.013253 -0.129319 0.860155 114 255 134 0.486730
-0.009804 -0.131619 0.858009 121 255 127 0.495734
-0.010216 -0.128991 0.861913 117 255 130 0.489748
-0.004849 -0.137285 0.847305 134 255 114 0.509996
-0.001168 -0.138408 0.844781 134 255 114 0.511639
-0.005464 -0.135607 0.851599 130 255 117 0.507774
-0.001792 -0.136868 0.849158 134 255 114 0.509966
-0.002475 -0.135061 0.853428 130 255 117 0.507679
0.001903 -0.138054 0.846627 134 255 114 0.511473
-0.006128 -0.133422 0.855716 127 255 121 0.503884
-0.009205 -0.133929 0.854017 130 255 117 0.504068
0.001314 -0.136493 0.850920 134 255 114 0.510189
0.004923 -0.137572 0.848446 137 255 111 0.511941
0.000698 -0.134514 0.855081 134 255 114 0.508020
0.004341 -0.135873 0.852712 134 255 114 0.510459
0.003711 -0.133930 0.856842 134 255 114 0.509005
0.007990 -0.137110 0.850221 140 255 108 0.517871
0.000096 -0.132435 0.859142 130 255 117 0.506090
-0.003065 -0.132949 0.857452 130 255 117 0.504487
0.017500 -0.115821 0.882717 134 255 114 0.510998
0.019275 -0.117073 0.879569 134 255 114 0.511291
0.015727 -0.118736 0.878140 134 255 114 0.510701
0.013886 -0.117355 0.881212 134 255 114 0.509964
0.019271 -0.119699 0.875865 134 255 114 0.511379
0.019325 -0.122775 0.872220 134 255 114 0.509293
0.022798 -0.120907 0.873710 134 255 114 0.510497
0.022770 -0.117905 0.877373 134 255 114 0.511481
0.010537 -0.119143 0.879894 134 255 114 0.508545
0.012408 -0.120675 0.876796 134 255 114 0.509485
0.009023 -0.122254 0.875496 134 255 114 0.509280
0.007096 -0.120697 0.878573 134 255 114 0.508438
0.012636 -0.123488 0.873201 134 255 114 0.509849
0.012862 -0.126610 0.869535 134 255 114 0.510172
0.016091 -0.124848 0.870916 134 255 114 0.507930
0.015858 -0.121556 0.874484 147 255 101 0.524431
0.020847 -0.134114 0.856550 137 255 111 0.514547
0.020384 -0.131469 0.860606 134 255 114 0.508845
0.023985 -0.132530 0.858021 140 255 108 0.518401
0.019947 -0.128636 0.864547 130 255 117 0.505555
0.023481 -0.129752 0.862068 130 255 117 0.504989
0.023045 -0.126641 0.865959 127 255 121 0.500517
0.027071 -0.130593 0.859461 140 255 108 0.515952
0.019609 -0.125690 0.868415 127 255 121 0.502093
0.016381 -0.127575 0.867058 130 255 117 0.507502
0.016716 -0.130227 0.863121 134 255 114 0.509402
0.026668 -0.127658 0.863434 127 255 121 0.500038
0.030322 -0.128528 0.860988 127 255 121 0.501134
0.026482 -0.124690 0.867403 121 255 127 0.492770
0.030016 -0.125650 0.865055 114 255 134 0.485783
0.024603 -0.122791 0.870589 134 255 114 0.508246
0.003755 -0.121992 0.877127 134 255 114 0.509194
0.005690 -0.123584 0.874020 134 255 114 0.510496
0.002253 -0.124542 0.872511 134 255 114 0.510531
0.000357 -0.122865 0.875616 134 255 114 0.510138
0.005916 -0.126100 0.870215 134 255 114 0.511207
0.006126 -0.128659 0.866394 134 255 114 0.510090
0.009523 -0.127767 0.867997 134 255 114 0.511135
0.009277 -0.125021 0.871749 147 255 101 0.524518
-0.002887 -0.123606 0.874038 143 255 104 0.521840
-0.000999 -0.125368 0.870874 134 255 114 0.510173
-0.000742 -0.127612 0.866972 150 255 98 0.528858
0.002818 -0.129437 0.864815 134 255 114 0.508748
0.002524 -0.126894 0.868637 134 255 114 0.510615
0.007538 -0.135378 0.854382 134 255 114 0.510894
0.011232 -0.136612 0.851875 137 255 111 0.511930
0.007075 -0.133302 0.858440 134 255 114 0.509902
0.010708 -0.134596 0.856042 134 255 114 0.511041
0.010281 -0.132485 0.860101 134 255 114 0.510623
0.014389 -0.135958 0.853495 134 255 114 0.510970
0.006599 -0.131023 0.862446 134 255 114 0.509600
0.003257 -0.131760 0.860836 134 255 114 0.508243
0.014027 -0.133948 0.857616 134 255 114 0.510765
0.017624 -0.135171 0.855065 127 255 121 0.503747
0.013587 -0.131494 0.861616 134 255 114 0.510629
0.017213 -0.132960 0.859153 134 255 114 0.510332
0.013235 -0.129090 0.865588 134 255 114 0.510425
0.009875 -0.130078 0.864054 134 255 114 0.510637
0.022999 -0.134903 0.852971 134 255 114 0.510238
0.026769 -0.134929 0.850177 134 255 114 0.508629
0.028905 -0.135153 0.846520 130 255 117 0.507129
0.032651 -0.134507 0.843733 121 255 127 0.495746
0.029559 -0.135718 0.841921 130 255 117 0.507734
0.031951 -0.133681 0.848182 127 255 121 0.503700
0.035570 -0.132465 0.845374 124 255 124 0.498914
0.029811 -0.133288 0.851679 130 255 117 0.504663
0.027694 -0.132700 0.855232 130 255 117 0.506531
0.031480 -0.134513 0.838285 134 255 114 0.507960
0.035046 -0.132651 0.835750 150 255 98 0.527949
0.037067 -0.131005 0.832313 127 255 121 0.502909
0.040111 -0.129458 0.834374 124 255 124 0.496485
0.038167 -0.131076 0.837684 124 255 124 0.497863
0.036211 -0.132421 0.841083 127 255 121 0.500142
0.045936 -0.125567 0.838457 121 255 127 0.493654
0.044046 -0.127067 0.841624 117 255 130 0.491552
0.040605 -0.129366 0.843877 117 255 130 0.490851
0.038655 -0.130410 0.847201 121 255 127 0.493558
0.041100 -0.129074 0.839611 117 255 130 0.491419
0.043074 -0.127494 0.836396 134 255 114 0.510346
0.038102 -0.129362 0.851543 121 255 127 0.493435
0.036019 -0.129029 0.854951 124 255 124 0.496254
0.032350 -0.129562 0.857551 124 255 124 0.499108
0.032854 -0.131188 0.853242 124 255 124 0.498278
0.034996 -0.131520 0.849741 124 255 124 0.496786
0.023193 -0.077396 0.782890 130 255 117 0.507146
0.022657 -0.074481 0.782100 130 255 117 0.504704
0.023886 -0.071366 0.782484 75 255 172 0.439483
0.023393 -0.068075 0.781681 140 255 108 0.516210
0.027029 -0.067883 0.783952 147 255 101 0.526160
0.027310 -0.071089 0.784663 111 255 137 0.481030
0.026004 -0.074258 0.784288 137 255 111 0.513836
0.026343 -0.077123 0.784996 137 255 111 0.515360
0.025184 -0.080127 0.784521 127 255 121 0.503090
0.028218 -0.079799 0.786768 140 255 108 0.517501
0.020832 -0.065023 0.780458 143 255 104 0.520164
0.020075 -0.061663 0.779988 147 255 101 0.526598
0.022165 -0.061605 0.781331 75 255 172 0.441142
0.019377 -0.058216 0.779403 156 255 92 0.538599
0.021534 -0.058091 0.780709 156 255 92 0.536764
0.020916 -0.054497 0.779913 150 255 98 0.530984
0.018718 -0.054573 0.778755 153 255 95 0.531301
0.023660 -0.058035 0.781893 153 255 95 0.534701
0.023101 -0.054377 0.781104 147 255 101 0.525973
0.025231 -0.054285 0.782202 147 255 101 0.523841
0.026042 -0.061317 0.783388 153 255 95 0.533806
0.024604 -0.064810 0.782701 150 255 98 0.528774
0.033756 -0.053496 0.786215 140 255 108 0.517234
0.033929 -0.057204 0.786726 143 255 104 0.521063
0.032110 -0.060951 0.786388 153 255 95 0.531444
0.032307 -0.064298 0.786782 153 255 95 0.532287
0.030711 -0.067657 0.785944 153 255 95 0.534854
0.034397 -0.067367 0.788068 156 255 92 0.537006
0.028482 -0.064667 0.784822 153 255 95 0.534376
0.028131 -0.061237 0.784386 156 255 92 0.538363
0.027810 -0.057732 0.783798 153 255 95 0.532912
0.029929 -0.057574 0.784820 182 255 66 0.568639
0.029574 -0.053985 0.784136 189 255 59 0.576429
0.027461 -0.054113 0.783153 147 255 101 0.526581
0.031708 -0.053733 0.785160 147 255 101 0.523566
0.034426 -0.070621 0.788737 160 255 88 0.541841
0.032860 -0.073940 0.788252 153 255 95 0.534321
0.032994 -0.076821 0.788926 153 255 95 0.533034
0.031477 -0.079660 0.788727 147 255 101 0.526783
0.034789 -0.079544 0.790596 98 255 150 0.466621
0.029683 -0.076964 0.787090 143 255 104 0.522046
0.029442 -0.074087 0.786294 91 255 156 0.459932
0.030927 -0.070915 0.786730 153 255 95 0.533353
0.053620 -0.054614 0.796090 134 255 114 0.510917
0.056033 -0.054270 0.797260 137 255 111 0.514082
0.055762 -0.058321 0.797280 134 255 114 0.511062
0.058442 -0.053938 0.798538 140 255 108 0.517473
0.058140 -0.058030 0.798456 140 255 108 0.517139
0.060525 -0.057819 0.799723 150 255 98 0.530156
0.060842 -0.053627 0.799737 147 255 101 0.523892
0.057907 -0.061927 0.798593 137 255 111 0.515509
0.060313 -0.061737 0.799770 143 255 104 0.521005
0.060109 -0.065545 0.799968 140 255 108 0.518230
0.057850 -0.065626 0.798963 137 255 111 0.514360
0.055650 -0.062148 0.797571 137 255 111 0.513711
0.055571 -0.065753 0.797862 137 255 111 0.513891
0.053388 -0.062314 0.796540 156 255 92 0.535920
0.053502 -0.058550 0.796260 117 255 130 0.490345
0.051198 -0.058864 0.795240 134 255 114 0.511079
0.053277 -0.065861 0.796903 137 255 111 0.512762
0.051107 -0.062574 0.795630 134 255 114 0.511524
0.050981 -0.066003 0.795890 137 255 111 0.513464
0.051331 -0.054927 0.795035 134 255 114 0.509849
0.063288 -0.053366 0.800788 150 255 98 0.530656
0.065868 -0.053003 0.801923 153 255 95 0.534317
0.065375 -0.057303 0.801764 231 255 17 0.626971
0.068468 -0.052692 0.803047 156 255 92 0.535598
0.067966 -0.056986 0.802837 224 255 24 0.618092
0.067524 -0.061166 0.802646 156 255 92 0.535957
0.067303 -0.065101 0.802722 150 255 98 0.527990
0.065090 -0.061390 0.801736 153 255 95 0.534178
0.064925 -0.065229 0.801793 130 255 117 0.505143
0.062701 -0.061566 0.800724 150 255 98 0.528664
0.062963 -0.057567 0.800724 221 255 27 0.614001
0.062527 -0.065363 0.800890 143 255 104 0.520745
0.065878 -0.076526 0.804660 143 255 104 0.521961
0.063216 -0.079662 0.804319 127 255 121 0.501979
0.063928 -0.072945 0.803202 147 255 101 0.525712
0.061245 -0.076271 0.803014 198 255 49 0.586786
0.059335 -0.072733 0.801521 143 255 104 0.520831
0.058577 -0.079403 0.802621 137 255 111 0.514911
0.061966 -0.069289 0.801699 147 255 101 0.523543
0.064397 -0.069205 0.802623 172 255 75 0.558590
0.066800 -0.069184 0.803465 192 255 56 0.581120
0.066334 -0.072972 0.804099 147 255 101 0.525760
0.056617 -0.076114 0.801164 150 255 98 0.529458
0.054219 -0.079256 0.800583 156 255 92 0.536091
0.054644 -0.072645 0.799584 143 255 104 0.520604
0.052157 -0.076027 0.799256 156 255 92 0.538508
0.050259 -0.072737 0.797685 153 255 95 0.535029
0.049876 -0.079139 0.798517 163 255 85 0.545117
0.052763 -0.069309 0.797790 137 255 111 0.515448
0.055112 -0.069280 0.798752 137 255 111 0.514933
0.057433 -0.069275 0.799717 137 255 111 0.515102
0.056988 -0.072690 0.800559 143 255 104 0.521955
0.047814 -0.075981 0.797069 195 255 53 0.584661
0.045847 -0.079105 0.796426 166 255 82 0.548758
0.045918 -0.072896 0.795504 166 255 82 0.548875
0.043858 -0.076155 0.794952 166 255 82 0.549638
0.041996 -0.073185 0.793505 166 255 82 0.549541
0.041929 -0.079183 0.794455 169 255 79 0.551079
0.044051 -0.069797 0.793767 153 255 95 0.534434
0.042359 -0.066611 0.792044 143 255 104 0.523391
0.046645 -0.066211 0.793886 140 255 108 0.517130
0.048382 -0.069556 0.795879 147 255 101 0.525663
0.039984 -0.076298 0.792795 166 255 82 0.547321
0.038283 -0.079328 0.792485 163 255 85 0.543580
0.038115 -0.073399 0.791212 98 255 150 0.468191
0.036406 -0.076561 0.790862 156 255 92 0.539018
0.038173 -0.070297 0.790685 156 255 92 0.537269
0.038342 -0.067001 0.789985 150 255 98 0.530197
0.035943 -0.053203 0.787147 137 255 111 0.513841
0.038118 -0.056684 0.788490 137 255 111 0.513503
0.038091 -0.052932 0.788217 137 255 111 0.513107
0.038064 -0.060265 0.788988 140 255 108 0.517356
0.040270 -0.056439 0.789558 137 255 111 0.513798
0.040235 -0.060080 0.790009 137 255 111 0.513909
0.042412 -0.059848 0.791124 134 255 114 0.511545
0.040209 -0.052605 0.789288 134 255 114 0.511349
0.042404 -0.056127 0.790640 134 255 114 0.510744
0.042343 -0.052296 0.790448 134 255 114 0.509541
0.040186 -0.063498 0.790474 140 255 108 0.518957
0.042349 -0.063392 0.791618 140 255 108 0.516389
0.036159 -0.063909 0.788615 147 255 101 0.527098
0.044589 -0.051918 0.791464 134 255 114 0.508899
0.046784 -0.055493 0.792648 134 255 114 0.511055
0.046860 -0.051560 0.792602 134 255 114 0.509132
0.046662 -0.059311 0.792915 140 255 108 0.516118
0.049050 -0.055257 0.793839 134 255 114 0.510295
0.048919 -0.059062 0.794066 176 255 72 0.561463
0.049146 -0.051218 0.793816 134 255 114 0.509638
0.048773 -0.062753 0.794457 137 255 111 0.513243
0.051565 -0.082427 0.800405 166 255 82 0.547641
0.053219 -0.085550 0.802227 163 255 85 0.546570
0.055825 -0.082575 0.802439 160 255 88 0.540814
0.057496 -0.085839 0.804106 156 255 92 0.538673
0.054905 -0.088718 0.803731 156 255 92 0.538477
0.056547 -0.091803 0.805254 150 255 98 0.531152
0.052578 -0.091500 0.803555 156 255 92 0.536414
0.050897 -0.088407 0.801916 163 255 85 0.544998
0.049205 -0.085230 0.800288 169 255 79 0.554661
0.048559 -0.091125 0.802114 166 255 82 0.549100
0.060155 -0.082745 0.804398 160 255 88 0.539474
0.061685 -0.086203 0.806032 150 255 98 0.529803
0.064730 -0.083133 0.806123 143 255 104 0.523151
0.063325 -0.089498 0.807270 147 255 101 0.526082
0.060703 -0.092220 0.806902 130 255 117 0.504193
0.059101 -0.089045 0.805599 153 255 95 0.531250
0.057902 -0.100594 0.811141 153 255 95 0.535069
0.058748 -0.097751 0.809545 147 255 101 0.526225
0.054893 -0.097361 0.808206 150 255 98 0.529875
0.054133 -0.100259 0.809826 147 255 101 0.525214
0.057664 -0.094751 0.807461 143 255 104 0.522493
0.061842 -0.095263 0.808828 147 255 101 0.523950
0.050446 -0.100071 0.808599 150 255 98 0.528530
0.051042 -0.097111 0.806892 153 255 95 0.533995
0.047326 -0.096866 0.805649 156 255 92 0.535460
0.046837 -0.099996 0.807296 150 255 98 0.530077
0.049767 -0.094087 0.804627 160 255 88 0.540723
0.053728 -0.094418 0.805963 153 255 95 0.533673
0.026081 -0.133325 0.819882 137 255 111 0.515316
0.023994 -0.134740 0.823584 134 255 114 0.510858
0.020327 -0.136289 0.826473 117 255 130 0.489194
0.018069 -0.137399 0.830350 140 255 108 0.517874
0.014271 -0.138581 0.833314 140 255 108 0.516381
0.017215 -0.138191 0.835112 140 255 108 0.516173
0.015094 -0.137736 0.828571 140 255 108 0.518095
0.011228 -0.138797 0.831551 127 255 121 0.503442
0.017447 -0.136716 0.824657 140 255 108 0.519134
0.019760 -0.135570 0.820833 140 255 108 0.517716
0.023383 -0.133968 0.817956 140 255 108 0.517903
0.020546 -0.134594 0.816109 140 255 108 0.519218
0.014867 -0.138275 0.839035 137 255 111 0.515399
0.010996 -0.138337 0.842022 137 255 111 0.514516
0.008757 -0.137923 0.845746 137 255 111 0.513208
0.005697 -0.138278 0.843977 137 255 111 0.513403
0.007969 -0.138658 0.840234 140 255 108 0.515892
0.010361 -0.138667 0.836403 140 255 108 0.516647
-0.001983 -0.139139 0.839260 137 255 111 0.513802
0.001857 -0.139162 0.836535 153 255 95 0.532933
0.004187 -0.139204 0.832745 153 255 95 0.532593
0.008136 -0.138995 0.829766 140 255 108 0.518245
0.005072 -0.139261 0.827938 143 255 104 0.519649
0.007278 -0.138967 0.834595 140 255 108 0.518100
0.004919 -0.138880 0.838432 150 255 98 0.529851
0.002645 -0.138640 0.842116 137 255 111 0.513875
0.007484 -0.138372 0.824147 147 255 101 0.523947
0.011455 -0.137408 0.821132 147 255 101 0.526749
0.013866 -0.136472 0.817268 143 255 104 0.523031
0.017727 -0.135216 0.814234 143 255 104 0.520992
0.014790 -0.135783 0.812469 143 255 104 0.522839
0.016825 -0.136022 0.819051 114 255 134 0.484882
0.014465 -0.137078 0.822910 143 255 104 0.522865
0.012051 -0.138032 0.826797 124 255 124 0.499292
-0.005141 -0.139438 0.837327 143 255 104 0.520679
-0.002824 -0.139679 0.833643 137 255 111 0.514167
-0.006058 -0.139898 0.831769 137 255 111 0.512393
-0.008346 -0.139726 0.835412 137 255 111 0.512704
-0.002060 -0.139805 0.828967 137 255 111 0.513965
-0.001262 -0.139905 0.824322 137 255 111 0.514835
0.001906 -0.139600 0.826133 140 255 108 0.517719
0.001090 -0.139509 0.830853 140 255 108 0.517051
-0.011556 -0.140062 0.833449 134 255 114 0.511622
-0.009236 -0.140309 0.829795 134 255 114 0.511003
-0.006899 -0.140277 0.826149 137 255 111 0.512707
-0.004470 -0.140299 0.822431 134 255 114 0.510801
0.003260 -0.138310 0.811158 147 255 101 0.524603
0.005914 -0.137812 0.807323 143 255 104 0.519843
0.000656 -0.138844 0.814991 143 255 104 0.521248
0.003737 -0.138263 0.816836 147 255 101 0.527221
0.006321 -0.137667 0.812952 150 255 98 0.527727
0.008899 -0.137062 0.809064 143 255 104 0.523115
-0.000350 -0.139266 0.819666 140 255 108 0.519187
-0.003574 -0.139734 0.817858 137 255 111 0.512907
0.009417 -0.137180 0.814591 150 255 98 0.528056
0.011870 -0.136418 0.810724 147 255 101 0.524237
0.006895 -0.137863 0.818518 150 255 98 0.528924
0.004399 -0.138700 0.822352 147 255 101 0.523531
0.017076 -0.109716 0.781513 117 255 130 0.490479
0.016855 -0.105214 0.780137 101 255 147 0.471136
0.017636 -0.100520 0.779990 79 255 169 0.442991
0.017342 -0.096355 0.778563 79 255 169 0.443428
0.019375 -0.095630 0.781047 79 255 169 0.443637
0.019619 -0.099675 0.782387 72 255 176 0.437137
0.018971 -0.104428 0.782455 91 255 156 0.460152
0.019138 -0.108814 0.783733 111 255 137 0.483401
0.018334 -0.113753 0.783877 127 255 121 0.503010
0.020356 -0.112778 0.786150 130 255 117 0.507048
0.015396 -0.092674 0.776568 69 255 179 0.430358
0.014392 -0.088743 0.775633 79 255 169 0.441426
0.014734 -0.084885 0.775956 91 255 156 0.460497
0.017086 -0.084415 0.778416 108 255 140 0.476855
0.016692 -0.088260 0.778184 91 255 156 0.458645
0.017499 -0.092017 0.778992 79 255 169 0.444557
0.022343 -0.083510 0.783486 121 255 127 0.494027
0.021476 -0.087162 0.783356 121 255 127 0.492899
0.021949 -0.090703 0.784238 114 255 134 0.487282
0.021536 -0.094825 0.783662 95 255 153 0.464339
0.023722 -0.094012 0.786249 108 255 140 0.479977
0.019752 -0.091406 0.781721 98 255 150 0.467587
0.018983 -0.087702 0.780792 108 255 140 0.479624
0.019685 -0.084055 0.781093 117 255 130 0.491086
0.023910 -0.097806 0.787554 104 255 143 0.474998
0.023161 -0.102531 0.787475 85 255 163 0.452482
0.023368 -0.106817 0.788611 98 255 150 0.466637
0.022527 -0.111813 0.788514 121 255 127 0.495122
0.024557 -0.110691 0.790975 114 255 134 0.485607
0.021281 -0.107841 0.786228 104 255 143 0.472701
0.021102 -0.103516 0.784907 85 255 163 0.449531
0.021770 -0.098798 0.785019 82 255 166 0.445648
0.026835 -0.134173 0.825441 137 255 111 0.513977
0.028825 -0.132605 0.821874 137 255 111 0.512769
0.024767 -0.135506 0.829114 137 255 111 0.514642
0.027606 -0.134882 0.830929 137 255 111 0.512494
0.029626 -0.133399 0.827348 134 255 114 0.511541
0.031564 -0.131798 0.823869 134 255 114 0.508879
0.024051 -0.136450 0.833798 137 255 111 0.514767
0.023302 -0.137282 0.838508 137 255 111 0.512217
0.020309 -0.137788 0.836812 137 255 111 0.514534
0.021010 -0.137004 0.832090 140 255 108 0.515924
0.032492 -0.132561 0.829310 130 255 117 0.507766
0.034413 -0.130925 0.825899 130 255 117 0.504394
0.030587 -0.134123 0.832756 134 255 114 0.509794
0.028524 -0.135499 0.836475 134 255 114 0.509957
0.026442 -0.136638 0.840205 127 255 121 0.502670
0.019893 -0.135924 0.851449 134 255 114 0.510875
0.022073 -0.136442 0.847723 134 255 114 0.511013
0.018857 -0.137208 0.846161 137 255 111 0.512225
0.016619 -0.136682 0.849878 137 255 111 0.511837
0.022688 -0.137036 0.843150 134 255 114 0.511554
0.025839 -0.136271 0.844828 134 255 114 0.509874
0.013494 -0.137296 0.848243 137 255 111 0.512497
0.015757 -0.137735 0.844465 137 255 111 0.513170
0.018017 -0.137884 0.840665 137 255 111 0.513997
0.047633 -0.082255 0.798387 169 255 79 0.550927
0.045371 -0.085153 0.798473 169 255 79 0.552571
0.046948 -0.088130 0.800295 166 255 82 0.550694
0.044785 -0.090932 0.800646 163 255 85 0.545264
0.043120 -0.087962 0.798725 163 255 85 0.544595
0.041029 -0.090820 0.799151 117 255 130 0.490567
0.041352 -0.085017 0.796749 108 255 140 0.479333
0.043615 -0.082176 0.796433 169 255 79 0.552741
0.046086 -0.093880 0.803259 160 255 88 0.540979
0.043815 -0.096939 0.804218 153 255 95 0.533994
0.043498 -0.100245 0.805712 147 255 101 0.523631
0.043264 -0.103811 0.807046 143 255 104 0.522082
0.040028 -0.104337 0.805229 140 255 108 0.518303
0.040112 -0.100537 0.803982 147 255 101 0.526404
0.040233 -0.097006 0.802646 150 255 98 0.530788
0.042415 -0.093808 0.801744 156 255 92 0.536551
0.034089 -0.105977 0.800904 127 255 121 0.503230
0.034027 -0.101884 0.799828 137 255 111 0.514863
0.035481 -0.097770 0.799755 147 255 101 0.524718
0.035545 -0.094243 0.798349 150 255 98 0.527953
0.037567 -0.090955 0.797508 150 255 98 0.527459
0.034272 -0.091207 0.795713 150 255 98 0.527406
0.038911 -0.093941 0.800181 150 255 98 0.528634
0.037053 -0.101178 0.802034 143 255 104 0.522041
0.037015 -0.105112 0.803176 137 255 111 0.511776
0.034199 -0.088089 0.794624 147 255 101 0.526947
0.036064 -0.085108 0.794215 153 255 95 0.534123
0.036261 -0.082267 0.792862 156 255 92 0.538625
0.039858 -0.082195 0.794654 166 255 82 0.547944
0.039358 -0.087852 0.797214 98 255 150 0.467288
0.025560 -0.105750 0.791215 98 255 150 0.467162
0.025315 -0.101486 0.790082 150 255 98 0.528954
0.026242 -0.096954 0.790168 124 255 124 0.498911
0.026111 -0.093231 0.788793 127 255 121 0.500995
0.028564 -0.092477 0.791207 137 255 111 0.512781
0.028571 -0.096041 0.792588 134 255 114 0.511104
0.027584 -0.100447 0.792602 124 255 124 0.498873
0.027737 -0.104550 0.793717 111 255 137 0.481841
0.026685 -0.109475 0.793523 108 255 140 0.477640
0.028953 -0.108252 0.796016 108 255 140 0.479844
0.024435 -0.090043 0.786881 127 255 121 0.500963
0.024050 -0.086587 0.785868 124 255 124 0.498241
0.025235 -0.083138 0.785905 23 255 224 0.377791
0.028114 -0.082772 0.788041 134 255 114 0.511166
0.026745 -0.086062 0.788271 134 255 114 0.508830
0.026954 -0.089361 0.789231 134 255 114 0.511220
0.032945 -0.082421 0.791162 147 255 101 0.527338
0.032768 -0.085292 0.792460 147 255 101 0.526115
0.031144 -0.088481 0.792709 143 255 104 0.522096
0.031270 -0.091776 0.793582 143 255 104 0.522309
0.029631 -0.085597 0.790457 140 255 108 0.519094
0.032568 -0.094862 0.796306 147 255 101 0.523633
0.032577 -0.098527 0.797550 143 255 104 0.520042
0.031342 -0.102893 0.797523 130 255 117 0.505978
0.031446 -0.107086 0.798518 117 255 130 0.491364
0.029967 -0.099427 0.795123 134 255 114 0.511129
0.015526 -0.134072 0.807998 143 255 104 0.522212
0.016235 -0.132351 0.803586 140 255 108 0.516199
0.012683 -0.134871 0.806251 143 255 104 0.521088
0.013491 -0.133298 0.801804 91 255 156 0.460078
0.016917 -0.130607 0.799234 127 255 121 0.500705
0.017500 -0.128590 0.795025 140 255 108 0.517881
0.019890 -0.127516 0.796998 140 255 108 0.516524
0.019389 -0.129597 0.801172 140 255 108 0.516168
0.018836 -0.131500 0.805466 140 255 108 0.519197
0.022141 -0.126396 0.799129 137 255 111 0.514904
0.009850 -0.135660 0.804541 137 255 111 0.514700
0.010891 -0.134254 0.800033 137 255 111 0.514955
0.006906 -0.136549 0.802816 53 255 195 0.413591
0.011840 -0.132703 0.795611 143 255 104 0.520387
0.015108 -0.129712 0.793124 140 255 108 0.519319
0.014374 -0.131663 0.797400 140 255 108 0.517716
0.017791 -0.117964 0.785940 134 255 114 0.510665
0.017156 -0.121986 0.788123 137 255 111 0.515599
0.019289 -0.121078 0.790218 143 255 104 0.522480
0.019888 -0.117040 0.788079 134 255 114 0.508419
0.017408 -0.125397 0.791504 140 255 108 0.518089
0.015091 -0.126549 0.789499 140 255 108 0.519113
0.021998 -0.115885 0.790433 127 255 121 0.503649
0.021444 -0.119929 0.792425 134 255 114 0.511488
0.023532 -0.118852 0.794845 130 255 117 0.504758
0.024024 -0.114757 0.792919 121 255 127 0.495293
0.021823 -0.123260 0.795709 137 255 111 0.513729
0.019621 -0.124405 0.793581 140 255 108 0.516399
0.026404 -0.131085 0.815716 137 255 111 0.515255
0.026631 -0.128861 0.811586 137 255 111 0.513073
0.023745 -0.131911 0.813693 140 255 108 0.517325
0.024027 -0.129763 0.809509 134 255 114 0.508698
0.026729 -0.126592 0.807611 134 255 114 0.511186
0.026736 -0.124196 0.803702 134 255 114 0.508831
0.029127 -0.123044 0.806114 127 255 121 0.503248
0.029194 -0.125580 0.809892 130 255 117 0.506932
0.029168 -0.127952 0.813797 134 255 114 0.509596
0.031630 -0.121832 0.808501 124 255 124 0.497416
0.021059 -0.132658 0.811673 143 255 104 0.519577
0.021480 -0.130625 0.807413 140 255 108 0.517601
0.018295 -0.133376 0.809806 143 255 104 0.521309
0.021842 -0.128553 0.803206 134 255 114 0.511246
0.024449 -0.125309 0.801330 137 255 111 0.512368
0.024274 -0.127572 0.805399 137 255 111 0.514345
0.026148 -0.113506 0.795417 114 255 134 0.486698
0.025669 -0.117538 0.797260 127 255 121 0.501665
0.027899 -0.116349 0.799810 176 255 72 0.561543
0.028429 -0.112359 0.797949 111 255 137 0.484152
0.026187 -0.120863 0.800461 130 255 117 0.505810
0.024000 -0.122123 0.798059 134 255 114 0.510171
0.030909 -0.111099 0.800439 114 255 134 0.486364
0.030335 -0.115061 0.802301 117 255 130 0.489772
0.032990 -0.113961 0.804750 114 255 134 0.486909
0.033587 -0.109939 0.802860 121 255 127 0.494535
0.030997 -0.118441 0.805423 121 255 127 0.492282
0.028521 -0.119690 0.802983 127 255 121 0.500722
0.044202 -0.107000 0.810087 147 255 101 0.525722
0.043434 -0.110470 0.812235 134 255 114 0.510145
0.041059 -0.114670 0.813297 121 255 127 0.495849
0.040226 -0.118579 0.815227 117 255 130 0.489829
0.037183 -0.119632 0.813097 114 255 134 0.488113
0.037972 -0.115687 0.811210 117 255 130 0.490609
0.040314 -0.111331 0.810350 127 255 121 0.503410
0.041079 -0.107676 0.808210 137 255 111 0.513506
0.040348 -0.121281 0.818868 114 255 134 0.487264
0.038918 -0.124370 0.821531 117 255 130 0.489155
0.036004 -0.128044 0.823098 124 255 124 0.498931
0.033103 -0.128989 0.820955 127 255 121 0.503638
0.035943 -0.125458 0.819368 121 255 127 0.494591
0.037347 -0.122312 0.816743 117 255 130 0.488415
0.029024 -0.130351 0.817855 137 255 111 0.512116
0.031802 -0.127120 0.816067 130 255 117 0.504628
0.031757 -0.124558 0.812229 127 255 121 0.500748
0.034357 -0.120726 0.810861 121 255 127 0.492316
0.034453 -0.123442 0.814551 121 255 127 0.493726
0.033718 -0.117414 0.807882 117 255 130 0.488319
0.035891 -0.113003 0.807111 121 255 127 0.492393
0.036445 -0.108939 0.805211 127 255 121 0.502861
0.029486 -0.020967 0.791201 134 255 114 0.508883
0.030251 -0.025055 0.790128 130 255 117 0.504118
0.027831 -0.025666 0.788738 127 255 121 0.503221
0.028479 -0.029838 0.787845 121 255 127 0.494583
0.030877 -0.029260 0.789191 121 255 127 0.495668
0.026018 -0.030423 0.786514 117 255 130 0.491879
0.028998 -0.033974 0.787072 111 255 137 0.484112
0.026609 -0.034452 0.785725 104 255 143 0.474462
0.027252 -0.038285 0.784921 114 255 134 0.486469
0.031373 -0.033458 0.788392 114 255 134 0.485172
0.029629 -0.037857 0.786222 117 255 130 0.489444
0.031940 -0.037476 0.787587 153 255 95 0.533242
0.024191 -0.034842 0.784402 30 255 218 0.385967
0.024868 -0.038604 0.783598 114 255 134 0.484663
0.022454 -0.038918 0.782332 111 255 137 0.484125
0.021642 -0.035136 0.783077 95 255 153 0.464811
0.023465 -0.030864 0.785133 117 255 130 0.488388
0.020891 -0.031264 0.783752 117 255 130 0.489173
0.022672 -0.026715 0.785884 127 255 121 0.500981
0.025267 -0.026200 0.787306 134 255 114 0.509080
0.024406 -0.022020 0.788277 134 255 114 0.508053
0.020075 -0.027186 0.784482 127 255 121 0.500006
0.021799 -0.022578 0.786818 130 255 117 0.507101
0.019186 -0.023127 0.785357 130 255 117 0.506287
0.026977 -0.021466 0.789740 134 255 114 0.508459
0.032363 -0.041720 0.787117 124 255 124 0.497711
0.030220 -0.042154 0.785952 124 255 124 0.498181
0.030751 -0.046223 0.785553 117 255 130 0.489355
0.032872 -0.045822 0.786722 134 255 114 0.507835
0.028634 -0.046537 0.784410 179 255 69 0.565510
0.031243 -0.050128 0.785238 137 255 111 0.514807
0.029144 -0.050387 0.784188 130 255 117 0.505305
0.033350 -0.049757 0.786321 137 255 111 0.513428
0.026956 -0.050686 0.783158 140 255 108 0.516454
0.024633 -0.050748 0.782073 140 255 108 0.516405
0.026289 -0.046801 0.783165 134 255 114 0.511497
0.023918 -0.046978 0.782037 134 255 114 0.509609
0.025547 -0.042773 0.783394 124 255 124 0.496202
0.027909 -0.042469 0.784655 124 255 124 0.496386
0.023169 -0.043002 0.782138 121 255 127 0.495548
0.015636 -0.051113 0.777407 62 255 185 0.424267
0.018038 -0.051104 0.778715 143 255 104 0.520701
0.017136 -0.047445 0.778441 137 255 111 0.514026
0.014724 -0.047499 0.777191 137 255 111 0.515358
0.019525 -0.047360 0.779783 137 255 111 0.513902
0.016148 -0.043631 0.778332 127 255 121 0.501946
0.018533 -0.043457 0.779666 124 255 124 0.497712
0.017596 -0.039489 0.779611 117 255 130 0.491537
0.013752 -0.043815 0.776969 130 255 117 0.506743
0.015168 -0.039780 0.778272 124 255 124 0.497877
0.012747 -0.039977 0.776914 127 255 121 0.501543
0.020951 -0.043308 0.780973 124 255 124 0.497064
0.020017 -0.039191 0.780966 114 255 134 0.487278
0.021729 -0.047215 0.780885 134 255 114 0.510427
0.022459 -0.050923 0.780949 140 255 108 0.519193
0.020245 -0.051055 0.779806 143 255 104 0.522771
0.011738 -0.036486 0.777432 124 255 124 0.498516
0.014284 -0.036242 0.778917 121 255 127 0.493943
0.013338 -0.032530 0.779374 140 255 108 0.515666
0.010766 -0.032807 0.777990 127 255 121 0.500975
0.015932 -0.032223 0.780847 121 255 127 0.495585
0.012374 -0.028735 0.779950 134 255 114 0.511581
0.014984 -0.028297 0.781443 140 255 108 0.518491
0.013920 -0.024328 0.782186 130 255 117 0.506832
0.009793 -0.029101 0.778512 143 255 104 0.519733
0.011346 -0.024834 0.780608 130 255 117 0.507502
0.008767 -0.025284 0.779042 134 255 114 0.508587
0.017576 -0.027822 0.782993 127 255 121 0.501011
0.016533 -0.023765 0.783773 130 255 117 0.506067
0.018420 -0.031756 0.782283 127 255 121 0.500232
0.019186 -0.035535 0.781628 66 255 182 0.426559
0.016729 -0.035920 0.780283 124 255 124 0.498879
0.048187 -0.021484 0.799930 130 255 117 0.506910
0.048678 -0.025404 0.798592 134 255 114 0.508088
0.046190 -0.025873 0.797228 130 255 117 0.507376
0.048969 -0.029528 0.797373 130 255 117 0.505899
0.046429 -0.030049 0.796032 130 255 117 0.504580
0.046580 -0.034278 0.794918 130 255 117 0.504388
0.049126 -0.033814 0.796249 130 255 117 0.505960
0.043885 -0.030588 0.794729 127 255 121 0.502229
0.044048 -0.034794 0.793650 127 255 121 0.501252
0.041524 -0.035335 0.792450 124 255 124 0.497745
0.041203 -0.031137 0.793415 124 255 124 0.499816
0.043524 -0.026357 0.795792 130 255 117 0.507217
0.040855 -0.026926 0.794434 130 255 117 0.505907
0.043002 -0.022334 0.797002 134 255 114 0.510861
0.045606 -0.021873 0.798460 134 255 114 0.509615
0.044844 -0.018078 0.799788 134 255 114 0.511187
0.040368 -0.022849 0.795596 153 255 95 0.531462
0.042264 -0.018533 0.798329 134 255 114 0.511225
0.039636 -0.018997 0.796893 134 255 114 0.511447
0.047411 -0.017658 0.801280 134 255 114 0.511453
0.049147 -0.038493 0.795681 130 255 117 0.506929
0.049095 -0.042951 0.794972 211 255 36 0.602549
0.046736 -0.043424 0.793768 221 255 27 0.617133
0.049055 -0.047255 0.794392 137 255 111 0.511960
0.046731 -0.047667 0.793188 134 255 114 0.510008
0.044444 -0.048038 0.792022 134 255 114 0.508061
0.042031 -0.048411 0.790813 134 255 114 0.509248
0.044254 -0.043870 0.792527 137 255 111 0.513656
0.041797 -0.044258 0.791297 134 255 114 0.511024
0.044111 -0.039421 0.793069 127 255 121 0.502139
0.046609 -0.038969 0.794345 130 255 117 0.507490
0.041623 -0.039904 0.791884 124 255 124 0.499105
0.035624 -0.049518 0.787459 137 255 111 0.514079
0.035175 -0.045501 0.787841 150 255 98 0.528951
0.037485 -0.045161 0.789084 156 255 92 0.535894
0.034754 -0.041292 0.788296 127 255 121 0.503855
0.037100 -0.040847 0.789502 179 255 69 0.565094
0.036780 -0.036418 0.789952 121 255 127 0.494333
0.034368 -0.036950 0.788759 134 255 114 0.509528
0.039433 -0.040368 0.790697 130 255 117 0.504970
0.039147 -0.035888 0.791189 121 255 127 0.495357
0.039660 -0.044701 0.790160 179 255 69 0.563841
0.039884 -0.048847 0.789671 134 255 114 0.511302
0.037746 -0.049191 0.788536 137 255 111 0.513168
0.033962 -0.032901 0.789645 75 255 172 0.440330
0.033474 -0.028700 0.790482 124 255 124 0.498049
0.036018 -0.028170 0.791813 127 255 121 0.501264
0.032872 -0.024489 0.791467 130 255 117 0.507048
0.035432 -0.023930 0.792826 150 255 98 0.531093
0.034641 -0.019913 0.793966 134 255 114 0.510765
0.032098 -0.020428 0.792569 134 255 114 0.509807
0.037959 -0.023413 0.794222 134 255 114 0.511331
0.037147 -0.019430 0.795402 134 255 114 0.511161
0.038448 -0.027527 0.793090 130 255 117 0.503909
0.038812 -0.031704 0.792112 124 255 124 0.497205
0.036402 -0.032308 0.790859 117 255 130 0.491232
0.026532 -0.001331 0.840421 101 255 147 0.470218
0.027828 -0.002766 0.838152 127 255 121 0.501180
0.024945 -0.002807 0.836540 127 255 121 0.501348
0.029161 -0.004022 0.835772 134 255 114 0.509070
0.026277 -0.004075 0.834165 134 255 114 0.508588
0.027662 -0.005074 0.831657 137 255 111 0.512119
0.030547 -0.005003 0.833249 137 255 111 0.512281
0.023332 -0.004157 0.832570 134 255 114 0.508688
0.024732 -0.005191 0.830061 137 255 111 0.512016
0.021765 -0.005337 0.828445 137 255 111 0.511819
0.020376 -0.004273 0.831012 134 255 114 0.508373
0.021981 -0.002855 0.835009 127 255 121 0.501745
0.019009 -0.002959 0.833475 127 255 121 0.501635
0.020650 -0.001390 0.837364 121 255 127 0.492818
0.023611 -0.001356 0.838880 121 255 127 0.492412
0.017672 -0.001473 0.835823 121 255 127 0.493085
0.031994 -0.005969 0.830644 137 255 111 0.513839
0.033484 -0.006504 0.827916 137 255 111 0.513370
0.030622 -0.006632 0.826282 137 255 111 0.514185
0.035051 -0.006617 0.825014 117 255 130 0.489423
0.032189 -0.006769 0.823371 137 255 111 0.513409
0.033823 -0.006639 0.820333 124 255 124 0.499158
0.036677 -0.006458 0.821986 121 255 127 0.495851
0.029288 -0.006989 0.821723 137 255 111 0.515586
0.030930 -0.006891 0.818691 140 255 108 0.516452
0.027999 -0.007153 0.817059 140 255 108 0.517743
0.026325 -0.007199 0.820124 140 255 108 0.516259
0.027689 -0.006799 0.824696 137 255 111 0.514675
0.024721 -0.007027 0.823077 137 255 111 0.515039
0.026169 -0.006203 0.827465 137 255 111 0.513607
0.029111 -0.006055 0.829058 137 255 111 0.513724
0.023206 -0.006393 0.825846 137 255 111 0.513857
0.017261 -0.007935 0.810627 140 255 108 0.517905
0.015607 -0.007883 0.813683 140 255 108 0.516875
0.018325 -0.007701 0.815176 140 255 108 0.516889
0.016715 -0.007434 0.818134 137 255 111 0.515373
0.014010 -0.007592 0.816600 137 255 111 0.515312
0.019411 -0.007279 0.819685 137 255 111 0.515375
0.015196 -0.006769 0.820982 137 255 111 0.514077
0.017873 -0.006630 0.822572 137 255 111 0.514108
0.016402 -0.005509 0.825288 137 255 111 0.513040
0.012499 -0.006897 0.819404 137 255 111 0.513947
0.013720 -0.005659 0.823693 137 255 111 0.512348
0.011061 -0.005794 0.822090 137 255 111 0.512030
0.020552 -0.006491 0.824146 137 255 111 0.513958
0.019103 -0.005404 0.826861 137 255 111 0.512241
0.022090 -0.007096 0.821366 137 255 111 0.515302
0.023680 -0.007348 0.818468 140 255 108 0.516761
0.021013 -0.007521 0.816800 140 255 108 0.516906
0.022668 -0.007500 0.813826 140 255 108 0.517987
0.025344 -0.007306 0.815425 140 255 108 0.517815
0.019985 -0.007718 0.812211 140 255 108 0.517948
0.009639 -0.004648 0.824794 134 255 114 0.508812
0.012310 -0.004567 0.826292 134 255 114 0.509883
0.010944 -0.003164 0.828874 127 255 121 0.503157
0.008277 -0.003282 0.827391 127 255 121 0.502671
0.013633 -0.003089 0.830338 127 255 121 0.503324
0.009643 -0.001673 0.831361 124 255 124 0.498017
0.012321 -0.001586 0.832806 121 255 127 0.495922
0.006981 -0.001805 0.829902 124 255 124 0.499562
0.015000 -0.001543 0.834268 121 255 127 0.494848
0.016330 -0.002997 0.831915 127 255 121 0.501687
0.017696 -0.004333 0.829454 134 255 114 0.509422
0.014992 -0.004433 0.827873 153 255 95 0.531300
0.025916 -0.018179 0.791450 134 255 114 0.511353
0.023360 -0.018674 0.789962 140 255 108 0.519287
0.022135 -0.015817 0.791828 137 255 111 0.512700
0.020767 -0.019231 0.788475 134 255 114 0.510564
0.019572 -0.016314 0.790326 137 255 111 0.512343
0.016976 -0.016851 0.788815 137 255 111 0.511874
0.018149 -0.019799 0.786995 134 255 114 0.509494
0.018206 -0.013870 0.792358 137 255 111 0.513925
0.015662 -0.014352 0.790808 137 255 111 0.513592
0.014232 -0.012261 0.793016 137 255 111 0.514297
0.016733 -0.011832 0.794529 137 255 111 0.514617
0.020722 -0.013443 0.793840 137 255 111 0.514152
0.019214 -0.011445 0.796062 137 255 111 0.514805
0.023215 -0.013013 0.795319 137 255 111 0.514156
0.024639 -0.015395 0.793268 137 255 111 0.512796
0.027095 -0.014990 0.794729 137 255 111 0.512914
0.021686 -0.011062 0.797580 137 255 111 0.514946
0.025660 -0.012637 0.796825 137 255 111 0.514248
0.024131 -0.010689 0.799101 137 255 111 0.514962
0.028386 -0.017780 0.792872 134 255 114 0.511146
0.015541 -0.020367 0.785523 134 255 114 0.508886
0.012926 -0.020996 0.783892 134 255 114 0.508858
0.011794 -0.017979 0.785828 134 255 114 0.510915
0.010329 -0.021593 0.782275 134 255 114 0.508696
0.009191 -0.018625 0.784179 134 255 114 0.510485
0.006658 -0.019151 0.782477 134 255 114 0.510375
0.007760 -0.022144 0.780680 134 255 114 0.508812
0.008022 -0.015904 0.786195 137 255 111 0.512320
0.005477 -0.016474 0.784490 137 255 111 0.511759
0.004232 -0.014096 0.786635 137 255 111 0.512855
