ply
format ascii 1.0
comment VCGLIB generated
element vertex 986
property float x
property float y
property float z
property uchar red
property uchar green
property uchar blue
property float quality
end_header
0.078081 -0.096357 0.810283 36 255 211 0.391984
0.065261 -0.100786 0.810165 36 255 211 0.394518
0.066254 -0.097533 0.808860 33 255 215 0.389037
0.062262 -0.097023 0.807345 43 255 205 0.400894
0.061298 -0.100247 0.808742 40 255 208 0.394545
0.065238 -0.094177 0.806650 46 255 202 0.402840
0.069463 -0.094714 0.808036 40 255 208 0.396203
0.095574 -0.138786 0.927158 1 230 247 0.350017
0.098105 -0.137562 0.928959 11 242 237 0.361847
0.096871 -0.139849 0.924788 1 230 247 0.349753
0.099367 -0.138621 0.926581 4 234 244 0.352534
0.100641 -0.139674 0.924210 1 230 247 0.351534
0.098130 -0.140891 0.922400 0 226 250 0.346589
0.101988 -0.137551 0.928478 7 238 240 0.355958
0.103230 -0.138597 0.926097 14 246 234 0.364349
0.105944 -0.137659 0.928077 11 242 237 0.362077
0.103926 -0.136135 0.931529 17 250 231 0.369640
0.099980 -0.136015 0.931932 20 254 228 0.373836
0.100930 -0.142977 0.918032 1 230 247 0.348514
0.103128 -0.141193 0.921374 4 234 244 0.353612
0.102517 -0.144310 0.915101 0 226 250 0.347089
0.104644 -0.142528 0.918429 1 230 247 0.350071
0.106238 -0.143844 0.915497 4 234 244 0.354752
0.104090 -0.145628 0.912165 4 234 244 0.354270
0.106987 -0.140912 0.921862 7 238 240 0.355954
0.108538 -0.142219 0.918920 11 242 237 0.360063
0.110945 -0.140773 0.922412 20 254 228 0.373005
0.108438 -0.139223 0.925247 11 242 237 0.361611
0.121584 -0.132009 0.932045 53 255 195 0.413665
0.117482 -0.133369 0.930969 27 255 221 0.379944
0.119526 -0.131016 0.933703 30 255 218 0.385306
0.113518 -0.134710 0.929938 17 250 231 0.371067
0.115453 -0.132364 0.932621 23 255 224 0.375143
0.111474 -0.133742 0.931579 17 250 231 0.370416
0.117492 -0.130019 0.935355 36 255 211 0.391313
0.109645 -0.136146 0.928957 11 242 237 0.362842
0.112198 -0.137706 0.926148 14 246 234 0.363525
0.116039 -0.136289 0.927102 27 255 221 0.381567
0.113438 -0.131112 0.935184 33 255 215 0.388861
0.115987 -0.129072 0.937409 36 255 211 0.394446
0.109506 -0.132208 0.935049 36 255 211 0.392178
0.111939 -0.130164 0.937222 36 255 211 0.391989
0.106644 -0.134135 0.933244 20 254 228 0.372485
0.124045 -0.129135 0.933399 33 255 215 0.390209
0.121228 -0.127748 0.935563 30 255 218 0.385415
0.118915 -0.126413 0.938065 46 255 202 0.405418
0.120561 -0.134626 0.928662 30 255 218 0.384788
0.119606 -0.137216 0.925314 27 255 221 0.381276
0.115172 -0.138950 0.923810 23 255 224 0.375543
0.114404 -0.141639 0.920579 17 250 231 0.368157
0.118739 -0.139831 0.922018 20 254 228 0.371319
0.117939 -0.142486 0.918766 14 246 234 0.366239
0.122180 -0.137842 0.924027 36 255 211 0.393696
0.123160 -0.135252 0.927397 43 255 205 0.400544
0.124192 -0.132652 0.930794 43 255 205 0.399062
0.126801 -0.133298 0.929527 53 255 195 0.413089
0.111380 -0.142535 0.918030 7 238 240 0.357232
0.109078 -0.144069 0.914605 4 234 244 0.354976
0.111936 -0.144328 0.913715 14 246 234 0.363697
0.106856 -0.145773 0.911232 7 238 240 0.358879
0.109653 -0.145950 0.910322 4 234 244 0.355100
0.107456 -0.147745 0.906984 1 230 247 0.347969
0.104702 -0.147655 0.907916 4 234 244 0.353737
0.112486 -0.146154 0.909423 4 234 244 0.355204
0.110192 -0.147865 0.906047 0 226 250 0.347581
0.112983 -0.148029 0.905131 0 226 250 0.347145
0.115366 -0.145073 0.911855 11 242 237 0.361250
0.114866 -0.143334 0.916191 17 250 231 0.370835
0.121481 -0.148164 0.903063 14 246 234 0.364915
0.122356 -0.146793 0.906372 11 242 237 0.359854
0.121507 -0.145386 0.910301 11 242 237 0.363034
0.122478 -0.144150 0.913719 14 246 234 0.364415
0.121634 -0.142817 0.917717 17 250 231 0.370640
0.125300 -0.143158 0.916622 7 238 240 0.358689
0.118848 -0.143854 0.914808 7 238 240 0.358611
0.116303 -0.146551 0.907970 17 250 231 0.368606
0.117203 -0.148062 0.904088 7 238 240 0.356641
0.126981 -0.140850 0.919328 11 242 237 0.359446
0.127370 -0.138388 0.922547 14 246 234 0.367030
0.129118 -0.136143 0.925336 30 255 218 0.383736
0.126387 -0.135780 0.926264 43 255 205 0.401173
0.121863 -0.140329 0.920835 20 254 228 0.371525
0.138159 -0.142411 0.914953 11 242 237 0.360206
0.136214 -0.143460 0.911829 11 242 237 0.362446
0.137146 -0.144083 0.908757 7 238 240 0.358028
0.136536 -0.145029 0.905588 7 238 240 0.357681
0.137386 -0.145733 0.902542 17 250 231 0.368258
0.134476 -0.146376 0.902420 7 238 240 0.357459
0.139529 -0.144411 0.905742 4 234 244 0.353462
0.140374 -0.145058 0.902683 7 238 240 0.357878
0.139986 -0.143596 0.908713 7 238 240 0.358828
0.140405 -0.142853 0.911718 14 246 234 0.365454
0.142236 -0.143978 0.905723 7 238 240 0.358176
0.143132 -0.144508 0.902861 7 238 240 0.357907
0.137600 -0.140413 0.876670 1 230 247 0.350480
0.135381 -0.142222 0.880264 14 246 234 0.363982
0.134676 -0.143618 0.883990 11 242 237 0.359389
0.132406 -0.145459 0.887558 7 238 240 0.359314
0.135567 -0.144723 0.887858 11 242 237 0.359820
0.131583 -0.144447 0.883699 23 255 224 0.378254
0.129301 -0.146245 0.887256 7 238 240 0.358845
0.132262 -0.143043 0.879822 17 250 231 0.369837
0.132916 -0.141699 0.875926 23 255 224 0.375321
0.135308 -0.145019 0.891477 7 238 240 0.358897
0.133588 -0.145704 0.895140 14 246 234 0.366764
0.133278 -0.146138 0.898770 14 246 234 0.364590
0.131436 -0.146924 0.902397 7 238 240 0.356978
0.130301 -0.146745 0.898761 7 238 240 0.356784
0.128381 -0.147518 0.902337 14 246 234 0.366865
0.130492 -0.146348 0.894976 7 238 240 0.359148
0.130674 -0.146049 0.891186 7 238 240 0.356729
0.121696 -0.147816 0.899141 0 226 250 0.347340
0.123711 -0.147317 0.895216 7 238 240 0.355567
0.123847 -0.147155 0.891275 7 238 240 0.356473
0.125782 -0.146815 0.887318 17 250 231 0.367988
0.122256 -0.147465 0.887359 1 230 247 0.351247
0.127409 -0.146625 0.891232 11 242 237 0.360624
0.127195 -0.146876 0.895007 4 234 244 0.352254
0.126930 -0.147225 0.898761 4 234 244 0.354480
0.124923 -0.147823 0.902709 7 238 240 0.358747
0.122976 -0.146127 0.883295 4 234 244 0.352781
0.125406 -0.144510 0.879387 11 242 237 0.360686
0.126024 -0.143247 0.875259 4 234 244 0.352707
0.129537 -0.142499 0.875623 4 234 244 0.354615
0.128931 -0.143795 0.879551 11 242 237 0.359794
0.128274 -0.145135 0.883440 11 242 237 0.361175
0.133739 -0.145510 0.905672 14 246 234 0.363804
0.134302 -0.144528 0.908801 7 238 240 0.358264
0.133544 -0.143720 0.912113 7 238 240 0.358356
0.134101 -0.142799 0.915282 7 238 240 0.356494
0.131414 -0.143054 0.915530 4 234 244 0.354601
0.130622 -0.144094 0.912176 14 246 234 0.365891
0.131416 -0.144911 0.908906 17 250 231 0.368491
0.130631 -0.146045 0.905614 7 238 240 0.357497
0.136884 -0.140529 0.917855 17 250 231 0.370343
0.134151 -0.138748 0.920921 14 246 234 0.365101
0.134129 -0.140792 0.918097 11 242 237 0.361234
0.132084 -0.136307 0.924611 20 254 228 0.374685
0.130275 -0.138568 0.921829 14 246 234 0.365361
0.130050 -0.140834 0.918807 17 250 231 0.368948
0.128341 -0.143108 0.916093 14 246 234 0.364895
0.126124 -0.144190 0.913025 7 238 240 0.359223
0.125091 -0.145386 0.909592 7 238 240 0.357106
0.125912 -0.146501 0.906062 11 242 237 0.360146
0.128383 -0.145212 0.909150 7 238 240 0.357695
0.111914 -0.145868 0.875455 1 230 247 0.349923
0.112334 -0.146303 0.879875 0 226 250 0.346561
0.115040 -0.145169 0.875506 0 226 250 0.345899
0.115826 -0.145899 0.879953 0 226 250 0.345922
0.113030 -0.146992 0.884288 0 222 253 0.340396
0.113963 -0.148084 0.888646 1 230 247 0.350696
0.111845 -0.148033 0.888755 4 234 244 0.355006
0.111039 -0.147131 0.884401 11 242 237 0.361243
0.109814 -0.148091 0.888885 4 234 244 0.352327
0.109227 -0.147411 0.884576 1 230 247 0.351510
0.110578 -0.146632 0.880037 4 234 244 0.351840
0.107934 -0.148321 0.889078 1 230 247 0.351000
0.118714 -0.144600 0.875194 11 242 237 0.360453
0.119848 -0.145347 0.879274 14 246 234 0.365085
0.122408 -0.143944 0.875096 14 246 234 0.366541
0.119013 -0.146500 0.883655 1 230 247 0.349101
0.118073 -0.147714 0.887989 1 230 247 0.349645
0.117511 -0.147837 0.899994 7 238 240 0.357916
0.117734 -0.147739 0.895861 0 222 253 0.342407
0.113542 -0.147790 0.896904 4 234 244 0.352385
0.113294 -0.147851 0.901026 4 234 244 0.353065
0.115821 -0.147798 0.892251 1 230 247 0.348902
0.119999 -0.147552 0.891612 7 238 240 0.356226
0.111103 -0.147623 0.901139 1 230 247 0.349115
0.108374 -0.147545 0.902073 0 226 250 0.346467
0.109252 -0.147484 0.897139 4 234 244 0.354883
0.105653 -0.147518 0.903018 4 234 244 0.352849
0.106571 -0.147506 0.898098 1 230 247 0.348624
0.107487 -0.147769 0.893173 4 234 244 0.353616
0.109504 -0.147691 0.893017 11 242 237 0.361417
0.111611 -0.147734 0.892889 7 238 240 0.359018
0.111385 -0.147604 0.897019 7 238 240 0.356732
0.146274 -0.143308 0.899595 4 234 244 0.351860
0.146588 -0.142721 0.896220 4 234 244 0.355212
0.148255 -0.142051 0.893021 11 242 237 0.360225
0.149985 -0.141311 0.889857 11 242 237 0.361630
0.147166 -0.141778 0.889506 11 242 237 0.361198
0.147863 -0.140253 0.886014 11 242 237 0.359893
0.150043 -0.138650 0.882782 11 242 237 0.361706
0.150698 -0.137207 0.879292 17 250 231 0.367230
0.153709 -0.136839 0.879787 14 246 234 0.364444
0.150744 -0.139895 0.886403 14 246 234 0.365370
0.136278 -0.145515 0.898983 11 242 237 0.362924
0.136521 -0.145040 0.895324 7 238 240 0.359068
0.138255 -0.144262 0.891885 7 238 240 0.358644
0.138512 -0.143912 0.888269 23 255 224 0.376249
0.141469 -0.143117 0.888658 11 242 237 0.360734
0.141174 -0.143525 0.892116 1 230 247 0.351043
0.139456 -0.144339 0.895566 14 246 234 0.365038
0.139167 -0.144849 0.899082 14 246 234 0.363515
0.137730 -0.142875 0.884478 11 242 237 0.360762
0.138374 -0.141415 0.880736 20 254 228 0.372484
0.140514 -0.139604 0.877338 4 234 244 0.352931
0.143507 -0.138760 0.877898 14 246 234 0.363906
0.141323 -0.140599 0.881274 11 242 237 0.361600
0.140650 -0.142027 0.884865 7 238 240 0.355963
0.147831 -0.137793 0.878856 27 255 221 0.379496
0.147139 -0.139165 0.882337 14 246 234 0.364561
0.145042 -0.140973 0.885625 7 238 240 0.356287
0.144291 -0.142435 0.889092 7 238 240 0.359061
0.144251 -0.139853 0.881797 1 230 247 0.349625
0.145485 -0.142565 0.892772 1 230 247 0.349725
0.143847 -0.143378 0.896085 1 230 247 0.351267
0.143490 -0.143915 0.899451 7 238 240 0.358985
-0.063314 -0.080882 0.713935 0 218 255 0.338258
-0.061355 -0.080174 0.714983 0 206 255 0.326241
-0.058868 -0.080362 0.715294 0 182 255 0.303484
-0.056932 -0.079538 0.716312 0 190 255 0.312239
-0.054499 -0.079646 0.716524 0 198 255 0.316686
-0.055595 -0.077697 0.717966 0 182 255 0.301845
-0.055779 -0.081400 0.714782 0 198 255 0.318244
-0.053305 -0.081456 0.714913 0 206 255 0.324479
-0.056876 -0.083055 0.712871 0 206 255 0.325887
-0.059426 -0.082953 0.712634 0 210 255 0.329483
-0.061939 -0.082766 0.712322 0 214 255 0.335882
-0.060523 -0.084488 0.710682 0 218 255 0.338036
-0.053543 -0.077345 0.719082 0 202 255 0.321976
-0.051174 -0.077777 0.719455 0 206 255 0.325090
-0.049130 -0.077299 0.720489 0 210 255 0.330395
-0.046771 -0.077672 0.720732 0 214 255 0.335735
-0.047858 -0.080004 0.718245 0 214 255 0.335032
-0.052073 -0.080115 0.716852 0 202 255 0.324204
-0.043957 -0.082481 0.716662 0 226 250 0.343912
-0.046275 -0.082331 0.716341 0 218 255 0.339226
-0.047236 -0.083679 0.714478 0 218 255 0.338516
-0.049580 -0.083421 0.714059 0 186 255 0.307552
-0.050532 -0.084623 0.712143 0 206 255 0.325652
-0.049150 -0.081347 0.716577 0 214 255 0.334021
-0.045538 -0.080225 0.718639 0 222 253 0.341340
-0.052996 -0.084709 0.711881 0 210 255 0.331722
-0.053813 -0.086210 0.709976 4 234 244 0.353672
-0.056337 -0.086204 0.709690 1 230 247 0.350622
-0.058884 -0.086105 0.709278 1 230 247 0.350818
-0.057207 -0.087659 0.707818 11 242 237 0.362170
-0.057993 -0.084601 0.711128 0 218 255 0.337041
-0.012179 -0.091823 0.745244 23 255 224 0.377916
-0.010531 -0.094736 0.746887 40 255 208 0.395688
-0.009250 -0.098135 0.748205 20 254 228 0.372384
-0.007995 -0.101594 0.750095 23 255 224 0.375440
-0.007251 -0.105511 0.751581 17 250 231 0.367495
-0.011427 -0.095980 0.745295 23 255 224 0.378114
-0.013014 -0.093257 0.743649 27 255 221 0.379619
-0.006987 -0.108931 0.754179 23 255 224 0.376389
-0.007614 -0.112730 0.755257 17 250 231 0.369155
-0.008237 -0.116616 0.756832 20 254 228 0.371870
-0.009130 -0.120466 0.757646 20 254 228 0.374906
-0.007941 -0.109360 0.752341 23 255 224 0.375486
-0.009882 -0.120075 0.754891 30 255 218 0.385493
-0.009223 -0.116563 0.753684 20 254 228 0.373339
-0.008591 -0.112988 0.752672 20 254 228 0.371582
-0.008007 -0.106113 0.749664 17 250 231 0.370806
-0.009085 -0.102831 0.747441 27 255 221 0.379635
-0.010265 -0.099491 0.745976 23 255 224 0.376022
-0.008361 -0.109710 0.749957 17 250 231 0.369204
-0.009251 -0.119652 0.752799 20 254 228 0.374708
-0.008354 -0.113048 0.750367 17 250 231 0.369999
-0.008533 -0.116297 0.751306 23 255 224 0.376005
-0.007747 -0.106579 0.746861 17 250 231 0.369189
-0.013581 -0.095921 0.739488 23 255 224 0.378459
-0.011968 -0.098114 0.741564 23 255 224 0.375625
-0.010485 -0.100619 0.743740 20 254 228 0.372766
-0.008999 -0.103446 0.745242 20 254 228 0.371167
-0.013640 -0.094823 0.741611 23 255 224 0.378028
-0.010689 -0.124170 0.759723 27 255 221 0.380069
-0.012839 -0.127447 0.759868 23 255 224 0.378619
-0.014949 -0.130683 0.760759 27 255 221 0.381687
-0.017120 -0.133663 0.760815 36 255 211 0.394502
-0.011481 -0.123649 0.757381 23 255 224 0.376535
-0.019860 -0.136586 0.762718 23 255 224 0.377690
-0.022641 -0.138400 0.762097 27 255 221 0.382280
-0.025440 -0.140532 0.762452 30 255 218 0.384029
-0.028102 -0.142176 0.761840 27 255 221 0.380229
-0.025400 -0.139476 0.759710 23 255 224 0.377773
-0.022758 -0.137429 0.759597 27 255 221 0.379145
-0.019958 -0.135586 0.760217 27 255 221 0.380354
-0.027498 -0.140396 0.757305 20 254 228 0.374663
-0.025054 -0.138393 0.757305 20 254 228 0.374085
-0.022487 -0.136388 0.757265 23 255 224 0.375750
-0.019905 -0.134535 0.757824 23 255 224 0.378735
-0.017320 -0.132552 0.758297 27 255 221 0.380798
-0.015391 -0.129233 0.756733 27 255 221 0.379149
-0.013454 -0.126382 0.756616 23 255 224 0.377627
-0.025337 -0.138340 0.752992 7 238 240 0.359324
-0.023071 -0.136382 0.753225 20 254 228 0.374007
-0.020896 -0.134706 0.753877 23 255 224 0.377218
-0.018515 -0.132708 0.754068 27 255 221 0.379026
-0.016266 -0.130928 0.754708 27 255 221 0.379425
-0.024318 -0.137350 0.755152 1 230 247 0.350647
-0.026694 -0.139249 0.755066 14 246 234 0.365648
-0.013998 -0.127909 0.753549 23 255 224 0.378126
-0.012422 -0.125296 0.753504 23 255 224 0.376520
-0.010773 -0.122433 0.753011 23 255 224 0.375651
-0.011544 -0.123046 0.755151 23 255 224 0.376048
-0.045096 -0.145914 0.744845 1 230 247 0.350919
-0.042760 -0.145070 0.746021 1 230 247 0.350840
-0.040855 -0.144474 0.747815 7 238 240 0.355515
-0.038387 -0.143861 0.748991 11 242 237 0.359707
-0.036369 -0.143464 0.750789 14 246 234 0.363398
-0.039966 -0.144459 0.751027 11 242 237 0.361142
-0.042625 -0.145082 0.749934 7 238 240 0.358055
-0.044574 -0.145616 0.748135 4 234 244 0.354405
-0.047136 -0.146438 0.747083 7 238 240 0.356147
-0.033056 -0.141782 0.750345 14 246 234 0.366477
-0.030906 -0.140857 0.751737 17 250 231 0.368060
-0.028362 -0.139655 0.752618 0 226 250 0.346462
-0.034732 -0.142718 0.752830 17 250 231 0.367604
-0.030371 -0.141495 0.756715 20 254 228 0.374780
-0.032881 -0.142306 0.755437 20 254 228 0.372187
-0.037938 -0.144463 0.753538 14 246 234 0.366344
-0.035944 -0.143657 0.755538 20 254 228 0.371742
-0.041480 -0.145383 0.753991 14 246 234 0.366892
-0.043836 -0.145733 0.752209 14 246 234 0.363532
-0.046671 -0.146320 0.751228 11 242 237 0.362307
-0.048925 -0.146882 0.749454 11 242 237 0.361616
-0.033657 -0.143115 0.757661 23 255 224 0.376881
-0.030940 -0.142571 0.759422 23 255 224 0.378274
-0.036661 -0.144407 0.757849 36 255 211 0.390937
-0.039578 -0.145735 0.758025 4 234 244 0.351621
-0.038863 -0.145082 0.755731 17 250 231 0.368884
-0.034282 -0.144277 0.761320 27 255 221 0.379863
-0.031234 -0.143680 0.762565 27 255 221 0.379999
-0.037372 -0.145626 0.762045 23 255 224 0.377229
-0.040475 -0.146868 0.762787 23 255 224 0.376936
-0.040037 -0.146341 0.760415 20 254 228 0.372712
-0.053178 -0.147707 0.759951 17 250 231 0.367532
-0.049781 -0.147263 0.759477 17 250 231 0.369873
-0.052394 -0.147632 0.757336 17 250 231 0.368111
-0.046368 -0.146836 0.759005 20 254 228 0.371346
-0.048977 -0.147106 0.756834 17 250 231 0.369358
-0.045597 -0.146564 0.756346 17 250 231 0.370015
-0.051570 -0.147495 0.754669 14 246 234 0.367172
-0.042953 -0.146338 0.758521 20 254 228 0.371392
-0.043461 -0.146786 0.760894 17 250 231 0.368570
-0.046877 -0.147159 0.761358 20 254 228 0.371396
-0.047931 -0.146730 0.753828 14 246 234 0.366382
-0.050385 -0.147239 0.751980 14 246 234 0.365018
-0.048976 -0.141078 0.712532 14 246 234 0.364648
-0.048869 -0.142500 0.715886 14 246 234 0.364485
-0.048808 -0.143973 0.719218 14 246 234 0.364857
-0.046108 -0.143196 0.716566 14 246 234 0.364376
-0.051636 -0.143245 0.718558 14 246 234 0.364888
-0.054762 -0.142351 0.717638 14 246 234 0.365740
-0.051820 -0.141698 0.715074 14 246 234 0.364129
-0.054981 -0.140791 0.714170 14 246 234 0.364606
-0.043994 -0.144257 0.719272 7 238 240 0.357489
-0.046132 -0.144793 0.722178 14 246 234 0.366239
-0.043316 -0.145038 0.722787 14 246 234 0.363809
-0.040514 -0.145263 0.723435 7 238 240 0.356761
-0.045467 -0.145605 0.725693 14 246 234 0.364218
-0.048471 -0.145318 0.724966 14 246 234 0.365191
-0.051155 -0.144457 0.722011 14 246 234 0.363907
-0.052096 -0.146389 0.729278 14 246 234 0.366140
-0.053744 -0.145288 0.725528 14 246 234 0.366274
-0.055392 -0.144168 0.721786 14 246 234 0.365958
-0.056735 -0.144851 0.724563 14 246 234 0.366568
-0.050927 -0.145630 0.726387 14 246 234 0.365920
-0.059569 -0.143363 0.721429 14 246 234 0.365864
-0.057641 -0.142452 0.718864 14 246 234 0.365091
-0.060505 -0.141498 0.717799 14 246 234 0.365105
-0.063379 -0.140563 0.716670 14 246 234 0.365375
-0.058619 -0.140640 0.715220 14 246 234 0.364836
-0.031332 -0.079070 0.730705 33 255 215 0.387562
-0.033306 -0.079218 0.729041 27 255 221 0.382139
-0.035150 -0.079318 0.727262 20 254 228 0.374310
-0.031289 -0.081143 0.728772 30 255 218 0.386522
-0.033181 -0.081230 0.727003 27 255 221 0.381356
-0.036926 -0.079280 0.725433 4 234 244 0.352071
-0.038680 -0.079171 0.723528 11 242 237 0.362426
-0.039176 -0.076767 0.725676 7 238 240 0.357656
-0.037384 -0.076846 0.727589 14 246 234 0.366001
-0.034335 -0.081966 0.724482 27 255 221 0.380762
-0.030711 -0.083369 0.726231 30 255 218 0.383405
-0.032273 -0.083452 0.724378 27 255 221 0.381003
-0.035859 -0.081960 0.722691 33 255 215 0.387974
-0.037299 -0.081858 0.720798 27 255 221 0.379112
-0.043179 -0.081030 0.719076 1 230 247 0.349127
-0.042388 -0.079430 0.721527 1 230 247 0.350074
-0.039697 -0.080818 0.721199 11 242 237 0.361729
-0.040624 -0.082271 0.718752 7 238 240 0.357825
-0.044765 -0.077795 0.721877 0 202 255 0.322279
-0.043094 -0.076909 0.723671 17 250 231 0.371027
-0.041367 -0.075969 0.725382 4 234 244 0.354299
-0.014897 -0.089584 0.743293 33 255 215 0.387403
-0.017585 -0.087549 0.741512 36 255 211 0.391510
-0.020062 -0.085576 0.739795 40 255 208 0.395815
-0.022398 -0.083567 0.738098 43 255 205 0.398531
-0.021667 -0.081615 0.739669 49 255 198 0.406637
-0.019356 -0.083636 0.741360 46 255 202 0.405052
-0.015673 -0.091200 0.741622 27 255 221 0.382488
-0.018284 -0.089424 0.739737 17 250 231 0.370261
-0.020763 -0.087639 0.737973 30 255 218 0.385671
-0.022907 -0.085844 0.736036 36 255 211 0.391744
-0.029334 -0.080347 0.732658 46 255 202 0.405061
-0.027203 -0.081473 0.734552 36 255 211 0.393824
-0.030920 -0.076447 0.732802 36 255 211 0.391450
-0.028905 -0.077771 0.734708 40 255 208 0.397061
-0.024874 -0.082573 0.736328 40 255 208 0.396263
-0.030198 -0.073583 0.734799 46 255 202 0.403272
-0.026466 -0.078424 0.737022 46 255 202 0.402994
-0.028164 -0.075179 0.736658 49 255 198 0.409712
-0.024031 -0.079715 0.738633 49 255 198 0.406472
-0.035362 -0.076648 0.729469 20 254 228 0.374692
-0.039144 -0.073835 0.727887 7 238 240 0.356533
-0.037101 -0.073721 0.729836 14 246 234 0.365641
-0.034891 -0.073788 0.731550 23 255 224 0.377123
-0.033031 -0.075621 0.731871 30 255 218 0.383931
-0.043571 -0.073820 0.726024 0 222 253 0.343360
-0.045509 -0.074892 0.724109 0 222 253 0.340370
-0.047609 -0.073719 0.723763 0 210 255 0.331681
-0.045669 -0.072657 0.725680 0 214 255 0.334820
-0.047748 -0.071418 0.725254 0 210 255 0.330003
-0.041243 -0.072818 0.727684 0 226 250 0.346948
-0.047149 -0.066632 0.728092 0 210 255 0.330241
-0.044826 -0.066844 0.729158 0 210 255 0.330954
-0.042757 -0.068116 0.729522 0 214 255 0.335548
-0.040415 -0.068207 0.730419 0 226 250 0.345180
-0.038360 -0.069398 0.730575 4 234 244 0.353738
-0.043189 -0.070483 0.728182 0 210 255 0.331807
-0.045256 -0.069193 0.727865 0 178 255 0.297940
-0.047491 -0.069072 0.726769 0 206 255 0.326301
-0.035812 -0.068314 0.733057 14 246 234 0.366489
-0.034099 -0.070524 0.733600 27 255 221 0.379818
-0.032045 -0.071635 0.734616 40 255 208 0.396925
-0.016145 -0.092697 0.739743 14 246 234 0.365387
-0.018737 -0.091049 0.737759 27 255 221 0.382433
-0.021054 -0.089392 0.735735 17 250 231 0.369343
-0.023109 -0.087587 0.734096 30 255 218 0.384372
-0.018546 -0.092300 0.735661 30 255 218 0.383246
-0.016080 -0.093968 0.737508 27 255 221 0.379670
-0.028891 -0.085028 0.727821 30 255 218 0.385550
-0.027141 -0.086091 0.729964 30 255 218 0.386455
-0.025192 -0.086847 0.732036 33 255 215 0.386852
-0.029387 -0.082987 0.730177 43 255 205 0.399286
-0.027428 -0.084059 0.732246 33 255 215 0.390289
-0.025238 -0.084967 0.734154 33 255 215 0.390069
-0.027116 -0.087348 0.720899 27 255 221 0.381051
-0.028517 -0.087650 0.717063 23 255 224 0.377596
-0.026387 -0.088215 0.717896 20 254 228 0.373083
-0.024132 -0.088609 0.718694 27 255 221 0.380620
-0.029917 -0.087872 0.713260 27 255 221 0.381405
-0.030817 -0.086945 0.716411 23 255 224 0.375614
-0.033007 -0.086085 0.715726 20 254 228 0.372198
-0.022677 -0.088833 0.715964 27 255 221 0.378966
-0.021075 -0.088810 0.713158 20 254 228 0.374590
-0.019650 -0.088848 0.716771 36 255 211 0.390929
-0.024051 -0.088755 0.712438 20 254 228 0.373402
-0.027056 -0.088414 0.711838 20 254 228 0.371962
-0.029826 -0.090694 0.705949 14 246 234 0.365789
-0.031277 -0.089689 0.708488 7 238 240 0.356137
-0.032773 -0.088664 0.711120 17 250 231 0.367343
-0.034102 -0.089553 0.708059 14 246 234 0.364697
-0.028405 -0.089562 0.708863 17 250 231 0.367749
-0.025512 -0.089343 0.709284 17 250 231 0.369470
-0.036327 -0.088719 0.709486 4 234 244 0.354394
-0.036484 -0.087531 0.711845 14 246 234 0.365359
-0.038709 -0.087284 0.711440 14 246 234 0.364315
-0.032864 -0.087362 0.713316 7 238 240 0.358530
-0.015152 -0.088542 0.715413 23 255 224 0.375872
-0.012332 -0.088384 0.714762 20 254 228 0.373629
-0.015373 -0.088672 0.711568 20 254 228 0.371272
-0.012607 -0.088657 0.710990 17 250 231 0.370547
-0.009895 -0.088773 0.710455 20 254 228 0.372096
-0.009604 -0.088515 0.714194 20 254 228 0.371557
-0.006767 -0.088521 0.713789 14 246 234 0.366440
-0.012917 -0.088915 0.707239 17 250 231 0.368768
-0.015686 -0.088760 0.707814 17 250 231 0.368840
-0.018419 -0.088641 0.708513 17 250 231 0.369078
-0.018249 -0.088726 0.712297 20 254 228 0.373055
-0.021274 -0.088769 0.709431 14 246 234 0.367161
-0.003416 -0.088609 0.713123 17 250 231 0.369196
-0.001539 -0.088861 0.710859 11 242 237 0.360998
0.001716 -0.089062 0.710307 17 250 231 0.367284
-0.001245 -0.089357 0.706979 17 250 231 0.367615
-0.004615 -0.089113 0.707544 17 250 231 0.368200
-0.008051 -0.088985 0.708150 17 250 231 0.368806
-0.008608 -0.091930 0.700199 14 246 234 0.367133
-0.010497 -0.091099 0.702040 20 254 228 0.373409
-0.013921 -0.090846 0.702716 17 250 231 0.367725
-0.015900 -0.090152 0.704726 17 250 231 0.368824
-0.018774 -0.091212 0.702331 14 246 234 0.366483
-0.010925 -0.089638 0.705244 20 254 228 0.372142
-0.007596 -0.089860 0.704581 17 250 231 0.367983
-0.004291 -0.090117 0.703968 14 246 234 0.365115
-0.021520 -0.090943 0.703052 14 246 234 0.366267
-0.024361 -0.090868 0.703984 17 250 231 0.367278
-0.021280 -0.089763 0.706121 17 250 231 0.367502
-0.027125 -0.090785 0.704953 14 246 234 0.366487
-0.018558 -0.089902 0.705367 17 250 231 0.367653
-0.038610 -0.086066 0.713828 14 246 234 0.364871
-0.038508 -0.084755 0.716206 20 254 228 0.373294
-0.040798 -0.085679 0.713385 11 242 237 0.360694
-0.036267 -0.085020 0.716539 17 250 231 0.369990
-0.041079 -0.083735 0.716390 7 238 240 0.357126
-0.037912 -0.083354 0.718522 14 246 234 0.365630
-0.033033 -0.084155 0.721952 23 255 224 0.375400
-0.029510 -0.085311 0.723796 23 255 224 0.375917
-0.033908 -0.084645 0.719486 20 254 228 0.374796
-0.030164 -0.085953 0.721373 27 255 221 0.379985
-0.039930 -0.089625 0.708015 17 250 231 0.369672
-0.039771 -0.091252 0.705732 14 246 234 0.364784
-0.041973 -0.091344 0.705225 14 246 234 0.364565
-0.042199 -0.089753 0.707566 14 246 234 0.363691
-0.044458 -0.089796 0.707074 11 242 237 0.361676
-0.035406 -0.091423 0.705389 14 246 234 0.364503
-0.032639 -0.091116 0.705680 14 246 234 0.365001
-0.034009 -0.093023 0.703127 7 238 240 0.357979
-0.036850 -0.093257 0.702764 14 246 234 0.364165
-0.040595 -0.097513 0.699261 14 246 234 0.364968
-0.042240 -0.095581 0.701044 14 246 234 0.365306
-0.043920 -0.093630 0.702939 14 246 234 0.364985
-0.045217 -0.095904 0.700717 20 254 228 0.371953
-0.040976 -0.093261 0.703186 14 246 234 0.363317
-0.039387 -0.095145 0.701232 14 246 234 0.365823
-0.047714 -0.094817 0.701738 14 246 234 0.365576
-0.048039 -0.092907 0.703667 14 246 234 0.364654
-0.050492 -0.093083 0.703156 14 246 234 0.365422
-0.044174 -0.091679 0.704902 14 246 234 0.364171
-0.050666 -0.086852 0.709768 0 222 253 0.340423
-0.048342 -0.086775 0.710220 0 218 255 0.337795
-0.051494 -0.088323 0.708065 7 238 240 0.356716
-0.053949 -0.088396 0.707665 11 242 237 0.359544
-0.054751 -0.089845 0.705974 14 246 234 0.363954
-0.044343 -0.084445 0.714254 1 230 247 0.350225
-0.044523 -0.086339 0.711802 11 242 237 0.360647
-0.040902 -0.087411 0.710999 11 242 237 0.361923
-0.044580 -0.088113 0.709463 1 230 247 0.348488
-0.046772 -0.090037 0.706679 4 234 244 0.352361
-0.049122 -0.090294 0.706244 11 242 237 0.360860
-0.051492 -0.090405 0.705772 7 238 240 0.356703
0.014236 -0.097462 0.729177 14 246 234 0.365530
0.015277 -0.100120 0.731408 14 246 234 0.364056
0.012418 -0.099738 0.732093 14 246 234 0.363445
0.011394 -0.097199 0.729905 14 246 234 0.365582
0.013425 -0.102467 0.734259 11 242 237 0.361721
0.009467 -0.099424 0.732613 11 242 237 0.360097
0.010566 -0.102105 0.734721 11 242 237 0.359910
0.007765 -0.101918 0.735285 11 242 237 0.359963
0.008320 -0.096939 0.730446 14 246 234 0.365007
0.006569 -0.099281 0.733145 11 242 237 0.362598
0.005341 -0.096848 0.730968 14 246 234 0.365737
0.011589 -0.104932 0.736791 7 238 240 0.358234
0.008847 -0.104709 0.737340 7 238 240 0.357706
0.009813 -0.107597 0.739314 7 238 240 0.357363
0.012263 -0.107749 0.738755 7 238 240 0.358350
0.014102 -0.105212 0.736230 11 242 237 0.359816
0.014661 -0.108024 0.738177 7 238 240 0.356332
0.016554 -0.105504 0.735451 11 242 237 0.361396
0.015948 -0.102783 0.733473 11 242 237 0.362492
0.017098 -0.108278 0.737410 11 242 237 0.361417
0.002310 -0.099284 0.734217 0 226 250 0.347340
0.000790 -0.096905 0.732081 17 250 231 0.369866
0.003781 -0.101847 0.736343 14 246 234 0.363927
-0.000643 -0.101739 0.737474 17 250 231 0.368048
-0.002227 -0.099266 0.735358 17 250 231 0.370179
-0.003878 -0.096964 0.733280 20 254 228 0.373746
0.002955 -0.104535 0.738914 14 246 234 0.364584
0.001957 -0.107264 0.741403 11 242 237 0.361479
0.005881 -0.107403 0.740314 11 242 237 0.361682
0.002668 -0.119556 0.746682 14 246 234 0.366571
0.004601 -0.116642 0.744913 14 246 234 0.364248
0.006346 -0.119896 0.745594 14 246 234 0.363555
0.006434 -0.113607 0.743079 11 242 237 0.361439
0.008305 -0.116882 0.743867 11 242 237 0.359731
0.010153 -0.113830 0.742107 7 238 240 0.356324
0.010048 -0.120127 0.744623 1 230 247 0.348569
0.008189 -0.110629 0.741233 7 238 240 0.358755
0.004263 -0.110369 0.742258 14 246 234 0.363464
0.002508 -0.113336 0.744148 14 246 234 0.366129
0.012548 -0.117145 0.742798 1 230 247 0.350954
0.014593 -0.120274 0.743148 11 242 237 0.362248
0.014936 -0.114174 0.740789 11 242 237 0.359820
0.014854 -0.111113 0.739532 11 242 237 0.360131
0.012465 -0.110850 0.740176 7 238 240 0.358331
0.012576 -0.113994 0.741510 4 234 244 0.354029
-0.017920 -0.089572 0.718675 30 255 218 0.384017
-0.017803 -0.090418 0.721242 40 255 208 0.394619
-0.021085 -0.089592 0.719921 30 255 218 0.384199
-0.020966 -0.090364 0.722454 33 255 215 0.390351
-0.017595 -0.091056 0.723790 30 255 218 0.384677
-0.017271 -0.091620 0.726274 30 255 218 0.384228
-0.014192 -0.091356 0.725197 30 255 218 0.385110
-0.014510 -0.090680 0.722688 30 255 218 0.385052
-0.014705 -0.089954 0.720098 30 255 218 0.384049
-0.011266 -0.091231 0.724199 30 255 218 0.383301
-0.024047 -0.089158 0.721604 27 255 221 0.381757
-0.023819 -0.089524 0.724467 27 255 221 0.382545
-0.021224 -0.090729 0.725789 20 254 228 0.371389
-0.020011 -0.091171 0.728069 30 255 218 0.383865
-0.011117 -0.097028 0.736310 23 255 224 0.377376
-0.012749 -0.095491 0.733804 27 255 221 0.379736
-0.014360 -0.094076 0.731285 27 255 221 0.381748
-0.008764 -0.097055 0.734974 23 255 224 0.376461
-0.015875 -0.092823 0.728797 30 255 218 0.383602
-0.009492 -0.095525 0.732358 23 255 224 0.378469
-0.010172 -0.094031 0.729631 27 255 221 0.379667
-0.005808 -0.095336 0.730976 23 255 224 0.377108
-0.010773 -0.092608 0.726905 17 250 231 0.370151
0.004794 -0.089616 0.714150 7 238 240 0.358739
0.001459 -0.089373 0.714620 17 250 231 0.369215
0.003069 -0.090002 0.716799 17 250 231 0.369279
-0.001862 -0.089192 0.715205 17 250 231 0.370338
-0.000313 -0.089799 0.717298 17 250 231 0.370914
-0.003767 -0.089717 0.717879 20 254 228 0.371914
-0.005279 -0.089145 0.715847 14 246 234 0.363493
0.001303 -0.090463 0.719440 17 250 231 0.371030
-0.002212 -0.090334 0.719990 20 254 228 0.372520
-0.000591 -0.090966 0.722072 17 250 231 0.367971
0.006084 -0.091109 0.720865 17 250 231 0.368807
0.007774 -0.090692 0.718250 7 238 240 0.358675
-0.010800 -0.089198 0.716883 17 250 231 0.370367
-0.009110 -0.089855 0.718956 23 255 224 0.377396
-0.013553 -0.089187 0.717419 23 255 224 0.378320
-0.011926 -0.089900 0.719538 27 255 221 0.381039
-0.010200 -0.090544 0.721626 27 255 221 0.382079
-0.005942 -0.091018 0.723020 27 255 221 0.378944
-0.000833 -0.095316 0.729891 20 254 228 0.373576
-0.002542 -0.093969 0.727684 23 255 224 0.376121
0.002358 -0.093722 0.726493 17 250 231 0.370772
0.003869 -0.095257 0.728744 17 250 231 0.368507
-0.001616 -0.092465 0.724872 20 254 228 0.374905
-0.006861 -0.092417 0.725911 33 255 215 0.388079
0.007035 -0.095484 0.728284 11 242 237 0.360202
0.010149 -0.095631 0.727737 14 246 234 0.366587
0.008908 -0.094200 0.725547 17 250 231 0.367965
0.013035 -0.095818 0.727045 14 246 234 0.366642
0.011811 -0.094336 0.724830 17 250 231 0.367606
0.010628 -0.092928 0.722648 17 250 231 0.368033
0.007484 -0.092623 0.723211 17 250 231 0.368884
0.004190 -0.092416 0.723737 17 250 231 0.369931
0.005653 -0.093922 0.726052 17 250 231 0.368500
-0.025948 -0.088226 0.723253 27 255 221 0.382212
-0.025774 -0.088279 0.726645 33 255 215 0.390215
-0.023327 -0.089679 0.727833 27 255 221 0.381031
-0.021858 -0.090235 0.730162 30 255 218 0.384023
-0.027780 -0.086795 0.725517 23 255 224 0.377081
-0.024616 -0.088444 0.729960 33 255 215 0.387312
-0.020083 -0.091585 0.732465 20 254 228 0.373992
-0.016626 -0.093645 0.732952 27 255 221 0.382442
-0.018427 -0.092436 0.730520 30 255 218 0.384640
-0.005773 -0.099264 0.736568 14 246 234 0.364185
-0.004063 -0.101693 0.738662 17 250 231 0.369973
-0.002563 -0.104400 0.740678 17 250 231 0.368375
-0.002448 -0.107137 0.743009 17 250 231 0.367820
-0.006488 -0.101737 0.739637 20 254 228 0.371319
-0.008723 -0.099207 0.737937 23 255 224 0.376211
-0.005538 -0.104394 0.741964 17 250 231 0.369476
-0.004826 -0.107249 0.744211 17 250 231 0.368198
-0.005000 -0.119676 0.749440 14 246 234 0.364549
-0.004081 -0.116432 0.747953 17 250 231 0.369586
-0.003381 -0.113260 0.746392 17 250 231 0.369609
-0.001955 -0.119436 0.748262 14 246 234 0.363655
-0.002848 -0.110137 0.744739 17 250 231 0.369828
-0.000799 -0.116323 0.746631 17 250 231 0.369118
0.001166 -0.110200 0.743202 14 246 234 0.366468
-0.000863 -0.113233 0.745362 27 255 221 0.380120
-0.008919 -0.101383 0.741293 23 255 224 0.376463
-0.006660 -0.113130 0.748380 17 250 231 0.369386
-0.007331 -0.119566 0.750789 20 254 228 0.372447
-0.006928 -0.109966 0.747291 17 250 231 0.368378
-0.006466 -0.116398 0.749268 17 250 231 0.370668
0.009636 -0.136142 0.740405 17 250 231 0.368613
0.008321 -0.134323 0.742116 17 250 231 0.368325
0.012228 -0.132378 0.741890 17 250 231 0.367369
0.010928 -0.130519 0.743559 14 246 234 0.366497
0.007008 -0.132508 0.743755 17 250 231 0.367205
0.005797 -0.130649 0.745322 11 242 237 0.359395
0.002399 -0.134606 0.743986 17 250 231 0.370192
0.003693 -0.136417 0.742379 17 250 231 0.370315
0.005051 -0.138191 0.740703 17 250 231 0.370174
-0.001027 -0.138418 0.742496 20 254 228 0.372011
0.014520 -0.127919 0.742474 14 246 234 0.364818
0.013015 -0.125384 0.743322 4 234 244 0.352579
0.016108 -0.122962 0.742336 7 238 240 0.358244
0.011478 -0.122823 0.744111 11 242 237 0.361393
0.009036 -0.122869 0.744884 11 242 237 0.361364
0.010471 -0.125441 0.744261 11 242 237 0.362645
0.007989 -0.125461 0.745062 7 238 240 0.358102
0.001428 -0.122354 0.747080 7 238 240 0.356522
0.002225 -0.125181 0.746780 14 246 234 0.366847
0.000879 -0.127872 0.747039 7 238 240 0.357860
0.001593 -0.130560 0.746631 17 250 231 0.368614
-0.002724 -0.130462 0.747895 20 254 228 0.372599
0.005009 -0.128004 0.745748 4 234 244 0.351958
0.005349 -0.122539 0.745897 14 246 234 0.364455
-0.004928 -0.132469 0.747345 27 255 221 0.379398
-0.007075 -0.134364 0.746726 23 255 224 0.375514
-0.001948 -0.134491 0.745274 20 254 228 0.372235
-0.004057 -0.136419 0.744621 14 246 234 0.365779
-0.006210 -0.138220 0.743930 20 254 228 0.373224
-0.009332 -0.136112 0.746123 23 255 224 0.375316
-0.011601 -0.137781 0.745510 20 254 228 0.374560
-0.009962 -0.134095 0.747623 23 255 224 0.376328
-0.007657 -0.132306 0.748198 23 255 224 0.376083
-0.005457 -0.130371 0.748734 20 254 228 0.374560
-0.008282 -0.130186 0.749604 23 255 224 0.375449
-0.010686 -0.132068 0.749127 23 255 224 0.376985
-0.013072 -0.133855 0.748612 23 255 224 0.377675
-0.012415 -0.135792 0.747066 23 255 224 0.376100
-0.014726 -0.137500 0.746494 23 255 224 0.375129
-0.015365 -0.135619 0.748064 23 255 224 0.377417
-0.017578 -0.137323 0.747502 23 255 224 0.376224
-0.001031 -0.125076 0.747816 17 250 231 0.370141
-0.003381 -0.122254 0.748739 20 254 228 0.371118
-0.004988 -0.124998 0.749104 20 254 228 0.372632
-0.003817 -0.127765 0.748519 11 242 237 0.359901
-0.006661 -0.127661 0.749388 20 254 228 0.374009
-0.006691 -0.122467 0.749920 20 254 228 0.373041
-0.008398 -0.125110 0.750285 20 254 228 0.374000
-0.009982 -0.127703 0.750616 4 234 244 0.354634
-0.011641 -0.130164 0.750858 23 255 224 0.376732
-0.014038 -0.132066 0.750443 23 255 224 0.378674
-0.016392 -0.133840 0.749953 27 255 221 0.378918
-0.018646 -0.135621 0.749537 23 255 224 0.377478
-0.020845 -0.137357 0.749100 23 255 224 0.376012
-0.014505 -0.130330 0.752708 27 255 221 0.379155
-0.010738 -0.125045 0.751683 20 254 228 0.373293
-0.009065 -0.122347 0.751270 20 254 228 0.374649
-0.023399 -0.137670 0.750977 20 254 228 0.374246
-0.021183 -0.135851 0.751306 23 255 224 0.377097
-0.019256 -0.134065 0.752064 23 255 224 0.378420
-0.016495 -0.132188 0.751987 27 255 221 0.379385
-0.038224 -0.144521 0.739869 1 230 247 0.351242
-0.040757 -0.145187 0.736659 4 234 244 0.352846
-0.043230 -0.145945 0.733492 7 238 240 0.358770
-0.043629 -0.145823 0.736058 4 234 244 0.354862
-0.040369 -0.145288 0.734088 7 238 240 0.356278
-0.037679 -0.144743 0.734933 7 238 240 0.355648
-0.037980 -0.144605 0.737399 4 234 244 0.353226
-0.035268 -0.144112 0.738236 7 238 240 0.355665
-0.047058 -0.146344 0.733404 7 238 240 0.357387
-0.046283 -0.146019 0.730640 11 242 237 0.362685
-0.049165 -0.146209 0.729947 20 254 228 0.371980
-0.044093 -0.145668 0.729334 11 242 237 0.362373
-0.039219 -0.145309 0.727090 11 242 237 0.362633
-0.037932 -0.145375 0.730746 7 238 240 0.356632
-0.036219 -0.145197 0.727855 11 242 237 0.362542
-0.040933 -0.145503 0.730011 11 242 237 0.360811
-0.042285 -0.145457 0.726373 11 242 237 0.362893
-0.033180 -0.144787 0.730800 1 230 247 0.351305
-0.034553 -0.144516 0.733499 7 238 240 0.358860
-0.031425 -0.144133 0.734373 11 242 237 0.361076
-0.028237 -0.143813 0.735235 14 246 234 0.364162
-0.032785 -0.143924 0.737066 7 238 240 0.358984
-0.034221 -0.142624 0.748336 11 242 237 0.362556
-0.031181 -0.141207 0.748612 14 246 234 0.366572
-0.028786 -0.140159 0.749540 17 250 231 0.368428
-0.026418 -0.138938 0.750525 17 250 231 0.370473
-0.038798 -0.143849 0.745860 4 234 244 0.355428
-0.040355 -0.144541 0.744072 1 230 247 0.351084
-0.042682 -0.145390 0.742874 1 230 247 0.348618
-0.035887 -0.143089 0.746501 11 242 237 0.359721
-0.036240 -0.143718 0.741134 0 218 255 0.338863
-0.034178 -0.142999 0.742431 20 254 228 0.371691
-0.033629 -0.142532 0.744797 11 242 237 0.362725
-0.031479 -0.141935 0.746094 14 246 234 0.364403
-0.036615 -0.143366 0.744080 7 238 240 0.356572
-0.027795 -0.140595 0.746052 17 250 231 0.368707
-0.025515 -0.139547 0.747036 17 250 231 0.370685
-0.023223 -0.138443 0.748066 14 246 234 0.365500
-0.053289 -0.147341 0.751009 14 246 234 0.365003
-0.056593 -0.147542 0.750915 14 246 234 0.365139
-0.054498 -0.147534 0.753686 14 246 234 0.366391
-0.059893 -0.147761 0.750817 14 246 234 0.364644
-0.063241 -0.147955 0.750758 14 246 234 0.364663
-0.061464 -0.148077 0.747847 14 246 234 0.365747
-0.058146 -0.147789 0.747931 14 246 234 0.365265
-0.055515 -0.147494 0.756387 14 246 234 0.366752
-0.058624 -0.147437 0.755454 14 246 234 0.364896
-0.059472 -0.147382 0.758069 14 246 234 0.364153
-0.056341 -0.147450 0.758995 14 246 234 0.364061
-0.062172 -0.147404 0.755839 11 242 237 0.363193
-0.065713 -0.147382 0.756193 11 242 237 0.362938
-0.064491 -0.147692 0.753496 14 246 234 0.363995
-0.060942 -0.147671 0.753110 4 234 244 0.354729
-0.077295 -0.146067 0.751379 0 210 255 0.330555
-0.073816 -0.146478 0.751188 11 242 237 0.360766
-0.075586 -0.146562 0.748664 11 242 237 0.360544
-0.070313 -0.146971 0.751015 11 242 237 0.362981
-0.072077 -0.147017 0.748484 11 242 237 0.363198
-0.068551 -0.147467 0.748308 14 246 234 0.364641
-0.073823 -0.147059 0.745905 11 242 237 0.363217
-0.066792 -0.147467 0.750888 11 242 237 0.362760
-0.068009 -0.147183 0.753609 11 242 237 0.363016
-0.071554 -0.146638 0.753766 11 242 237 0.362318
-0.070593 -0.147317 0.746126 14 246 234 0.364412
-0.072257 -0.147262 0.743883 14 246 234 0.363995
-0.069021 -0.147523 0.744108 14 246 234 0.365413
-0.066551 -0.147678 0.745337 14 246 234 0.366904
-0.070670 -0.147432 0.741837 14 246 234 0.363911
-0.064095 -0.147831 0.746593 14 246 234 0.366038
-0.004233 -0.144419 0.730663 14 246 234 0.364007
-0.005650 -0.143878 0.733011 20 254 228 0.372062
-0.000705 -0.143267 0.733542 20 254 228 0.371443
-0.002132 -0.142754 0.735894 20 254 228 0.372684
-0.007194 -0.143325 0.735329 20 254 228 0.373313
-0.008735 -0.142670 0.737632 20 254 228 0.373473
-0.012813 -0.143592 0.734703 20 254 228 0.372255
-0.011109 -0.144305 0.732396 20 254 228 0.372055
-0.009580 -0.144910 0.730087 20 254 228 0.371597
-0.016790 -0.144535 0.731875 17 250 231 0.369665
0.003085 -0.141571 0.736216 17 250 231 0.370156
0.001718 -0.140534 0.738346 20 254 228 0.371543
0.006396 -0.139248 0.738544 17 250 231 0.369210
0.000319 -0.139499 0.740442 20 254 228 0.372057
-0.004968 -0.140609 0.740050 20 254 228 0.373476
-0.003525 -0.141714 0.737976 23 255 224 0.375067
-0.013311 -0.139957 0.742354 20 254 228 0.372200
-0.016216 -0.139680 0.743165 7 238 240 0.356296
-0.010153 -0.140285 0.741560 20 254 228 0.373448
-0.014776 -0.142116 0.739251 17 250 231 0.367764
-0.017720 -0.141812 0.740089 17 250 231 0.370408
-0.020522 -0.141563 0.740880 17 250 231 0.369520
-0.011653 -0.142464 0.738399 20 254 228 0.372724
-0.021795 -0.142775 0.737231 17 250 231 0.368169
-0.024521 -0.142595 0.738042 11 242 237 0.359563
-0.018873 -0.143012 0.736403 17 250 231 0.370706
-0.022949 -0.144059 0.733609 14 246 234 0.366982
-0.025651 -0.143926 0.734435 14 246 234 0.365870
-0.019982 -0.144265 0.732770 11 242 237 0.359673
-0.015860 -0.143307 0.735553 20 254 228 0.371243
-0.027426 -0.142509 0.739197 14 246 234 0.364555
-0.023566 -0.141473 0.742034 17 250 231 0.369744
-0.026437 -0.141414 0.743180 17 250 231 0.368701
-0.028502 -0.141970 0.741803 14 246 234 0.365992
-0.030492 -0.142608 0.740423 14 246 234 0.363284
-0.029378 -0.143163 0.737820 11 242 237 0.362835
-0.019158 -0.139389 0.744217 20 254 228 0.372822
-0.019896 -0.138360 0.746435 20 254 228 0.374618
-0.022134 -0.139394 0.745325 17 250 231 0.369602
-0.021417 -0.140395 0.743105 11 242 237 0.360487
-0.024330 -0.140416 0.744251 17 250 231 0.370763
-0.031113 -0.142175 0.743223 11 242 237 0.362329
-0.033271 -0.143327 0.739546 7 238 240 0.358888
-0.017672 -0.145427 0.718519 14 246 234 0.363533
-0.019766 -0.145460 0.720954 17 250 231 0.368330
-0.014597 -0.145593 0.721511 17 250 231 0.369685
-0.016635 -0.145633 0.723922 17 250 231 0.369616
-0.022001 -0.145404 0.723431 17 250 231 0.368007
-0.024207 -0.145304 0.725911 14 246 234 0.366777
-0.027262 -0.145218 0.722964 17 250 231 0.369028
-0.025255 -0.145270 0.720508 14 246 234 0.365919
-0.023070 -0.145321 0.718024 11 242 237 0.361467
-0.030239 -0.145190 0.720027 14 246 234 0.366253
-0.011286 -0.145500 0.724562 17 250 231 0.370796
-0.012955 -0.145281 0.726976 17 250 231 0.367837
-0.007842 -0.145143 0.727635 17 250 231 0.370729
-0.014827 -0.144951 0.729439 14 246 234 0.363465
-0.020605 -0.144851 0.728895 20 254 228 0.374593
-0.018502 -0.145306 0.726385 17 250 231 0.369362
-0.028989 -0.144472 0.731446 14 246 234 0.364537
-0.026327 -0.144549 0.730601 14 246 234 0.365583
-0.029717 -0.145195 0.727668 14 246 234 0.364909
-0.032283 -0.145167 0.728504 11 242 237 0.363031
-0.025309 -0.144928 0.728271 7 238 240 0.359227
-0.035113 -0.145195 0.725520 14 246 234 0.364046
-0.032590 -0.145175 0.724698 14 246 234 0.364992
-0.035447 -0.145231 0.721729 14 246 234 0.364948
-0.037971 -0.145241 0.722558 14 246 234 0.363907
-0.031439 -0.145187 0.722363 14 246 234 0.365825
-0.028532 -0.145223 0.725321 14 246 234 0.365399
-0.047282 -0.146304 0.743738 4 234 244 0.351816
-0.049465 -0.146744 0.742627 7 238 240 0.355615
-0.047443 -0.146417 0.741186 4 234 244 0.353664
-0.049608 -0.146869 0.740078 7 238 240 0.358242
-0.051801 -0.147335 0.738968 11 242 237 0.361896
-0.051662 -0.147164 0.741515 11 242 237 0.360374
-0.053850 -0.147637 0.740405 14 246 234 0.363394
-0.049719 -0.147025 0.737521 11 242 237 0.360882
-0.056597 -0.147465 0.737051 14 246 234 0.365387
-0.059392 -0.147252 0.733761 14 246 234 0.366695
-0.059743 -0.147523 0.736540 14 246 234 0.366447
-0.056234 -0.147188 0.734235 14 246 234 0.366121
-0.053365 -0.147058 0.734852 14 246 234 0.364844
-0.049832 -0.146549 0.732712 14 246 234 0.364708
-0.047568 -0.146668 0.736156 11 242 237 0.359615
-0.052732 -0.146730 0.732061 14 246 234 0.365475
-0.055795 -0.146877 0.731480 14 246 234 0.366501
-0.043664 -0.145704 0.738501 1 230 247 0.351272
-0.040951 -0.145102 0.739175 1 230 247 0.349223
-0.059694 -0.147750 0.739357 14 246 234 0.366210
-0.056754 -0.147703 0.739874 11 242 237 0.361088
-0.056701 -0.147916 0.742708 14 246 234 0.364785
-0.059820 -0.147914 0.742194 14 246 234 0.366051
-0.062017 -0.147826 0.740927 14 246 234 0.366486
-0.061914 -0.147652 0.738091 14 246 234 0.366589
-0.064103 -0.147539 0.736829 14 246 234 0.365791
-0.064240 -0.147721 0.739659 14 246 234 0.366363
-0.066442 -0.147607 0.738381 14 246 234 0.365053
-0.049347 -0.146775 0.745944 7 238 240 0.357262
-0.051807 -0.147116 0.744869 11 242 237 0.359892
-0.054245 -0.147514 0.743795 11 242 237 0.362781
-0.054633 -0.147470 0.748110 14 246 234 0.364037
-0.059255 -0.148085 0.745184 14 246 234 0.365742
-0.051372 -0.147126 0.748359 11 242 237 0.362149
-0.062278 -0.147973 0.744758 14 246 234 0.366204
-0.064719 -0.147815 0.743478 14 246 234 0.366216
-0.067160 -0.147662 0.742222 14 246 234 0.365914
-0.068567 -0.147545 0.740115 14 246 234 0.365010
-0.075309 -0.146031 0.754603 11 242 237 0.361726
-0.073285 -0.146024 0.757829 14 246 234 0.364266
-0.069520 -0.146665 0.757009 11 242 237 0.361639
-0.067464 -0.146746 0.760256 11 242 237 0.360125
-0.071249 -0.146059 0.761046 11 242 237 0.362655
-0.069173 -0.146172 0.764278 11 242 237 0.360121
-0.075468 -0.145102 0.761638 20 254 228 0.374932
-0.077483 -0.145125 0.758458 17 250 231 0.369928
-0.079504 -0.145158 0.755259 11 242 237 0.363120
-0.081663 -0.144379 0.759070 11 242 237 0.363023
-0.063259 -0.147230 0.759153 11 242 237 0.361437
-0.060792 -0.147146 0.762117 11 242 237 0.360170
-0.057636 -0.147312 0.763061 11 242 237 0.362640
-0.054463 -0.147643 0.764014 14 246 234 0.364765
-0.055780 -0.147408 0.768075 7 238 240 0.356768
-0.059151 -0.146901 0.767124 4 234 244 0.353893
-0.062494 -0.146558 0.766171 0 226 250 0.347553
-0.064991 -0.146556 0.763199 4 234 244 0.354445
-0.061705 -0.145987 0.775147 0 214 255 0.334057
-0.065146 -0.145577 0.774107 0 222 253 0.341151
-0.064212 -0.145976 0.771480 0 218 255 0.337167
-0.068558 -0.145281 0.773056 20 254 228 0.371488
-0.067616 -0.145609 0.770452 7 238 240 0.355469
-0.071013 -0.145412 0.769451 1 230 247 0.350623
-0.071947 -0.145133 0.772061 33 255 215 0.390138
-0.066683 -0.146014 0.767867 1 230 247 0.347724
-0.070088 -0.145773 0.766872 14 246 234 0.363886
-0.063345 -0.146235 0.768842 0 222 253 0.340055
-0.059999 -0.146571 0.769794 0 226 250 0.344882
-0.060867 -0.146220 0.772447 0 218 255 0.336431
-0.057497 -0.146638 0.773439 1 230 247 0.348534
-0.056633 -0.147028 0.770761 7 238 240 0.355692
-0.058352 -0.146370 0.776140 0 226 250 0.344409
-0.075094 -0.144618 0.770656 49 255 198 0.407622
-0.078431 -0.144035 0.769189 56 255 192 0.415507
-0.077318 -0.144432 0.766743 43 255 205 0.402082
-0.081731 -0.143566 0.767726 53 255 195 0.413368
-0.080612 -0.143927 0.765312 43 255 205 0.401000
-0.083891 -0.143500 0.763897 40 255 208 0.395325
-0.085000 -0.143148 0.766299 49 255 198 0.406330
-0.079499 -0.144390 0.762908 33 255 215 0.387690
-0.082774 -0.143911 0.761489 30 255 218 0.384369
-0.076362 -0.144749 0.764203 33 255 215 0.388331
-0.073233 -0.145195 0.765516 23 255 224 0.378105
-0.074165 -0.144869 0.768070 36 255 211 0.393274
-0.008834 -0.088086 0.749655 33 255 215 0.387151
-0.011668 -0.085389 0.747734 46 255 202 0.404765
-0.014520 -0.082937 0.745908 59 255 189 0.418513
-0.010285 -0.089611 0.747950 30 255 218 0.384091
-0.013143 -0.087040 0.745881 40 255 208 0.395826
-0.017261 -0.080615 0.744204 72 255 176 0.436668
-0.019857 -0.078361 0.742507 72 255 176 0.436438
-0.018228 -0.076333 0.744381 117 255 130 0.488356
-0.015703 -0.078742 0.746038 95 255 153 0.463282
-0.016354 -0.085321 0.743636 40 255 208 0.394999
-0.029176 -0.070816 0.736677 53 255 195 0.412637
-0.027041 -0.072663 0.738519 69 255 179 0.430157
-0.025146 -0.075213 0.739561 69 255 179 0.432201
-0.027797 -0.068332 0.738359 69 255 179 0.433511
-0.022621 -0.076812 0.741072 62 255 185 0.422111
-0.025628 -0.070378 0.740307 130 255 117 0.507684
-0.023182 -0.072190 0.741971 108 255 140 0.478213
-0.026061 -0.066052 0.740122 62 255 185 0.424632
-0.023853 -0.068109 0.742056 147 255 101 0.524741
-0.020548 -0.073942 0.743493 121 255 127 0.494871
-0.020837 -0.126370 0.861398 1 230 247 0.349567
-0.020444 -0.128150 0.857170 0 222 253 0.340009
-0.024002 -0.126603 0.859729 0 226 250 0.347595
-0.023629 -0.128389 0.855503 0 222 253 0.341064
-0.020071 -0.130230 0.853032 0 214 255 0.333677
-0.019704 -0.132404 0.848927 0 206 255 0.324415
-0.016554 -0.132036 0.850733 0 210 255 0.330287
-0.016919 -0.129815 0.854816 0 182 255 0.304432
-0.017323 -0.127775 0.858975 0 210 255 0.329889
-0.013393 -0.131643 0.852499 0 218 255 0.336046
-0.027164 -0.126876 0.857975 11 242 237 0.360604
-0.026799 -0.128729 0.853699 0 222 253 0.340303
-0.030360 -0.127081 0.856271 1 230 247 0.349664
-0.030003 -0.128965 0.852011 0 218 255 0.336226
-0.026447 -0.130838 0.849502 0 214 255 0.332955
-0.026116 -0.133121 0.845336 0 218 255 0.338626
-0.022900 -0.132803 0.847142 0 218 255 0.338667
-0.023264 -0.130487 0.851299 0 214 255 0.333301
