ply
format ascii 1.0
comment VCGLIB generated
element vertex 1035
property float x
property float y
property float z
property uchar red
property uchar green
property uchar blue
property float quality
end_header
-1.286470 -0.344628 6.119900 0 185 255 0.999425
-1.242630 -0.291521 6.101030 0 69 255 0.999660
-1.230150 -0.300842 6.077540 0 0 246 0.999824
-1.284340 -0.519986 6.184350 0 0 210 0.999875
-1.290300 -0.497031 6.175410 0 0 201 0.999894
-1.293250 -0.478553 6.154440 0 0 214 0.999871
-1.297790 -0.456122 6.144820 0 0 196 0.999896
-1.298340 -0.438179 6.122730 0 113 255 0.999575
-1.304290 -0.430480 6.148070 0 49 255 0.999698
-1.293500 -0.464510 6.118840 0 0 255 0.999793
-1.292910 -0.446368 6.095820 0 213 255 0.999366
-1.290510 -0.486811 6.127900 0 0 164 0.999947
-1.286900 -0.509701 6.136620 0 0 210 0.999877
-1.283210 -0.528333 6.158500 0 37 255 0.999713
-1.283570 -0.536987 6.130890 0 41 255 0.999706
-1.302260 -0.408023 6.139540 0 121 255 0.999557
-1.294340 -0.390805 6.120090 0 0 255 0.999797
-1.288900 -0.369808 6.113630 0 0 255 0.999801
-1.279200 -0.378569 6.089480 0 9 255 0.999770
-1.286160 -0.399013 6.095480 0 0 205 0.999882
-1.291590 -0.420176 6.101940 0 33 255 0.999721
-1.255080 -0.408930 6.024740 0 0 255 0.999804
-1.269070 -0.421193 6.041970 0 0 233 0.999841
-1.277490 -0.440799 6.047090 0 81 255 0.999637
-1.287870 -0.456030 6.066790 80 255 167 0.999098
-1.281100 -0.468449 6.039710 0 41 255 0.999707
-1.284630 -0.430386 6.075180 0 53 255 0.999684
-1.277440 -0.409461 6.068940 0 0 201 0.999889
-1.269580 -0.389088 6.063730 0 9 255 0.999765
-1.282960 -0.488814 6.046150 0 9 255 0.999768
-1.285830 -0.504887 6.068420 0 13 255 0.999759
-1.285340 -0.526654 6.075850 0 0 255 0.999787
-1.285000 -0.543780 6.098550 0 181 255 0.999434
-1.282440 -0.552822 6.068180 0 0 255 0.999798
-1.286460 -0.518288 6.107430 0 0 255 0.999809
-1.288630 -0.495421 6.098380 0 0 173 0.999934
-1.290370 -0.472208 6.089650 0 21 255 0.999747
-1.206510 -0.213854 6.204380 0 0 192 0.999908
-1.220530 -0.229407 6.188110 0 0 164 0.999948
-1.199790 -0.215274 6.179940 0 0 196 0.999898
-1.213180 -0.230389 6.165270 0 0 169 0.999939
-1.234340 -0.244914 6.173460 0 0 228 0.999849
-1.247420 -0.260474 6.158880 0 117 255 0.999566
-1.251940 -0.258248 6.181900 0 41 255 0.999711
-1.238500 -0.242640 6.196760 0 0 201 0.999891
-1.192270 -0.218011 6.156140 0 0 192 0.999905
-1.205730 -0.235140 6.140810 0 0 151 0.999964
-1.182230 -0.220607 6.132200 0 0 205 0.999883
-1.218710 -0.252243 6.126030 0 0 214 0.999874
-1.240020 -0.264718 6.134540 0 97 255 0.999604
-1.226970 -0.247906 6.149530 0 0 210 0.999876
-1.278680 -0.323335 6.127420 0 77 255 0.999644
-1.292370 -0.339338 6.140920 0 185 255 0.999424
-1.269270 -0.302108 6.136720 0 0 237 0.999835
-1.283880 -0.317903 6.149540 0 29 255 0.999730
-1.273900 -0.296917 6.159960 0 0 201 0.999895
-1.297060 -0.334167 6.163180 0 169 255 0.999462
-1.258850 -0.281529 6.147110 0 0 255 0.999785
-1.250780 -0.285111 6.124090 0 17 255 0.999756
-1.287870 -0.314516 6.172400 0 0 246 0.999824
-1.299230 -0.330613 6.184450 0 105 255 0.999585
-1.278250 -0.295311 6.182250 0 0 169 0.999937
-1.290020 -0.310833 6.194220 0 0 251 0.999819
-1.267780 -0.275399 6.193560 0 0 242 0.999827
-1.263480 -0.277853 6.170240 0 0 233 0.999843
-1.275410 -0.542815 6.179240 0 0 205 0.999885
-1.267320 -0.565763 6.173260 0 0 137 0.999987
-1.275070 -0.551665 6.152440 0 0 192 0.999902
-1.267270 -0.575189 6.146070 0 0 151 0.999962
-1.258830 -0.589871 6.166820 0 0 210 0.999876
-1.250490 -0.614597 6.160360 0 0 255 0.999785
-1.248720 -0.604772 6.188230 0 17 255 0.999751
-1.257370 -0.580702 6.194560 0 0 187 0.999910
-1.265850 -0.557450 6.200880 0 0 142 0.999975
-1.249000 -0.594780 6.215170 0 0 255 0.999789
-1.278800 -0.558595 6.121220 0 0 255 0.999808
-1.274340 -0.579949 6.111460 0 0 246 0.999826
-1.279590 -0.566095 6.089390 0 0 228 0.999850
-1.273770 -0.588730 6.082140 0 0 146 0.999970
-1.269090 -0.602431 6.103560 0 93 255 0.999614
-1.262810 -0.625385 6.096360 106 255 142 0.999020
-1.260270 -0.623210 6.112620 0 149 255 0.999498
-1.265200 -0.600662 6.120410 0 0 233 0.999843
-1.256800 -0.620709 6.128430 0 0 255 0.999809
-1.262000 -0.597645 6.136830 0 0 173 0.999932
-1.270620 -0.577814 6.128610 0 0 142 0.999976
-1.253060 -0.617947 6.144890 0 0 228 0.999851
-1.215380 -0.686011 6.132750 0 25 255 0.999738
-1.213080 -0.679937 6.150640 0 5 255 0.999775
-1.227280 -0.662783 6.141070 0 0 142 0.999979
-1.211380 -0.672625 6.168140 0 0 205 0.999885
-1.224800 -0.655556 6.159300 0 0 128 0.999994
-1.222670 -0.647534 6.177470 0 0 155 0.999958
-1.209690 -0.664582 6.185590 0 0 187 0.999910
-1.238670 -0.638792 6.150230 0 0 164 0.999944
-1.236400 -0.630957 6.168850 0 0 164 0.999942
-1.241590 -0.642036 6.134940 0 0 164 0.999948
-1.244720 -0.644557 6.119690 0 0 196 0.999898
-1.229620 -0.665532 6.125940 0 0 128 0.999996
-1.232400 -0.667273 6.111700 0 0 128 0.999996
-1.247910 -0.646142 6.103980 0 0 187 0.999914
-1.217230 -0.687711 6.117940 0 0 201 0.999889
-1.208920 -0.653652 6.211770 0 0 178 0.999927
-1.222330 -0.637084 6.204260 0 0 155 0.999958
-1.222380 -0.626456 6.231470 0 0 133 0.999991
-1.209730 -0.642848 6.239400 0 0 164 0.999948
-1.235330 -0.615770 6.209680 0 0 151 0.999962
-0.901311 -0.242751 7.028910 0 0 146 0.999973
-0.917474 -0.257877 6.996940 0 0 151 0.999963
-0.926723 -0.279893 6.966300 0 0 146 0.999972
-0.938938 -0.265609 6.964640 0 0 178 0.999927
-0.906996 -0.274439 6.994880 0 0 151 0.999963
-0.915447 -0.295430 6.966730 0 0 169 0.999939
-0.891142 -0.259358 7.025820 0 0 142 0.999979
-0.879738 -0.305749 6.990870 0 0 178 0.999927
-0.866329 -0.293535 7.015930 0 0 155 0.999960
-0.879726 -0.276952 7.020220 0 0 142 0.999975
-0.894455 -0.289950 6.992330 0 0 146 0.999970
-0.900584 -0.310134 6.965280 0 0 173 0.999935
-1.104160 -0.445155 6.616040 0 0 205 0.999886
-1.105140 -0.428294 6.630070 0 0 155 0.999956
-1.099420 -0.421137 6.646010 0 0 160 0.999952
-1.099570 -0.405008 6.658510 0 0 164 0.999948
-1.086080 -0.423304 6.664470 0 0 178 0.999926
-1.113660 -0.403130 6.640060 0 0 187 0.999909
-1.114450 -0.387026 6.652260 0 0 255 0.999810
-1.120810 -0.410029 6.623440 0 0 173 0.999930
-1.128220 -0.416766 6.605120 0 0 192 0.999908
-1.127170 -0.433779 6.590650 0 0 160 0.999952
-1.145440 -0.414512 6.582000 0 0 187 0.999909
-1.078420 -0.415877 6.682530 0 5 255 0.999776
-1.076360 -0.399783 6.696460 0 0 192 0.999907
-1.066860 -0.390295 6.714700 0 0 164 0.999945
-1.061050 -0.369267 6.734020 0 0 169 0.999941
-1.050150 -0.385407 6.740810 0 0 164 0.999945
-1.078270 -0.373570 6.708690 0 0 183 0.999916
-1.072230 -0.353220 6.727040 0 0 178 0.999923
-1.088560 -0.382205 6.690830 0 9 255 0.999764
-1.098030 -0.389207 6.673330 0 0 223 0.999857
-1.084600 -0.318214 6.715980 0 0 192 0.999907
-1.098830 -0.327781 6.693730 0 1 255 0.999783
-1.107060 -0.344358 6.678800 0 0 214 0.999871
-1.118730 -0.350156 6.661260 0 0 228 0.999854
-1.124640 -0.366200 6.646500 0 0 237 0.999834
-1.134930 -0.345250 6.639690 0 0 246 0.999825
-1.108900 -0.370761 6.667980 0 0 219 0.999864
-1.098770 -0.363547 6.684860 0 0 192 0.999905
-1.087970 -0.355783 6.702640 0 5 255 0.999771
-1.078450 -0.335628 6.721470 0 0 214 0.999874
-1.145130 -0.350538 6.623190 0 153 255 0.999491
-1.148000 -0.367973 6.609220 0 0 255 0.999791
-1.157630 -0.373818 6.589460 0 0 242 0.999831
-1.159790 -0.391782 6.573270 0 0 183 0.999917
-1.174620 -0.368525 6.564280 0 13 255 0.999762
-1.143610 -0.396877 6.597570 0 0 210 0.999881
-1.135080 -0.389918 6.616800 0 0 196 0.999900
-1.127520 -0.383010 6.633800 0 21 255 0.999748
-0.963972 -0.205227 6.959010 0 0 164 0.999946
-0.946840 -0.188456 6.995510 0 0 196 0.999898
-0.947603 -0.166636 6.992740 0 0 164 0.999946
-0.964827 -0.190001 6.957000 0 0 160 0.999952
-0.965746 -0.176105 6.953930 0 0 160 0.999954
-0.941457 -0.132556 6.995190 0 0 164 0.999946
-0.961721 -0.159499 6.954020 0 0 151 0.999967
-0.945948 -0.149943 6.993520 0 0 173 0.999934
-0.942579 -0.204331 6.996400 0 0 196 0.999899
-0.959337 -0.220086 6.960770 0 0 164 0.999947
-0.955290 -0.235893 6.961430 0 0 160 0.999952
-0.938311 -0.219842 6.997260 0 0 164 0.999944
-0.920075 -0.202059 7.034870 0 0 155 0.999958
-0.927051 -0.242949 6.997180 0 0 160 0.999949
-0.910061 -0.226236 7.031840 0 0 151 0.999962
-0.946851 -0.250497 6.963060 0 0 155 0.999957
-1.068350 -0.302609 6.747900 0 0 210 0.999877
-1.053440 -0.277437 6.779920 0 0 192 0.999906
-1.039070 -0.263011 6.810360 0 0 187 0.999914
-1.025500 -0.243341 6.834330 0 0 160 0.999953
-1.024760 -0.258386 6.838750 0 0 169 0.999941
-1.040270 -0.248270 6.805180 0 0 192 0.999905
-1.026880 -0.228131 6.830550 0 0 205 0.999883
-1.054320 -0.261406 6.775270 0 0 178 0.999924
-1.069560 -0.276914 6.741060 0 0 223 0.999861
-1.085730 -0.300020 6.711040 0 0 251 0.999815
-1.087360 -0.282621 6.705210 0 0 228 0.999854
-1.010470 -0.246014 6.865810 0 0 187 0.999909
-0.996216 -0.225793 6.893150 0 0 173 0.999934
-0.980875 -0.212585 6.923620 0 0 155 0.999956
-0.982079 -0.198494 6.920300 0 0 155 0.999957
-0.997305 -0.210849 6.890090 0 0 173 0.999934
-1.012010 -0.223135 6.860840 0 0 196 0.999900
-0.977331 -0.166655 6.916970 0 0 169 0.999939
-0.994765 -0.188186 6.885330 0 0 173 0.999935
-1.007430 -0.192371 6.854050 0 0 164 0.999946
-1.023130 -0.212214 6.826940 0 0 155 0.999955
-1.011160 -0.208504 6.856880 0 0 173 0.999930
-0.980612 -0.182684 6.918310 0 0 155 0.999960
-1.035910 -0.216170 6.796350 0 0 183 0.999921
-1.051800 -0.236746 6.769060 0 0 187 0.999910
-1.064080 -0.241673 6.734440 0 0 183 0.999918
-1.082730 -0.264110 6.701410 0 33 255 0.999725
-1.068390 -0.260011 6.736810 0 0 192 0.999904
-1.039020 -0.232200 6.800450 0 0 178 0.999928
-0.953921 -0.279266 6.935490 0 0 214 0.999870
-0.961673 -0.298425 6.911230 0 0 151 0.999967
-0.976169 -0.311345 6.885030 0 0 155 0.999958
-0.983523 -0.330277 6.863180 0 0 151 0.999965
-0.997225 -0.317358 6.856990 0 0 192 0.999908
-0.962995 -0.324917 6.890260 0 0 155 0.999957
-0.970538 -0.344454 6.868240 0 0 187 0.999914
-0.949243 -0.313017 6.914180 0 0 173 0.999934
-0.935480 -0.300901 6.938940 0 0 192 0.999907
-1.011040 -0.330063 6.833120 0 25 255 0.999741
-1.017120 -0.349982 6.811850 0 0 192 0.999904
-1.029140 -0.370247 6.779800 0 0 160 0.999954
-1.034550 -0.397463 6.750550 0 0 155 0.999955
-1.014910 -0.380611 6.791160 0 0 192 0.999907
-1.019420 -0.410187 6.760030 0 0 187 0.999913
-1.003140 -0.363090 6.819730 0 5 255 0.999774
-0.990393 -0.350047 6.842900 0 0 251 0.999815
-0.980274 -0.400968 6.809210 0 0 246 0.999820
-0.968355 -0.387215 6.833020 0 0 223 0.999860
-0.965107 -0.368221 6.852570 0 21 255 0.999747
-0.952522 -0.355897 6.873900 0 0 192 0.999907
-0.986929 -0.375567 6.826590 0 0 251 0.999816
-0.999066 -0.390655 6.800590 0 0 223 0.999857
-1.000350 -0.416858 6.772560 0 0 205 0.999882
-0.931040 -0.351175 6.897990 0 0 192 0.999908
-0.918423 -0.340164 6.919230 0 0 178 0.999922
-0.913711 -0.321947 6.941040 0 0 228 0.999849
-0.934460 -0.326377 6.917900 0 0 178 0.999928
-0.947875 -0.338043 6.894270 0 0 160 0.999950
-0.978081 -0.227801 6.926470 0 0 164 0.999944
-0.993369 -0.241100 6.895990 0 0 160 0.999954
-1.005690 -0.261069 6.869460 0 0 178 0.999928
-1.019800 -0.273149 6.842840 0 0 155 0.999956
-1.015300 -0.288087 6.847270 0 0 173 0.999930
-1.000920 -0.275804 6.873150 0 0 164 0.999944
-0.988381 -0.256051 6.899380 0 0 155 0.999955
-0.973285 -0.242509 6.928680 0 0 155 0.999958
-1.036200 -0.278441 6.814700 0 0 178 0.999925
-1.050010 -0.292704 6.786290 0 0 192 0.999904
-1.062540 -0.319046 6.754070 0 0 201 0.999889
-1.056740 -0.335556 6.759840 0 0 178 0.999925
-1.045100 -0.308063 6.791590 0 0 201 0.999892
-1.031480 -0.293221 6.819240 0 0 183 0.999921
-1.041380 -0.357626 6.771540 0 0 173 0.999933
-1.028650 -0.336825 6.804830 0 0 233 0.999846
-1.020080 -0.315211 6.827690 0 0 219 0.999863
-1.006180 -0.302574 6.851950 0 0 164 0.999948
-1.037870 -0.322507 6.798180 0 0 219 0.999865
-0.987301 -0.297625 6.880410 0 0 164 0.999947
-0.972658 -0.284748 6.906730 0 0 155 0.999956
-0.962165 -0.264382 6.933080 0 0 173 0.999933
-0.981443 -0.270520 6.902970 0 0 151 0.999962
-1.053460 -0.405886 6.721750 0 0 178 0.999923
-1.062540 -0.415209 6.702990 0 0 187 0.999912
-1.062560 -0.430529 6.689340 0 13 255 0.999761
-1.069930 -0.438337 6.671080 0 0 233 0.999843
-1.054050 -0.453847 6.677650 0 21 255 0.999748
-1.046870 -0.445916 6.695570 0 13 255 0.999761
-1.046680 -0.429860 6.710510 0 0 210 0.999875
-1.037510 -0.419059 6.730380 0 0 183 0.999920
-1.083510 -0.438070 6.652300 0 0 164 0.999943
-1.089180 -0.445169 6.636360 0 0 178 0.999925
-1.085860 -0.460718 6.622950 0 0 196 0.999900
-1.068370 -0.476594 6.629710 0 0 255 0.999801
-1.072030 -0.460842 6.643210 0 0 210 0.999876
-1.067070 -0.453223 6.659010 0 0 201 0.999889
-1.036440 -0.495078 6.638650 0 29 255 0.999734
-1.042680 -0.480866 6.652740 0 0 246 0.999823
-1.038430 -0.473028 6.668850 0 0 228 0.999851
-1.034180 -0.465325 6.684670 0 0 246 0.999821
-1.017060 -0.463300 6.707020 0 1 255 0.999779
-1.009060 -0.453719 6.726640 0 0 251 0.999815
-1.009790 -0.435740 6.744390 0 0 223 0.999859
-1.028920 -0.442571 6.717740 0 0 210 0.999879
-1.147880 -0.529879 6.497210 0 0 137 0.999982
-1.166960 -0.528539 6.479970 0 0 192 0.999908
-1.138100 -0.547807 6.493900 0 0 128 0.999999
-1.156830 -0.545937 6.477090 0 0 146 0.999970
-1.146900 -0.563271 6.474480 0 0 137 0.999987
-1.176360 -0.543740 6.459440 0 0 228 0.999849
-1.128150 -0.565742 6.490930 0 0 142 0.999976
-1.118050 -0.583542 6.488140 0 0 210 0.999881
-1.111110 -0.566838 6.506330 0 0 187 0.999911
-1.164780 -0.561499 6.457640 0 0 164 0.999945
-1.183150 -0.558270 6.440080 0 0 233 0.999845
-1.152840 -0.579065 6.456510 0 0 146 0.999969
-1.170910 -0.575682 6.438920 0 0 173 0.999929
-1.158600 -0.592881 6.438030 0 0 155 0.999956
-1.189360 -0.571692 6.420930 0 9 255 0.999765
-1.140950 -0.596303 6.454840 0 0 173 0.999931
-1.128570 -0.613554 6.453140 0 0 246 0.999824
-1.123570 -0.598886 6.470740 0 0 223 0.999856
-1.135660 -0.581368 6.472310 0 0 164 0.999946
-1.074740 -0.623851 6.483450 0 0 160 0.999954
-1.089420 -0.610902 6.485240 0 0 142 0.999977
-1.070960 -0.608766 6.499280 0 0 160 0.999952
-1.085230 -0.594920 6.501450 0 0 128 0.999994
-1.103720 -0.597016 6.487090 0 0 160 0.999950
-1.108980 -0.612108 6.469680 0 0 169 0.999937
-1.094290 -0.625469 6.468410 0 0 151 0.999963
-1.063750 -0.583957 6.524360 0 0 155 0.999955
-1.076490 -0.570042 6.527570 0 0 146 0.999969
-1.095040 -0.572326 6.512740 0 0 151 0.999966
-1.167990 -0.350987 6.581340 0 13 255 0.999761
-1.157990 -0.344772 6.601450 0 89 255 0.999619
-1.150680 -0.328186 6.615990 0 93 255 0.999613
-1.139890 -0.323460 6.632650 0 0 246 0.999822
-1.144510 -0.301734 6.625350 0 37 255 0.999715
-1.155970 -0.304691 6.607670 0 113 255 0.999575
-1.164460 -0.321088 6.593060 0 89 255 0.999616
-1.175590 -0.325500 6.572350 0 0 233 0.999841
-1.182950 -0.343397 6.554730 0 0 214 0.999869
-1.191070 -0.318033 6.545180 0 53 255 0.999689
-1.125130 -0.330322 6.655260 0 0 242 0.999829
-1.112730 -0.325197 6.672360 0 0 246 0.999821
-1.100540 -0.309342 6.688190 0 0 255 0.999803
-1.102740 -0.290272 6.681610 0 0 255 0.999800
-1.115700 -0.305398 6.665870 0 0 246 0.999820
-1.129110 -0.309291 6.647630 0 0 201 0.999890
-1.097080 -0.262757 6.673620 0 25 255 0.999735
-1.114230 -0.276048 6.656730 0 0 251 0.999817
-1.127060 -0.267322 6.634120 0 0 223 0.999859
-1.142380 -0.279875 6.618630 0 0 255 0.999809
-1.129820 -0.288604 6.641320 0 0 237 0.999836
-1.153680 -0.271144 6.597740 0 49 255 0.999696
-1.166660 -0.285309 6.582120 0 73 255 0.999646
-1.178280 -0.275569 6.556550 0 33 255 0.999721
-1.190900 -0.292109 6.537250 0 0 251 0.999814
-1.179080 -0.300994 6.564670 0 25 255 0.999738
-1.276010 -0.291510 6.311500 0 0 183 0.999918
-1.279970 -0.304038 6.325240 0 0 255 0.999811
-1.268890 -0.287133 6.336190 0 0 214 0.999874
-1.257950 -0.270249 6.347080 0 0 187 0.999909
-1.272640 -0.299888 6.349670 0 45 255 0.999701
-1.253400 -0.257800 6.333270 0 0 255 0.999812
-1.241460 -0.241163 6.344730 0 81 255 0.999636
-1.261400 -0.284056 6.360630 0 0 201 0.999891
-1.262460 -0.295508 6.375260 0 0 246 0.999824
-1.249450 -0.268169 6.372210 0 0 146 0.999972
-1.251050 -0.279563 6.386790 0 0 178 0.999928
-1.239410 -0.263316 6.398750 0 0 196 0.999898
-1.251840 -0.290824 6.401250 0 0 251 0.999817
-1.237660 -0.252283 6.383570 0 0 173 0.999932
-1.225750 -0.235985 6.395550 0 149 255 0.999502
-1.233780 -0.238866 6.369810 0 5 255 0.999773
-1.245770 -0.254792 6.358350 0 0 201 0.999894
-1.196780 -0.202801 6.389390 0 0 237 0.999835
-1.211710 -0.215603 6.374420 0 0 246 0.999822
-1.205170 -0.204597 6.353510 0 0 219 0.999864
-1.233920 -0.231380 6.324740 0 0 183 0.999920
-1.219620 -0.217938 6.338690 0 0 214 0.999874
-1.173810 -0.386485 6.554000 0 0 146 0.999968
-1.188700 -0.379592 6.534020 0 0 164 0.999948
-1.173530 -0.403841 6.543790 0 0 133 0.999992
-1.188370 -0.397489 6.523040 0 0 142 0.999979
-1.188820 -0.415129 6.512950 0 0 142 0.999977
-1.204660 -0.391819 6.501530 0 0 160 0.999950
-1.172970 -0.421651 6.533570 0 0 142 0.999977
-1.173420 -0.439256 6.524100 0 0 164 0.999947
-1.158570 -0.426510 6.553100 0 0 151 0.999963
-1.158980 -0.408863 6.563250 0 0 137 0.999981
-1.202790 -0.409116 6.495020 0 0 142 0.999975
-1.217000 -0.402567 6.477350 0 0 160 0.999950
-1.201390 -0.426897 6.488710 0 0 137 0.999984
-1.215950 -0.420328 6.471110 0 0 137 0.999983
-1.215170 -0.438079 6.465040 0 0 128 0.999997
-1.230890 -0.413470 6.453190 0 0 192 0.999906
-1.200850 -0.445197 6.482820 0 0 142 0.999977
-1.200220 -0.464297 6.477000 0 0 201 0.999895
-1.185940 -0.451124 6.500740 0 0 155 0.999956
-1.187040 -0.432700 6.506820 0 0 146 0.999970
-1.161320 -0.492288 6.506160 0 0 151 0.999967
-1.164860 -0.473305 6.512320 0 0 155 0.999961
-1.153500 -0.459691 6.534690 0 0 178 0.999923
-1.168740 -0.455702 6.518030 0 0 151 0.999966
-1.182090 -0.468560 6.494830 0 0 137 0.999985
-1.178440 -0.486935 6.489240 0 0 128 0.999998
-1.130250 -0.456683 6.566900 0 0 160 0.999954
-1.142430 -0.430317 6.571990 0 0 146 0.999973
-1.155820 -0.442786 6.543790 0 0 151 0.999967
-1.211280 -0.632520 6.261730 0 0 160 0.999951
-1.199140 -0.648008 6.270720 0 0 233 0.999844
-1.223660 -0.616518 6.253630 0 0 128 0.999995
-1.225360 -0.606513 6.276080 0 0 133 0.999991
-1.212930 -0.621931 6.285640 0 0 164 0.999945
-1.201030 -0.637594 6.294610 0 0 255 0.999803
-1.236840 -0.596453 6.255950 0 0 151 0.999967
-1.250410 -0.576529 6.257840 0 0 233 0.999843
-1.249230 -0.585496 6.236090 0 0 223 0.999859
-1.235900 -0.605388 6.233790 0 0 151 0.999967
-1.212910 -0.612245 6.306310 0 0 151 0.999963
-1.201230 -0.627389 6.315700 0 0 205 0.999884
-1.225600 -0.596753 6.297010 0 0 133 0.999990
-1.225570 -0.587623 6.317900 0 0 137 0.999985
-1.213190 -0.602358 6.327720 0 0 160 0.999954
-1.200840 -0.617525 6.337720 0 0 255 0.999785
-1.238400 -0.577492 6.297670 0 0 146 0.999974
-1.251660 -0.558855 6.298520 0 0 242 0.999827
-1.251290 -0.567154 6.277720 0 0 214 0.999871
-1.237990 -0.586487 6.276990 0 0 151 0.999967
-1.291820 -0.491748 6.263870 0 153 255 0.999490
-1.281390 -0.512111 6.262040 0 0 210 0.999878
-1.291140 -0.498425 6.243260 0 69 255 0.999659
-1.270730 -0.532985 6.260650 0 0 133 0.999988
-1.279980 -0.519493 6.242320 0 0 178 0.999927
-1.269250 -0.540699 6.241620 0 0 133 0.999991
-1.289570 -0.505356 6.225000 0 1 255 0.999779
-1.260250 -0.554366 6.259550 0 0 146 0.999969
-1.260860 -0.545813 6.279420 0 0 151 0.999967
-1.271280 -0.524616 6.281070 0 0 142 0.999978
-1.278840 -0.526411 6.222880 0 0 178 0.999928
-1.286680 -0.512335 6.204690 0 0 233 0.999843
-1.267900 -0.548830 6.220670 0 0 137 0.999987
-1.276330 -0.534528 6.202640 0 0 155 0.999956
-1.258220 -0.571251 6.217970 0 0 155 0.999956
-1.258400 -0.562839 6.239080 0 0 146 0.999969
-1.275650 -0.455234 6.357660 0 1 255 0.999784
-1.276680 -0.433966 6.362000 0 0 187 0.999911
-1.266640 -0.445361 6.381840 0 29 255 0.999734
-1.277710 -0.412235 6.366150 0 0 178 0.999927
-1.266710 -0.423939 6.386470 0 0 192 0.999904
-1.266650 -0.402166 6.390970 0 0 160 0.999954
-1.256390 -0.435106 6.406230 0 33 255 0.999727
-1.277320 -0.390615 6.370580 0 0 196 0.999899
-1.276620 -0.368815 6.374760 0 0 255 0.999786
-1.287200 -0.376175 6.349110 0 17 255 0.999754
-1.287460 -0.397809 6.345310 0 0 223 0.999857
-1.286700 -0.419570 6.341590 0 0 183 0.999917
-1.296300 -0.383434 6.324650 0 73 255 0.999653
-1.255370 -0.414974 6.410550 0 0 178 0.999927
-1.243490 -0.424173 6.429670 0 0 201 0.999891
-1.253990 -0.394561 6.415100 0 0 133 0.999991
-1.241870 -0.404119 6.434400 0 0 142 0.999978
-1.241060 -0.384025 6.439380 0 0 128 0.999996
-1.252390 -0.374036 6.420190 0 0 142 0.999977
-1.251280 -0.353357 6.425240 0 0 192 0.999904
-1.263750 -0.361256 6.400220 0 0 201 0.999889
-1.265200 -0.381929 6.395530 0 0 160 0.999950
-1.258760 -0.310059 6.394230 0 0 183 0.999919
-1.265140 -0.329581 6.387650 0 0 155 0.999958
-1.269320 -0.314740 6.368630 0 0 187 0.999915
-1.275840 -0.334257 6.362330 0 0 164 0.999944
-1.271130 -0.349179 6.380880 0 0 192 0.999906
-1.258380 -0.341662 6.406790 0 0 164 0.999946
-1.252330 -0.321863 6.413890 0 0 142 0.999980
-1.279340 -0.320719 6.343070 0 0 192 0.999904
-1.285950 -0.341752 6.336130 0 0 164 0.999945
-1.287250 -0.325132 6.318140 0 0 205 0.999888
-1.293930 -0.345949 6.311740 0 0 192 0.999905
-1.291920 -0.362544 6.329950 0 0 242 0.999831
-1.281940 -0.355229 6.355370 0 0 205 0.999886
-1.198580 -0.211206 6.414180 0 25 255 0.999737
-1.214140 -0.232925 6.424410 0 49 255 0.999692
-1.198330 -0.219585 6.440540 0 0 255 0.999799
-1.184350 -0.207720 6.454560 0 0 164 0.999948
-1.183530 -0.198954 6.429590 0 0 219 0.999864
-1.226120 -0.257904 6.427800 0 0 187 0.999909
-1.238890 -0.274447 6.414460 0 0 164 0.999943
-1.238040 -0.285561 6.430030 0 0 205 0.999886
-1.225800 -0.269023 6.443430 0 0 196 0.999900
-1.225120 -0.279981 6.458920 0 0 237 0.999834
-1.209100 -0.241718 6.454260 0 37 255 0.999714
-1.192840 -0.256961 6.511640 0 0 173 0.999929
-1.196250 -0.247330 6.492580 0 0 214 0.999871
-1.183070 -0.233350 6.507920 0 0 196 0.999899
-1.185790 -0.223877 6.489100 0 77 255 0.999643
-1.210650 -0.263566 6.475970 0 0 192 0.999902
-1.206380 -0.272619 6.495960 0 0 255 0.999794
-1.169080 -0.211834 6.505610 0 0 183 0.999919
-1.168040 -0.203481 6.489350 0 0 201 0.999892
-1.153020 -0.193071 6.504010 0 0 169 0.999940
-1.166870 -0.195448 6.472950 0 0 214 0.999869
-1.185160 -0.216042 6.471880 0 0 255 0.999791
-1.198590 -0.283593 6.517780 0 0 196 0.999901
-1.207310 -0.301111 6.504960 0 0 142 0.999977
-1.215930 -0.290640 6.482470 0 0 169 0.999936
-1.225240 -0.308360 6.468770 0 0 128 0.999994
-1.215880 -0.318742 6.491950 0 0 146 0.999972
-1.224670 -0.336535 6.478310 0 0 196 0.999898
-1.207200 -0.327117 6.512410 0 0 205 0.999885
-1.199180 -0.309492 6.525310 0 0 173 0.999929
-1.232020 -0.298151 6.450220 0 0 155 0.999959
-1.238610 -0.316370 6.441780 0 0 128 0.999996
-1.245410 -0.303634 6.421810 0 0 160 0.999953
-1.244910 -0.334951 6.433440 0 0 146 0.999970
-1.237160 -0.345090 6.452210 0 0 173 0.999931
-1.231350 -0.326463 6.460210 0 0 146 0.999974
-1.229160 -0.394663 6.458620 0 0 142 0.999976
-1.227660 -0.375589 6.464890 0 0 128 0.999995
-1.215780 -0.383744 6.483480 0 0 142 0.999979
-1.214910 -0.364777 6.490020 0 0 128 0.999997
-1.226080 -0.356210 6.471770 0 0 146 0.999973
-1.239220 -0.364692 6.445410 0 0 142 0.999978
-1.201040 -0.373077 6.512970 0 0 137 0.999982
-1.198160 -0.354864 6.523670 0 0 128 0.999998
-1.185610 -0.361509 6.544420 0 0 146 0.999971
-1.194790 -0.336567 6.534300 0 0 173 0.999934
-1.211190 -0.346019 6.501350 0 0 155 0.999956
-1.266380 -0.469929 6.365230 0 0 246 0.999820
-1.253100 -0.479625 6.384310 0 0 214 0.999872
-1.243790 -0.495212 6.391950 0 0 164 0.999948
-1.231320 -0.505014 6.410390 0 0 237 0.999836
-1.238710 -0.517143 6.389010 0 5 255 0.999775
-1.235960 -0.482761 6.413790 0 0 192 0.999908
-1.223020 -0.491859 6.432520 0 17 255 0.999756
-1.239420 -0.462644 6.419090 0 0 196 0.999900
-1.252720 -0.453979 6.400630 0 0 205 0.999882
-1.222760 -0.524020 6.406550 0 0 164 0.999946
-1.213560 -0.543619 6.405100 0 0 160 0.999950
-1.206870 -0.530786 6.424860 0 0 142 0.999977
-1.198050 -0.551170 6.422760 0 0 169 0.999937
-1.191170 -0.537652 6.442280 0 0 151 0.999963
-1.199010 -0.517384 6.446240 0 0 146 0.999970
-1.215060 -0.511267 6.427950 0 0 160 0.999951
-1.173040 -0.507938 6.483980 0 0 142 0.999975
-1.189020 -0.502006 6.467340 0 0 133 0.999990
-1.194600 -0.482578 6.472130 0 0 142 0.999980
-1.211700 -0.477932 6.454640 0 0 205 0.999888
-1.205940 -0.497057 6.449930 0 0 160 0.999951
-1.182700 -0.523727 6.463010 0 0 155 0.999958
-1.213740 -0.456821 6.459100 0 0 137 0.999981
-1.227450 -0.449359 6.441710 0 0 137 0.999984
-1.229020 -0.431209 6.447310 0 0 137 0.999983
-1.241350 -0.442225 6.424140 0 0 160 0.999953
-1.225370 -0.470357 6.437120 0 0 169 0.999941
-1.297890 -0.467933 6.265690 0 5 255 0.999775
-1.290530 -0.483281 6.285830 0 89 255 0.999623
-1.302580 -0.444415 6.268170 0 0 187 0.999911
-1.295430 -0.460030 6.288350 0 0 237 0.999836
-1.299080 -0.436144 6.291600 0 0 169 0.999941
-1.287690 -0.474795 6.309370 0 33 255 0.999727
-1.306230 -0.420718 6.270800 0 0 233 0.999847
-1.308570 -0.397161 6.274360 0 81 255 0.999634
-1.311840 -0.403332 6.251170 0 97 255 0.999607
-1.308820 -0.426987 6.248490 0 0 255 0.999796
-1.303980 -0.450790 6.246120 0 0 183 0.999916
-1.313780 -0.409792 6.228990 0 133 255 0.999536
-1.291070 -0.452043 6.312320 0 0 210 0.999877
-1.282100 -0.465656 6.332840 0 0 255 0.999788
-1.293610 -0.429431 6.316120 0 0 164 0.999944
-1.284890 -0.442659 6.336890 0 0 187 0.999910
-1.295370 -0.406357 6.320200 0 0 214 0.999872
-1.302570 -0.390779 6.299230 0 21 255 0.999748
-1.301080 -0.413180 6.294900 0 0 187 0.999914
-1.294610 -0.330814 6.292880 0 0 223 0.999856
-1.300420 -0.353276 6.286000 0 0 169 0.999938
-1.299610 -0.335298 6.268740 0 0 237 0.999838
-1.305190 -0.357206 6.262890 0 0 201 0.999892
-1.305250 -0.375359 6.280040 0 0 242 0.999828
-1.298720 -0.368547 6.305020 0 0 210 0.999875
-1.303600 -0.340704 6.245450 0 0 255 0.999806
-1.308400 -0.363597 6.239400 0 0 192 0.999906
-1.305390 -0.345039 6.222760 0 0 255 0.999797
-1.309920 -0.367348 6.216800 0 0 219 0.999863
-1.312000 -0.386501 6.233540 0 5 255 0.999776
-1.309250 -0.380409 6.256670 0 0 255 0.999805
-1.176120 -0.588729 6.420220 0 0 192 0.999905
-1.193590 -0.583838 6.401240 0 13 255 0.999758
-1.162660 -0.606174 6.419220 0 0 155 0.999958
-1.179830 -0.601373 6.400330 0 0 192 0.999905
-1.165840 -0.618811 6.399720 0 0 160 0.999952
-1.197200 -0.596027 6.380640 0 9 255 0.999766
-1.149350 -0.623448 6.417940 0 0 201 0.999895
-1.136040 -0.640212 6.415820 0 5 255 0.999771
-1.132590 -0.627248 6.434500 0 0 242 0.999827
-1.145500 -0.610182 6.436590 0 0 178 0.999924
-1.182450 -0.613069 6.380590 0 0 169 0.999937
-1.199280 -0.606730 6.359420 0 0 214 0.999871
-1.167540 -0.630208 6.380050 0 0 142 0.999975
-1.184340 -0.624003 6.358820 0 0 173 0.999931
-1.169430 -0.641336 6.358610 0 0 146 0.999971
-1.153300 -0.647125 6.378700 0 0 187 0.999910
-1.139290 -0.663594 6.376990 0 37 255 0.999719
-1.137580 -0.652160 6.396600 0 0 255 0.999800
-1.151960 -0.635519 6.398140 0 0 187 0.999910
-1.086050 -0.674778 6.416290 0 0 169 0.999936
-1.102120 -0.663703 6.416480 0 0 155 0.999960
-1.085160 -0.662961 6.433450 0 0 169 0.999941
-1.101380 -0.651715 6.433460 0 0 151 0.999967
-1.118830 -0.652189 6.416120 0 0 173 0.999931
-1.120470 -0.663974 6.396770 0 0 178 0.999924
-1.103680 -0.675381 6.397270 0 0 160 0.999949
-1.082510 -0.650892 6.450810 0 0 169 0.999938
-1.097710 -0.638977 6.451540 0 0 146 0.999968
-1.079130 -0.637947 6.467010 0 0 160 0.999950
-1.113200 -0.626392 6.452470 0 0 178 0.999927
-1.116660 -0.639864 6.434160 0 0 178 0.999926
-1.272460 -0.480856 6.341290 0 0 192 0.999908
-1.262490 -0.496973 6.350220 0 0 214 0.999872
-1.268010 -0.506573 6.325940 0 0 205 0.999888
-1.278000 -0.490403 6.317500 0 0 255 0.999803
-1.255910 -0.518413 6.346630 0 0 210 0.999876
-1.248520 -0.539987 6.343620 0 29 255 0.999730
-1.244210 -0.528780 6.366140 0 5 255 0.999772
-1.250690 -0.507027 6.369410 0 0 205 0.999888
-1.280280 -0.499591 6.294360 0 0 228 0.999853
-1.270610 -0.516139 6.303010 0 0 151 0.999962
-1.261020 -0.537542 6.300470 0 0 164 0.999946
-1.250670 -0.549830 6.320170 0 0 255 0.999803
-1.259280 -0.528272 6.322830 0 0 173 0.999932
-1.211690 -0.591971 6.349780 0 0 183 0.999919
-1.224330 -0.578088 6.340700 0 0 169 0.999937
-1.222080 -0.567203 6.362450 0 0 155 0.999960
-1.209610 -0.581320 6.371580 0 0 214 0.999869
-1.236340 -0.558708 6.341860 0 0 173 0.999932
-1.237950 -0.568421 6.318970 0 0 160 0.999952
-1.218030 -0.555987 6.384540 0 0 155 0.999955
-1.203520 -0.563567 6.403100 0 0 201 0.999894
-1.228370 -0.536742 6.386390 0 0 183 0.999918
-1.232990 -0.547857 6.364080 0 0 169 0.999940
-1.184750 -0.634950 6.338640 0 0 173 0.999930
-1.168430 -0.652447 6.338970 0 0 146 0.999974
-1.185190 -0.645062 6.315940 0 0 164 0.999942
-1.168810 -0.662635 6.316000 0 0 146 0.999969
-1.152570 -0.669292 6.338430 0 0 201 0.999894
-1.136600 -0.685876 6.337820 0 41 255 0.999708
-1.138070 -0.674681 6.357590 0 1 255 0.999781
-1.153720 -0.658371 6.358410 0 0 196 0.999899
-1.182720 -0.656240 6.294150 0 0 164 0.999942
-1.164280 -0.674755 6.293390 0 0 128 0.999998
-1.181220 -0.666613 6.270020 0 0 160 0.999952
-1.146260 -0.692647 6.292770 0 0 178 0.999925
-1.132770 -0.697625 6.314310 0 13 255 0.999760
-1.150440 -0.680446 6.315380 0 0 183 0.999920
-1.074270 -0.714680 6.354830 0 0 178 0.999928
-1.092370 -0.709827 6.342740 0 0 151 0.999963
-1.099560 -0.696922 6.362280 0 0 169 0.999940
-1.081150 -0.702009 6.373900 0 0 173 0.999934
-1.114140 -0.698129 6.340700 0 0 205 0.999886
-1.110490 -0.709760 6.317250 0 0 173 0.999929
-1.083080 -0.691103 6.391780 0 0 178 0.999927
-1.119680 -0.675259 6.379160 0 0 187 0.999912
-1.118680 -0.686062 6.359960 0 0 178 0.999926
-1.293240 -0.490210 6.195080 0 0 173 0.999933
-1.299170 -0.468174 6.186180 0 0 160 0.999950
-1.301690 -0.462189 6.206860 0 0 160 0.999951
-1.295740 -0.483702 6.215800 0 0 205 0.999886
-1.306100 -0.443428 6.187010 0 0 255 0.999805
-1.311940 -0.419268 6.188770 0 145 255 0.999513
-1.308200 -0.424946 6.167940 0 125 255 0.999546
-1.302280 -0.449180 6.167210 0 0 192 0.999905
-1.297370 -0.477848 6.234660 0 0 237 0.999840
-1.303790 -0.456920 6.225930 0 0 164 0.999947
-1.309370 -0.433313 6.226910 0 0 233 0.999842
-1.312920 -0.414802 6.208280 0 93 255 0.999612
-1.307850 -0.438168 6.207180 0 0 205 0.999883
-1.306030 -0.349594 6.199850 0 17 255 0.999750
-1.310230 -0.372873 6.194660 0 0 255 0.999794
-1.304490 -0.353348 6.178730 0 37 255 0.999713
-1.308220 -0.376273 6.174910 0 17 255 0.999754
-1.311890 -0.396047 6.191290 0 49 255 0.999695
-1.312590 -0.391208 6.211450 0 25 255 0.999736
-1.301750 -0.357922 6.157310 0 81 255 0.999637
-1.304260 -0.381647 6.153090 0 21 255 0.999743
-1.296120 -0.362908 6.135730 0 37 255 0.999718
-1.307180 -0.402903 6.160050 0 61 255 0.999674
-1.124380 -0.320177 5.940080 0 0 146 0.999971
-1.136350 -0.335813 5.939820 0 0 187 0.999913
-1.148740 -0.343477 5.949170 0 0 173 0.999934
-1.161370 -0.357951 5.948690 0 0 151 0.999963
-1.174130 -0.364941 5.958210 0 0 151 0.999964
-1.173720 -0.379624 5.937960 0 0 187 0.999913
-1.161400 -0.343418 5.968060 0 0 151 0.999967
-1.173580 -0.350434 5.977250 0 0 173 0.999935
-1.146190 -0.327359 5.968480 0 0 205 0.999886
-1.131940 -0.310459 5.968650 0 0 173 0.999935
-1.120290 -0.302264 5.959380 0 0 146 0.999970
-1.114390 -0.283856 5.978410 0 0 155 0.999959
-1.186380 -0.395505 5.937230 0 0 251 0.999817
-1.201180 -0.405374 5.946850 0 0 173 0.999930
-1.214740 -0.420879 5.945830 0 0 151 0.999962
-1.229580 -0.430329 5.956110 0 0 219 0.999866
-1.226480 -0.442659 5.933860 0 0 196 0.999896
-1.217550 -0.409171 5.967590 0 0 169 0.999941
-1.232320 -0.418181 5.977490 0 0 196 0.999896
-1.202590 -0.392545 5.967310 0 0 237 0.999839
-1.188150 -0.375217 5.967400 0 0 196 0.999898
-1.227260 -0.381377 6.009470 0 0 160 0.999951
-1.209780 -0.371923 5.998210 0 0 178 0.999928
-1.196740 -0.345317 6.007710 0 0 160 0.999949
-1.179120 -0.334267 5.997010 0 0 178 0.999927
-1.191600 -0.361465 5.987540 0 0 183 0.999917
-1.220370 -0.395034 5.987930 0 0 173 0.999934
-1.238210 -0.404299 5.999340 0 0 251 0.999815
-1.164960 -0.309803 6.008500 0 0 164 0.999948
-1.143350 -0.287724 6.010430 0 0 151 0.999967
-1.147580 -0.301892 5.998340 0 0 155 0.999960
-1.122320 -0.265347 6.011820 0 0 137 0.999982
-1.126080 -0.278614 6.000780 0 0 133 0.999991
-1.105560 -0.255958 6.001980 0 0 155 0.999958
-1.101260 -0.242368 6.013160 0 0 160 0.999949
-1.130210 -0.293181 5.988820 0 0 151 0.999967
-1.109620 -0.269639 5.990510 0 0 146 0.999973
-1.160960 -0.326724 5.987180 0 0 155 0.999958
-1.236860 -0.458416 5.933770 0 0 255 0.999807
-1.248830 -0.470567 5.947430 0 0 219 0.999864
-1.257600 -0.487345 5.948630 0 0 219 0.999867
-1.267880 -0.500302 5.963900 0 69 255 0.999658
-1.263530 -0.509081 5.938010 0 0 237 0.999839
-1.261780 -0.478292 5.973790 0 13 255 0.999759
-1.270890 -0.491877 5.989210 0 97 255 0.999607
-1.252390 -0.459165 5.970600 0 0 164 0.999945
-1.242010 -0.441578 5.968610 0 0 223 0.999858
-1.269330 -0.523126 5.955870 0 0 201 0.999889
-1.269550 -0.543145 5.945190 0 0 178 0.999928
-1.273020 -0.537508 5.974690 0 0 164 0.999945
-1.272400 -0.557940 5.964800 0 0 196 0.999899
-1.273800 -0.573743 5.983660 0 9 255 0.999768
-1.270810 -0.578455 5.954870 0 0 210 0.999876
-1.274740 -0.552848 5.993010 0 0 196 0.999898
-1.275570 -0.568621 6.011410 0 0 228 0.999854
-1.275000 -0.529765 5.999760 0 0 205 0.999883
-1.272580 -0.514558 5.981870 0 0 219 0.999864
-1.281970 -0.536620 6.048270 0 0 178 0.999928
-1.281970 -0.515411 6.040720 0 0 183 0.999921
-1.278820 -0.500365 6.021200 0 0 255 0.999791
-1.276590 -0.479941 6.014320 0 149 255 0.999501
-1.278200 -0.544776 6.019530 0 0 210 0.999881
-1.280300 -0.560346 6.039760 0 89 255 0.999622
-1.272010 -0.454229 6.022580 0 0 237 0.999836
-1.262780 -0.434158 6.017750 0 0 210 0.999880
-1.249700 -0.422716 6.002950 0 0 251 0.999818
-1.256940 -0.447434 5.993820 0 0 178 0.999923
-1.265920 -0.466301 5.997590 0 5 255 0.999776
-1.278880 -0.573217 6.059290 0 0 237 0.999834
-1.273730 -0.594102 6.051160 0 65 255 0.999667
-1.275140 -0.581179 6.031280 0 0 183 0.999921
-1.268900 -0.602174 6.023270 0 0 128 0.999994
-1.267320 -0.615301 6.043510 0 0 233 0.999844
-1.260390 -0.635836 6.035000 0 65 255 0.999664
-1.263440 -0.630479 6.065930 84 255 164 0.999087
-1.269030 -0.609323 6.073880 0 61 255 0.999675
-1.272150 -0.586923 6.002180 0 0 169 0.999937
-1.267470 -0.605455 5.992440 0 0 251 0.999815
-1.269340 -0.591944 5.973600 0 0 173 0.999934
-1.264230 -0.609961 5.963590 0 0 160 0.999954
-1.262580 -0.623627 5.982170 0 0 201 0.999894
-1.255820 -0.642253 5.972780 0 0 255 0.999785
-1.259460 -0.638952 6.004140 16 249 232 0.999290
-1.264480 -0.620442 6.013740 0 0 196 0.999898
-1.221380 -0.701445 5.980280 0 0 255 0.999802
-1.233040 -0.684990 5.994140 0 0 223 0.999859
-1.222010 -0.700283 6.012730 0 105 255 0.999588
-1.243820 -0.668452 6.007610 0 129 255 0.999540
-1.232680 -0.683790 6.026240 0 0 251 0.999819
-1.242440 -0.667486 6.039110 0 0 137 0.999985
-1.221240 -0.699494 6.044170 0 165 255 0.999467
-1.252900 -0.652079 6.021320 0 9 255 0.999769
-1.250020 -0.655377 5.990440 0 0 223 0.999855
-1.238740 -0.672450 5.976690 0 0 160 0.999952
-1.219040 -0.700324 6.065170 0 157 255 0.999485
-1.234630 -0.681125 6.057400 0 77 255 0.999641
-1.230980 -0.682399 6.078180 0 57 255 0.999681
-1.215490 -0.701802 6.085360 0 105 255 0.999587
-1.245830 -0.662880 6.070630 0 113 255 0.999570
-1.225260 -0.684427 6.098430 0 0 219 0.999862
-1.240340 -0.664257 6.090990 0 0 164 0.999942
-1.210490 -0.704399 6.105590 0 125 255 0.999553
-1.254890 -0.644444 6.083370 0 117 255 0.999565
-1.253630 -0.649029 6.052750 0 9 255 0.999766
-1.203150 -0.718060 5.992130 0 0 173 0.999930
-1.191860 -0.732218 5.973440 0 0 142 0.999977
-1.185270 -0.734361 6.002520 0 0 146 0.999974
-1.173750 -0.748127 5.983980 0 0 155 0.999959
-1.156010 -0.763613 5.993610 0 0 251 0.999818
-1.161670 -0.761902 5.964770 0 0 178 0.999927
-1.167080 -0.750648 6.012660 0 0 173 0.999934
-1.149130 -0.766619 6.022370 0 9 255 0.999764
-1.186850 -0.733407 6.034300 0 0 201 0.999893
-1.205130 -0.716428 6.023530 0 0 255 0.999811
-1.144940 -0.775252 5.955550 0 0 228 0.999848
-1.120110 -0.790851 5.956900 0 0 169 0.999939
-1.104620 -0.803159 5.945980 0 0 164 0.999947
-1.081180 -0.817163 5.945620 0 0 201 0.999890
-1.098250 -0.813082 5.923200 0 0 169 0.999938
-1.087500 -0.808111 5.968670 0 0 155 0.999959
-1.064310 -0.821585 5.968150 0 0 205 0.999883
-1.108790 -0.794096 5.983040 0 0 142 0.999976
-1.130510 -0.779661 5.996040 0 0 183 0.999919
-1.049630 -0.819104 6.021060 0 0 146 0.999970
-1.074510 -0.806636 6.038320 0 0 155 0.999961
-1.082200 -0.802613 6.023830 0 0 151 0.999963
-1.099490 -0.793444 6.054200 0 0 210 0.999880
-1.107180 -0.788924 6.039600 0 0 173 0.999932
-1.132180 -0.774354 6.053710 0 9 255 0.999764
-1.123790 -0.778980 6.068610 0 9 255 0.999768
-1.115860 -0.785118 6.024200 0 0 155 0.999956
-1.141190 -0.770084 6.038160 0 0 255 0.999798
-1.093790 -0.798973 6.010800 0 0 142 0.999980
-1.072680 -0.811935 5.996400 0 0 151 0.999962
-1.060820 -0.815311 6.009070 0 0 151 0.999963
-1.040820 -0.827517 5.993690 0 0 160 0.999950
-1.052660 -0.824478 5.981440 0 0 173 0.999933
-1.029640 -0.830662 6.005500 0 0 151 0.999962
-1.140700 -0.763360 6.075700 0 0 164 0.999944
-1.165910 -0.743998 6.086420 0 0 151 0.999966
-1.167790 -0.742012 6.066440 0 0 160 0.999949
-1.189080 -0.724430 6.096360 0 0 255 0.999790
-1.192660 -0.722106 6.076260 0 0 187 0.999910
-1.195280 -0.720529 6.055560 0 0 173 0.999931
-1.177890 -0.737459 6.050220 0 0 142 0.999978
-1.159660 -0.754166 6.044600 0 0 210 0.999875
-1.149930 -0.758568 6.060520 0 0 178 0.999924
-1.012020 -0.838239 5.989020 0 0 164 0.999945
-1.023490 -0.835819 5.977530 0 0 142 0.999979
-1.006530 -0.844767 5.960430 0 0 160 0.999953
-1.035200 -0.833784 5.965080 0 0 155 0.999959
-1.018700 -0.842635 5.948410 0 0 137 0.999983
-1.030590 -0.840365 5.935520 0 0 137 0.999984
-1.047010 -0.830960 5.952140 0 0 151 0.999965
-1.002640 -0.852002 5.930870 0 0 142 0.999977
-1.014980 -0.850391 5.918190 0 0 137 0.999985
-1.000530 -0.860759 5.899470 0 0 151 0.999965
-0.985634 -0.863050 5.909820 0 0 142 0.999976
-0.987787 -0.854021 5.940810 0 0 151 0.999965
-0.970500 -0.864707 5.920270 0 0 142 0.999976
-0.973134 -0.855558 5.949990 0 0 155 0.999957
-0.992232 -0.846534 5.970000 0 0 173 0.999935
-0.955740 -0.865493 5.930210 0 0 164 0.999945
-1.067460 -0.825794 5.931880 0 0 155 0.999960
-1.054270 -0.834872 5.917340 0 0 146 0.999973
-1.071710 -0.831894 5.895050 0 0 133 0.999988
-1.084480 -0.822617 5.909610 0 0 164 0.999942
-1.050460 -0.842960 5.890850 0 0 137 0.999986
-1.047560 -0.851193 5.863060 0 0 146 0.999973
-1.023870 -0.855692 5.881490 0 0 133 0.999988
-1.010890 -0.878354 5.786520 0 0 160 0.999954
-1.007070 -0.875365 5.814730 0 0 137 0.999987
-0.983399 -0.885766 5.801220 0 0 142 0.999978
-1.003750 -0.871262 5.843640 0 0 133 0.999992
-0.979707 -0.882008 5.829850 0 0 133 0.999990
-0.977343 -0.877659 5.858310 0 0 137 0.999982
-0.956057 -0.893396 5.816330 0 0 142 0.999980
-1.002130 -0.866411 5.871810 0 0 146 0.999970
-1.025540 -0.861120 5.853730 0 0 133 0.999992
-1.028280 -0.866418 5.824890 0 0 137 0.999982
-0.938869 -0.896860 5.825360 0 0 142 0.999978
-0.951185 -0.888235 5.848550 0 0 151 0.999966
-0.934665 -0.890713 5.857600 0 0 160 0.999953
-0.922393 -0.899799 5.834510 0 0 151 0.999967
-0.947255 -0.881651 5.880260 0 0 173 0.999932
-0.918799 -0.892415 5.866690 0 0 173 0.999935
-0.931250 -0.883062 5.889640 0 0 205 0.999883
-0.906871 -0.902277 5.844400 0 0 155 0.999959
-0.944048 -0.873197 5.911970 0 0 187 0.999913
-0.958718 -0.873287 5.900910 0 0 155 0.999957
-0.973758 -0.871437 5.889830 0 0 142 0.999978
-0.962312 -0.879959 5.869400 0 0 137 0.999984
-0.712152 -0.155467 5.681310 0 0 133 0.999989
-0.718135 -0.166961 5.667300 0 0 137 0.999985
-0.731078 -0.160002 5.688470 0 0 133 0.999993
-0.738044 -0.171787 5.674130 0 0 133 0.999988
-0.757971 -0.176456 5.680970 0 0 137 0.999981
-0.744972 -0.183654 5.659510 0 0 137 0.999982
-0.750718 -0.164924 5.695710 0 0 133 0.999991
-0.770638 -0.169936 5.703660 0 0 137 0.999982
-0.745354 -0.151151 5.715620 0 0 128 0.999994
-0.726572 -0.146310 5.707770 0 0 133 0.999988
-0.762883 -0.188656 5.665020 0 0 133 0.999989
-0.780510 -0.193327 5.670810 0 0 142 0.999975
-0.803371 -0.209250 5.665160 0 0 192 0.999907
-0.780914 -0.206618 5.650110 0 0 146 0.999969
-0.814546 -0.204080 5.683610 0 0 183 0.999921
-0.793410 -0.186959 5.693210 0 0 169 0.999941
-0.775884 -0.181628 5.687030 0 0 137 0.999987
-0.842260 -0.200592 5.719770 0 0 133 0.999988
-0.824798 -0.192553 5.714860 0 0 142 0.999976
-0.822089 -0.182005 5.732610 0 0 133 0.999991
-0.807157 -0.185077 5.710420 0 0 146 0.999972
-0.803702 -0.174028 5.728720 0 0 128 0.999994
-0.785713 -0.166147 5.725220 0 0 137 0.999983
-0.800719 -0.162646 5.747250 0 0 137 0.999982
-0.788540 -0.152222 5.755940 0 0 133 0.999990
-0.768796 -0.144160 5.750380 0 0 137 0.999982
-0.757363 -0.133429 5.758370 0 0 137 0.999986
-0.741006 -0.139517 5.732380 0 0 137 0.999981
-0.765374 -0.158679 5.720080 0 0 137 0.999986
-0.878820 -0.288318 5.626670 0 0 164 0.999948
-0.877714 -0.271842 5.645680 0 0 151 0.999967
-0.876611 -0.256593 5.664560 0 0 155 0.999961
-0.897483 -0.276174 5.658800 0 0 151 0.999965
-0.855482 -0.239317 5.670540 0 0 142 0.999976
-0.856205 -0.252437 5.651240 0 0 146 0.999972
-0.856845 -0.267846 5.631590 0 0 169 0.999940
-0.839950 -0.246646 5.645690 0 0 151 0.999965
-0.899830 -0.264182 5.678170 0 0 146 0.999970
-0.902141 -0.254453 5.696970 0 0 142 0.999978
-0.921920 -0.272241 5.690820 0 0 146 0.999973
-0.881790 -0.237145 5.704210 0 0 133 0.999992
-0.879064 -0.246352 5.684080 0 0 142 0.999979
-0.838662 -0.209875 5.697840 0 0 160 0.999953
-0.834947 -0.220501 5.676290 0 0 164 0.999943
-0.858737 -0.227979 5.690550 0 0 146 0.999969
-0.862114 -0.217674 5.710970 0 0 151 0.999964
-0.825065 -0.225008 5.660250 0 0 210 0.999880
-0.813958 -0.230965 5.641800 0 0 237 0.999834
-0.995839 -0.253533 5.830440 0 0 137 0.999985
-1.011930 -0.260394 5.847470 0 0 128 0.999994
-1.027700 -0.266571 5.864320 0 0 133 0.999993
-1.027590 -0.277529 5.842310 0 0 128 0.999996
-1.011040 -0.249161 5.869770 0 0 133 0.999989
-0.991012 -0.229307 5.874710 0 0 142 0.999980
-0.994327 -0.241520 5.852760 0 0 146 0.999970
-0.974388 -0.222058 5.857350 0 0 192 0.999903
-1.047860 -0.293745 5.848880 0 0 133 0.999992
-1.048510 -0.284117 5.870510 0 0 128 0.999994
-1.062870 -0.301378 5.863420 0 0 133 0.999990
-1.076970 -0.318589 5.855730 0 0 137 0.999981
-1.063480 -0.291503 5.884520 0 0 133 0.999991
-1.048620 -0.274478 5.891420 0 0 137 0.999985
-1.026990 -0.256516 5.885320 0 0 137 0.999986
-1.025410 -0.243859 5.908720 0 0 137 0.999984
-1.001060 -0.220883 5.915510 0 0 137 0.999982
-1.007720 -0.235217 5.892610 0 0 151 0.999963
-1.048650 -0.261842 5.913890 0 0 137 0.999984
-0.971021 -0.205507 5.894430 0 0 142 0.999976
-0.943742 -0.187792 5.885990 0 0 151 0.999962
-0.910904 -0.211144 5.785900 0 0 164 0.999946
-0.922660 -0.208732 5.807590 0 0 142 0.999978
-0.933482 -0.206256 5.828630 0 0 146 0.999972
-0.941949 -0.223786 5.805060 0 0 151 0.999963
-0.914110 -0.192592 5.831870 0 0 128 0.999998
-0.893681 -0.177935 5.834760 0 0 128 0.999998
-0.902125 -0.194517 5.810150 0 0 128 0.999994
-0.881540 -0.180166 5.812970 0 0 128 0.999998
-0.963353 -0.234576 5.816040 0 0 137 0.999986
-0.959692 -0.220092 5.838990 0 0 155 0.999959
-0.978404 -0.236767 5.834970 0 0 146 0.999968
-0.951636 -0.204682 5.861500 0 0 146 0.999972
-0.926973 -0.191932 5.852250 0 0 133 0.999993
-0.910130 -0.164272 5.886860 0 0 133 0.999992
-0.919903 -0.175828 5.877060 0 0 137 0.999987
-0.895134 -0.163377 5.867610 0 0 128 0.999994
-0.885525 -0.151854 5.877710 0 0 128 0.999996
-0.904930 -0.174321 5.857570 0 0 128 0.999996
-0.863434 -0.143735 5.865840 0 0 128 0.999994
-0.873665 -0.155246 5.855720 0 0 128 0.999995
-0.850755 -0.146725 5.843400 0 0 133 0.999992
-0.840735 -0.134843 5.853380 0 0 128 0.999996
-0.872898 -0.162563 5.839150 0 0 128 0.999996
-0.840745 -0.190670 5.736460 0 0 137 0.999984
-0.857692 -0.201208 5.737230 0 0 137 0.999985
-0.839043 -0.181706 5.753560 0 0 128 0.999994
-0.856339 -0.191671 5.754190 0 0 133 0.999991
-0.854359 -0.182317 5.771410 0 0 128 0.999996
-0.874188 -0.202282 5.755020 0 0 142 0.999976
-0.836657 -0.172173 5.771250 0 0 128 0.999997
-0.834214 -0.162257 5.788400 0 0 133 0.999992
-0.817780 -0.162219 5.767690 0 0 133 0.999989
-0.819800 -0.172191 5.750240 0 0 128 0.999995
-0.874044 -0.194630 5.772150 0 0 128 0.999997
-0.892106 -0.206598 5.770560 0 0 142 0.999976
-0.873582 -0.186470 5.788740 0 0 128 0.999999
-0.892214 -0.198375 5.787080 0 0 137 0.999982
-0.862622 -0.167881 5.813960 0 0 128 0.999998
-0.853853 -0.174685 5.788760 0 0 128 0.999998
-0.821545 -0.131463 5.835420 0 0 128 0.999997
-0.832213 -0.143116 5.826630 0 0 128 0.999994
-0.811895 -0.139650 5.807460 0 0 133 0.999990
-0.801096 -0.127916 5.816750 0 0 133 0.999993
-0.833265 -0.153316 5.807760 0 0 128 0.999994
-0.851962 -0.156402 5.824780 0 0 128 0.999998
-0.783513 -0.128740 5.795070 0 0 133 0.999990
-0.795188 -0.139911 5.787580 0 0 137 0.999984
-0.806371 -0.151215 5.777710 0 0 133 0.999992
-0.926351 -0.264424 5.708870 0 0 137 0.999986
-0.931008 -0.257869 5.727410 0 0 137 0.999987
-0.942119 -0.274698 5.712850 0 0 151 0.999964
-0.915235 -0.248386 5.724330 0 0 133 0.999991
-0.897166 -0.238974 5.719930 0 0 133 0.999990
-0.956252 -0.277654 5.726350 0 0 151 0.999965
-0.947649 -0.262207 5.741370 0 0 137 0.999987
-0.962361 -0.266678 5.753390 0 0 137 0.999987
-0.970824 -0.281588 5.738480 0 0 146 0.999973
-0.945489 -0.250465 5.762780 0 0 133 0.999991
-0.929214 -0.245463 5.749880 0 0 133 0.999991
-0.912307 -0.225592 5.760920 0 0 142 0.999979
-0.893730 -0.220463 5.745220 0 0 146 0.999971
-0.928991 -0.230551 5.774500 0 0 137 0.999987
-0.878377 -0.218337 5.728870 0 0 155 0.999956
-0.981507 -0.250077 5.813770 0 0 133 0.999989
-0.967460 -0.246923 5.797240 0 0 137 0.999986
-0.985146 -0.262674 5.795210 0 0 133 0.999992
-1.000420 -0.276575 5.792390 0 0 137 0.999987
-0.998376 -0.264781 5.811050 0 0 146 0.999970
-1.013810 -0.279058 5.808080 0 0 146 0.999969
-0.949363 -0.239233 5.786710 0 0 133 0.999993
-0.963505 -0.257916 5.773570 0 0 133 0.999993
-0.985954 -0.287220 5.748970 0 0 142 0.999976
-0.979855 -0.274155 5.763940 0 0 137 0.999986
-0.995470 -0.281132 5.772740 0 0 137 0.999985
-1.001280 -0.293940 5.757840 0 0 142 0.999978
-1.017150 -0.302095 5.765480 0 0 146 0.999972
-1.014330 -0.292163 5.781220 0 0 142 0.999976
-1.031190 -0.301775 5.788310 0 0 164 0.999946
-1.034200 -0.311878 5.772290 0 0 146 0.999974
-1.052030 -0.323741 5.779190 0 0 155 0.999956
-1.065690 -0.330578 5.791300 0 0 146 0.999968
-1.080570 -0.344617 5.787490 0 0 142 0.999978
-1.054800 -0.317080 5.805330 0 0 146 0.999971
-1.038840 -0.302213 5.808270 0 0 137 0.999987
-1.093620 -0.353036 5.798740 0 0 146 0.999970
-1.106660 -0.361482 5.809460 0 0 137 0.999983
-1.116570 -0.375121 5.794650 0 0 155 0.999957
-1.096330 -0.349028 5.823350 0 0 146 0.999973
-1.082960 -0.340012 5.812730 0 0 146 0.999971
-1.068020 -0.325377 5.817140 0 0 146 0.999969
-1.062830 -0.309948 5.843530 0 0 133 0.999988
-1.048540 -0.300949 5.830510 0 0 133 0.999992
-1.081970 -0.333407 5.829810 0 0 146 0.999971
-1.028920 -0.286504 5.823260 0 0 133 0.999990
-1.012600 -0.270195 5.826860 0 0 137 0.999986
-1.146670 -0.383838 5.860170 0 0 137 0.999982
-1.164830 -0.400710 5.868490 0 0 151 0.999965
-1.183300 -0.416668 5.876410 0 0 151 0.999967
-1.177150 -0.417565 5.856990 0 0 151 0.999964
-1.170290 -0.400447 5.887640 0 0 155 0.999959
-1.156290 -0.380330 5.898070 0 0 151 0.999962
-1.151030 -0.381906 5.879840 0 0 137 0.999984
-1.137280 -0.361128 5.890380 0 0 137 0.999982
-1.198900 -0.441619 5.852740 0 0 146 0.999970
-1.206810 -0.445956 5.871450 0 0 178 0.999922
-1.219820 -0.462606 5.858730 0 0 173 0.999931
-1.232270 -0.479012 5.845450 0 0 210 0.999877
-1.228180 -0.466424 5.878280 0 0 251 0.999818
-1.214070 -0.448172 5.890730 0 0 169 0.999940
-1.190170 -0.419867 5.894760 0 0 164 0.999943
-1.214390 -0.433835 5.924220 0 0 173 0.999933
-1.200940 -0.417905 5.925760 0 0 178 0.999926
-1.188800 -0.408411 5.916490 0 0 169 0.999937
-1.176410 -0.392242 5.917810 0 0 164 0.999948
-1.201820 -0.428999 5.903820 0 0 173 0.999934
-1.226670 -0.452387 5.911860 0 0 237 0.999839
