ply
format ascii 1.0
comment VCGLIB generated
element vertex 1018
property float x
property float y
property float z
property uchar red
property uchar green
property uchar blue
property float quality
end_header
-0.580628 -0.529544 5.229360 228 0 0 0.977281
-0.571018 -0.546842 5.209140 223 0 0 0.978069
-0.654883 -0.548275 5.252010 255 19 0 0.970390
-0.636757 -0.526885 5.263350 223 0 0 0.978010
-0.662798 -0.539371 5.266570 237 4 0 0.975604
-0.610860 -0.514860 5.260480 205 0 0 0.982349
-0.644511 -0.517776 5.277770 201 0 0 0.983474
-0.618872 -0.505390 5.274480 196 0 0 0.984747
-0.626644 -0.495897 5.288410 183 0 0 0.987183
-0.670606 -0.530683 5.281660 210 0 0 0.981643
-0.652268 -0.508899 5.292630 178 0 0 0.988188
-0.678152 -0.522379 5.297330 187 0 0 0.987029
-0.593253 -0.493305 5.271540 201 0 0 0.983499
-0.601170 -0.483455 5.285070 192 0 0 0.986001
-0.589756 -0.511858 5.251080 214 0 0 0.979909
-0.496366 -0.305528 5.394280 205 0 0 0.982034
-0.476826 -0.299456 5.392430 223 0 0 0.978419
-0.457244 -0.293599 5.390930 242 8 0 0.974582
-0.478506 -0.320804 5.375610 214 0 0 0.980012
-0.497971 -0.327280 5.378140 192 0 0 0.985641
-0.517456 -0.333817 5.380760 178 0 0 0.988138
-0.515764 -0.312319 5.397250 183 0 0 0.987301
-0.535181 -0.319293 5.400340 169 0 0 0.990912
-0.536755 -0.340546 5.383480 169 0 0 0.990970
-0.556127 -0.347348 5.386400 155 0 0 0.993735
-0.405375 -0.271800 5.396350 255 45 0 0.963079
-0.415584 -0.284521 5.388380 255 23 0 0.969352
-0.426404 -0.298258 5.381130 237 4 0 0.975209
-0.437214 -0.311909 5.373880 219 0 0 0.979424
-0.457878 -0.316348 5.374800 205 0 0 0.982071
-0.457771 -0.359948 5.342590 187 0 0 0.986550
-0.479200 -0.365432 5.343670 187 0 0 0.986917
-0.457256 -0.337218 5.357940 210 0 0 0.980931
-0.478850 -0.343089 5.359730 196 0 0 0.984050
-0.500226 -0.348863 5.360970 196 0 0 0.984822
-0.500668 -0.371009 5.344910 183 0 0 0.987281
-0.522090 -0.376669 5.346040 183 0 0 0.987740
-0.541677 -0.383627 5.349230 169 0 0 0.990815
-0.561210 -0.390799 5.352520 155 0 0 0.993848
-0.539086 -0.361682 5.365690 169 0 0 0.990391
-0.558599 -0.369126 5.369440 155 0 0 0.994073
-0.578159 -0.376611 5.373400 142 0 0 0.996611
-0.580724 -0.398072 5.356010 146 0 0 0.995264
-0.600337 -0.405371 5.359690 142 0 0 0.996649
-0.519717 -0.355271 5.363400 183 0 0 0.987324
-0.612238 -0.196671 5.571400 151 0 0 0.995043
-0.590570 -0.196287 5.559150 151 0 0 0.995058
-0.575661 -0.178569 5.572550 155 0 0 0.993546
-0.554019 -0.177810 5.559880 160 0 0 0.992157
-0.568936 -0.195539 5.546660 155 0 0 0.994023
-0.547229 -0.194707 5.533980 164 0 0 0.991798
-0.585259 -0.212306 5.536700 146 0 0 0.995981
-0.606870 -0.212876 5.549040 142 0 0 0.996435
-0.628641 -0.213060 5.560950 146 0 0 0.995337
-0.623257 -0.229338 5.538720 146 0 0 0.995790
-0.537787 -0.161477 5.573370 164 0 0 0.991702
-0.518570 -0.152731 5.575400 164 0 0 0.991448
-0.514772 -0.161520 5.560440 164 0 0 0.991135
-0.499148 -0.144049 5.577630 169 0 0 0.990610
-0.495381 -0.152783 5.562550 173 0 0 0.989921
-0.491573 -0.161553 5.547540 178 0 0 0.988730
-0.508268 -0.178118 5.534080 173 0 0 0.989982
-0.531212 -0.178073 5.547110 164 0 0 0.991764
-0.487362 -0.208449 5.484500 201 0 0 0.983813
-0.507396 -0.207284 5.497210 173 0 0 0.989491
-0.527350 -0.215182 5.498880 164 0 0 0.991808
-0.547094 -0.213664 5.511680 155 0 0 0.993219
-0.547067 -0.232637 5.489590 160 0 0 0.993024
-0.527355 -0.196279 5.521140 164 0 0 0.991300
-0.487980 -0.179488 5.521250 187 0 0 0.986886
-0.566406 -0.241253 5.492440 146 0 0 0.995425
-0.585386 -0.240531 5.504800 142 0 0 0.996699
-0.604759 -0.248769 5.507280 137 0 0 0.997131
-0.623727 -0.247902 5.519340 137 0 0 0.997429
-0.624512 -0.265981 5.499740 137 0 0 0.997226
-0.604069 -0.230634 5.526660 142 0 0 0.996767
-0.566269 -0.212957 5.524230 151 0 0 0.994993
-0.609260 -0.268345 5.488780 137 0 0 0.997360
-0.589936 -0.260141 5.486350 137 0 0 0.997059
-0.574819 -0.262209 5.475140 142 0 0 0.996129
-0.555455 -0.253733 5.472450 151 0 0 0.994395
-0.563867 -0.274649 5.455070 151 0 0 0.994342
-0.583161 -0.282769 5.458670 142 0 0 0.996661
-0.598197 -0.280774 5.469820 137 0 0 0.997445
-0.617530 -0.288751 5.473080 137 0 0 0.997694
-0.632719 -0.286357 5.484110 137 0 0 0.997510
-0.641147 -0.306521 5.468080 142 0 0 0.996826
-0.531168 -0.235251 5.477940 164 0 0 0.991168
-0.511443 -0.227111 5.476320 178 0 0 0.988690
-0.495599 -0.229503 5.464940 201 0 0 0.983718
-0.503996 -0.250580 5.446990 201 0 0 0.983343
-0.519738 -0.248158 5.458200 178 0 0 0.988743
-0.539687 -0.256234 5.461000 160 0 0 0.992751
-0.533942 -0.298541 5.416960 169 0 0 0.990381
-0.553562 -0.306262 5.420090 155 0 0 0.993766
-0.539067 -0.282679 5.434270 164 0 0 0.991577
-0.558558 -0.290571 5.437700 146 0 0 0.995103
-0.578167 -0.298223 5.440910 142 0 0 0.996256
-0.573097 -0.313917 5.423380 146 0 0 0.995544
-0.592586 -0.321587 5.426420 146 0 0 0.996054
-0.519049 -0.274780 5.431850 183 0 0 0.987566
-0.610953 -0.329172 5.430230 137 0 0 0.997258
-0.629318 -0.336594 5.434070 137 0 0 0.997822
-0.616684 -0.314316 5.447400 137 0 0 0.997558
-0.635122 -0.321772 5.451160 137 0 0 0.997802
-0.653725 -0.329184 5.454850 137 0 0 0.997613
-0.647848 -0.344068 5.437740 137 0 0 0.997812
-0.666584 -0.351613 5.441400 137 0 0 0.997520
-0.597440 -0.306352 5.444250 137 0 0 0.997200
-0.908877 -0.904839 5.830250 146 0 0 0.995959
-0.887712 -0.910222 5.841450 142 0 0 0.996740
-0.879305 -0.918561 5.820500 142 0 0 0.996201
-0.900349 -0.912727 5.809230 146 0 0 0.995393
-0.858436 -0.924708 5.831370 142 0 0 0.996453
-0.870981 -0.926843 5.799400 151 0 0 0.994966
-0.850166 -0.933176 5.810500 146 0 0 0.995774
-0.841889 -0.941610 5.789690 155 0 0 0.993943
-0.892027 -0.920577 5.787930 155 0 0 0.993924
-0.862690 -0.934894 5.778410 155 0 0 0.993216
-0.883641 -0.928133 5.766790 160 0 0 0.992541
-0.829514 -0.939765 5.821380 146 0 0 0.995641
-0.821327 -0.948643 5.800670 155 0 0 0.993658
-0.800955 -0.955692 5.811520 160 0 0 0.992111
-0.809940 -0.945116 5.834200 146 0 0 0.995614
-0.838601 -0.929416 5.844220 142 0 0 0.996966
-0.819110 -0.934824 5.856990 142 0 0 0.997032
-0.847922 -0.919119 5.867090 137 0 0 0.997214
-0.867797 -0.914604 5.854390 137 0 0 0.997182
-0.828352 -0.924330 5.879790 137 0 0 0.997345
-0.877311 -0.934074 5.742840 160 0 0 0.992224
-0.855739 -0.942609 5.753510 164 0 0 0.991728
-0.849350 -0.948536 5.729760 164 0 0 0.991883
-0.871099 -0.939530 5.718710 160 0 0 0.992120
-0.827994 -0.957639 5.740050 173 0 0 0.989935
-0.842977 -0.954027 5.705790 164 0 0 0.991503
-0.821414 -0.963359 5.716250 169 0 0 0.990335
-0.814705 -0.968674 5.692480 173 0 0 0.989878
-0.864969 -0.944733 5.694530 164 0 0 0.991831
-0.836457 -0.959260 5.681830 169 0 0 0.990902
-0.858650 -0.949791 5.670520 173 0 0 0.989741
-0.800276 -0.972497 5.726330 183 0 0 0.987231
-0.793456 -0.977902 5.702580 183 0 0 0.987364
-0.772599 -0.986928 5.712380 210 0 0 0.981589
-0.780006 -0.980129 5.737380 201 0 0 0.983752
-0.807511 -0.965151 5.751240 173 0 0 0.989147
-0.787209 -0.972695 5.762240 187 0 0 0.986419
-0.814508 -0.957251 5.776120 164 0 0 0.991336
-0.835058 -0.949871 5.764910 164 0 0 0.991535
-0.794216 -0.964597 5.786970 178 0 0 0.988576
-0.709359 -1.002200 5.772900 237 4 0 0.975397
-0.717166 -0.993221 5.798090 214 0 0 0.980421
-0.740032 -0.987386 5.785860 210 0 0 0.981506
-0.724760 -0.983404 5.823010 187 0 0 0.986406
-0.747568 -0.977542 5.810850 183 0 0 0.987594
-0.755022 -0.967072 5.835750 160 0 0 0.992663
-0.732172 -0.972660 5.847820 160 0 0 0.992331
-0.770427 -0.971786 5.798740 183 0 0 0.987437
-0.777917 -0.961296 5.823630 160 0 0 0.992827
-0.763557 -0.980152 5.774070 201 0 0 0.983815
-0.756422 -0.987693 5.749260 210 0 0 0.981787
-0.732875 -0.995007 5.761150 219 0 0 0.979027
-0.725548 -1.001780 5.736240 223 0 0 0.978621
-0.749033 -0.994477 5.724330 214 0 0 0.980719
-0.702010 -1.008970 5.748010 237 4 0 0.975014
-0.740935 -0.961726 5.870270 146 0 0 0.995951
-0.750879 -0.949487 5.894530 137 0 0 0.997525
-0.772729 -0.945323 5.880950 137 0 0 0.997432
-0.761008 -0.937343 5.918720 223 0 0 0.978536
-0.782898 -0.933387 5.905280 142 0 0 0.996734
-0.804895 -0.929178 5.891690 142 0 0 0.997002
-0.795816 -0.939899 5.868970 137 0 0 0.997563
-0.786820 -0.950650 5.846310 142 0 0 0.996192
-0.763895 -0.956410 5.858350 146 0 0 0.995899
-0.646833 -0.363553 5.421110 133 0 0 0.998675
-0.628320 -0.356036 5.417510 133 0 0 0.998583
-0.610038 -0.348577 5.413870 133 0 0 0.998097
-0.627554 -0.375220 5.400740 133 0 0 0.998616
-0.644004 -0.381673 5.404910 133 0 0 0.998990
-0.660611 -0.388142 5.409130 128 0 0 0.999192
-0.663524 -0.370053 5.425400 133 0 0 0.998940
-0.680561 -0.376725 5.429660 128 0 0 0.999056
-0.677682 -0.394725 5.413360 128 0 0 0.999258
-0.694999 -0.401526 5.417670 128 0 0 0.999259
-0.574304 -0.334437 5.406300 146 0 0 0.996004
-0.554784 -0.326922 5.403340 151 0 0 0.994239
-0.573989 -0.354323 5.389990 142 0 0 0.996353
-0.591708 -0.361303 5.393500 137 0 0 0.997733
-0.592125 -0.341549 5.410040 137 0 0 0.997267
-0.609616 -0.368274 5.397140 133 0 0 0.998251
-0.616354 -0.411388 5.363750 137 0 0 0.997540
-0.632376 -0.417459 5.367980 137 0 0 0.997911
-0.613888 -0.390331 5.380090 137 0 0 0.997731
-0.629832 -0.396531 5.384350 133 0 0 0.998469
-0.646147 -0.402747 5.388920 133 0 0 0.998736
-0.648755 -0.423559 5.372330 133 0 0 0.998152
-0.665152 -0.429710 5.376760 133 0 0 0.998384
-0.595962 -0.383460 5.376740 137 0 0 0.997697
-0.687382 -0.427944 5.392190 133 0 0 0.998707
-0.710445 -0.426399 5.407480 133 0 0 0.998825
-0.710405 -0.445376 5.392000 137 0 0 0.997916
-0.662875 -0.409163 5.393100 133 0 0 0.998977
-0.348038 -0.785491 5.043500 255 104 0 0.945844
-0.326808 -0.790288 5.040720 255 101 0 0.946804
-0.311792 -0.806415 5.037840 255 93 0 0.948583
-0.290707 -0.811443 5.035130 255 93 0 0.948299
-0.302729 -0.833156 5.034530 255 104 0 0.945958
-0.323982 -0.827804 5.036840 255 112 0 0.943473
-0.338989 -0.811819 5.039800 255 97 0 0.947691
-0.360409 -0.806220 5.042170 255 108 0 0.944397
-0.375955 -0.790242 5.045350 255 97 0 0.947663
-0.388542 -0.811244 5.043910 255 112 0 0.942717
-0.259229 -0.806276 5.031590 255 97 0 0.947774
-0.233745 -0.811678 5.027270 255 108 0 0.944766
-0.213557 -0.828219 5.022950 255 101 0 0.946003
-0.225741 -0.850349 5.023470 255 123 0 0.939257
-0.245727 -0.833517 5.027700 255 101 0 0.946862
-0.271401 -0.827849 5.031360 255 97 0 0.947258
-0.241940 -0.894940 5.031080 255 182 0 0.920396
-0.263927 -0.877903 5.032950 255 138 0 0.935347
-0.289530 -0.872553 5.036300 255 130 0 0.936865
-0.310733 -0.855778 5.037830 255 116 0 0.941505
-0.318776 -0.878499 5.040810 255 127 0 0.938747
-0.281426 -0.849753 5.033030 255 108 0 0.944505
-0.255847 -0.855536 5.029520 255 123 0 0.939531
-0.233699 -0.872472 5.027550 255 141 0 0.934187
-0.339795 -0.873390 5.043000 255 123 0 0.939831
-0.357165 -0.856376 5.043820 255 104 0 0.945198
-0.378606 -0.851209 5.046050 255 97 0 0.947893
-0.396488 -0.834263 5.046900 255 90 0 0.949923
-0.404371 -0.857623 5.049930 255 104 0 0.945143
-0.370711 -0.827781 5.043050 255 97 0 0.948039
-0.349220 -0.833596 5.040810 255 86 0 0.951284
-0.331986 -0.850347 5.040010 255 104 0 0.945853
-0.653505 -1.032170 5.582060 164 0 0 0.991941
-0.660446 -1.029540 5.603980 160 0 0 0.992431
-0.684123 -1.021590 5.590760 160 0 0 0.992901
-0.667388 -1.027140 5.626020 164 0 0 0.991578
-0.691039 -1.019030 5.612710 155 0 0 0.993110
-0.698006 -1.016620 5.634700 164 0 0 0.991437
-0.674339 -1.024700 5.648110 173 0 0 0.989917
-0.714767 -1.011290 5.599210 164 0 0 0.991536
-0.721661 -1.008600 5.621230 169 0 0 0.990727
-0.745610 -1.000490 5.607540 173 0 0 0.989110
-0.737874 -1.002840 5.583970 169 0 0 0.990212
-0.706924 -1.013250 5.575790 160 0 0 0.992623
-0.730125 -1.005290 5.560530 173 0 0 0.989806
-0.699053 -1.015290 5.552550 155 0 0 0.993228
-0.676142 -1.023650 5.567290 155 0 0 0.993803
-0.668240 -1.025480 5.544080 151 0 0 0.994256
-0.722260 -1.007110 5.537340 169 0 0 0.990086
-0.691134 -1.017210 5.529340 155 0 0 0.993241
-0.714338 -1.009020 5.514160 173 0 0 0.989170
-0.645607 -1.034220 5.558700 160 0 0 0.992548
-0.681470 -1.022540 5.674500 196 0 0 0.984726
-0.688527 -1.018660 5.699080 214 0 0 0.980791
-0.712122 -1.011460 5.687300 205 0 0 0.982622
-0.695373 -1.014210 5.723570 228 0 0 0.977244
-0.718973 -1.007020 5.711780 214 0 0 0.980007
-0.742462 -0.999776 5.699940 210 0 0 0.981079
-0.766086 -0.990917 5.686200 196 0 0 0.984652
-0.735684 -1.003080 5.673670 192 0 0 0.985440
-0.759420 -0.994390 5.659990 183 0 0 0.987412
-0.728759 -1.005900 5.647490 178 0 0 0.988890
-0.705133 -1.014110 5.661020 183 0 0 0.987937
-0.752552 -0.997503 5.633810 178 0 0 0.988821
-0.852928 -0.952144 5.643190 169 0 0 0.990772
-0.830341 -0.963467 5.655440 173 0 0 0.989885
-0.824420 -0.965601 5.628130 164 0 0 0.991464
-0.847328 -0.954414 5.615960 169 0 0 0.990141
-0.802085 -0.976685 5.639730 173 0 0 0.989201
-0.818217 -0.967663 5.601200 169 0 0 0.990120
-0.795640 -0.978550 5.612770 164 0 0 0.991450
-0.789177 -0.980105 5.585930 164 0 0 0.991725
-0.841513 -0.956634 5.588890 187 0 0 0.986835
-0.812207 -0.969504 5.574080 178 0 0 0.988371
-0.835565 -0.958696 5.562120 201 0 0 0.982988
-0.773852 -0.989160 5.623790 173 0 0 0.989186
-0.766974 -0.990458 5.597000 164 0 0 0.991944
-0.780495 -0.985810 5.650000 173 0 0 0.989119
-0.787005 -0.982130 5.676320 178 0 0 0.988519
-0.808335 -0.972889 5.666150 173 0 0 0.989865
-0.829719 -0.958609 5.532210 228 0 0 0.976905
-0.804783 -0.972721 5.550790 196 0 0 0.984512
-0.798501 -0.972047 5.521040 196 0 0 0.984446
-0.823374 -0.958103 5.502620 246 12 0 0.972826
-0.774087 -0.985839 5.539010 183 0 0 0.987347
-0.791441 -0.971136 5.491650 210 0 0 0.981911
-0.767205 -0.984615 5.509520 178 0 0 0.988761
-0.760151 -0.983174 5.480040 173 0 0 0.989433
-0.816798 -0.957459 5.472660 255 30 0 0.967867
-0.784377 -0.969928 5.461770 219 0 0 0.978956
-0.809285 -0.956328 5.443060 255 67 0 0.956488
-0.744018 -0.998061 5.526680 178 0 0 0.988387
-0.736763 -0.996188 5.497450 164 0 0 0.991896
-0.751766 -0.995652 5.550020 173 0 0 0.989988
-0.759355 -0.993147 5.573500 164 0 0 0.991244
-0.781683 -0.983166 5.562350 173 0 0 0.989744
-0.684877 -1.004320 5.342710 255 19 0 0.971184
-0.670980 -1.012810 5.356320 223 0 0 0.978073
-0.667697 -1.017560 5.382170 196 0 0 0.984500
-0.654133 -1.026440 5.395440 201 0 0 0.983939
-0.650981 -1.031530 5.421070 210 0 0 0.981731
-0.630391 -1.039670 5.395910 237 4 0 0.974654
-0.674950 -1.018830 5.420390 183 0 0 0.987528
-0.671759 -1.023910 5.445920 192 0 0 0.985357
-0.687355 -1.013590 5.431190 178 0 0 0.988284
-0.690634 -1.008600 5.405490 187 0 0 0.986325
-0.703178 -1.003550 5.416230 187 0 0 0.986878
-0.706707 -0.998664 5.390180 205 0 0 0.982496
-0.694056 -1.003850 5.379450 210 0 0 0.981686
-0.710291 -0.994213 5.363900 246 12 0 0.972889
-0.719422 -0.993516 5.400800 205 0 0 0.982320
-0.723285 -0.989074 5.374300 255 19 0 0.970691
-0.736211 -0.984109 5.384810 255 23 0 0.969785
-0.697584 -0.999068 5.353340 242 8 0 0.974008
-0.612483 -1.045760 5.408320 223 0 0 0.978659
-0.602612 -1.049520 5.434900 201 0 0 0.983206
-0.584865 -1.055660 5.446970 201 0 0 0.982998
-0.600724 -1.050670 5.475250 187 0 0 0.986708
-0.620733 -1.042920 5.461600 178 0 0 0.988488
-0.640909 -1.035210 5.447730 183 0 0 0.987213
-0.635135 -1.038060 5.541630 160 0 0 0.992127
-0.657745 -1.029430 5.527030 155 0 0 0.993337
-0.647275 -1.033290 5.510020 160 0 0 0.992595
-0.680523 -1.021080 5.512180 160 0 0 0.992353
-0.669959 -1.024940 5.495230 164 0 0 0.991863
-0.693082 -1.016440 5.479940 187 0 0 0.986169
-0.703729 -1.012740 5.497070 183 0 0 0.987913
-0.659506 -1.028700 5.478130 169 0 0 0.990115
-0.682394 -1.020090 5.462910 187 0 0 0.986220
-0.639123 -1.035880 5.492150 164 0 0 0.991977
-0.618980 -1.043310 5.505830 164 0 0 0.991827
-0.627098 -1.040570 5.523660 164 0 0 0.991961
-0.719657 -1.002560 5.482450 169 0 0 0.990744
-0.742450 -0.989804 5.465210 169 0 0 0.990820
-0.725003 -0.996289 5.450320 169 0 0 0.990317
-0.766127 -0.976892 5.447240 205 0 0 0.982277
-0.748315 -0.983674 5.432420 210 0 0 0.981699
-0.772309 -0.971091 5.413990 255 45 0 0.962852
-0.790942 -0.964025 5.428390 255 60 0 0.959367
-0.730605 -0.990090 5.417630 205 0 0 0.982758
-0.754204 -0.977787 5.399410 255 41 0 0.963923
-0.714127 -0.999945 5.433260 178 0 0 0.988557
-0.698078 -1.009830 5.448230 178 0 0 0.988362
-0.708842 -1.006400 5.465320 173 0 0 0.989439
-0.632090 -0.603735 5.185850 255 90 0 0.949914
-0.656423 -0.613296 5.195990 255 86 0 0.951682
-0.671549 -0.629957 5.194120 255 116 0 0.942220
-0.695342 -0.640674 5.205200 255 138 0 0.934818
-0.677240 -0.652977 5.179560 255 186 0 0.918318
-0.689171 -0.617486 5.219650 255 71 0 0.955875
-0.712364 -0.628845 5.232080 255 71 0 0.955487
-0.672781 -0.599556 5.221230 255 45 0 0.963500
-0.656283 -0.581923 5.223000 255 38 0 0.965211
-0.689176 -0.672887 5.179830 255 193 0 0.916806
-0.710202 -0.687923 5.192990 255 182 0 0.920390
-0.721094 -0.708551 5.194480 255 204 0 0.913003
-0.741162 -0.724633 5.208990 255 212 0 0.909287
-0.721985 -0.734726 5.183910 229 255 19 0.889492
-0.739557 -0.698553 5.220390 255 145 0 0.931972
-0.759213 -0.714752 5.235900 255 138 0 0.934546
-0.728146 -0.676953 5.219210 255 119 0 0.941262
-0.716221 -0.655635 5.218540 255 104 0 0.945073
-0.798630 -0.696570 5.293550 255 53 0 0.961588
-0.787098 -0.675036 5.292620 251 16 0 0.972174
-0.777587 -0.679311 5.277740 255 30 0 0.967291
-0.765885 -0.658091 5.276990 237 4 0 0.974640
-0.775381 -0.653778 5.291780 228 0 0 0.977720
-0.756188 -0.662259 5.262040 255 23 0 0.970071
-0.753830 -0.636976 5.276420 233 1 0 0.976288
-0.743933 -0.641157 5.261420 246 12 0 0.972540
-0.731399 -0.620260 5.260790 255 19 0 0.970476
-0.763372 -0.632844 5.291040 214 0 0 0.980482
-0.741147 -0.616128 5.275730 228 0 0 0.977511
-0.750787 -0.611967 5.290410 210 0 0 0.981317
-0.734339 -0.645354 5.246460 255 41 0 0.963951
-0.721794 -0.624403 5.246190 255 41 0 0.964402
-0.758057 -0.688192 5.248680 255 71 0 0.955601
-0.779042 -0.705438 5.264890 255 82 0 0.952136
-0.732746 -0.589497 5.292230 183 0 0 0.987279
-0.724537 -0.597354 5.275580 210 0 0 0.981704
-0.706350 -0.574894 5.277410 255 64 0 0.957813
-0.714281 -0.566956 5.294220 255 45 0 0.963407
-0.698705 -0.582942 5.261160 255 86 0 0.951064
-0.688225 -0.552661 5.279500 255 64 0 0.957810
-0.680544 -0.561027 5.264010 255 82 0 0.952354
-0.696132 -0.544560 5.295680 169 0 0 0.990649
-0.672847 -0.569579 5.248800 237 4 0 0.975309
-0.689436 -0.587528 5.247600 237 4 0 0.975458
-0.705645 -0.605872 5.246790 255 19 0 0.970879
-0.715183 -0.601536 5.260980 223 0 0 0.977980
-0.739397 -0.902960 5.250510 255 101 0 0.947032
-0.750559 -0.878995 5.252450 255 71 0 0.956070
-0.761791 -0.892322 5.273090 255 93 0 0.948924
-0.761729 -0.854457 5.254400 255 56 0 0.960074
-0.773123 -0.867802 5.275140 255 78 0 0.953034
-0.784419 -0.842628 5.277360 255 75 0 0.954499
-0.784639 -0.881247 5.295940 255 97 0 0.947522
-0.772713 -0.829214 5.256390 255 86 0 0.951438
-0.783326 -0.803201 5.258810 255 145 0 0.932209
-0.763078 -0.814016 5.233660 255 160 0 0.927932
-0.752556 -0.839297 5.231590 255 108 0 0.944642
-0.741453 -0.864018 5.229980 255 93 0 0.948895
-0.742586 -0.824194 5.209730 255 193 0 0.915802
-0.797504 -0.874445 5.307690 255 119 0 0.940657
-0.795986 -0.856602 5.299640 255 82 0 0.952234
-0.809155 -0.849356 5.311470 255 82 0 0.952392
-0.810603 -0.867329 5.319410 255 108 0 0.944083
-0.807438 -0.831363 5.303450 255 90 0 0.949991
-0.821601 -0.842359 5.323630 255 86 0 0.950988
-0.819733 -0.824395 5.315760 255 78 0 0.953490
-0.831855 -0.817196 5.328060 255 82 0 0.952541
-0.823107 -0.860386 5.331470 255 101 0 0.946461
-0.833818 -0.835363 5.335820 255 75 0 0.954759
-0.835322 -0.853577 5.343830 255 93 0 0.949058
-0.817769 -0.806027 5.307840 255 104 0 0.945318
-0.829712 -0.798925 5.320190 255 93 0 0.948300
-0.827137 -0.780240 5.312420 255 101 0 0.946443
-0.816219 -0.785918 5.299140 255 123 0 0.939549
-0.806677 -0.811493 5.294530 255 104 0 0.945632
-0.805390 -0.791468 5.285750 255 130 0 0.937668
-0.795312 -0.817266 5.281220 255 108 0 0.944722
-0.795797 -0.837072 5.290460 255 82 0 0.952813
-0.794398 -0.797247 5.272280 255 145 0 0.932750
-0.796371 -0.722810 5.284060 255 64 0 0.958376
-0.793062 -0.749182 5.274830 255 93 0 0.948593
-0.776292 -0.731872 5.255560 255 86 0 0.951429
-0.782828 -0.753842 5.260520 255 112 0 0.942917
-0.772757 -0.758700 5.246230 255 134 0 0.935562
-0.788910 -0.776032 5.266350 255 127 0 0.938849
-0.799571 -0.770286 5.280080 255 101 0 0.946218
-0.810178 -0.764683 5.293680 255 86 0 0.951241
-0.803437 -0.743562 5.288470 255 78 0 0.953442
-0.813807 -0.737673 5.302230 255 67 0 0.956624
-0.820819 -0.759003 5.307130 255 71 0 0.955582
-0.806415 -0.717107 5.297660 255 49 0 0.962786
-0.756677 -0.741964 5.227930 255 145 0 0.932450
-0.753134 -0.769607 5.220810 255 156 0 0.929082
-0.738045 -0.752088 5.201840 255 204 0 0.912510
-0.733902 -0.779468 5.195330 255 216 0 0.908855
-0.748670 -0.796955 5.214520 255 178 0 0.921556
-0.768448 -0.786341 5.239430 255 145 0 0.932996
-0.586432 -0.654560 5.127530 255 64 0 0.957559
-0.599279 -0.668020 5.125740 255 82 0 0.952743
-0.619411 -0.675820 5.130740 255 112 0 0.943503
-0.632224 -0.689916 5.129280 255 149 0 0.931601
-0.646408 -0.677692 5.142710 255 190 0 0.917966
-0.632525 -0.662397 5.144800 255 130 0 0.936938
-0.612624 -0.654873 5.139740 255 82 0 0.951724
-0.598553 -0.640219 5.142070 255 67 0 0.956932
-0.635967 -0.714164 5.123210 255 153 0 0.930057
-0.645818 -0.731675 5.125080 255 164 0 0.925775
-0.663260 -0.744894 5.133700 255 193 0 0.916698
-0.672554 -0.762816 5.136000 255 227 0 0.904291
-0.688712 -0.753710 5.148660 219 255 29 0.885592
-0.678750 -0.734214 5.146500 255 219 0 0.907773
-0.661050 -0.720956 5.138180 255 171 0 0.923550
-0.650416 -0.702181 5.136760 255 171 0 0.924241
-0.703931 -0.719581 5.172570 255 230 0 0.902908
-0.693112 -0.699127 5.171220 255 208 0 0.910600
-0.673832 -0.685056 5.161340 255 193 0 0.916572
-0.662207 -0.665296 5.160890 255 186 0 0.918910
-0.676853 -0.710102 5.153390 255 204 0 0.913151
-0.705779 -0.744226 5.165980 219 255 29 0.886050
-0.655762 -0.643626 5.172070 255 134 0 0.935793
-0.640795 -0.627270 5.174200 255 101 0 0.946806
-0.619012 -0.618810 5.167220 255 78 0 0.953266
-0.626507 -0.640998 5.155680 255 97 0 0.948247
-0.734414 -0.917477 5.261830 255 60 0 0.958625
-0.747318 -0.911863 5.271850 255 78 0 0.953154
-0.742399 -0.926405 5.283100 255 53 0 0.961184
-0.729719 -0.931983 5.272880 255 45 0 0.963758
-0.755226 -0.920757 5.293230 255 64 0 0.958185
-0.737622 -0.940961 5.294040 255 53 0 0.960819
-0.750570 -0.935530 5.304160 255 60 0 0.958903
-0.745614 -0.950104 5.315280 255 75 0 0.954323
-0.725117 -0.946401 5.283710 255 49 0 0.962729
-0.733002 -0.955402 5.304910 255 71 0 0.955295
-0.720383 -0.960903 5.294590 255 67 0 0.956329
-0.763145 -0.929949 5.314780 255 71 0 0.955498
-0.758450 -0.944777 5.325610 255 93 0 0.949347
-0.771362 -0.939304 5.335980 255 112 0 0.942885
-0.778176 -0.910392 5.315880 255 60 0 0.958469
-0.769737 -0.901227 5.294610 255 75 0 0.954587
-0.711169 -0.971554 5.306940 255 27 0 0.968988
-0.724317 -0.966414 5.317140 255 34 0 0.966174
-0.715084 -0.977138 5.329510 242 8 0 0.974309
-0.702202 -0.982295 5.319060 237 4 0 0.975273
-0.728113 -0.972005 5.339860 246 12 0 0.972829
-0.706249 -0.988082 5.341440 237 4 0 0.975167
-0.719007 -0.982876 5.352060 233 1 0 0.976297
-0.693392 -0.993235 5.331010 242 8 0 0.974471
-0.731995 -0.977901 5.362500 246 12 0 0.973122
-0.744836 -0.972919 5.372770 255 23 0 0.969463
-0.740584 -0.966702 5.350470 255 23 0 0.970019
-0.753374 -0.961502 5.360810 255 38 0 0.965861
-0.749333 -0.955751 5.338190 255 49 0 0.962577
-0.736696 -0.961001 5.327720 255 34 0 0.966794
-0.762475 -0.950409 5.348300 255 78 0 0.953880
-0.814660 -0.944604 5.427010 255 67 0 0.956243
-0.799945 -0.952285 5.416340 255 64 0 0.957958
-0.805128 -0.940580 5.400300 255 86 0 0.951506
-0.819542 -0.932982 5.411200 255 64 0 0.957549
-0.790430 -0.948056 5.389450 255 86 0 0.951167
-0.810225 -0.929016 5.384130 255 104 0 0.945187
-0.795598 -0.936351 5.373390 255 104 0 0.945916
-0.800678 -0.924906 5.357180 255 130 0 0.937775
-0.824866 -0.921202 5.395110 255 86 0 0.950570
-0.815535 -0.917140 5.368000 255 134 0 0.936572
-0.829745 -0.909647 5.379110 255 138 0 0.935192
-0.780895 -0.943525 5.362750 255 97 0 0.947950
-0.785853 -0.932256 5.346660 255 116 0 0.941490
-0.771884 -0.955013 5.374980 255 67 0 0.956814
-0.762769 -0.966433 5.387410 255 45 0 0.963822
-0.781127 -0.959549 5.401960 255 56 0 0.959959
-0.820265 -0.888352 5.349440 255 97 0 0.947474
-0.832653 -0.881630 5.361430 255 86 0 0.950788
-0.807588 -0.895131 5.337400 255 104 0 0.945448
-0.792530 -0.902888 5.326810 255 71 0 0.955464
0.072693 -1.058150 5.144170 103 255 145 0.830013
0.091679 -1.056680 5.128060 48 255 200 0.799660
0.058791 -1.054090 5.124150 90 255 158 0.822717
0.077709 -1.052650 5.108190 51 255 196 0.802023
0.046243 -1.048460 5.105170 96 255 151 0.826100
0.067289 -1.045880 5.090230 19 253 229 0.780925
0.035481 -1.041250 5.087000 48 255 200 0.798973
0.056539 -1.038700 5.072070 0 213 255 0.759944
-0.346841 -1.018170 5.154000 255 60 0 0.959444
-0.372237 -1.009100 5.148170 255 34 0 0.966621
-0.332888 -1.011830 5.139840 255 78 0 0.953582
-0.358217 -1.002890 5.133840 255 71 0 0.956030
-0.344212 -0.996469 5.119730 255 90 0 0.950155
-0.383781 -0.993855 5.128190 255 56 0 0.960082
-0.319018 -1.005220 5.125820 255 93 0 0.948871
-0.305069 -0.998435 5.111900 255 104 0 0.945805
-0.294954 -1.012190 5.130120 255 86 0 0.950896
-0.308850 -1.019100 5.144090 255 86 0 0.951024
-0.322710 -1.025710 5.158150 255 78 0 0.953074
-0.284863 -1.026210 5.148390 255 108 0 0.944235
-0.367242 -0.986602 5.115710 255 67 0 0.956307
-0.391564 -0.974226 5.110360 255 53 0 0.961306
-0.350840 -0.979072 5.103490 255 86 0 0.951326
-0.374931 -0.966724 5.097850 255 86 0 0.951264
-0.358408 -0.959177 5.085640 255 130 0 0.937170
-0.399386 -0.954452 5.092380 255 90 0 0.950163
-0.334462 -0.971327 5.091470 255 116 0 0.941555
-0.318065 -0.963478 5.079540 255 145 0 0.932274
-0.311616 -0.980970 5.095740 255 108 0 0.943901
-0.327973 -0.988847 5.107620 255 108 0 0.943863
-0.217554 -0.974212 5.063470 255 208 0 0.910819
-0.239926 -0.980246 5.075520 255 197 0 0.914648
-0.212323 -0.989130 5.077560 255 175 0 0.923027
-0.262125 -0.986337 5.087640 255 145 0 0.932954
-0.234764 -0.995312 5.089690 255 171 0 0.923486
-0.257015 -1.001320 5.101950 255 130 0 0.936601
-0.207170 -1.004230 5.091770 255 164 0 0.926108
-0.283902 -0.992406 5.099830 255 127 0 0.938567
-0.290378 -0.974988 5.083760 255 156 0 0.928827
-0.268697 -0.968792 5.071580 255 175 0 0.922326
-0.227053 -1.009680 5.105840 255 149 0 0.931793
-0.197946 -1.016210 5.108040 255 138 0 0.934867
-0.246827 -1.015160 5.120090 255 101 0 0.946752
-0.217882 -1.021750 5.122170 255 127 0 0.938100
-0.237881 -1.027380 5.136510 255 123 0 0.940030
-0.188625 -1.028420 5.124370 255 141 0 0.933979
-0.266172 -1.020790 5.134230 255 108 0 0.944689
-0.276298 -1.006810 5.116030 255 116 0 0.941772
0.003952 -0.993431 5.020560 0 177 255 0.738809
0.001444 -0.978908 5.010420 0 197 255 0.750944
-0.001220 -0.964520 5.000250 0 153 255 0.724634
-0.000741 -0.947419 4.993060 0 153 255 0.723442
0.025904 -1.032620 5.070100 19 253 229 0.782509
0.048612 -1.029320 5.056480 0 177 255 0.738788
0.017876 -1.022700 5.054450 16 249 232 0.778613
0.040673 -1.019580 5.040910 0 109 255 0.694630
0.011273 -1.011660 5.040210 0 185 255 0.743440
-0.190827 -0.969067 5.053110 245 249 3 0.896729
-0.219180 -0.957046 5.052790 255 208 0 0.911799
-0.164253 -0.963826 5.042930 255 238 0 0.901090
-0.192553 -0.951945 5.042440 251 241 0 0.900010
-0.165901 -0.946777 5.032180 248 245 0 0.898077
-0.220957 -0.939724 5.041970 255 216 0 0.909109
-0.137750 -0.958528 5.032860 245 249 3 0.897055
-0.111432 -0.953156 5.022770 206 255 42 0.879598
-0.109558 -0.968582 5.033120 225 255 22 0.888658
-0.135879 -0.974047 5.043220 255 234 0 0.901509
-0.162376 -0.979385 5.053240 255 234 0 0.901944
-0.107651 -0.984124 5.043400 225 255 22 0.888768
-0.192574 -0.934192 5.033540 255 230 0 0.902821
-0.218322 -0.920005 5.034770 255 201 0 0.914107
-0.164261 -0.928473 5.025150 255 212 0 0.909486
-0.189873 -0.914547 5.026260 255 193 0 0.916486
-0.136933 -0.931748 5.020310 251 241 0 0.898792
-0.109653 -0.934980 5.015550 219 255 29 0.885358
-0.028295 -0.944526 4.998740 13 245 235 0.778330
-0.055861 -0.941671 5.004410 74 255 174 0.814423
-0.056419 -0.958754 5.011630 51 255 196 0.801987
-0.028922 -0.961611 5.005990 0 209 255 0.757945
-0.083716 -0.947338 5.013660 158 255 90 0.857940
-0.081888 -0.929308 5.006350 161 255 87 0.859781
-0.026581 -0.976516 5.016220 0 225 251 0.766032
-0.054525 -0.974083 5.021970 77 255 171 0.816283
-0.051987 -0.988665 5.032100 77 255 171 0.816156
-0.024050 -0.991035 5.026370 29 255 219 0.786617
-0.081033 -0.979056 5.032660 155 255 93 0.855767
-0.083075 -0.963669 5.022460 155 255 93 0.856373
0.008242 -1.040460 5.092780 119 255 129 0.839063
-0.013157 -1.043190 5.107450 200 255 48 0.877279
0.019418 -1.047750 5.110940 135 255 113 0.846037
-0.002099 -1.050550 5.125760 200 255 48 0.877485
-0.034699 -1.045980 5.122180 255 230 0 0.903881
-0.055896 -1.048850 5.136870 255 167 0 0.924867
-0.068670 -1.040480 5.119130 255 156 0 0.928480
-0.047293 -1.037710 5.104450 255 227 0 0.905335
-0.025745 -1.034960 5.089800 167 255 80 0.862328
-0.081341 -1.032410 5.101410 255 186 0 0.919393
0.033111 -1.053910 5.129800 164 255 84 0.860519
0.014121 -1.055270 5.145230 190 255 58 0.872837
0.047025 -1.057800 5.149870 151 255 96 0.855067
-0.004757 -1.056800 5.160780 255 238 0 0.900749
-0.039824 -1.053440 5.156550 255 160 0 0.927943
-0.020842 -1.052000 5.141090 255 223 0 0.906296
-0.107859 -1.054590 5.182200 255 108 0 0.944262
-0.143156 -1.051120 5.178270 255 108 0 0.944708
-0.090551 -1.052660 5.167080 255 101 0 0.946334
-0.125888 -1.049390 5.163090 255 101 0 0.946514
-0.108478 -1.047540 5.148010 255 130 0 0.937214
-0.160987 -1.046180 5.159210 255 119 0 0.940672
-0.073270 -1.050800 5.152040 255 123 0 0.939547
-0.056969 -1.055480 5.171630 255 116 0 0.941624
-0.140945 -1.042820 5.144620 255 123 0 0.939024
-0.174902 -1.037210 5.141820 255 112 0 0.942772
-0.121083 -1.039350 5.130180 255 130 0 0.936771
-0.154824 -1.033790 5.127240 255 134 0 0.936051
-0.135022 -1.030480 5.112800 255 149 0 0.930691
-0.101120 -1.035950 5.115790 255 156 0 0.929177
-0.088539 -1.044050 5.133560 255 130 0 0.937630
-0.019242 -1.003740 5.039560 29 255 219 0.788367
-0.047325 -1.001930 5.045350 90 255 158 0.822429
-0.042151 -1.014260 5.058420 129 255 119 0.844011
-0.014081 -1.016110 5.052590 58 255 190 0.804460
-0.072645 -1.006330 5.057650 193 255 55 0.874112
-0.097970 -1.010670 5.069860 248 245 0 0.897442
-0.102787 -0.997354 5.056640 255 230 0 0.903634
-0.077409 -0.993011 5.044370 171 255 77 0.864165
-0.005963 -1.026400 5.068250 71 255 177 0.811588
-0.033679 -1.025090 5.074020 151 255 96 0.853976
-0.057363 -1.028770 5.087680 248 245 0 0.897691
-0.089538 -1.021470 5.085620 255 208 0 0.911480
-0.065805 -1.017840 5.071990 203 255 45 0.878980
-0.165892 -1.024080 5.110610 255 153 0 0.929903
-0.143320 -1.019580 5.096990 255 156 0 0.929132
-0.175063 -1.011960 5.094260 255 171 0 0.923932
-0.152224 -1.007540 5.080600 255 204 0 0.912430
-0.120640 -1.015140 5.083430 255 182 0 0.919543
-0.112283 -1.026010 5.099200 255 171 0 0.924158
-0.182087 -0.999250 5.079440 255 182 0 0.920074
-0.157155 -0.994198 5.067290 255 216 0 0.909190
-0.187124 -0.984359 5.065290 255 219 0 0.907139
-0.132352 -0.989163 5.055310 255 230 0 0.903670
-0.127575 -1.002420 5.068620 255 208 0 0.910702
-0.206211 -1.032660 5.139390 255 123 0 0.940133
-0.223960 -1.036820 5.154510 255 104 0 0.945014
-0.192135 -1.041570 5.156580 255 116 0 0.941548
-0.210170 -1.045710 5.171920 255 127 0 0.938258
-0.241145 -1.041010 5.169670 255 104 0 0.945610
-0.257838 -1.045150 5.184700 255 119 0 0.941041
-0.271268 -1.035590 5.166600 255 97 0 0.948201
-0.254823 -1.031550 5.151560 255 116 0 0.941515
-0.175957 -1.048600 5.174760 255 101 0 0.946334
-0.192238 -1.050780 5.191000 255 108 0 0.943667
-0.158200 -1.053680 5.193920 255 108 0 0.943921
-0.207925 -1.052950 5.207120 255 97 0 0.947897
-0.240535 -1.049970 5.203940 255 90 0 0.949856
-0.225684 -1.047880 5.187970 255 101 0 0.946094
-0.296628 -1.050520 5.221660 255 60 0 0.958955
-0.277953 -1.050420 5.216000 255 67 0 0.957288
-0.295361 -1.045440 5.195930 255 93 0 0.949030
-0.314017 -1.045500 5.201640 255 67 0 0.957045
-0.267943 -1.047810 5.200420 255 82 0 0.951701
-0.250690 -1.052740 5.219690 255 75 0 0.954194
-0.327712 -1.035500 5.182680 255 56 0 0.959718
-0.308641 -1.035790 5.177830 255 78 0 0.953552
-0.296822 -1.031100 5.163040 255 90 0 0.949636
-0.283314 -1.040570 5.181290 255 90 0 0.950529
-0.462969 -1.029950 5.212020 210 0 0 0.981711
-0.463099 -1.037180 5.228410 201 0 0 0.983261
-0.444944 -1.050320 5.251700 228 0 0 0.977615
-0.463326 -1.044440 5.244770 205 0 0 0.982431
-0.463506 -1.051820 5.261190 223 0 0 0.978091
-0.482402 -1.038060 5.236760 205 0 0 0.982542
-0.482287 -1.030840 5.220360 210 0 0 0.981736
-0.482149 -1.023860 5.203810 228 0 0 0.977086
-0.501427 -1.024840 5.212140 233 1 0 0.975812
-0.412486 -1.057170 5.270020 214 0 0 0.980858
-0.409986 -1.061820 5.286670 223 0 0 0.978140
-0.427904 -1.063640 5.296570 228 0 0 0.977276
-0.430488 -1.058940 5.279960 214 0 0 0.980426
-0.442376 -1.055010 5.268200 219 0 0 0.979635
-0.461605 -1.066420 5.317960 223 0 0 0.978014
-0.465159 -1.061770 5.300700 214 0 0 0.980566
-0.477467 -1.057740 5.288860 214 0 0 0.980228
-0.481040 -1.053020 5.271840 223 0 0 0.978698
-0.498560 -1.054310 5.282310 228 0 0 0.977073
-0.459994 -1.056450 5.278350 210 0 0 0.981629
-0.448076 -1.060430 5.290150 214 0 0 0.980737
-0.444620 -1.065080 5.307280 214 0 0 0.979904
-0.499217 -1.046680 5.264850 205 0 0 0.982573
-0.517747 -1.040000 5.257490 210 0 0 0.981652
-0.499880 -1.039220 5.247310 201 0 0 0.983207
-0.518592 -1.032680 5.239900 210 0 0 0.981019
-0.519394 -1.025540 5.222250 233 1 0 0.976156
-0.537394 -1.026340 5.232200 242 8 0 0.974490
-0.500716 -1.031900 5.229800 210 0 0 0.981226
-0.481640 -1.045430 5.254340 205 0 0 0.982586
-0.380146 -0.946645 5.082840 255 108 0 0.944147
-0.403211 -0.930727 5.079180 255 75 0 0.954207
-0.361164 -0.938875 5.073570 255 116 0 0.941538
-0.383894 -0.922969 5.069830 255 93 0 0.948890
-0.364733 -0.915162 5.060750 255 119 0 0.940515
-0.407097 -0.907212 5.066090 255 90 0 0.950287
-0.342187 -0.930786 5.064590 255 112 0 0.943052
-0.323262 -0.922739 5.055760 255 160 0 0.927277
-0.320689 -0.943120 5.067720 255 123 0 0.939100
-0.339527 -0.951177 5.076560 255 127 0 0.938703
-0.384762 -0.900186 5.059490 255 97 0 0.947921
-0.405771 -0.882428 5.057980 255 86 0 0.951331
-0.362642 -0.893005 5.053070 255 101 0 0.946939
-0.383279 -0.875307 5.051480 255 97 0 0.947577
-0.341716 -0.896721 5.050590 255 123 0 0.939422
-0.320985 -0.900587 5.048310 255 138 0 0.935008
-0.244480 -0.915684 5.038300 255 197 0 0.915446
-0.270301 -0.911484 5.041910 255 186 0 0.919357
-0.272996 -0.931204 5.049140 255 193 0 0.916717
-0.247170 -0.935409 5.045530 255 219 0 0.907353
-0.297036 -0.917065 5.048880 255 153 0 0.930014
-0.294724 -0.894925 5.041430 255 145 0 0.932615
-0.244972 -0.954185 5.056710 255 201 0 0.914305
-0.270456 -0.951476 5.060790 255 182 0 0.920135
-0.294539 -0.957475 5.070230 255 178 0 0.921029
-0.297041 -0.937099 5.058330 255 178 0 0.921254
-0.568353 -0.793132 5.081530 255 108 0 0.944601
-0.553572 -0.782187 5.076730 255 97 0 0.948259
-0.554347 -0.762949 5.077840 255 108 0 0.943882
-0.539103 -0.752568 5.073480 255 116 0 0.941959
-0.538658 -0.771523 5.071980 255 104 0 0.945380
-0.523803 -0.761073 5.067140 255 130 0 0.936691
-0.535577 -0.789095 5.070470 255 101 0 0.946372
-0.550312 -0.799911 5.075510 255 97 0 0.947885
-0.565171 -0.810875 5.080430 255 116 0 0.942307
-0.546933 -0.817624 5.074350 255 112 0 0.943299
-0.537821 -0.736399 5.077630 255 86 0 0.950959
-0.517354 -0.711782 5.080300 255 67 0 0.956983
-0.496112 -0.726114 5.071070 255 86 0 0.951392
-0.513039 -0.733290 5.072820 255 86 0 0.951393
-0.473085 -0.740134 5.064220 255 75 0 0.954430
-0.489959 -0.747010 5.065320 255 86 0 0.951406
-0.506438 -0.769139 5.062870 255 116 0 0.942228
-0.481059 -0.766150 5.059490 255 101 0 0.946377
-0.494182 -0.790370 5.059940 255 97 0 0.948203
-0.508708 -0.800361 5.063970 255 86 0 0.950646
-0.523142 -0.810482 5.068060 255 78 0 0.953308
-0.508570 -0.830147 5.065210 255 93 0 0.948871
-0.521189 -0.779178 5.066660 255 101 0 0.946238
-0.409888 -0.963692 5.104520 255 53 0 0.960770
-0.420464 -0.972870 5.116570 255 38 0 0.965487
-0.401973 -0.983231 5.122460 255 34 0 0.966209
-0.412545 -0.992366 5.134480 255 34 0 0.967079
-0.431106 -0.981912 5.128640 255 27 0 0.969019
-0.441742 -0.990869 5.140760 255 27 0 0.968863
-0.449237 -0.970177 5.122480 255 23 0 0.969670
-0.438528 -0.961148 5.110230 255 41 0 0.964541
-0.427846 -0.951985 5.098140 255 60 0 0.958837
-0.456790 -0.949646 5.103800 255 60 0 0.958798
-0.392314 -1.000970 5.141920 255 27 0 0.968673
-0.401003 -1.008280 5.155430 246 12 0 0.973322
-0.380848 -1.016460 5.161790 255 23 0 0.969698
-0.430044 -1.006780 5.161710 233 1 0 0.976246
-0.421250 -0.999489 5.148110 246 12 0 0.973240
-0.463373 -1.006490 5.171090 228 0 0 0.977476
-0.463954 -0.990445 5.146650 255 19 0 0.970565
-0.480367 -0.998235 5.163200 246 12 0 0.972645
-0.446391 -1.014880 5.178550 223 0 0 0.978411
-0.489797 -0.979338 5.143060 255 30 0 0.967931
-0.482380 -0.969279 5.131010 255 23 0 0.970340
-0.474991 -0.959055 5.118860 255 30 0 0.968012
-0.496662 -0.957981 5.124360 255 34 0 0.966308
-0.489419 -0.948044 5.112120 255 45 0 0.963046
-0.456597 -0.980309 5.134560 251 16 0 0.971519
-0.681965 -0.988911 5.302290 228 0 0 0.977025
-0.690845 -0.978243 5.290300 255 23 0 0.969898
-0.699949 -0.967615 5.278000 255 60 0 0.958544
-0.679426 -0.974375 5.261500 255 67 0 0.956589
-0.662007 -0.994930 5.285580 242 8 0 0.973881
-0.663550 -1.002550 5.305620 242 8 0 0.974358
-0.665155 -1.010360 5.325700 255 23 0 0.969596
-0.645493 -1.016410 5.308650 255 41 0 0.964828
-0.710559 -0.939112 5.255610 255 56 0 0.959918
-0.715443 -0.924834 5.244530 255 67 0 0.956485
-0.720347 -0.910401 5.233300 255 104 0 0.945136
-0.701042 -0.917774 5.216310 255 127 0 0.937958
-0.695357 -0.931892 5.228050 255 67 0 0.957268
-0.689698 -0.945970 5.239600 255 45 0 0.963701
-0.694772 -0.956697 5.258830 255 45 0 0.963752
-0.664346 -0.927832 5.188960 255 127 0 0.938765
-0.658335 -0.941324 5.200760 255 64 0 0.957857
-0.662310 -0.952886 5.218720 255 41 0 0.964177
-0.656979 -0.966475 5.229880 255 38 0 0.965111
-0.661039 -0.978231 5.247710 255 60 0 0.959331
-0.642622 -0.982219 5.233610 255 64 0 0.958174
-0.675509 -0.962540 5.243670 255 45 0 0.963547
-0.676994 -0.936805 5.214400 255 64 0 0.958250
-0.682653 -0.922807 5.202700 255 119 0 0.940214
-0.643289 -0.990497 5.252530 255 23 0 0.969554
-0.625903 -1.002010 5.257540 237 4 0 0.974803
-0.643836 -0.998931 5.271430 237 4 0 0.974742
-0.626726 -1.010680 5.276140 242 8 0 0.974140
-0.627693 -1.019550 5.294700 255 30 0 0.967922
-0.609924 -1.022650 5.280640 255 30 0 0.967563
-0.644535 -1.007580 5.290110 246 12 0 0.973073
-0.661535 -0.986542 5.266690 255 23 0 0.970044
-0.583444 -0.940952 5.144100 255 82 0 0.952496
-0.585601 -0.924734 5.135440 255 64 0 0.958278
-0.577608 -0.910324 5.123450 255 45 0 0.963701
-0.579751 -0.893841 5.114630 255 60 0 0.959295
-0.571607 -0.879418 5.102540 255 67 0 0.956834
-0.591658 -0.875196 5.109360 255 93 0 0.948385
-0.559760 -0.897837 5.107780 255 49 0 0.962089
-0.551657 -0.883519 5.095630 255 67 0 0.956370
-0.557183 -0.913103 5.116050 255 34 0 0.966474
-0.555088 -0.928412 5.124110 255 45 0 0.963423
-0.562763 -0.942671 5.136190 255 60 0 0.959356
-0.542337 -0.944649 5.127980 255 60 0 0.958945
-0.589859 -0.857493 5.103290 255 78 0 0.952937
-0.578569 -0.843064 5.094610 255 71 0 0.956066
-0.576518 -0.825272 5.088890 255 90 0 0.949845
-0.558587 -0.831900 5.082800 255 86 0 0.951379
-0.559601 -0.848451 5.088210 255 67 0 0.956547
-0.560795 -0.865027 5.093550 255 64 0 0.958210
-0.519672 -0.843358 5.072680 255 64 0 0.957643
-0.509717 -0.860488 5.074860 255 49 0 0.962042
-0.530453 -0.856712 5.080200 255 45 0 0.962954
-0.520297 -0.873831 5.082650 255 49 0 0.962739
-0.530919 -0.887155 5.090410 255 56 0 0.959683
-0.510381 -0.890763 5.084890 255 56 0 0.959912
-0.541046 -0.870061 5.087950 255 53 0 0.961706
-0.538925 -0.837177 5.077200 255 71 0 0.956118
-0.518585 -0.904312 5.095610 255 41 0 0.964860
-0.505305 -0.919154 5.099980 255 34 0 0.966801
-0.526712 -0.917763 5.106370 255 41 0 0.964833
-0.513373 -0.932605 5.110740 255 38 0 0.965801
-0.521264 -0.945988 5.121530 255 53 0 0.961299
-0.534632 -0.931228 5.117130 255 41 0 0.964549
-0.538894 -0.900669 5.101210 255 38 0 0.965943
-0.444810 -0.752859 5.058180 255 75 0 0.954160
-0.433411 -0.772013 5.053400 255 78 0 0.953192
-0.447647 -0.793251 5.051490 255 101 0 0.946228
-0.460048 -0.774293 5.056040 255 90 0 0.950039
-0.397399 -0.770894 5.050360 255 82 0 0.952136
-0.396062 -0.796091 5.046740 255 97 0 0.947485
-0.417811 -0.802360 5.047880 255 97 0 0.947288
-0.425617 -0.787198 5.050600 255 93 0 0.948867
-0.414990 -0.841490 5.050410 255 86 0 0.951505
-0.434197 -0.850113 5.054060 255 82 0 0.951856
-0.425738 -0.825358 5.050830 255 71 0 0.956146
-0.445165 -0.834009 5.054340 255 71 0 0.955073
-0.456235 -0.817712 5.054510 255 71 0 0.955307
-0.464718 -0.842519 5.057760 255 90 0 0.950081
-0.436741 -0.809316 5.051160 255 78 0 0.953290
-0.407129 -0.818364 5.047450 255 75 0 0.954013
-0.481810 -0.823089 5.059820 255 71 0 0.955083
-0.488197 -0.806788 5.059860 255 75 0 0.954275
-0.472656 -0.797692 5.056590 255 78 0 0.953486
-0.419742 -0.867518 5.056200 255 78 0 0.952963
-0.435143 -0.877530 5.062630 255 60 0 0.959503
-0.421047 -0.892345 5.064390 255 75 0 0.954920
-0.436347 -0.902326 5.071000 255 67 0 0.956208
-0.450749 -0.887597 5.069090 255 53 0 0.960636
-0.466293 -0.897560 5.075630 255 64 0 0.957919
-0.465434 -0.869950 5.066600 255 56 0 0.959914
-0.449786 -0.860080 5.060320 255 64 0 0.957724
-0.419539 -0.917898 5.075420 255 67 0 0.956600
-0.431922 -0.928552 5.084870 255 53 0 0.960936
-0.415464 -0.941397 5.088660 255 53 0 0.961234
-0.444413 -0.939138 5.094300 255 49 0 0.962709
-0.461545 -0.923590 5.089780 255 38 0 0.965138
-0.448955 -0.912970 5.080350 255 53 0 0.960708
-0.483476 -0.922519 5.095190 255 34 0 0.966311
-0.496802 -0.906654 5.090160 255 34 0 0.966316
-0.488234 -0.894121 5.080420 255 53 0 0.961491
-0.474917 -0.910060 5.085420 255 45 0 0.963574
-0.469969 -0.936032 5.099560 255 38 0 0.966018
-0.499004 -0.878699 5.077960 255 41 0 0.964163
-0.487501 -0.866516 5.071160 255 45 0 0.962828
-0.498215 -0.848390 5.068230 255 60 0 0.958647
-0.476301 -0.854409 5.064450 255 60 0 0.959276
-0.476887 -0.882101 5.073450 255 45 0 0.963481
-0.568921 -0.953109 5.150420 255 38 0 0.965049
-0.554389 -0.965265 5.156400 255 23 0 0.969931
-0.548533 -0.954864 5.142130 255 38 0 0.965931
-0.534284 -0.967192 5.147870 255 27 0 0.969225
-0.540265 -0.977624 5.161960 255 23 0 0.969780
-0.526377 -0.990250 5.167290 255 41 0 0.964690
-0.545570 -0.989853 5.176640 255 38 0 0.965229
-0.559624 -0.977351 5.171220 255 23 0 0.970016
-0.574143 -0.965234 5.165180 255 30 0 0.967342
-0.564945 -0.989703 5.185810 255 45 0 0.963367
-0.528144 -0.955762 5.134350 255 30 0 0.967296
-0.513957 -0.967006 5.140650 255 19 0 0.970462
-0.496248 -0.990131 5.156140 255 30 0 0.967580
-0.520153 -0.978605 5.154030 255 19 0 0.971244
-0.478433 -1.014480 5.188630 214 0 0 0.979932
-0.494280 -1.006140 5.181780 223 0 0 0.978507
-0.497809 -1.015340 5.196940 223 0 0 0.978501
-0.513644 -1.007120 5.189910 228 0 0 0.977243
-0.510155 -0.998112 5.174630 242 8 0 0.973744
-0.516984 -1.015670 5.205870 214 0 0 0.980135
-0.532748 -1.006710 5.199420 219 0 0 0.979169
-0.535077 -1.016400 5.215850 219 0 0 0.979106
-0.550963 -1.007540 5.209250 228 0 0 0.977141
-0.548769 -0.998046 5.192740 242 8 0 0.974007
-0.529454 -0.998373 5.183320 242 8 0 0.974002
-0.665955 -0.909431 5.179430 255 101 0 0.946886
-0.658631 -0.893695 5.163410 255 101 0 0.946910
-0.660207 -0.875217 5.153590 255 119 0 0.940250
-0.651826 -0.859298 5.138370 255 153 0 0.930228
-0.671511 -0.853435 5.149240 255 182 0 0.919813
-0.640723 -0.880819 5.142480 255 93 0 0.948413
-0.632028 -0.865183 5.127410 255 127 0 0.938928
-0.638995 -0.898488 5.151810 255 78 0 0.953010
-0.636610 -0.916046 5.161500 255 82 0 0.952499
-0.644561 -0.931576 5.176790 255 104 0 0.945001
-0.624657 -0.935445 5.164670 255 101 0 0.946219
-0.668319 -0.833153 5.142280 255 167 0 0.925508
-0.655625 -0.816747 5.130530 255 138 0 0.934293
-0.651614 -0.796380 5.124200 255 156 0 0.928173
-0.633621 -0.804658 5.113890 255 134 0 0.936229
-0.636647 -0.823809 5.120050 255 112 0 0.943273
-0.639506 -0.843058 5.126280 255 116 0 0.941646
-0.596030 -0.819128 5.096250 255 97 0 0.947164
-0.598144 -0.837031 5.101890 255 78 0 0.953575
-0.610334 -0.852273 5.112160 255 86 0 0.951374
-0.611766 -0.870143 5.118410 255 104 0 0.945853
-0.617803 -0.830632 5.110200 255 97 0 0.947569
-0.614388 -0.811543 5.104430 255 116 0 0.942049
-0.600515 -0.890262 5.122690 255 71 0 0.955504
-0.598197 -0.906862 5.131720 255 60 0 0.959143
-0.606299 -0.921732 5.145710 255 60 0 0.958905
-0.604050 -0.938131 5.154460 255 86 0 0.950859
-0.618741 -0.902896 5.141410 255 67 0 0.956851
-0.620325 -0.885300 5.132090 255 78 0 0.952976
-0.536517 -1.033260 5.250480 214 0 0 0.979986
-0.535614 -1.040210 5.268680 210 0 0 0.981900
-0.517052 -1.047160 5.275540 210 0 0 0.981432
-0.516315 -1.054380 5.293660 233 1 0 0.976527
-0.534813 -1.047320 5.286780 219 0 0 0.979617
-0.533946 -1.054450 5.304980 237 4 0 0.974728
-0.553504 -1.039830 5.280270 214 0 0 0.980119
-0.554497 -1.032920 5.262010 219 0 0 0.979410
-0.555476 -1.026080 5.243750 237 4 0 0.975289
-0.573411 -1.025890 5.255100 251 16 0 0.971744
-0.494556 -1.058640 5.299660 219 0 0 0.979525
-0.482166 -1.062620 5.311590 219 0 0 0.979743
-0.478166 -1.066950 5.329010 223 0 0 0.978678
-0.495281 -1.067190 5.340270 223 0 0 0.978327
-0.499305 -1.062930 5.322770 214 0 0 0.980387
-0.512189 -1.058720 5.311040 219 0 0 0.979685
-0.526161 -1.066370 5.364930 237 4 0 0.975676
-0.531507 -1.062390 5.347060 228 0 0 0.976996
-0.545417 -1.057740 5.335420 233 1 0 0.975854
-0.550811 -1.053640 5.317510 246 12 0 0.972582
-0.567715 -1.052680 5.330150 255 30 0 0.968034
-0.528543 -1.058710 5.322800 228 0 0 0.977128
-0.515623 -1.062980 5.334500 219 0 0 0.978976
-0.510293 -1.067110 5.352410 228 0 0 0.977297
-0.578104 -1.044910 5.318000 242 8 0 0.973578
-0.579514 -1.038170 5.299200 223 0 0 0.978020
-0.590119 -1.030700 5.286810 228 0 0 0.976768
-0.591725 -1.024270 5.267920 251 16 0 0.971830
-0.571909 -1.032400 5.274000 228 0 0 0.977673
-0.552113 -1.046700 5.298870 219 0 0 0.978939
-0.588626 -0.952299 5.160160 255 45 0 0.963326
-0.593817 -0.963763 5.176130 255 34 0 0.966992
-0.579169 -0.976545 5.181320 255 23 0 0.969331
-0.584436 -0.988344 5.197100 255 38 0 0.965391
-0.598943 -0.975403 5.192180 255 34 0 0.966699
-0.603988 -0.987247 5.208090 255 56 0 0.960399
-0.614006 -0.961074 5.186780 255 38 0 0.965615
-0.609086 -0.949619 5.170560 255 53 0 0.961458
-0.567072 -0.998368 5.203270 251 16 0 0.971940
-0.569194 -1.007350 5.220690 233 1 0 0.976563
-0.553271 -1.016730 5.226510 223 0 0 0.978047
-0.571280 -1.016550 5.237980 228 0 0 0.977086
-0.588408 -1.006130 5.232060 233 1 0 0.976344
-0.586468 -0.997167 5.214560 246 12 0 0.973541
-0.608350 -1.013540 5.262600 242 8 0 0.974003
-0.606959 -1.004650 5.244460 237 4 0 0.974977
-0.624564 -0.993210 5.239250 255 19 0 0.971029
-0.623411 -0.984712 5.220770 255 53 0 0.961548
-0.605505 -0.995896 5.226300 255 19 0 0.970625
-0.590087 -1.015090 5.249940 233 1 0 0.976203
-0.638190 -0.970271 5.216400 255 45 0 0.963149
-0.643362 -0.956718 5.205450 255 41 0 0.964423
-0.639102 -0.945121 5.188040 255 64 0 0.958018
-0.618678 -0.972816 5.203790 255 38 0 0.965329
-0.606805 -1.028910 5.300320 242 8 0 0.974554
-0.596140 -1.036350 5.312720 233 1 0 0.975907
-0.593240 -1.043000 5.332180 246 12 0 0.973075
-0.582836 -1.050740 5.344430 255 27 0 0.968687
-0.597890 -1.048760 5.358790 255 38 0 0.965208
-0.609567 -1.040320 5.346500 246 12 0 0.972538
-0.612586 -1.033740 5.326980 237 4 0 0.975662
-0.624483 -1.025730 5.314330 246 12 0 0.973529
-0.559434 -1.056990 5.349030 246 12 0 0.973164
-0.545577 -1.061550 5.360580 233 1 0 0.975784
-0.537386 -1.065740 5.379410 242 8 0 0.974379
-0.550395 -1.064320 5.393790 246 12 0 0.972667
-0.558651 -1.060210 5.375050 242 8 0 0.973815
