ply
format ascii 1.0
comment VCGLIB generated
element vertex 1008
property float x
property float y
property float z
property uchar red
property uchar green
property uchar blue
property float quality
end_header
-0.784284 -0.917158 5.897940 233 1 0 0.976118
-0.778684 -0.935255 5.876660 196 0 0 0.984114
-0.773572 -0.953345 5.856490 233 1 0 0.975599
-0.751140 -0.956524 5.869540 233 1 0 0.976063
-0.653132 -0.377850 5.422360 151 0 0 0.994617
-0.635800 -0.369398 5.419170 146 0 0 0.995877
-0.618094 -0.360922 5.415930 142 0 0 0.996765
-0.636421 -0.387538 5.402020 142 0 0 0.996266
-0.651856 -0.395298 5.405850 151 0 0 0.994353
-0.667833 -0.402947 5.409670 160 0 0 0.992314
-0.669326 -0.385428 5.425930 160 0 0 0.992947
-0.686819 -0.393203 5.429200 155 0 0 0.993032
-0.685210 -0.411006 5.413490 164 0 0 0.991202
-0.704254 -0.419813 5.416980 169 0 0 0.990892
-0.583949 -0.343720 5.408000 137 0 0 0.997386
-0.564762 -0.334522 5.404400 146 0 0 0.995425
-0.585755 -0.361540 5.390930 146 0 0 0.995874
-0.602620 -0.370467 5.394790 137 0 0 0.997439
-0.601089 -0.352574 5.412010 137 0 0 0.997679
-0.619599 -0.379164 5.398620 137 0 0 0.996951
-0.631191 -0.419703 5.363650 146 0 0 0.995354
-0.645383 -0.427563 5.368130 146 0 0 0.995730
-0.626208 -0.399891 5.380620 142 0 0 0.996799
-0.640521 -0.407635 5.384920 142 0 0 0.996313
-0.655680 -0.415614 5.389440 155 0 0 0.993867
-0.660069 -0.435660 5.372420 151 0 0 0.994305
-0.675676 -0.443619 5.377100 160 0 0 0.992665
-0.609108 -0.391116 5.377160 146 0 0 0.995856
-0.697542 -0.444924 5.392710 178 0 0 0.987995
-0.723620 -0.446678 5.406730 178 0 0 0.988516
-0.725078 -0.465690 5.393080 196 0 0 0.984750
-0.671560 -0.423611 5.393380 164 0 0 0.991796
-0.320271 -0.787429 5.042480 255 127 0 0.938794
-0.299620 -0.791692 5.041880 255 93 0 0.949138
-0.285555 -0.807472 5.041360 255 49 0 0.962567
-0.265346 -0.812260 5.040770 255 23 0 0.969483
-0.277773 -0.834010 5.039470 255 34 0 0.966457
-0.298069 -0.829152 5.039800 255 53 0 0.961516
-0.312060 -0.813255 5.041160 255 71 0 0.955712
-0.332858 -0.808099 5.041390 255 86 0 0.951054
-0.348632 -0.792466 5.043230 255 134 0 0.935560
-0.362161 -0.813467 5.042390 255 127 0 0.938726
-0.233471 -0.807087 5.039080 255 27 0 0.968811
-0.207063 -0.812978 5.035400 246 12 0 0.973040
-0.185027 -0.831168 5.030750 242 8 0 0.973611
-0.197505 -0.852746 5.030900 255 41 0 0.964067
-0.219563 -0.834675 5.036090 251 16 0 0.971760
-0.246245 -0.828601 5.038860 255 23 0 0.969256
-0.215320 -0.897835 5.034380 255 171 0 0.923380
-0.239564 -0.879700 5.037750 255 97 0 0.947713
-0.266053 -0.874298 5.039890 255 78 0 0.952930
-0.286531 -0.857132 5.041110 255 60 0 0.958437
-0.295295 -0.880616 5.041670 255 130 0 0.937295
-0.257022 -0.850812 5.039060 255 30 0 0.967309
-0.230678 -0.856656 5.036470 255 38 0 0.965755
-0.206219 -0.874924 5.033180 255 86 0 0.951217
-0.315536 -0.875861 5.042370 255 149 0 0.931206
-0.331782 -0.858792 5.042780 255 112 0 0.943406
-0.353131 -0.854060 5.044350 255 112 0 0.942421
-0.371310 -0.837050 5.044900 255 112 0 0.943083
-0.380855 -0.860665 5.047030 255 156 0 0.928707
-0.344236 -0.829862 5.042240 255 101 0 0.946782
-0.322749 -0.835466 5.041250 255 71 0 0.955515
-0.306912 -0.852138 5.041240 255 75 0 0.954447
-0.662921 -1.022470 5.595500 160 0 0 0.992283
-0.669325 -1.021820 5.615800 160 0 0 0.992762
-0.692212 -1.017000 5.602640 169 0 0 0.989974
-0.675855 -1.021840 5.637200 164 0 0 0.991273
-0.698899 -1.016380 5.623500 178 0 0 0.988786
-0.705535 -1.016060 5.645020 187 0 0 0.986633
-0.682733 -1.022260 5.659110 178 0 0 0.988011
-0.721211 -1.011170 5.609560 201 0 0 0.983655
-0.727672 -1.010290 5.630750 205 0 0 0.982455
-0.749652 -1.004110 5.616240 228 0 0 0.977194
-0.743240 -1.005570 5.594000 228 0 0 0.977218
-0.714445 -1.012050 5.587680 192 0 0 0.985169
-0.736810 -1.007190 5.572620 233 1 0 0.976450
-0.707604 -1.012710 5.567220 187 0 0 0.986079
-0.685290 -1.017290 5.581150 164 0 0 0.991283
-0.678405 -1.017570 5.560530 164 0 0 0.991021
-0.730585 -1.007600 5.552370 228 0 0 0.977637
-0.700921 -1.012950 5.546830 183 0 0 0.987237
-0.724140 -1.007490 5.532130 219 0 0 0.979243
-0.655855 -1.023110 5.574060 160 0 0 0.992037
-0.689497 -1.024340 5.686270 228 0 0 0.976637
-0.695738 -1.025400 5.711820 255 71 0 0.955742
-0.718310 -1.018590 5.697950 255 56 0 0.959523
-0.701314 -1.025620 5.737820 255 167 0 0.925381
-0.724184 -1.018200 5.723310 255 130 0 0.936953
-0.745749 -1.010330 5.709310 255 93 0 0.948430
-0.766711 -1.000570 5.693810 255 45 0 0.963743
-0.739908 -1.010300 5.682580 255 34 0 0.966422
-0.761327 -1.001470 5.667540 246 12 0 0.973095
-0.733991 -1.009950 5.656560 228 0 0 0.976997
-0.712197 -1.016970 5.671390 223 0 0 0.978649
-0.755605 -1.002340 5.641910 228 0 0 0.977123
-0.852609 -0.950962 5.639150 137 0 0 0.997438
-0.828008 -0.966905 5.656520 160 0 0 0.992602
-0.824964 -0.967745 5.629210 160 0 0 0.992923
-0.851196 -0.951844 5.611720 142 0 0 0.996664
-0.801470 -0.981914 5.644040 187 0 0 0.986288
-0.822150 -0.969135 5.602820 169 0 0 0.990405
-0.797608 -0.982615 5.617720 187 0 0 0.986542
-0.793536 -0.983964 5.592080 201 0 0 0.983778
-0.849596 -0.953945 5.585480 160 0 0 0.992248
-0.819578 -0.970960 5.576930 196 0 0 0.984473
-0.847745 -0.956553 5.560440 210 0 0 0.981775
-0.775632 -0.994155 5.630610 214 0 0 0.979807
-0.770427 -0.994954 5.604840 214 0 0 0.980239
-0.780760 -0.992581 5.656530 219 0 0 0.979186
-0.785755 -0.991019 5.682790 233 1 0 0.975572
-0.805742 -0.979695 5.670680 187 0 0 0.986496
-0.846367 -0.956925 5.532760 255 23 0 0.969611
-0.814582 -0.974687 5.555890 237 4 0 0.974514
-0.811301 -0.973798 5.528920 255 19 0 0.970472
-0.842868 -0.956345 5.506260 255 53 0 0.961538
-0.782476 -0.989513 5.549060 255 19 0 0.970546
-0.805986 -0.971734 5.501960 246 12 0 0.972835
-0.777533 -0.986860 5.522600 242 8 0 0.973919
-0.771725 -0.982931 5.495490 210 0 0 0.981548
-0.838169 -0.954487 5.478740 255 86 0 0.951087
-0.799462 -0.968390 5.474420 242 8 0 0.973930
-0.830404 -0.951469 5.451340 255 78 0 0.952908
-0.752403 -1.000360 5.540880 251 16 0 0.972174
-0.746894 -0.996013 5.514830 210 0 0 0.981183
-0.758466 -0.999360 5.561450 242 8 0 0.973574
-0.764376 -0.997293 5.582770 223 0 0 0.977755
-0.788204 -0.987144 5.570100 228 0 0 0.976937
-0.701299 -0.989869 5.363950 205 0 0 0.982706
-0.686925 -1.000170 5.378830 196 0 0 0.984446
-0.682396 -1.006310 5.406760 201 0 0 0.983600
-0.668373 -1.016400 5.421020 210 0 0 0.981335
-0.664526 -1.022160 5.447850 233 1 0 0.975924
-0.644138 -1.031250 5.421860 255 27 0 0.968825
-0.688568 -1.009180 5.446300 205 0 0 0.982244
-0.684735 -1.014980 5.471510 228 0 0 0.977486
-0.700348 -1.004620 5.456020 205 0 0 0.981927
-0.704404 -0.997756 5.429930 192 0 0 0.985551
-0.716480 -0.994039 5.440130 196 0 0 0.984530
-0.720696 -0.986727 5.413110 192 0 0 0.985280
-0.708635 -0.991219 5.402790 192 0 0 0.985803
-0.724983 -0.979712 5.385300 196 0 0 0.984795
-0.732601 -0.982760 5.422690 192 0 0 0.985320
-0.737516 -0.975574 5.394970 210 0 0 0.981265
-0.749833 -0.972247 5.404290 214 0 0 0.980409
-0.713166 -0.984149 5.374890 196 0 0 0.984265
-0.624765 -1.038630 5.434430 246 12 0 0.973007
-0.614369 -1.040900 5.461400 219 0 0 0.978998
-0.595658 -1.046270 5.472860 210 0 0 0.981577
-0.612226 -1.038710 5.499890 183 0 0 0.987444
-0.633053 -1.032530 5.487390 201 0 0 0.983095
-0.653568 -1.025570 5.474230 214 0 0 0.980555
-0.645835 -1.025620 5.558970 169 0 0 0.990619
-0.668583 -1.020250 5.545940 173 0 0 0.989363
-0.658807 -1.022920 5.531320 178 0 0 0.988460
-0.691254 -1.015300 5.532020 192 0 0 0.985180
-0.681497 -1.017460 5.517360 196 0 0 0.984297
-0.704916 -1.010860 5.502300 223 0 0 0.977966
-0.714598 -1.009270 5.517150 223 0 0 0.978570
-0.671589 -1.020100 5.502270 201 0 0 0.983750
-0.694941 -1.012550 5.487230 214 0 0 0.979747
-0.651050 -1.025190 5.515540 183 0 0 0.987582
-0.630457 -1.030510 5.527670 173 0 0 0.989646
-0.638376 -1.027750 5.543400 173 0 0 0.989756
-0.730589 -0.999839 5.502190 205 0 0 0.982526
-0.754177 -0.986914 5.483540 201 0 0 0.983842
-0.736854 -0.991080 5.470890 192 0 0 0.985475
-0.779521 -0.973316 5.463010 210 0 0 0.980853
-0.761042 -0.978104 5.451110 201 0 0 0.982860
-0.787263 -0.964002 5.429290 255 23 0 0.970135
-0.808323 -0.958676 5.440380 255 49 0 0.962084
-0.743150 -0.981825 5.438440 196 0 0 0.984481
-0.767890 -0.968210 5.416830 228 0 0 0.977341
-0.726841 -0.992619 5.455780 196 0 0 0.984443
-0.710547 -1.002500 5.471770 205 0 0 0.982306
-0.720681 -1.001390 5.487210 201 0 0 0.983172
-0.673044 -0.599529 5.193410 255 186 0 0.919141
-0.698303 -0.607904 5.200920 255 208 0 0.911099
-0.714566 -0.623343 5.197180 232 255 16 0.890998
-0.736969 -0.633724 5.206040 213 255 35 0.882100
-0.722899 -0.644281 5.181230 129 255 119 0.843670
-0.727850 -0.612901 5.221970 255 178 0 0.921383
-0.748714 -0.624821 5.234110 255 141 0 0.933378
-0.710843 -0.596078 5.225170 255 145 0 0.931904
-0.693112 -0.579651 5.228780 255 130 0 0.937183
-0.735655 -0.662587 5.179290 106 255 142 0.830860
-0.755216 -0.676608 5.190520 119 255 129 0.837914
-0.766033 -0.696055 5.190870 93 255 155 0.824270
-0.783705 -0.710863 5.204690 109 255 138 0.832722
-0.768212 -0.720331 5.179350 22 255 225 0.783979
-0.779434 -0.687911 5.218650 219 255 29 0.884965
-0.797695 -0.702935 5.235500 255 234 0 0.901722
-0.767979 -0.668115 5.218390 255 238 0 0.900817
-0.755580 -0.648548 5.218640 255 212 0 0.910180
-0.836765 -0.691102 5.305440 255 97 0 0.947989
-0.823501 -0.672471 5.305610 255 49 0 0.961829
-0.813745 -0.674774 5.288730 255 67 0 0.956853
-0.800439 -0.656903 5.288680 255 27 0 0.968864
-0.810085 -0.654162 5.305570 255 27 0 0.968887
-0.790442 -0.659010 5.269680 255 30 0 0.967696
-0.786612 -0.638678 5.287720 228 0 0 0.977286
-0.776850 -0.640434 5.268800 228 0 0 0.977408
-0.762721 -0.621291 5.266930 223 0 0 0.978052
-0.796077 -0.636779 5.305040 228 0 0 0.976927
-0.771191 -0.620237 5.285300 192 0 0 0.985417
-0.781253 -0.618465 5.303200 205 0 0 0.982782
-0.768790 -0.641920 5.250000 255 53 0 0.960566
-0.755543 -0.622643 5.249670 255 60 0 0.958770
-0.794498 -0.680273 5.252180 255 108 0 0.944118
-0.816004 -0.696383 5.272150 255 134 0 0.936054
-0.759902 -0.598121 5.302500 196 0 0 0.984067
-0.752663 -0.602557 5.283140 187 0 0 0.986874
-0.732003 -0.580475 5.282970 255 53 0 0.960710
-0.738102 -0.576242 5.302060 255 53 0 0.961545
-0.727942 -0.585162 5.265380 223 0 0 0.978115
-0.712439 -0.558151 5.283950 255 67 0 0.956903
-0.708283 -0.563780 5.268510 242 8 0 0.974464
-0.717305 -0.552880 5.301030 255 45 0 0.962913
-0.704095 -0.570007 5.253190 255 49 0 0.961647
-0.721629 -0.587427 5.251410 255 38 0 0.965002
-0.738739 -0.604981 5.250240 255 41 0 0.963800
-0.745183 -0.603447 5.266010 223 0 0 0.978112
-0.763811 -0.884333 5.256060 255 49 0 0.962370
-0.776671 -0.860602 5.254810 255 49 0 0.962075
-0.784730 -0.874074 5.277560 255 45 0 0.962937
-0.790611 -0.836283 5.253730 255 78 0 0.952865
-0.799045 -0.849962 5.276640 255 64 0 0.957502
-0.814404 -0.824949 5.276810 255 138 0 0.934556
-0.808744 -0.864187 5.299310 255 82 0 0.952622
-0.804850 -0.811515 5.253330 255 175 0 0.922739
-0.818535 -0.786392 5.255740 245 249 3 0.896026
-0.798958 -0.797075 5.228330 225 255 22 0.888087
-0.785787 -0.821529 5.227950 255 182 0 0.919766
-0.772289 -0.845955 5.229590 255 116 0 0.941965
-0.780476 -0.807199 5.204760 187 255 61 0.870493
-0.824784 -0.857897 5.310140 255 93 0 0.949227
-0.825321 -0.839673 5.300800 255 108 0 0.944034
-0.843345 -0.832060 5.312000 255 178 0 0.920684
-0.842365 -0.850653 5.320800 255 138 0 0.934096
-0.843763 -0.813996 5.304270 255 208 0 0.911712
-0.859101 -0.825955 5.324630 255 204 0 0.912216
-0.858563 -0.808020 5.317060 255 219 0 0.907552
-0.873107 -0.802076 5.330020 255 216 0 0.908083
-0.859087 -0.843732 5.332140 255 190 0 0.916985
-0.873802 -0.819804 5.337070 255 204 0 0.912535
-0.873744 -0.837927 5.344510 255 186 0 0.918499
-0.857921 -0.790013 5.309580 255 238 0 0.900388
-0.871926 -0.784596 5.322780 255 230 0 0.902773
-0.869330 -0.766667 5.315970 255 238 0 0.900852
-0.856628 -0.770571 5.301480 229 255 19 0.889851
-0.844449 -0.794079 5.294810 245 249 3 0.896825
-0.844316 -0.774677 5.286740 229 255 19 0.889598
-0.830030 -0.799860 5.280420 255 234 0 0.902220
-0.827952 -0.819932 5.290510 255 160 0 0.927591
-0.831002 -0.780510 5.271410 222 255 25 0.886800
-0.835231 -0.712931 5.292360 255 130 0 0.936621
-0.831432 -0.735530 5.278850 255 197 0 0.915351
-0.814035 -0.719871 5.258310 255 178 0 0.921008
-0.820558 -0.739632 5.261320 255 219 0 0.907433
-0.810850 -0.744147 5.243660 238 255 9 0.893446
-0.826457 -0.760356 5.266010 255 234 0 0.902058
-0.838615 -0.754955 5.282750 255 223 0 0.905566
-0.850395 -0.751005 5.297720 255 219 0 0.907114
-0.842858 -0.731506 5.294740 255 175 0 0.922137
-0.854413 -0.727431 5.310080 255 171 0 0.924304
-0.862561 -0.747141 5.312800 255 201 0 0.913425
-0.845065 -0.709319 5.307720 255 116 0 0.941335
-0.796338 -0.727851 5.224330 216 255 32 0.884348
-0.793409 -0.753641 5.214800 177 255 71 0.866909
-0.781217 -0.736800 5.196130 103 255 145 0.829211
-0.776906 -0.763373 5.189000 93 255 155 0.825005
-0.788553 -0.780320 5.207960 151 255 96 0.854411
-0.805893 -0.770261 5.234410 209 255 38 0.881723
-0.621847 -0.650481 5.136370 255 116 0 0.941949
-0.637089 -0.662545 5.133860 255 145 0 0.932369
-0.661137 -0.668746 5.137180 255 219 0 0.907808
-0.676020 -0.681470 5.134210 213 255 35 0.882589
-0.692604 -0.668495 5.146260 151 255 96 0.854382
-0.676798 -0.654773 5.150410 225 255 22 0.888888
-0.653470 -0.649144 5.147430 255 167 0 0.924896
-0.636520 -0.636001 5.151190 255 116 0 0.941881
-0.679966 -0.705058 5.127250 200 255 48 0.877476
-0.690717 -0.721874 5.128070 187 255 61 0.870860
-0.709756 -0.733694 5.134810 135 255 113 0.847075
-0.718580 -0.751062 5.136340 87 255 161 0.822081
-0.736370 -0.740846 5.146680 19 253 229 0.780933
-0.726472 -0.721979 5.145470 74 255 174 0.813892
-0.708048 -0.709915 5.139440 135 255 113 0.846884
-0.696733 -0.692147 5.139480 161 255 87 0.858649
-0.751501 -0.706344 5.169470 45 255 203 0.796485
-0.741225 -0.687063 5.169510 71 255 177 0.812222
-0.721701 -0.674397 5.161830 103 255 145 0.829273
-0.709027 -0.655912 5.163480 119 255 129 0.838464
-0.724995 -0.698382 5.152940 84 255 164 0.819092
-0.753706 -0.730194 5.162440 3 233 245 0.770878
-0.701019 -0.635852 5.176160 196 255 51 0.876160
-0.684344 -0.620927 5.180100 255 234 0 0.901866
-0.660247 -0.614254 5.175530 255 164 0 0.926033
-0.669375 -0.634635 5.162360 255 212 0 0.909647
-0.756734 -0.898671 5.269740 233 1 0 0.976454
-0.768610 -0.893132 5.278840 246 12 0 0.973374
-0.761916 -0.907488 5.292630 210 0 0 0.980948
-0.750218 -0.912895 5.282980 205 0 0 0.982302
-0.774336 -0.902463 5.301460 228 0 0 0.977314
-0.755795 -0.921652 5.305730 210 0 0 0.981682
-0.768199 -0.917192 5.314750 223 0 0 0.978537
-0.762089 -0.931744 5.328290 223 0 0 0.977844
-0.744403 -0.926954 5.295990 201 0 0 0.983411
-0.750375 -0.936042 5.318800 205 0 0 0.982264
-0.738823 -0.941495 5.308910 214 0 0 0.980759
-0.780637 -0.912761 5.324300 237 4 0 0.975026
-0.774802 -0.927898 5.337420 242 8 0 0.973952
-0.788232 -0.923797 5.346600 255 19 0 0.970309
-0.798007 -0.894295 5.322420 255 27 0 0.968418
-0.790754 -0.883823 5.300240 255 27 0 0.968533
-0.728965 -0.952654 5.323250 187 0 0 0.986619
-0.741139 -0.947763 5.333060 196 0 0 0.984265
-0.731413 -0.959456 5.347410 183 0 0 0.987822
-0.719402 -0.964635 5.337050 178 0 0 0.988687
-0.743566 -0.954905 5.357130 183 0 0 0.987151
-0.722107 -0.971770 5.361180 178 0 0 0.988512
-0.734053 -0.966834 5.371490 178 0 0 0.988043
-0.710112 -0.977090 5.350980 178 0 0 0.988384
-0.746447 -0.962992 5.381040 192 0 0 0.985423
-0.758912 -0.959600 5.390170 205 0 0 0.982502
-0.755448 -0.950728 5.366970 192 0 0 0.985640
-0.768174 -0.946996 5.376100 201 0 0 0.982849
-0.764663 -0.939075 5.352300 214 0 0 0.980342
-0.752541 -0.943079 5.342820 201 0 0 0.983375
-0.778210 -0.935168 5.361280 219 0 0 0.978850
-0.839149 -0.937261 5.433360 255 67 0 0.956562
-0.820189 -0.945366 5.426200 255 53 0 0.960884
-0.827945 -0.931428 5.408170 255 53 0 0.960810
-0.846369 -0.923707 5.416050 255 67 0 0.956387
-0.809391 -0.938287 5.400140 255 38 0 0.965138
-0.835031 -0.918068 5.389980 255 75 0 0.954567
-0.816260 -0.924585 5.381950 255 53 0 0.961015
-0.823321 -0.911447 5.363720 255 97 0 0.947627
-0.854318 -0.909804 5.398320 255 90 0 0.949664
-0.843196 -0.904438 5.371820 255 116 0 0.941565
-0.860938 -0.896695 5.381220 255 130 0 0.937091
-0.798157 -0.930518 5.373640 251 16 0 0.971865
-0.804467 -0.918101 5.355610 255 45 0 0.962775
-0.787996 -0.943075 5.388070 237 4 0 0.975208
-0.777343 -0.955648 5.402820 228 0 0 0.977153
-0.798094 -0.951086 5.414850 251 16 0 0.972226
-0.852706 -0.873038 5.351230 255 112 0 0.943401
-0.867600 -0.867210 5.362350 255 123 0 0.939622
-0.835600 -0.880157 5.340550 255 108 0 0.944193
-0.815448 -0.887572 5.331800 255 56 0 0.960351
0.134536 -1.043130 5.131850 45 255 203 0.796829
0.156887 -1.039190 5.113470 16 249 232 0.780276
0.118737 -1.038760 5.112840 93 255 155 0.825566
0.141297 -1.035030 5.094500 9 241 238 0.775511
0.104651 -1.033090 5.094210 61 255 187 0.807081
0.129542 -1.028370 5.077060 3 233 245 0.770780
0.092949 -1.026140 5.076010 29 255 219 0.786707
0.118484 -1.021850 5.058500 0 181 255 0.742190
-0.321609 -1.020960 5.150680 255 112 0 0.942465
-0.347498 -1.011380 5.145050 255 86 0 0.951277
-0.307935 -1.015840 5.135870 255 156 0 0.928650
-0.333643 -1.006960 5.129430 255 127 0 0.938143
-0.320092 -1.001390 5.114930 255 204 0 0.912199
-0.360323 -0.996947 5.124400 255 141 0 0.933871
-0.295160 -1.009800 5.121290 255 193 0 0.916681
-0.282012 -1.003070 5.107360 255 216 0 0.908424
-0.271214 -1.016220 5.126530 255 171 0 0.923601
-0.284244 -1.022890 5.140730 255 167 0 0.925383
-0.297191 -1.028980 5.155160 255 153 0 0.930167
-0.260866 -1.029540 5.145500 255 175 0 0.921939
-0.343694 -0.991241 5.110960 255 171 0 0.923545
-0.369362 -0.978173 5.105700 255 153 0 0.929379
-0.327573 -0.984356 5.098150 255 197 0 0.914885
-0.352364 -0.971639 5.092310 255 212 0 0.909858
-0.335901 -0.964225 5.079630 242 253 6 0.895061
-0.378231 -0.958455 5.087260 255 201 0 0.913768
-0.311902 -0.976406 5.085890 255 230 0 0.903168
-0.295758 -0.968426 5.074890 225 255 22 0.888426
-0.288955 -0.986097 5.090930 255 223 0 0.905742
-0.304697 -0.994082 5.102350 255 216 0 0.907856
-0.187352 -0.978225 5.057410 180 255 67 0.868478
-0.213375 -0.984171 5.070920 203 255 45 0.878084
-0.182228 -0.992213 5.071740 200 255 48 0.877503
-0.237874 -0.990652 5.083570 242 253 6 0.894835
-0.208122 -0.998625 5.084530 235 255 13 0.892736
-0.232468 -1.005130 5.097800 255 234 0 0.901988
-0.176490 -1.006410 5.085140 222 255 25 0.887376
-0.260842 -0.997102 5.095560 248 245 0 0.898255
-0.267802 -0.979940 5.079650 235 255 13 0.891860
-0.245006 -0.973211 5.068200 225 255 22 0.888386
-0.199766 -1.012020 5.100580 255 227 0 0.904937
-0.166592 -1.017230 5.101350 255 212 0 0.910064
-0.222061 -1.017920 5.116130 255 193 0 0.916574
-0.190383 -1.022980 5.117390 255 186 0 0.918942
-0.213072 -1.029030 5.133500 255 164 0 0.926366
-0.156442 -1.028020 5.118240 255 190 0 0.917290
-0.242462 -1.024050 5.131120 255 182 0 0.920289
-0.252825 -1.010740 5.112400 255 190 0 0.917802
0.056489 -0.982854 5.010090 0 113 255 0.697121
0.052744 -0.969650 5.000470 0 77 255 0.668150
0.048485 -0.956813 4.991080 0 81 255 0.672468
0.047598 -0.941285 4.984690 0 109 255 0.694912
0.082105 -1.018110 5.059180 0 217 255 0.762790
0.108918 -1.012950 5.043560 0 129 255 0.708113
0.072620 -1.009010 5.044000 0 181 255 0.740819
0.099664 -1.004230 5.028220 0 81 255 0.673415
0.065306 -0.998946 5.029400 0 157 255 0.725810
-0.157553 -0.972703 5.047200 158 255 90 0.857292
-0.189448 -0.961401 5.048450 190 255 58 0.872182
-0.128379 -0.966599 5.037860 155 255 93 0.855332
-0.159773 -0.956170 5.038050 164 255 84 0.860459
-0.130241 -0.950376 5.028080 145 255 103 0.851257
-0.191204 -0.944272 5.038810 171 255 77 0.863587
-0.100101 -0.959960 5.028740 142 255 106 0.849876
-0.072327 -0.953313 5.018860 109 255 138 0.832750
-0.069844 -0.967471 5.028230 132 255 116 0.844117
-0.097527 -0.974640 5.037430 135 255 113 0.846629
-0.126461 -0.981296 5.047310 161 255 87 0.858954
-0.067334 -0.982077 5.037490 116 255 132 0.836283
-0.159655 -0.938599 5.031240 196 255 51 0.874980
-0.188345 -0.924506 5.034280 251 241 0 0.898597
-0.129046 -0.932208 5.023370 174 255 74 0.865490
-0.157046 -0.918887 5.026360 255 234 0 0.902491
-0.099847 -0.934254 5.018240 190 255 58 0.872781
-0.070856 -0.935849 5.012840 135 255 113 0.846410
0.016524 -0.940117 4.992430 0 129 255 0.707192
-0.013625 -0.939052 4.999450 19 253 229 0.780939
-0.013639 -0.954898 5.006170 16 249 232 0.779619
0.016739 -0.955792 4.999230 0 133 255 0.712318
-0.043281 -0.946105 5.009610 96 255 151 0.827192
-0.042144 -0.929081 5.003370 125 255 122 0.841576
0.020082 -0.969290 5.008620 0 165 255 0.732083
-0.010935 -0.968771 5.015800 38 255 209 0.794281
-0.007409 -0.981971 5.025160 45 255 203 0.796376
0.023802 -0.982388 5.017970 0 165 255 0.731419
-0.039198 -0.975077 5.026830 96 255 151 0.825844
-0.041999 -0.961184 5.017570 84 255 164 0.818974
0.061492 -1.027220 5.083620 109 255 138 0.833592
0.037581 -1.031320 5.099680 206 255 42 0.880158
0.073983 -1.034100 5.101820 177 255 71 0.866850
0.049972 -1.038410 5.118070 235 255 13 0.892172
0.013744 -1.035650 5.115400 255 190 0 0.918084
-0.009384 -1.039890 5.130620 255 141 0 0.933503
-0.023682 -1.031900 5.112690 255 145 0 0.932356
-0.000492 -1.027730 5.097500 255 227 0 0.904397
0.023389 -1.023700 5.081910 164 255 84 0.860326
-0.038133 -1.024800 5.094790 255 204 0 0.912514
0.089506 -1.040400 5.120400 164 255 84 0.860304
0.068218 -1.043490 5.137520 245 249 3 0.896274
0.105242 -1.044540 5.140260 164 255 84 0.861294
0.047706 -1.046810 5.153910 255 190 0 0.917933
0.008946 -1.044780 5.150060 255 119 0 0.940522
0.029680 -1.041700 5.134260 255 190 0 0.918023
-0.064849 -1.050690 5.175710 255 123 0 0.938913
-0.104526 -1.048600 5.171920 255 130 0 0.937646
-0.046216 -1.046780 5.160730 255 101 0 0.946676
-0.085427 -1.045440 5.156530 255 112 0 0.942580
-0.066523 -1.041780 5.141610 255 127 0 0.938173
-0.124291 -1.044130 5.152670 255 153 0 0.929437
-0.028057 -1.043310 5.145930 255 97 0 0.947106
-0.009061 -1.048440 5.165350 255 97 0 0.947396
-0.102407 -1.039360 5.137830 255 130 0 0.936482
-0.140404 -1.036030 5.135280 255 141 0 0.933045
-0.081055 -1.034410 5.123810 255 153 0 0.929485
-0.118048 -1.031470 5.120330 255 178 0 0.920783
-0.096567 -1.026820 5.106210 255 204 0 0.912951
-0.059377 -1.029530 5.109270 255 171 0 0.923418
-0.045185 -1.036730 5.127310 255 134 0 0.935719
0.030020 -0.993848 5.030420 0 209 255 0.757343
-0.001877 -0.993994 5.037820 74 255 174 0.813412
0.004098 -1.004960 5.050820 84 255 164 0.819821
0.035727 -1.004810 5.043920 9 241 238 0.776194
-0.029660 -0.999965 5.050590 132 255 116 0.844856
-0.056617 -1.005840 5.063250 219 255 29 0.884971
-0.062075 -0.993799 5.050050 158 255 90 0.857728
-0.034709 -0.987720 5.037490 119 255 129 0.838117
0.045213 -1.014100 5.059280 58 255 190 0.804088
0.014026 -1.014620 5.066300 132 255 116 0.844968
-0.012116 -1.019800 5.080700 222 255 25 0.887556
-0.047337 -1.015030 5.078960 255 238 0 0.900150
-0.021737 -1.010020 5.065100 196 255 51 0.875809
-0.130245 -1.023010 5.103630 255 227 0 0.905200
-0.105655 -1.017180 5.090230 255 234 0 0.902479
-0.140251 -1.012140 5.087360 251 241 0 0.898778
-0.115149 -1.006870 5.073700 209 255 38 0.880924
-0.080975 -1.011450 5.076790 245 249 3 0.895998
-0.071879 -1.020910 5.092550 255 208 0 0.910800
-0.148234 -1.000730 5.072550 180 255 67 0.867824
-0.120640 -0.994849 5.060770 184 255 64 0.869249
-0.153562 -0.987112 5.058790 180 255 67 0.868420
-0.093627 -0.988348 5.048560 177 255 71 0.866875
-0.088694 -1.000270 5.061930 209 255 38 0.881476
-0.177856 -1.032740 5.134680 255 164 0 0.925850
-0.198271 -1.037870 5.151290 255 141 0 0.933883
-0.162210 -1.041170 5.151530 255 156 0 0.928439
-0.184173 -1.046320 5.169140 255 171 0 0.923543
-0.217289 -1.042650 5.167940 255 171 0 0.923833
-0.234351 -1.047190 5.183820 255 171 0 0.923219
-0.247265 -1.038100 5.164560 255 145 0 0.932392
-0.231034 -1.033780 5.149160 255 164 0 0.925639
-0.143810 -1.047420 5.169620 255 127 0 0.938256
-0.164799 -1.050550 5.188330 255 160 0 0.927932
-0.122758 -1.052260 5.188860 255 149 0 0.931322
-0.183889 -1.053640 5.206270 255 160 0 0.926948
-0.217402 -1.051580 5.203820 255 167 0 0.925067
-0.201740 -1.049220 5.186790 255 167 0 0.924963
-0.271878 -1.052130 5.221060 255 153 0 0.929511
-0.253626 -1.052330 5.215460 255 175 0 0.923114
-0.270204 -1.047520 5.194610 255 171 0 0.923857
-0.288097 -1.047480 5.200160 255 153 0 0.930322
-0.243990 -1.049980 5.199950 255 167 0 0.925080
-0.227573 -1.054370 5.219750 255 164 0 0.926552
-0.301822 -1.037670 5.180810 255 101 0 0.946208
-0.283133 -1.038370 5.175770 255 149 0 0.931042
-0.271949 -1.034200 5.160560 255 145 0 0.932183
-0.258823 -1.043040 5.179540 255 149 0 0.930927
-0.453454 -1.027830 5.219550 205 0 0 0.982795
-0.454713 -1.036470 5.236860 210 0 0 0.980769
-0.434421 -1.051660 5.260160 255 30 0 0.967326
-0.455927 -1.045150 5.254130 233 1 0 0.975746
-0.456983 -1.053810 5.271350 255 38 0 0.964871
-0.478268 -1.037900 5.246980 223 0 0 0.978528
-0.476827 -1.028870 5.229430 205 0 0 0.982652
-0.476007 -1.020760 5.211950 210 0 0 0.981655
-0.499366 -1.022300 5.221850 219 0 0 0.978749
-0.397488 -1.059460 5.277440 255 60 0 0.958681
-0.396361 -1.064160 5.295100 255 64 0 0.957450
-0.417999 -1.067070 5.306570 255 67 0 0.956688
-0.419628 -1.061900 5.289300 255 49 0 0.962402
-0.432837 -1.057550 5.277580 255 41 0 0.964775
-0.457200 -1.071010 5.330770 255 75 0 0.953994
-0.461112 -1.066030 5.313040 255 67 0 0.957103
-0.474383 -1.061540 5.301250 255 53 0 0.960676
-0.477891 -1.055820 5.283550 255 49 0 0.962519
-0.498655 -1.057650 5.295080 255 64 0 0.958055
-0.453906 -1.059630 5.289360 255 45 0 0.963612
-0.440722 -1.063920 5.300960 255 53 0 0.961466
-0.437790 -1.068950 5.318740 255 67 0 0.957002
-0.498731 -1.048620 5.276700 251 16 0 0.971328
-0.520342 -1.040760 5.269480 251 16 0 0.972244
-0.498968 -1.039680 5.258470 228 0 0 0.976795
-0.521087 -1.032200 5.251310 237 4 0 0.975169
-0.520924 -1.023600 5.232790 237 4 0 0.974651
-0.543194 -1.024620 5.243340 255 30 0 0.967336
-0.499563 -1.030860 5.240530 214 0 0 0.979895
-0.477982 -1.046730 5.265250 242 8 0 0.974391
-0.357991 -0.951431 5.077080 255 227 0 0.904646
-0.382311 -0.934834 5.073910 255 186 0 0.918204
-0.338736 -0.943467 5.067570 255 230 0 0.903060
-0.361791 -0.927659 5.063840 255 223 0 0.906074
-0.341845 -0.919336 5.055340 255 230 0 0.903042
-0.385683 -0.911254 5.060890 255 212 0 0.910309
-0.319713 -0.934954 5.059790 248 245 0 0.898137
-0.300942 -0.926548 5.052410 255 238 0 0.900215
-0.298696 -0.947617 5.063610 255 234 0 0.901744
-0.317186 -0.955991 5.071060 251 241 0 0.899079
-0.361899 -0.904219 5.054420 255 201 0 0.913314
-0.383331 -0.886004 5.053890 255 171 0 0.923706
-0.338880 -0.896553 5.049340 255 178 0 0.921864
-0.359129 -0.878743 5.048010 255 160 0 0.926936
-0.318202 -0.900042 5.047870 255 186 0 0.918779
-0.298247 -0.903473 5.047090 255 164 0 0.925714
-0.218481 -0.918994 5.039290 255 204 0 0.911923
-0.246841 -0.914469 5.042640 255 197 0 0.915139
-0.249811 -0.934709 5.047540 238 255 9 0.893215
-0.221360 -0.938994 5.044000 229 255 19 0.889546
-0.274719 -0.920370 5.047890 255 204 0 0.912101
-0.271959 -0.897487 5.042770 255 145 0 0.931798
-0.218987 -0.958019 5.053840 213 255 35 0.882255
-0.247197 -0.955603 5.057660 232 255 16 0.890994
-0.272348 -0.962021 5.066570 225 255 22 0.888813
-0.274906 -0.940910 5.055650 248 245 0 0.898147
-0.591201 -0.787868 5.087530 255 141 0 0.933049
-0.571974 -0.777931 5.082480 255 156 0 0.928892
-0.574009 -0.758698 5.083780 255 153 0 0.930452
-0.554052 -0.749193 5.078710 255 171 0 0.923248
-0.552477 -0.768040 5.076930 255 160 0 0.927697
-0.532994 -0.758555 5.070950 255 193 0 0.915826
-0.548069 -0.785687 5.075210 255 156 0 0.929027
-0.566748 -0.795903 5.081000 255 149 0 0.930970
-0.585736 -0.806046 5.086360 255 178 0 0.921140
-0.561083 -0.814097 5.079600 255 171 0 0.923960
-0.554045 -0.733205 5.082940 255 164 0 0.926063
-0.529796 -0.710315 5.084540 255 156 0 0.928553
-0.500136 -0.725453 5.072680 255 193 0 0.916036
-0.521432 -0.731640 5.075810 255 167 0 0.924954
-0.467457 -0.740303 5.063160 255 201 0 0.914031
-0.489451 -0.746360 5.065950 255 182 0 0.919747
-0.509377 -0.767483 5.065140 255 186 0 0.919203
-0.475534 -0.766136 5.059190 255 193 0 0.916400
-0.491126 -0.790072 5.061090 255 171 0 0.923678
-0.510129 -0.799222 5.066420 255 127 0 0.938692
-0.529931 -0.808343 5.071850 255 138 0 0.934415
-0.508899 -0.829788 5.067890 255 160 0 0.927937
-0.528687 -0.776611 5.070220 255 167 0 0.924967
-0.389387 -0.967208 5.100770 255 149 0 0.931109
-0.401162 -0.974755 5.114390 255 104 0 0.945609
-0.380361 -0.985653 5.119170 255 101 0 0.946510
-0.391559 -0.992931 5.132610 255 82 0 0.951639
-0.412856 -0.982031 5.127850 255 56 0 0.960111
-0.425147 -0.989274 5.141920 255 34 0 0.966895
-0.434406 -0.969892 5.123260 255 41 0 0.963868
-0.421691 -0.962431 5.109120 255 90 0 0.950340
-0.409622 -0.954552 5.095600 255 153 0 0.929634
-0.443198 -0.950334 5.104090 255 112 0 0.942812
-0.368929 -1.002580 5.139270 255 71 0 0.955461
-0.378249 -1.008330 5.154300 255 38 0 0.965439
-0.356240 -1.017510 5.160030 255 60 0 0.959144
-0.411669 -1.004830 5.162810 237 4 0 0.975163
-0.401417 -0.998641 5.147890 255 30 0 0.967308
-0.451497 -1.002950 5.175470 219 0 0 0.978732
-0.451577 -0.987576 5.150060 255 34 0 0.966419
-0.471316 -0.994166 5.168320 233 1 0 0.976386
-0.431560 -1.011900 5.182040 219 0 0 0.979514
-0.482391 -0.975720 5.147910 251 16 0 0.971582
-0.473400 -0.966930 5.134940 255 30 0 0.967861
-0.464852 -0.957833 5.121590 255 53 0 0.961013
-0.490691 -0.955577 5.129030 255 41 0 0.964647
-0.482020 -0.947045 5.115590 255 75 0 0.954259
-0.443033 -0.978615 5.136630 255 38 0 0.965552
-0.700230 -0.972573 5.319900 183 0 0 0.987129
-0.710123 -0.960264 5.306600 192 0 0 0.985881
-0.720071 -0.949054 5.292600 219 0 0 0.979202
-0.700828 -0.957821 5.275500 251 16 0 0.972277
-0.680913 -0.980744 5.302070 205 0 0 0.982185
-0.681206 -0.988826 5.323950 201 0 0 0.983520
-0.681884 -0.997302 5.345760 223 0 0 0.978513
-0.662204 -1.005520 5.327220 255 23 0 0.969254
-0.733173 -0.920195 5.266290 214 0 0 0.979921
-0.739833 -0.906237 5.252740 246 12 0 0.972433
-0.746930 -0.892199 5.239370 255 71 0 0.955917
-0.729464 -0.900717 5.222980 255 116 0 0.941781
-0.721633 -0.914586 5.236720 255 41 0 0.964299
-0.713999 -0.928672 5.250000 237 4 0 0.974689
-0.716791 -0.938573 5.271360 214 0 0 0.980398
-0.693370 -0.914617 5.195690 255 167 0 0.924546
-0.684893 -0.928388 5.209250 255 86 0 0.950863
-0.687473 -0.938880 5.228730 255 41 0 0.964110
-0.680313 -0.952890 5.241010 255 34 0 0.966731
-0.683078 -0.964166 5.260700 255 38 0 0.965191
-0.664057 -0.970277 5.245160 255 67 0 0.956299
-0.698616 -0.946639 5.255900 242 8 0 0.973670
-0.704082 -0.921402 5.222930 255 64 0 0.957316
-0.712079 -0.907457 5.209550 255 134 0 0.935531
-0.663423 -0.978569 5.265900 255 19 0 0.970596
-0.643817 -0.992395 5.270770 255 19 0 0.970419
-0.662714 -0.987369 5.286490 228 0 0 0.976900
-0.643527 -1.001690 5.291250 255 19 0 0.970655
-0.643567 -1.011090 5.311620 255 38 0 0.965309
-0.624544 -1.016040 5.295650 255 56 0 0.959919
-0.662108 -0.996237 5.307050 233 1 0 0.975862
-0.681890 -0.972439 5.281480 223 0 0 0.978373
-0.599989 -0.934775 5.150620 255 127 0 0.938359
-0.603800 -0.918733 5.141420 255 112 0 0.943379
-0.594793 -0.904811 5.129960 255 93 0 0.948701
-0.599046 -0.888427 5.120900 255 97 0 0.947572
-0.589553 -0.874916 5.108850 255 119 0 0.940861
-0.615500 -0.869234 5.115530 255 153 0 0.930087
-0.572918 -0.893900 5.114240 255 86 0 0.950589
-0.563861 -0.880607 5.101660 255 123 0 0.939176
-0.568640 -0.908885 5.122610 255 78 0 0.952806
-0.565037 -0.923978 5.130480 255 75 0 0.953870
-0.574106 -0.937286 5.142660 255 93 0 0.948230
-0.548021 -0.940371 5.134290 255 86 0 0.950453
-0.614584 -0.851334 5.109340 255 134 0 0.936265
-0.601342 -0.837545 5.100830 255 108 0 0.943541
-0.599562 -0.819797 5.094900 255 130 0 0.936879
-0.576180 -0.827617 5.088550 255 130 0 0.937486
-0.576664 -0.844470 5.094170 255 104 0 0.944988
-0.577242 -0.861274 5.099710 255 108 0 0.944037
-0.523788 -0.842449 5.076390 255 116 0 0.942336
-0.509832 -0.860408 5.078090 255 90 0 0.949296
-0.537614 -0.855260 5.084830 255 97 0 0.947127
-0.523355 -0.873200 5.086860 255 90 0 0.950363
-0.536828 -0.885603 5.095510 255 104 0 0.945221
-0.510076 -0.890436 5.088750 255 101 0 0.946810
-0.551132 -0.867892 5.093520 255 93 0 0.948771
-0.549850 -0.834647 5.082110 255 127 0 0.938390
-0.519843 -0.903133 5.100350 255 82 0 0.952498
-0.502327 -0.918372 5.104040 255 64 0 0.957586
-0.529635 -0.915529 5.111740 255 60 0 0.958532
-0.512145 -0.930561 5.115690 255 67 0 0.956391
-0.521250 -0.942855 5.127100 255 60 0 0.958433
-0.539041 -0.927955 5.122970 255 64 0 0.957694
-0.546300 -0.898238 5.107000 255 71 0 0.955112
-0.429615 -0.754438 5.055050 255 193 0 0.916074
-0.414286 -0.773837 5.050420 255 178 0 0.921356
-0.430793 -0.794769 5.049790 255 167 0 0.925485
-0.447119 -0.775312 5.054290 255 175 0 0.922219
-0.372314 -0.773102 5.046590 255 171 0 0.923910
-0.370232 -0.798253 5.044490 255 130 0 0.937180
-0.394796 -0.804459 5.045740 255 149 0 0.931149
-0.404221 -0.789134 5.048070 255 160 0 0.927678
-0.392005 -0.844414 5.048010 255 130 0 0.936539
-0.414397 -0.852929 5.051800 255 156 0 0.928987
-0.404124 -0.827882 5.048840 255 116 0 0.942215
-0.427518 -0.836407 5.052760 255 123 0 0.939693
-0.440875 -0.819526 5.053510 255 130 0 0.936970
-0.451407 -0.844032 5.057360 255 153 0 0.930300
-0.417158 -0.811385 5.049300 255 145 0 0.931954
-0.382572 -0.820709 5.045710 255 123 0 0.939721
-0.473893 -0.823836 5.060550 255 127 0 0.938041
-0.482599 -0.807028 5.060760 255 138 0 0.935150
-0.462389 -0.798408 5.056230 255 141 0 0.933295
-0.398243 -0.870626 5.053150 255 141 0 0.933266
-0.416414 -0.880459 5.059840 255 149 0 0.930860
-0.400882 -0.895695 5.060410 255 153 0 0.929337
-0.418673 -0.905190 5.067920 255 164 0 0.926781
-0.435353 -0.890005 5.067170 255 138 0 0.934648
-0.454253 -0.899488 5.075270 255 141 0 0.933134
-0.452717 -0.871888 5.066030 255 119 0 0.941094
-0.433327 -0.862675 5.058670 255 130 0 0.936734
-0.399868 -0.921481 5.071050 255 167 0 0.925563
-0.414276 -0.931526 5.081850 255 141 0 0.933728
-0.395871 -0.944905 5.084520 255 160 0 0.928027
-0.428676 -0.941177 5.092640 255 130 0 0.937060
-0.449010 -0.925119 5.089570 255 104 0 0.944723
-0.433934 -0.915097 5.078370 255 134 0 0.936103
-0.475373 -0.923005 5.097290 255 82 0 0.952657
-0.492359 -0.906840 5.093220 255 86 0 0.951154
-0.481557 -0.895153 5.082370 255 108 0 0.943848
-0.465245 -0.911378 5.086500 255 101 0 0.946433
-0.459028 -0.936679 5.100680 255 86 0 0.950602
-0.495761 -0.879205 5.080700 255 90 0 0.949541
-0.480761 -0.867646 5.072520 255 90 0 0.949748
-0.495013 -0.848856 5.070410 255 104 0 0.945677
-0.466298 -0.855704 5.064890 255 108 0 0.944064
-0.467497 -0.883715 5.074090 255 101 0 0.946934
-0.580989 -0.947137 5.157060 255 60 0 0.958740
-0.562223 -0.959632 5.163160 255 34 0 0.965958
-0.555509 -0.949751 5.148600 255 56 0 0.960294
-0.537390 -0.962165 5.154400 255 38 0 0.965774
-0.544070 -0.972316 5.168860 255 19 0 0.970439
-0.526738 -0.985179 5.174620 255 30 0 0.967522
-0.550991 -0.984569 5.184550 255 41 0 0.964834
-0.568248 -0.971591 5.178860 255 38 0 0.965879
-0.586941 -0.958992 5.172020 255 60 0 0.958624
-0.574934 -0.983928 5.193990 255 67 0 0.956798
-0.529996 -0.951618 5.140460 255 34 0 0.966280
-0.512152 -0.962961 5.146600 255 19 0 0.971144
-0.490046 -0.985794 5.161870 255 23 0 0.970024
-0.519404 -0.973860 5.160660 251 16 0 0.971867
-0.470201 -1.010450 5.195160 201 0 0 0.983556
-0.488604 -1.001580 5.188800 201 0 0 0.982893
-0.493774 -1.011230 5.205000 201 0 0 0.983272
-0.512372 -1.002500 5.197970 210 0 0 0.980986
-0.507369 -0.993211 5.181890 223 0 0 0.977899
-0.517207 -1.012110 5.215140 210 0 0 0.981076
-0.536110 -1.002550 5.208650 223 0 0 0.978609
-0.539492 -1.013380 5.226120 233 1 0 0.976292
-0.558613 -1.003490 5.218870 246 12 0 0.972765
-0.555385 -0.993153 5.201460 251 16 0 0.971967
-0.531178 -0.993660 5.191560 233 1 0 0.975864
-0.697599 -0.896300 5.184220 255 171 0 0.923685
-0.692408 -0.882287 5.167040 255 201 0 0.913161
-0.696442 -0.863879 5.156630 245 249 3 0.897075
-0.688908 -0.848748 5.141520 219 255 29 0.885162
-0.710907 -0.841429 5.150780 161 255 87 0.858778
-0.674100 -0.871245 5.146750 255 208 0 0.911617
-0.665330 -0.856373 5.131740 255 223 0 0.905290
-0.670552 -0.888854 5.156200 255 182 0 0.919771
-0.665658 -0.906288 5.166700 255 175 0 0.922968
-0.672886 -0.920625 5.182860 255 182 0 0.920135
-0.649762 -0.926690 5.170690 255 182 0 0.920472
-0.709407 -0.821552 5.143700 187 255 61 0.870683
-0.696695 -0.806076 5.132810 222 255 25 0.886290
-0.693780 -0.785956 5.126690 209 255 38 0.881884
-0.672266 -0.795602 5.118240 255 234 0 0.901749
-0.674455 -0.814316 5.123960 255 223 0 0.906273
-0.676426 -0.833349 5.130100 255 227 0 0.904717
-0.625110 -0.812402 5.102100 255 164 0 0.926115
-0.626727 -0.830123 5.107640 255 141 0 0.933418
-0.640854 -0.844573 5.117370 255 160 0 0.927224
-0.640613 -0.862640 5.123740 255 171 0 0.924273
-0.651722 -0.822277 5.114960 255 178 0 0.921794
-0.648758 -0.803591 5.109690 255 190 0 0.917233
-0.625281 -0.883610 5.128290 255 145 0 0.932819
-0.621120 -0.900258 5.137440 255 123 0 0.939051
-0.629351 -0.914747 5.151480 255 134 0 0.935794
-0.625336 -0.931073 5.160650 255 149 0 0.931262
-0.646007 -0.895036 5.146690 255 145 0 0.932770
-0.649626 -0.877269 5.137060 255 160 0 0.926987
-0.541955 -1.032930 5.262360 255 19 0 0.970406
-0.541383 -1.041130 5.281220 255 30 0 0.967385
-0.519895 -1.049350 5.288220 255 34 0 0.966007
-0.518606 -1.058050 5.307110 255 78 0 0.953751
-0.540111 -1.049440 5.300190 255 56 0 0.960087
-0.538295 -1.057470 5.319100 255 90 0 0.949657
-0.561365 -1.040150 5.293410 255 41 0 0.963945
-0.562719 -1.032190 5.274390 255 34 0 0.966162
-0.563838 -1.024030 5.255260 255 38 0 0.965241
-0.584486 -1.022960 5.267380 255 56 0 0.959541
-0.493898 -1.063060 5.313090 255 67 0 0.956266
-0.480232 -1.067350 5.325000 255 71 0 0.955978
-0.475835 -1.071840 5.343050 255 82 0 0.952453
-0.495070 -1.072010 5.355380 255 93 0 0.948966
-0.499222 -1.067860 5.337000 255 82 0 0.952225
-0.513645 -1.063130 5.325090 255 75 0 0.953859
-0.530214 -1.068680 5.382820 255 90 0 0.949965
-0.535744 -1.065480 5.363630 255 90 0 0.950058
-0.551445 -1.060060 5.351850 255 90 0 0.950224
-0.557080 -1.055720 5.333020 255 97 0 0.947429
-0.576127 -1.052950 5.347220 255 108 0 0.943761
-0.532129 -1.062660 5.337590 255 90 0 0.949568
-0.517366 -1.067430 5.349690 255 86 0 0.950420
-0.511723 -1.071180 5.368470 255 93 0 0.948452
-0.588261 -1.043670 5.334850 255 67 0 0.956395
-0.590106 -1.036450 5.314620 255 49 0 0.962207
-0.602422 -1.027030 5.301680 255 41 0 0.964738
-0.605076 -1.019800 5.281470 255 60 0 0.959072
-0.582544 -1.030530 5.287470 255 41 0 0.963848
-0.559302 -1.048040 5.313120 255 64 0 0.958265
-0.605539 -0.945634 5.166850 255 93 0 0.948681
-0.611330 -0.956601 5.182820 255 82 0 0.952437
-0.592728 -0.970111 5.189020 255 53 0 0.961364
-0.598856 -0.981944 5.205450 255 75 0 0.954206
-0.616349 -0.967775 5.199630 255 75 0 0.954248
-0.621243 -0.979243 5.216990 255 93 0 0.949157
-0.635045 -0.952278 5.193960 255 90 0 0.949476
-0.630546 -0.941741 5.176910 255 119 0 0.940702
-0.578229 -0.993227 5.212500 255 30 0 0.967107
-0.580573 -1.002970 5.230890 255 23 0 0.969516
-0.561839 -1.013860 5.237300 255 19 0 0.971073
-0.582496 -1.012850 5.249360 255 27 0 0.968540
-0.602259 -1.000600 5.243130 255 30 0 0.967553
-0.600889 -0.991101 5.224170 255 45 0 0.962949
-0.623458 -1.006300 5.276240 255 30 0 0.968029
-0.622922 -0.997329 5.256430 255 34 0 0.966646
-0.643289 -0.983368 5.251230 255 34 0 0.966303
-0.643328 -0.974816 5.230900 255 82 0 0.952255
-0.622443 -0.988144 5.236820 255 53 0 0.961292
-0.603985 -1.010070 5.261880 255 38 0 0.965682
-0.660774 -0.958790 5.226280 255 64 0 0.957677
-0.667774 -0.945001 5.214330 255 67 0 0.956572
-0.664872 -0.934308 5.195210 255 116 0 0.941524
-0.639227 -0.963423 5.212250 255 75 0 0.954169
-0.620460 -1.023260 5.316710 255 34 0 0.966356
-0.608129 -1.032590 5.329640 255 41 0 0.964035
-0.604579 -1.039920 5.351010 255 60 0 0.958955
-0.593338 -1.048780 5.363640 255 101 0 0.946221
-0.609960 -1.044920 5.380100 255 90 0 0.950294
-0.622939 -1.034870 5.367410 255 45 0 0.963146
-0.626257 -1.027760 5.345870 255 27 0 0.968988
-0.639414 -1.017820 5.332530 255 19 0 0.971010
-0.567256 -1.057550 5.367370 255 90 0 0.949391
-0.551890 -1.062910 5.378870 255 86 0 0.951072
-0.543018 -1.066140 5.399290 255 86 0 0.951390
-0.558138 -1.062550 5.416060 255 71 0 0.955015
-0.566621 -1.059670 5.395730 255 82 0 0.952237
-0.583942 -1.053550 5.384040 255 82 0 0.951939
-0.578722 -1.054420 5.448470 251 16 0 0.971489
-0.597374 -1.048400 5.437130 251 16 0 0.971947
-0.607838 -1.045340 5.414290 255 38 0 0.965104
-0.627343 -1.038110 5.401530 255 53 0 0.961268
-0.581983 -1.054960 5.415590 255 56 0 0.959872
-0.648299 -1.025020 5.398530 233 1 0 0.975974
-0.662846 -1.014480 5.384190 214 0 0 0.980131
-0.667429 -1.007660 5.360160 210 0 0 0.981167
-0.644405 -1.021740 5.364350 233 1 0 0.975626
-0.759768 -0.869047 5.234830 255 78 0 0.952879
-0.756904 -0.854373 5.212250 255 164 0 0.925704
-0.769217 -0.830983 5.208290 255 230 0 0.903064
-0.764517 -0.816065 5.188630 164 255 84 0.860446
-0.752432 -0.839848 5.191840 225 255 22 0.888086
-0.747376 -0.825222 5.173110 122 255 126 0.840259
-0.738937 -0.863395 5.196650 255 197 0 0.915230
-0.742690 -0.877810 5.217980 255 119 0 0.940698
-0.772254 -0.790060 5.187430 125 255 122 0.842360
-0.762087 -0.773126 5.172320 64 255 184 0.808191
-0.765977 -0.746724 5.174950 48 255 200 0.799903
-0.749940 -0.757122 5.158620 32 255 216 0.789124
-0.744294 -0.782921 5.157410 80 255 167 0.818554
-0.755078 -0.799643 5.171810 109 255 138 0.833897
-0.714007 -0.776858 5.136080 145 255 103 0.851679
-0.717215 -0.797125 5.142030 161 255 87 0.859525
-0.728559 -0.813208 5.154360 148 255 100 0.852110
-0.729942 -0.833205 5.161720 135 255 113 0.845791
-0.731825 -0.766976 5.146620 84 255 164 0.819595
-0.717458 -0.856253 5.166460 209 255 38 0.880717
-0.712535 -0.874861 5.178450 255 216 0 0.909051
-0.717192 -0.889329 5.196550 255 167 0 0.925307
-0.734653 -0.848411 5.178420 216 255 32 0.883906
-0.822040 -0.561502 5.383240 214 0 0 0.980389
-0.822964 -0.575994 5.376360 223 0 0 0.977650
-0.795832 -0.558172 5.366760 210 0 0 0.981338
-0.823841 -0.589630 5.368790 233 1 0 0.975890
-0.796260 -0.572219 5.360280 237 4 0 0.975064
-0.797552 -0.586288 5.352960 255 23 0 0.970044
-0.768980 -0.554201 5.350760 219 0 0 0.978994
-0.824075 -0.603720 5.361220 242 8 0 0.973621
-0.824994 -0.617139 5.352370 246 12 0 0.973411
-0.848263 -0.617373 5.369650 228 0 0 0.977198
-0.847259 -0.603976 5.378170 237 4 0 0.974677
-0.846948 -0.590120 5.386690 233 1 0 0.975970
-0.872098 -0.617482 5.387700 233 1 0 0.975934
-0.748671 -0.548295 5.338530 205 0 0 0.982452
-0.771878 -0.571208 5.340670 233 1 0 0.976366
-0.752477 -0.565361 5.327700 214 0 0 0.980179
-0.729586 -0.541907 5.325520 183 0 0 0.987025
-0.774750 -0.587166 5.329140 223 0 0 0.978051
-0.733612 -0.559001 5.314140 187 0 0 0.986344
-0.756128 -0.582017 5.315720 210 0 0 0.981435
-0.712816 -0.535324 5.312420 169 0 0 0.990084
-0.778328 -0.602768 5.316690 214 0 0 0.980648
-0.803990 -0.617786 5.328680 223 0 0 0.977706
-0.801417 -0.602610 5.341090 228 0 0 0.976775
-0.844894 -0.669820 5.330520 255 45 0 0.963149
-0.857414 -0.686764 5.330390 255 78 0 0.953288
-0.831711 -0.653212 5.329700 255 23 0 0.969907
-0.852514 -0.650188 5.354980 255 27 0 0.968758
-0.865671 -0.666447 5.355440 255 30 0 0.967279
-0.879506 -0.683047 5.354810 255 49 0 0.962116
-0.828709 -0.635937 5.341450 242 8 0 0.974169
-0.889177 -0.664444 5.373410 255 19 0 0.970382
-0.902538 -0.678896 5.373490 255 41 0 0.964620
-0.875906 -0.650269 5.372820 255 19 0 0.970283
-0.898950 -0.646122 5.391640 246 12 0 0.973048
-0.912305 -0.660043 5.392270 251 16 0 0.971686
-0.925913 -0.673830 5.392150 255 56 0 0.960086
-0.873900 -0.634166 5.380660 246 12 0 0.972875
-0.850209 -0.634060 5.363210 251 16 0 0.971571
-0.925630 -0.692046 5.384010 255 101 0 0.946805
-0.924267 -0.711156 5.376360 255 127 0 0.938447
-0.902276 -0.696801 5.365800 255 78 0 0.952941
-0.900749 -0.715776 5.358590 255 119 0 0.940642
-0.922293 -0.730609 5.369480 255 167 0 0.924465
-0.919149 -0.750680 5.363210 255 204 0 0.912536
-0.943345 -0.740784 5.380930 245 249 3 0.896245
-0.946495 -0.720771 5.387840 255 227 0 0.905147
-0.948544 -0.701305 5.395390 255 178 0 0.921756
-0.967569 -0.730524 5.398860 190 255 58 0.872714
-0.878760 -0.702707 5.344310 255 93 0 0.948575
-0.877702 -0.724120 5.334510 255 141 0 0.933700
-0.886732 -0.741167 5.336820 255 182 0 0.919619
-0.894722 -0.759087 5.339920 255 234 0 0.901327
-0.901469 -0.809982 5.358540 255 208 0 0.911445
-0.913207 -0.788179 5.362990 255 219 0 0.907378
-0.917340 -0.819629 5.375540 255 234 0 0.901689
-0.928977 -0.797397 5.380150 255 223 0 0.905441
-0.897623 -0.776651 5.345860 255 234 0 0.901999
-0.944279 -0.806389 5.394200 232 255 16 0.890851
-0.955597 -0.785314 5.396370 193 255 55 0.874313
-0.964857 -0.764490 5.399200 174 255 74 0.865586
-0.971562 -0.791716 5.409740 116 255 132 0.835959
-0.982109 -0.770793 5.412850 87 255 161 0.822040
-0.936310 -0.760821 5.376940 238 255 9 0.893246
-0.887684 -0.844929 5.362870 255 204 0 0.912986
-0.900841 -0.851956 5.380710 255 204 0 0.911823
-0.881157 -0.874115 5.380520 255 164 0 0.926364
-0.894557 -0.880929 5.397950 255 201 0 0.913430
-0.913779 -0.858398 5.398360 255 201 0 0.913423
-0.925626 -0.864375 5.415540 255 230 0 0.903584
-0.928661 -0.838665 5.400860 255 201 0 0.913816
-0.877021 -0.898021 5.402830 255 156 0 0.928572
-0.870258 -0.911347 5.419620 255 123 0 0.939708
-0.893234 -0.899551 5.423610 255 178 0 0.921384
-0.862613 -0.925062 5.436660 255 112 0 0.943502
-0.885444 -0.913154 5.440460 255 164 0 0.926724
-0.877006 -0.926626 5.457190 255 149 0 0.931611
-0.855187 -0.938759 5.453530 255 123 0 0.939157
-0.906969 -0.900787 5.444360 255 193 0 0.916179
-0.898301 -0.914179 5.460780 255 164 0 0.925681
-0.919602 -0.900795 5.464950 255 178 0 0.921209
-0.923575 -0.882167 5.439900 255 190 0 0.917312
-0.909898 -0.881784 5.419370 255 193 0 0.916219
-0.978027 -0.861428 5.485470 238 255 9 0.894400
-0.966438 -0.862472 5.467740 232 255 16 0.891604
-0.980778 -0.845061 5.465140 167 255 80 0.861951
-0.953885 -0.863693 5.450470 232 255 16 0.891199
-0.968621 -0.846105 5.447400 161 255 87 0.859638
-0.955264 -0.846889 5.430080 190 255 58 0.873017
-0.983284 -0.829021 5.445030 116 255 132 0.836736
-0.940293 -0.864147 5.432930 238 255 9 0.894419
-0.937049 -0.881902 5.457030 255 190 0 0.917339
-0.949424 -0.880916 5.474130 255 197 0 0.915061
-0.971531 -0.825188 5.430600 155 255 93 0.855728
-0.985406 -0.806247 5.431510 100 255 148 0.827531
-0.958446 -0.821581 5.415950 187 255 61 0.871499
-0.942360 -0.842729 5.415330 248 245 0 0.898505
-0.963455 -0.874189 5.499300 255 134 0 0.935438
-0.948109 -0.887341 5.513680 255 64 0 0.958127
-0.934587 -0.894546 5.489120 255 108 0 0.944106
-0.919699 -0.908229 5.503910 255 71 0 0.954979
-0.933756 -0.900513 5.528350 242 8 0 0.973588
-0.919843 -0.913642 5.543350 237 4 0 0.975337
-0.947677 -0.895037 5.544790 223 0 0 0.978328
-0.962214 -0.881980 5.530190 255 49 0 0.962626
-0.977092 -0.869193 5.515950 255 97 0 0.947904
-0.975752 -0.877174 5.546940 255 27 0 0.968444
-0.900742 -0.915348 5.488680 255 78 0 0.953491
-0.880907 -0.928827 5.484820 255 78 0 0.953468
-0.883396 -0.929338 5.512150 251 16 0 0.972212
-0.860375 -0.941550 5.481580 255 78 0 0.952978
-0.863680 -0.942950 5.508680 255 34 0 0.966073
-0.865499 -0.942616 5.535690 210 0 0 0.980892
-0.866413 -0.945441 5.554960 201 0 0 0.982883
-0.883517 -0.932211 5.531200 223 0 0 0.978202
-0.883374 -0.935019 5.550640 201 0 0 0.983254
-0.901711 -0.921573 5.526880 237 4 0 0.975197
-0.901264 -0.918768 5.507780 255 34 0 0.966542
-0.901250 -0.924291 5.546480 210 0 0 0.981102
-0.871175 -0.940856 5.658600 137 0 0 0.996984
-0.869030 -0.939462 5.634220 137 0 0 0.997483
-0.886557 -0.930094 5.627170 137 0 0 0.997437
-0.887968 -0.931592 5.651280 137 0 0 0.997137
-0.885162 -0.929701 5.603250 137 0 0 0.997314
-0.904233 -0.921110 5.620080 142 0 0 0.996647
-0.903517 -0.920529 5.596020 142 0 0 0.995957
