ply
format ascii 1.0
comment VCGLIB generated
element vertex 1016
property float x
property float y
property float z
property uchar red
property uchar green
property uchar blue
property float quality
end_header
0.470405 -0.973065 6.785100 255 97 0 0.947083
0.483836 -0.981176 6.763460 255 93 0 0.948251
0.494514 -0.982235 6.765240 255 71 0 0.955438
0.492002 -0.977548 6.790890 255 67 0 0.956666
0.506078 -0.983394 6.767600 255 53 0 0.960968
0.504492 -0.980102 6.794020 255 75 0 0.954676
0.490839 -0.973966 6.817040 255 97 0 0.947820
0.503805 -0.978574 6.821280 255 119 0 0.940504
0.518963 -0.986205 6.771070 255 49 0 0.961889
0.517961 -0.984949 6.798650 255 97 0 0.947125
0.532351 -0.990896 6.775600 255 93 0 0.949222
0.489787 -0.972308 6.844060 255 164 0 0.926581
0.421001 -0.942044 6.843280 255 112 0 0.942608
0.434474 -0.949947 6.822190 255 78 0 0.952778
0.427234 -0.942248 6.817390 255 23 0 0.970233
0.413168 -0.933979 6.838120 255 49 0 0.961954
0.440489 -0.950644 6.796570 242 8 0 0.973886
0.418908 -0.934016 6.811680 210 0 0 0.981753
0.432242 -0.942779 6.790620 196 0 0 0.984508
0.404980 -0.925748 6.832600 237 4 0 0.975406
0.445389 -0.951299 6.769670 192 0 0 0.985329
0.458759 -0.959600 6.747790 187 0 0 0.985955
0.454309 -0.958683 6.775310 233 1 0 0.976216
0.468255 -0.966803 6.753980 214 0 0 0.980042
0.462616 -0.965982 6.780610 255 38 0 0.964875
0.448899 -0.957731 6.801610 255 49 0 0.961627
0.476163 -0.974283 6.759030 255 38 0 0.965111
0.507102 -0.982841 6.658530 169 0 0 0.990910
0.494575 -0.977971 6.681080 169 0 0 0.990630
0.504222 -0.984381 6.687850 183 0 0 0.986991
0.516488 -0.989216 6.665390 178 0 0 0.988820
0.491815 -0.979237 6.709840 201 0 0 0.983827
0.512886 -0.990795 6.693700 219 0 0 0.979224
0.500283 -0.985668 6.715380 242 8 0 0.974075
0.508310 -0.991917 6.720760 255 60 0 0.958922
0.525277 -0.995420 6.671550 201 0 0 0.983007
0.521005 -0.996928 6.699310 255 30 0 0.967086
0.533626 -1.001560 6.677300 237 4 0 0.974611
0.487956 -0.980255 6.737010 255 23 0 0.970037
0.495940 -0.986535 6.742050 255 71 0 0.955109
0.479991 -0.973170 6.732130 205 0 0 0.982147
0.470902 -0.965819 6.726210 178 0 0 0.988099
0.482647 -0.972082 6.703790 173 0 0 0.989865
0.543800 -1.001520 6.681760 228 0 0 0.977553
0.532540 -0.997725 6.702020 251 16 0 0.971949
0.543101 -0.998039 6.706580 246 12 0 0.973342
0.555032 -1.002050 6.686920 228 0 0 0.976605
0.531286 -0.993848 6.726060 255 34 0 0.966506
0.555146 -1.000240 6.712650 255 27 0 0.968316
0.543360 -0.996239 6.731930 255 38 0 0.965910
0.555458 -0.999957 6.738160 255 56 0 0.960131
0.566621 -1.004270 6.692970 251 16 0 0.972207
0.567104 -1.004130 6.719050 255 64 0 0.958215
0.579212 -1.008120 6.700130 255 38 0 0.965432
0.531735 -0.991677 6.750940 255 41 0 0.964510
0.543919 -0.995620 6.757070 255 71 0 0.955340
0.518771 -0.988833 6.747020 255 45 0 0.963220
0.507322 -0.987781 6.744520 255 49 0 0.961807
0.519814 -0.993047 6.723550 255 38 0 0.965631
0.547694 -0.024201 7.047990 0 225 251 0.766249
0.526469 -0.038014 7.068620 0 137 255 0.713336
0.497503 -0.056312 7.077240 0 189 255 0.745369
0.476439 -0.074059 7.094580 0 109 255 0.695301
0.459118 -0.077179 7.075440 0 145 255 0.720186
0.513408 -0.052998 7.096810 0 89 255 0.679505
0.493352 -0.072291 7.113240 0 73 255 0.664822
0.542693 -0.035324 7.089340 0 109 255 0.694139
0.572620 -0.019034 7.080380 0 125 255 0.705947
0.436670 -0.104407 7.082570 32 255 216 0.790145
0.423016 -0.130665 7.098860 84 255 164 0.819233
0.399943 -0.158776 7.105940 129 255 119 0.842644
0.387402 -0.186620 7.120950 135 255 113 0.846580
0.368919 -0.185347 7.105370 148 255 100 0.852755
0.418367 -0.158905 7.121560 100 255 148 0.828991
0.406093 -0.187597 7.135140 119 255 129 0.838542
0.440409 -0.130718 7.115510 29 255 219 0.788331
0.462956 -0.101520 7.109960 0 173 255 0.737867
0.443766 -0.191962 7.163830 109 255 138 0.833487
0.465247 -0.162341 7.160230 48 255 200 0.798758
0.476952 -0.131997 7.148090 0 193 255 0.749717
0.498196 -0.102675 7.144800 0 133 255 0.711252
0.510964 -0.072975 7.131820 0 69 255 0.663142
0.480822 -0.101048 7.126790 0 153 255 0.724502
0.458658 -0.130570 7.131670 6 237 242 0.772833
0.436755 -0.159471 7.136770 64 255 184 0.808865
0.424824 -0.189372 7.149500 100 255 148 0.827761
0.529513 -0.052235 7.116090 0 81 255 0.673927
0.427343 -0.226140 7.161810 216 255 32 0.883882
0.422502 -0.260201 7.166850 255 153 0 0.930403
0.406876 -0.292967 7.166070 255 97 0 0.947751
0.400742 -0.325615 7.170260 255 67 0 0.956456
0.380563 -0.324500 7.160500 255 82 0 0.951841
0.427397 -0.293582 7.177340 255 90 0 0.949891
0.421190 -0.326338 7.181480 255 56 0 0.959391
0.441983 -0.261804 7.178480 255 164 0 0.926292
0.457468 -0.229171 7.180840 232 255 16 0.891015
0.462960 -0.194457 7.176860 106 255 142 0.831315
0.481720 -0.197060 7.189750 106 255 142 0.832231
0.371966 -0.358679 7.157230 251 16 0 0.971730
0.374693 -0.391623 7.159630 201 0 0 0.983677
0.367135 -0.425396 7.157540 196 0 0 0.984708
0.368718 -0.458470 7.160170 210 0 0 0.981297
0.349471 -0.461098 7.150790 223 0 0 0.978679
0.386552 -0.423077 7.166670 196 0 0 0.984166
0.387532 -0.455856 7.169820 214 0 0 0.980507
0.394592 -0.390906 7.169090 201 0 0 0.983217
0.402501 -0.358455 7.172080 233 1 0 0.975738
0.426094 -0.418394 7.186690 196 0 0 0.984256
0.434115 -0.387803 7.189170 205 0 0 0.982272
0.433073 -0.357164 7.187840 233 1 0 0.975692
0.440861 -0.326262 7.191740 255 60 0 0.958528
0.414792 -0.389403 7.179470 201 0 0 0.983697
0.406248 -0.421711 7.176790 196 0 0 0.984824
0.407035 -0.452289 7.179480 210 0 0 0.981479
0.466257 -0.294818 7.198740 255 90 0 0.949753
0.481364 -0.264089 7.201620 255 186 0 0.918186
0.486859 -0.231640 7.199060 206 255 42 0.879907
0.461895 -0.262857 7.190240 255 164 0 0.926490
0.445895 -0.295208 7.187450 255 97 0 0.947569
0.342661 -0.218409 7.100610 255 238 0 0.900031
0.349509 -0.185946 7.089350 184 255 64 0.869050
0.316724 -0.250597 7.095740 255 167 0 0.924894
0.322798 -0.218692 7.084340 255 216 0 0.908387
0.297921 -0.249962 7.081400 255 171 0 0.923563
0.330577 -0.187047 7.072130 200 255 48 0.876625
0.291570 -0.281675 7.092630 255 138 0 0.935166
0.266137 -0.312608 7.088830 255 130 0 0.936532
0.286610 -0.313941 7.103500 255 127 0 0.937770
0.310951 -0.283188 7.106110 255 138 0 0.935039
0.337009 -0.251642 7.110950 255 160 0 0.927625
0.305829 -0.316198 7.116210 255 112 0 0.943332
0.303918 -0.217854 7.068570 251 241 0 0.898785
0.310502 -0.187310 7.054310 193 255 55 0.874062
0.276956 -0.248250 7.064570 255 193 0 0.916454
0.283734 -0.218277 7.051010 255 227 0 0.904811
0.250833 -0.278321 7.061300 255 175 0 0.922388
0.245408 -0.310349 7.074360 255 186 0 0.918241
0.271361 -0.280148 7.076910 255 141 0 0.933206
0.222523 -0.417425 7.077240 255 119 0 0.940892
0.219400 -0.456071 7.078680 255 149 0 0.931212
0.228443 -0.379455 7.075820 255 104 0 0.945202
0.250619 -0.384051 7.088430 255 53 0 0.961161
0.244663 -0.421602 7.088520 255 53 0 0.961262
0.239846 -0.460118 7.088820 255 75 0 0.954083
0.247720 -0.345572 7.081800 255 86 0 0.951402
0.265262 -0.423167 7.100100 251 16 0 0.972360
0.259899 -0.461130 7.099440 255 34 0 0.966890
0.271426 -0.385972 7.100810 251 16 0 0.971319
0.291464 -0.388366 7.113220 237 4 0 0.975403
0.285428 -0.425285 7.112140 228 0 0 0.977395
0.280037 -0.463015 7.111180 246 12 0 0.972651
0.288842 -0.350675 7.108980 255 41 0 0.964066
0.268544 -0.348577 7.095350 255 60 0 0.958771
0.361578 -0.219798 7.115020 242 253 6 0.895127
0.355305 -0.253449 7.123250 255 160 0 0.926984
0.330462 -0.284987 7.119280 255 104 0 0.945533
0.324875 -0.318284 7.128380 255 97 0 0.947386
0.349071 -0.287056 7.131480 255 104 0 0.945007
0.343248 -0.321021 7.139510 255 82 0 0.952609
0.374226 -0.255393 7.136680 255 160 0 0.927358
0.380728 -0.220981 7.128920 248 245 0 0.898345
0.307909 -0.352407 7.121010 255 30 0 0.967565
0.309883 -0.388957 7.124500 233 1 0 0.975962
0.303573 -0.425920 7.122400 214 0 0 0.980414
0.297713 -0.463474 7.120530 223 0 0 0.978068
0.315543 -0.463517 7.131520 223 0 0 0.978089
0.321271 -0.427304 7.132700 205 0 0 0.982408
0.327850 -0.391394 7.134650 214 0 0 0.980126
0.326317 -0.354591 7.132020 255 23 0 0.969211
0.348414 -0.425835 7.148070 201 0 0 0.983279
0.355642 -0.391699 7.149960 210 0 0 0.981162
0.353727 -0.356828 7.146930 242 8 0 0.973799
0.362220 -0.322636 7.149970 255 86 0 0.950486
0.332904 -0.462250 7.140960 214 0 0 0.980174
0.387218 -0.291083 7.154890 255 108 0 0.943988
0.402643 -0.258440 7.154770 255 160 0 0.927755
0.409132 -0.223554 7.148900 229 255 19 0.889834
0.368505 -0.289275 7.143370 255 108 0 0.944543
0.484942 -0.044989 6.968750 255 182 0 0.919649
0.456007 -0.061021 6.980840 255 171 0 0.923112
0.435888 -0.073859 7.003770 248 245 0 0.897488
0.405468 -0.091483 7.014020 238 255 9 0.893498
0.425181 -0.085302 7.035780 138 255 109 0.847291
0.455747 -0.068068 7.025990 171 255 77 0.864248
0.476096 -0.055036 7.003940 203 255 45 0.878986
0.503729 -0.038077 6.992580 151 255 96 0.854958
0.371945 -0.117515 7.014840 255 178 0 0.921478
0.347479 -0.140255 7.024440 255 201 0 0.913479
0.333617 -0.163294 7.044170 251 241 0 0.899039
0.353531 -0.161446 7.063210 232 255 16 0.890634
0.367572 -0.138051 7.044590 255 234 0 0.901476
0.391731 -0.112834 7.034730 242 253 6 0.895571
0.381761 -0.158785 7.089470 161 255 87 0.859604
0.404390 -0.131973 7.081450 129 255 119 0.842803
0.418897 -0.107107 7.063920 125 255 122 0.842152
0.443019 -0.080729 7.056170 16 249 232 0.779684
0.386758 -0.134366 7.063560 180 255 67 0.868437
0.480215 -0.060447 7.057070 0 201 255 0.753217
0.510423 -0.043137 7.047500 32 255 216 0.789366
0.531810 -0.029698 7.026470 55 255 193 0.802848
0.493133 -0.048567 7.026470 48 255 200 0.798782
0.516753 -0.104058 7.161260 0 121 255 0.703157
0.495486 -0.134009 7.164110 0 209 255 0.756832
0.484283 -0.164789 7.174330 38 255 209 0.793434
0.502539 -0.168439 7.188280 3 233 245 0.770291
0.326288 -0.766928 7.036330 255 138 0 0.934438
0.320293 -0.767793 7.030770 255 138 0 0.934751
0.333680 -0.796305 7.012380 255 101 0 0.946283
0.328645 -0.797246 7.006750 255 108 0 0.943664
0.315107 -0.768658 7.025180 255 153 0 0.930368
0.342344 -0.825437 6.987570 255 97 0 0.947411
0.324035 -0.797880 7.000780 255 116 0 0.941490
0.337913 -0.825969 6.981760 255 108 0 0.944117
0.333901 -0.826422 6.975200 255 108 0 0.944610
0.310083 -0.769370 7.019150 255 160 0 0.927686
0.319584 -0.798559 6.994320 255 108 0 0.943928
0.305436 -0.770080 7.012620 255 156 0 0.929219
0.352342 -0.853386 6.961710 255 119 0 0.940605
0.348291 -0.853822 6.955460 255 127 0 0.938152
0.362952 -0.880416 6.935240 255 175 0 0.922716
0.368236 -0.880852 6.941550 255 160 0 0.927148
0.358115 -0.853631 6.967730 255 108 0 0.944062
0.373719 -0.881169 6.947450 255 153 0 0.929803
0.364430 -0.853331 6.973190 255 86 0 0.950759
0.348649 -0.825221 6.993010 255 78 0 0.953250
0.355672 -0.825084 6.998360 255 60 0 0.958966
0.380042 -0.881036 6.953280 255 127 0 0.937850
0.371307 -0.853344 6.979090 255 67 0 0.956803
0.387253 -0.881297 6.959970 255 112 0 0.943354
0.340727 -0.796245 7.017760 255 82 0 0.951800
0.300086 -0.765829 7.006680 255 112 0 0.943124
0.313040 -0.792666 6.989120 255 78 0 0.952957
0.307766 -0.788482 6.982300 255 56 0 0.960436
0.294605 -0.761749 6.999950 255 82 0 0.951833
0.320667 -0.814148 6.963820 255 45 0 0.963148
0.301227 -0.783822 6.974030 255 23 0 0.969576
0.314696 -0.809352 6.955850 237 4 0 0.974670
0.288001 -0.757269 6.991860 255 56 0 0.960028
0.328473 -0.834271 6.937120 246 12 0 0.972668
0.343850 -0.860169 6.917450 255 34 0 0.966870
0.335983 -0.841014 6.944370 255 38 0 0.964946
0.351189 -0.867359 6.924570 255 71 0 0.955542
0.342398 -0.847545 6.950380 255 75 0 0.954070
0.327664 -0.820391 6.970120 255 64 0 0.957250
0.357296 -0.874029 6.930330 255 127 0 0.938729
0.388664 -0.908541 6.854590 214 0 0 0.980684
0.397358 -0.916839 6.860370 251 16 0 0.971691
0.380690 -0.899784 6.882550 255 19 0 0.970542
0.404949 -0.925065 6.865360 255 71 0 0.955009
0.388745 -0.907968 6.887440 255 60 0 0.958434
0.396253 -0.915362 6.891850 255 108 0 0.943861
0.412453 -0.932583 6.869580 255 130 0 0.937473
0.372059 -0.890613 6.909450 255 78 0 0.952756
0.379891 -0.898130 6.913800 255 127 0 0.938190
0.366094 -0.883631 6.903440 255 30 0 0.967527
0.359146 -0.876441 6.896740 228 0 0 0.977116
0.374012 -0.892532 6.875750 210 0 0 0.981688
0.417145 -0.933544 6.876100 255 130 0 0.937047
0.428814 -0.935570 6.879470 255 93 0 0.948276
0.405956 -0.916574 6.904040 255 108 0 0.944430
0.441934 -0.938307 6.883810 255 67 0 0.956388
0.419033 -0.918385 6.907580 255 56 0 0.960055
0.433021 -0.922587 6.913150 255 49 0 0.962188
0.455137 -0.944164 6.890310 255 90 0 0.949313
0.396372 -0.899019 6.931990 255 93 0 0.948314
0.410301 -0.901851 6.936520 255 64 0 0.958118
0.390048 -0.898932 6.925720 255 112 0 0.942365
0.384370 -0.898786 6.919680 255 123 0 0.939944
0.400749 -0.916293 6.897920 255 112 0 0.942859
0.277061 -0.720451 7.005040 233 1 0 0.975831
0.284204 -0.724799 7.013130 251 16 0 0.971400
0.272578 -0.687171 7.025370 219 0 0 0.979430
0.290045 -0.729010 7.019690 255 45 0 0.963525
0.279151 -0.691577 7.031850 242 8 0 0.974324
0.285590 -0.696146 7.037670 255 23 0 0.969460
0.295660 -0.733136 7.025610 255 64 0 0.957444
0.267648 -0.653969 7.043790 233 1 0 0.975624
0.274753 -0.658542 7.049350 246 12 0 0.972468
0.263089 -0.621262 7.061080 255 30 0 0.967250
0.256109 -0.618287 7.056460 255 38 0 0.965514
0.260995 -0.650976 7.037990 223 0 0 0.977667
0.248630 -0.615169 7.050960 255 23 0 0.970086
0.253443 -0.647819 7.031620 228 0 0 0.977351
0.265736 -0.684276 7.018290 219 0 0 0.978844
0.240536 -0.611907 7.044930 255 27 0 0.968288
0.306078 -0.732016 7.037350 255 75 0 0.954677
0.296569 -0.694974 7.048600 255 27 0 0.968569
0.311727 -0.731348 7.043040 255 64 0 0.957290
0.302870 -0.694631 7.054500 255 23 0 0.970106
0.309730 -0.694307 7.060990 255 27 0 0.969146
0.317955 -0.730780 7.048830 255 60 0 0.958590
0.293576 -0.657803 7.065610 242 8 0 0.973733
0.300901 -0.657651 7.072340 242 8 0 0.974118
0.291845 -0.621143 7.083910 255 27 0 0.969001
0.277035 -0.621299 7.071930 255 34 0 0.966368
0.272847 -0.501627 7.097920 210 0 0 0.981352
0.267039 -0.541002 7.084870 210 0 0 0.981522
0.253295 -0.500238 7.086940 233 1 0 0.976480
0.249858 -0.540425 7.075270 233 1 0 0.975752
0.263852 -0.581093 7.072370 223 0 0 0.977697
0.280367 -0.581426 7.084210 214 0 0 0.979841
0.285623 -0.541924 7.097450 205 0 0 0.982220
0.234061 -0.496599 7.076690 255 30 0 0.967614
0.232179 -0.533521 7.064860 251 16 0 0.972238
0.240078 -0.574201 7.058140 246 12 0 0.972517
0.248269 -0.577576 7.062940 233 1 0 0.975647
0.240861 -0.537062 7.070380 242 8 0 0.973911
0.330753 -0.722908 7.063330 255 34 0 0.966519
0.338747 -0.757434 7.052570 255 101 0 0.946020
0.322637 -0.688434 7.073510 242 8 0 0.974453
0.336448 -0.679547 7.090770 246 12 0 0.972769
0.343934 -0.713877 7.080810 255 38 0 0.965029
0.351035 -0.748412 7.070290 255 101 0 0.946364
0.321265 -0.649461 7.091530 228 0 0 0.976897
0.320807 -0.611027 7.109560 255 27 0 0.968421
0.306180 -0.616008 7.096350 255 19 0 0.970806
0.357478 -0.703518 7.095190 255 19 0 0.970675
0.364549 -0.735943 7.087040 255 78 0 0.953804
0.350592 -0.671487 7.103560 233 1 0 0.976441
0.364201 -0.659437 7.118900 242 8 0 0.974442
0.370736 -0.691258 7.111240 255 23 0 0.969295
0.377431 -0.723795 7.103460 255 75 0 0.954038
0.350469 -0.633700 7.118560 228 0 0 0.977544
0.350475 -0.596262 7.133220 255 23 0 0.970229
0.335670 -0.603468 7.120860 246 12 0 0.972806
0.335770 -0.641243 7.105900 228 0 0 0.976809
0.341816 -0.497671 7.139680 178 0 0 0.988072
0.335003 -0.534879 7.129520 178 0 0 0.988490
0.325535 -0.499297 7.130170 183 0 0 0.987910
0.318752 -0.537099 7.119980 183 0 0 0.986998
0.327594 -0.572728 7.119370 196 0 0 0.984141
0.342946 -0.565804 7.130790 196 0 0 0.984480
0.350307 -0.528630 7.140780 183 0 0 0.987261
0.308669 -0.502021 7.119220 183 0 0 0.987609
0.302122 -0.541110 7.107290 183 0 0 0.987279
0.291178 -0.502227 7.108700 192 0 0 0.985164
0.296182 -0.580968 7.095300 210 0 0 0.981501
0.312273 -0.576216 7.108180 196 0 0 0.984392
0.385897 -0.682067 7.122900 237 4 0 0.975038
0.392166 -0.713048 7.116370 255 53 0 0.961355
0.379927 -0.651685 7.129570 219 0 0 0.979090
0.394099 -0.641337 7.141330 219 0 0 0.979201
0.399991 -0.671782 7.135200 237 4 0 0.975130
0.405618 -0.702888 7.129090 255 45 0 0.963414
0.381365 -0.616325 7.141860 214 0 0 0.980383
0.383485 -0.581929 7.154450 233 1 0 0.976126
0.367242 -0.588918 7.143580 237 4 0 0.975013
0.365663 -0.623884 7.131430 223 0 0 0.978218
0.414552 -0.663873 7.145290 228 0 0 0.977116
0.420007 -0.693792 7.139360 255 34 0 0.966902
0.409960 -0.634445 7.151640 214 0 0 0.979919
0.424923 -0.625633 7.162210 219 0 0 0.979506
0.429467 -0.655158 7.156200 237 4 0 0.975070
0.433839 -0.685044 7.149990 255 27 0 0.968877
0.413092 -0.601063 7.163080 214 0 0 0.980461
0.417585 -0.568284 7.175160 233 1 0 0.976274
0.400823 -0.574994 7.164580 228 0 0 0.976967
0.397217 -0.607851 7.152950 214 0 0 0.980417
0.414306 -0.481571 7.179550 183 0 0 0.987212
0.403056 -0.514792 7.170540 183 0 0 0.987196
0.395737 -0.485360 7.169760 187 0 0 0.986683
0.384959 -0.518802 7.160680 187 0 0 0.986580
0.392833 -0.548341 7.162040 196 0 0 0.984190
0.410392 -0.541529 7.172270 196 0 0 0.984086
0.421564 -0.508085 7.181130 192 0 0 0.985296
0.377056 -0.490422 7.159490 183 0 0 0.987305
0.367570 -0.525408 7.150260 178 0 0 0.988011
0.359023 -0.493173 7.150070 183 0 0 0.987148
0.359068 -0.560659 7.141670 201 0 0 0.983636
0.375940 -0.553716 7.151900 192 0 0 0.984886
0.444032 -0.648157 7.166130 237 4 0 0.974567
0.448470 -0.677384 7.160320 255 38 0 0.965097
0.440641 -0.619487 7.172610 228 0 0 0.977272
0.456170 -0.611542 7.182890 237 4 0 0.975351
0.459084 -0.640194 7.176810 246 12 0 0.972921
0.463027 -0.669586 7.171140 255 38 0 0.965637
0.444824 -0.587242 7.183540 228 0 0 0.976918
0.450148 -0.555597 7.194820 242 8 0 0.973927
0.433342 -0.561982 7.184220 237 4 0 0.974505
0.428808 -0.593491 7.173210 228 0 0 0.977346
0.474448 -0.633706 7.188640 255 27 0 0.968789
0.477241 -0.662406 7.182510 255 53 0 0.960715
0.471354 -0.605504 7.194460 255 19 0 0.971299
0.476540 -0.574015 7.205930 255 19 0 0.971064
0.473951 -0.546396 7.211130 255 23 0 0.969275
0.460873 -0.580153 7.194330 242 8 0 0.973539
0.471821 -0.493392 7.211800 223 0 0 0.978349
0.466736 -0.466921 7.209890 214 0 0 0.980614
0.456261 -0.497581 7.201160 210 0 0 0.981051
0.460155 -0.524401 7.202990 237 4 0 0.974980
0.449706 -0.472134 7.199780 205 0 0 0.982589
0.438662 -0.503920 7.191250 201 0 0 0.983183
0.432490 -0.476353 7.189600 201 0 0 0.983388
0.427549 -0.536101 7.182700 210 0 0 0.981350
0.444185 -0.529720 7.192360 210 0 0 0.981089
0.101848 -0.448302 6.963430 255 90 0 0.949356
0.089680 -0.416821 6.956700 255 156 0 0.928111
0.092193 -0.474936 6.941620 255 34 0 0.966344
0.080606 -0.442996 6.935130 255 56 0 0.960091
0.070407 -0.468826 6.914290 255 34 0 0.966452
0.069383 -0.412137 6.928440 255 123 0 0.939403
0.081557 -0.501660 6.920410 255 38 0 0.965912
0.071597 -0.528648 6.900080 255 56 0 0.960372
0.083338 -0.534185 6.912700 255 41 0 0.964768
0.093375 -0.506773 6.934260 255 30 0 0.967391
0.095643 -0.539616 6.926450 255 38 0 0.965484
0.105665 -0.511838 6.948340 255 38 0 0.965619
0.103830 -0.479333 6.956210 255 53 0 0.960603
0.108112 -0.545085 6.939870 255 45 0 0.963641
0.059364 -0.437832 6.908420 255 71 0 0.954940
0.049480 -0.409320 6.901410 255 93 0 0.948532
0.048527 -0.463933 6.889440 255 82 0 0.951772
0.039409 -0.434956 6.881740 255 93 0 0.948453
0.028174 -0.460205 6.864490 255 127 0 0.937962
0.030018 -0.406916 6.874660 255 93 0 0.948223
0.037468 -0.489913 6.870830 255 108 0 0.944065
0.026839 -0.516552 6.853420 255 127 0 0.937911
0.048848 -0.522407 6.876350 255 93 0 0.949146
0.059307 -0.495238 6.895440 255 56 0 0.959526
0.053898 -0.604519 6.828440 255 130 0 0.937526
0.066888 -0.607674 6.837660 255 90 0 0.950315
0.059641 -0.578214 6.850410 255 101 0 0.946451
0.079858 -0.610792 6.847520 255 71 0 0.955912
0.072456 -0.581727 6.861190 255 67 0 0.956226
0.085123 -0.585565 6.872420 255 34 0 0.966682
0.093047 -0.614241 6.858080 255 41 0 0.964459
0.065266 -0.552987 6.874860 255 64 0 0.958185
0.078032 -0.556982 6.886610 255 30 0 0.967442
0.042618 -0.546725 6.852390 255 108 0 0.943911
0.036704 -0.572346 6.830390 255 156 0 0.929027
0.105850 -0.619845 6.870060 242 8 0 0.973533
0.120051 -0.626911 6.882310 214 0 0 0.979996
0.110051 -0.596865 6.897610 214 0 0 0.980326
0.135165 -0.634004 6.894720 196 0 0 0.984428
0.124703 -0.603666 6.910570 205 0 0 0.982138
0.115531 -0.573518 6.925680 228 0 0 0.977219
0.102423 -0.568197 6.911930 233 1 0 0.976507
0.090001 -0.562760 6.898970 251 16 0 0.971741
0.097421 -0.591035 6.884970 237 4 0 0.974838
0.166203 -0.234822 6.949180 255 116 0 0.942313
0.139610 -0.257319 6.944980 255 175 0 0.922663
0.141185 -0.236375 6.925580 255 134 0 0.935995
0.115802 -0.258600 6.919850 255 175 0 0.923081
0.114378 -0.279390 6.939440 255 230 0 0.903289
0.091714 -0.304238 6.930280 255 208 0 0.911005
0.112085 -0.304479 6.957660 206 255 42 0.880513
0.136084 -0.280485 6.964490 245 249 3 0.897146
0.116124 -0.234657 6.902640 255 190 0 0.917889
0.091709 -0.256785 6.896650 255 193 0 0.916585
0.088910 -0.232750 6.880810 255 234 0 0.901719
0.066658 -0.256863 6.872260 255 190 0 0.917528
0.070736 -0.280627 6.887080 255 160 0 0.927922
0.051983 -0.305912 6.875870 255 101 0 0.946259
0.071588 -0.305108 6.903090 255 156 0 0.929184
0.092321 -0.280432 6.912900 255 197 0 0.915453
0.046557 -0.381364 6.886900 255 53 0 0.960864
0.061428 -0.355096 6.901570 255 56 0 0.960140
0.065600 -0.383322 6.914360 255 60 0 0.959346
0.080691 -0.356894 6.928820 255 82 0 0.951930
0.076237 -0.329710 6.916550 255 104 0 0.945657
0.057589 -0.330987 6.887670 255 67 0 0.956994
0.043169 -0.356508 6.872980 255 64 0 0.957503
0.085192 -0.384769 6.943110 255 123 0 0.939646
0.099712 -0.357061 6.959290 255 204 0 0.911818
0.105109 -0.388732 6.972020 255 193 0 0.916367
0.116195 -0.330109 6.972700 209 255 38 0.881008
0.095482 -0.330001 6.944600 255 197 0 0.915147
0.018069 -0.432151 6.859230 255 127 0 0.937960
0.009020 -0.406350 6.852710 255 108 0 0.944017
0.005942 -0.457875 6.844010 255 145 0 0.932017
-0.002989 -0.431632 6.838100 255 141 0 0.934049
-0.015523 -0.456987 6.824850 255 156 0 0.928722
-0.012244 -0.406215 6.832670 255 112 0 0.942826
-0.006091 -0.484133 6.830290 255 156 0 0.928827
-0.018002 -0.512026 6.818820 255 149 0 0.930552
0.004461 -0.514010 6.834800 255 141 0 0.933395
0.015955 -0.486710 6.849000 255 141 0 0.932888
-0.025476 -0.431493 6.821420 255 138 0 0.935111
-0.035475 -0.406856 6.817150 255 104 0 0.945245
-0.038784 -0.457747 6.812330 255 119 0 0.940715
-0.048974 -0.432051 6.808060 255 116 0 0.941500
-0.062613 -0.458804 6.801400 255 97 0 0.947785
-0.060753 -0.407052 6.804730 255 90 0 0.950338
-0.051692 -0.484827 6.804700 255 108 0 0.943563
-0.065015 -0.514008 6.798980 255 82 0 0.951613
-0.040853 -0.513038 6.808080 255 119 0 0.940371
-0.028405 -0.484079 6.814880 255 130 0 0.936673
-0.054911 -0.637335 6.776940 255 78 0 0.953319
-0.045305 -0.604000 6.786050 255 82 0 0.952334
-0.030160 -0.634835 6.783400 255 93 0 0.948554
-0.035468 -0.571212 6.794760 255 116 0 0.941874
-0.020257 -0.601548 6.792490 255 112 0 0.942581
-0.010552 -0.569135 6.802530 255 164 0 0.926028
-0.005108 -0.632131 6.790150 255 108 0 0.944650
-0.026311 -0.540195 6.805290 255 138 0 0.935029
-0.050004 -0.541956 6.796770 255 108 0 0.944130
-0.059668 -0.573361 6.787520 255 82 0 0.952549
0.004484 -0.600340 6.801700 255 145 0 0.932022
0.021078 -0.632522 6.799710 255 112 0 0.943234
0.012732 -0.570423 6.815670 255 160 0 0.927480
0.029564 -0.601321 6.813090 255 153 0 0.929289
0.019776 -0.542388 6.832760 255 153 0 0.929365
-0.002799 -0.540257 6.816790 255 167 0 0.925317
-0.817094 -0.784396 6.379980 137 0 0 0.997844
-0.838104 -0.787331 6.362330 133 0 0 0.998520
-0.824179 -0.798601 6.346940 133 0 0 0.998527
-0.845515 -0.802774 6.330280 133 0 0 0.998522
-0.859411 -0.791259 6.345190 133 0 0 0.998643
-0.831447 -0.814931 6.315630 137 0 0 0.997873
-0.867042 -0.807381 6.314240 137 0 0 0.997809
-0.852779 -0.819911 6.300170 146 0 0 0.995840
-0.874633 -0.825392 6.284820 178 0 0 0.988702
-0.880943 -0.795459 6.328730 133 0 0 0.997991
-0.888257 -0.812592 6.298630 155 0 0 0.993237
-0.902434 -0.800298 6.312660 151 0 0 0.994827
-0.838740 -0.832312 6.286100 173 0 0 0.989395
-0.860178 -0.837567 6.270750 219 0 0 0.979495
-0.845621 -0.850483 6.256980 255 53 0 0.960735
-0.824347 -0.847122 6.271220 255 19 0 0.971136
-0.817532 -0.829167 6.300740 160 0 0 0.992418
-0.803278 -0.843593 6.285610 219 0 0 0.978983
-0.796254 -0.826269 6.315530 151 0 0 0.994735
-0.810242 -0.812124 6.330820 133 0 0 0.998401
-0.788947 -0.809730 6.346470 133 0 0 0.998468
-0.782251 -0.840530 6.300220 205 0 0 0.982168
-0.775227 -0.823638 6.330790 146 0 0 0.995033
-0.761257 -0.838092 6.315390 201 0 0 0.983630
-0.803287 -0.796653 6.362880 133 0 0 0.998630
-0.925910 -0.799229 6.296460 146 0 0 0.995342
-0.912450 -0.811738 6.282580 160 0 0 0.992875
-0.936777 -0.811472 6.267080 169 0 0 0.990107
-0.949708 -0.798966 6.280490 155 0 0 0.993848
-0.923132 -0.824240 6.253380 196 0 0 0.983937
-0.960767 -0.811480 6.251640 201 0 0 0.983226
-0.947577 -0.824164 6.238480 237 4 0 0.974758
-0.971364 -0.823726 6.223440 255 49 0 0.961641
-0.973884 -0.798848 6.264670 173 0 0 0.989350
-0.985012 -0.811261 6.236690 246 12 0 0.972992
-0.998146 -0.798943 6.249610 214 0 0 0.980432
-0.933389 -0.836626 6.224580 255 49 0 0.962522
-0.957623 -0.836166 6.209600 255 90 0 0.950010
-0.942656 -0.848488 6.195550 255 164 0 0.925745
-0.918265 -0.849563 6.210790 255 127 0 0.937727
-0.908241 -0.836986 6.239770 255 19 0 0.971232
-0.893390 -0.849884 6.226020 255 93 0 0.949087
-0.883952 -0.837159 6.255130 228 0 0 0.977472
-0.898530 -0.824534 6.268900 178 0 0 0.988455
-0.869305 -0.850075 6.241380 255 67 0 0.956353
-0.866201 -0.878282 6.126260 255 145 0 0.932500
-0.843072 -0.880903 6.140950 255 156 0 0.928927
-0.862755 -0.877476 6.159710 255 219 0 0.907111
-0.839397 -0.879213 6.174460 255 212 0 0.910439
-0.820640 -0.883462 6.155610 255 171 0 0.924244
-0.857810 -0.871985 6.192630 255 216 0 0.909057
-0.816708 -0.880755 6.188900 255 216 0 0.907855
-0.834635 -0.873051 6.207290 255 197 0 0.914664
-0.811658 -0.873750 6.222080 255 190 0 0.917291
-0.798499 -0.885033 6.170030 255 171 0 0.923141
-0.794260 -0.881986 6.203620 255 216 0 0.907980
-0.776686 -0.887105 6.184950 255 201 0 0.913614
-0.851933 -0.862452 6.225110 255 134 0 0.935880
-0.828859 -0.862999 6.239860 255 127 0 0.937794
-0.875880 -0.861923 6.209730 255 164 0 0.926404
-0.900416 -0.861044 6.194350 255 190 0 0.917088
-0.881868 -0.870698 6.177330 255 230 0 0.903066
-0.905978 -0.868756 6.161880 251 241 0 0.899678
-0.924898 -0.859577 6.178900 255 216 0 0.908189
-0.886401 -0.874925 6.144230 255 212 0 0.910231
-0.757001 -0.886134 6.197550 255 186 0 0.918965
-0.774236 -0.879208 6.218110 255 182 0 0.920473
-0.754337 -0.878072 6.231000 255 164 0 0.926282
-0.737868 -0.885635 6.210690 255 175 0 0.922639
-0.770655 -0.867432 6.251010 255 116 0 0.941936
-0.734674 -0.877435 6.244650 255 164 0 0.925772
-0.750479 -0.866279 6.264190 255 108 0 0.943753
-0.730740 -0.866088 6.278020 255 116 0 0.941651
-0.718831 -0.885453 6.224740 255 175 0 0.922112
-0.715111 -0.877764 6.258860 255 178 0 0.921205
-0.699413 -0.885601 6.238690 255 182 0 0.919740
-0.766126 -0.853106 6.283210 255 30 0 0.967278
-0.745940 -0.852285 6.296760 255 34 0 0.966807
-0.786864 -0.856064 6.268350 255 49 0 0.961934
-0.807741 -0.859698 6.254060 255 82 0 0.951842
-0.790902 -0.870258 6.236310 255 141 0 0.933971
-0.593342 -0.876725 6.318150 255 160 0 0.927950
-0.590376 -0.884422 6.284600 255 134 0 0.936418
-0.616489 -0.878887 6.301150 255 164 0 0.926252
-0.587010 -0.888706 6.250040 255 71 0 0.955338
-0.613577 -0.886800 6.267290 255 130 0 0.936707
-0.609789 -0.890472 6.232550 255 71 0 0.955028
-0.639796 -0.881627 6.284080 255 171 0 0.924054
-0.583164 -0.889330 6.214520 205 0 0 0.982220
-0.578987 -0.888828 6.179100 169 0 0 0.990691
-0.558371 -0.889895 6.193150 169 0 0 0.990416
-0.562382 -0.889811 6.228680 223 0 0 0.978116
-0.565999 -0.889026 6.264380 255 82 0 0.952175
-0.537708 -0.890211 6.207130 169 0 0 0.990420
-0.654889 -0.882130 6.272440 255 164 0 0.926079
-0.638968 -0.887362 6.249020 255 134 0 0.936426
-0.653732 -0.887579 6.237650 255 116 0 0.941467
-0.669631 -0.883146 6.261020 255 167 0 0.924735
-0.637435 -0.889120 6.213470 255 45 0 0.963675
-0.668075 -0.887962 6.226410 255 116 0 0.941288
-0.651527 -0.888602 6.202300 255 23 0 0.969516
-0.666182 -0.888673 6.191240 255 27 0 0.968242
-0.684495 -0.884241 6.249730 255 171 0 0.923865
-0.682979 -0.889147 6.215250 255 127 0 0.937729
-0.635371 -0.887209 6.177650 183 0 0 0.987737
-0.649618 -0.886996 6.166660 178 0 0 0.988434
-0.632938 -0.884449 6.141620 187 0 0 0.986119
-0.606053 -0.886688 6.160090 173 0 0 0.989697
-0.607956 -0.888478 6.196300 192 0 0 0.985265
-0.575215 -0.899590 6.039610 203 255 45 0.877715
-0.575104 -0.889852 6.071530 196 255 51 0.875211
-0.548151 -0.899794 6.054810 255 230 0 0.902781
-0.575736 -0.885502 6.105870 255 149 0 0.931519
-0.548272 -0.890466 6.087010 255 216 0 0.908994
-0.549164 -0.887618 6.122520 255 97 0 0.947895
-0.521217 -0.901066 6.070270 255 193 0 0.915971
-0.577376 -0.886017 6.142140 251 16 0 0.971996
-0.604253 -0.884106 6.123500 255 38 0 0.965122
-0.602696 -0.885355 6.088070 255 164 0 0.926639
-0.524280 -0.891483 6.102060 255 175 0 0.922419
-0.500442 -0.901627 6.082310 255 182 0 0.919618
-0.528383 -0.887334 6.136140 255 78 0 0.953117
-0.503808 -0.892034 6.114610 255 164 0 0.926482
-0.508056 -0.888297 6.148910 255 60 0 0.959312
-0.479861 -0.902572 6.094600 255 164 0 0.926149
-0.532762 -0.887420 6.171580 219 0 0 0.979471
-0.553510 -0.887351 6.157660 223 0 0 0.978416
-0.729551 -0.900623 5.955930 255 201 0 0.913919
-0.708560 -0.899260 5.966920 248 245 0 0.897347
-0.720953 -0.886347 5.988460 209 255 38 0.881130
-0.700373 -0.886463 5.999400 180 255 67 0.868057
-0.687937 -0.898280 5.977690 216 255 32 0.884116
-0.714520 -0.878750 6.021840 216 255 32 0.884165
-0.680155 -0.886531 6.010180 167 255 80 0.862407
-0.694151 -0.879854 6.032960 196 255 51 0.875531
-0.674250 -0.881369 6.044230 209 255 38 0.881381
-0.667630 -0.897963 5.988490 193 255 55 0.874234
-0.660343 -0.887697 6.021310 177 255 71 0.867246
-0.647409 -0.898499 5.999680 193 255 55 0.873542
-0.709455 -0.877062 6.056730 255 197 0 0.914409
-0.689455 -0.879422 6.068440 255 175 0 0.922255
-0.705232 -0.879907 6.093620 246 12 0 0.972421
-0.725058 -0.877313 6.080160 255 34 0 0.966877
-0.729364 -0.875385 6.044090 255 212 0 0.909189
-0.745175 -0.875397 6.067200 255 34 0 0.967004
-0.749421 -0.874083 6.031650 255 156 0 0.928637
-0.734600 -0.878303 6.009610 222 255 25 0.886961
-0.755146 -0.878307 5.997330 245 249 3 0.896443
-0.765395 -0.873261 6.054470 255 49 0 0.961814
-0.770029 -0.873177 6.019290 255 149 0 0.930765
-0.786281 -0.872171 6.041930 255 45 0 0.962807
-0.741545 -0.887443 5.976230 235 255 13 0.891982
-0.629637 -0.898185 6.009370 184 255 64 0.870156
-0.642698 -0.887015 6.031850 164 255 84 0.860856
-0.624506 -0.887427 6.041730 164 255 84 0.859867
-0.611563 -0.898003 6.019080 174 255 74 0.864670
-0.638822 -0.882060 6.066460 219 255 29 0.885791
-0.606753 -0.888775 6.052370 196 255 51 0.876176
-0.620881 -0.883389 6.077020 248 245 0 0.897401
-0.593426 -0.898338 6.029210 187 255 61 0.870640
-0.635761 -0.881900 6.103350 255 86 0 0.950879
-0.651312 -0.883049 6.129260 201 0 0 0.983709
-0.653767 -0.880301 6.091330 255 108 0 0.944413
-0.669352 -0.881890 6.117210 210 0 0 0.981226
-0.671541 -0.879827 6.079780 255 116 0 0.941666
-0.656630 -0.881131 6.055010 209 255 38 0.881882
-0.687346 -0.880387 6.105110 237 4 0 0.974789
-0.701906 -0.887929 6.202600 255 108 0 0.944139
-0.720683 -0.886680 6.188670 255 86 0 0.951273
-0.703437 -0.885584 6.166360 219 0 0 0.979273
-0.739410 -0.886493 6.175240 255 78 0 0.953355
-0.722006 -0.884644 6.152700 205 0 0 0.982446
-0.740483 -0.885084 6.139980 205 0 0 0.982011
-0.758402 -0.886704 6.162430 255 82 0 0.952073
-0.704630 -0.882341 6.129600 169 0 0 0.990517
-0.722588 -0.882475 6.117100 169 0 0 0.990139
-0.686369 -0.883434 6.141530 164 0 0 0.991088
-0.668145 -0.884828 6.153930 169 0 0 0.990473
-0.684950 -0.886837 6.178640 233 1 0 0.976247
-0.779782 -0.885029 6.148950 255 64 0 0.957256
-0.801174 -0.882542 6.134260 255 49 0 0.962145
-0.781751 -0.880055 6.113040 178 0 0 0.987989
-0.823049 -0.880609 6.120030 255 41 0 0.964447
-0.803063 -0.877581 6.098700 173 0 0 0.989310
-0.824944 -0.875650 6.084130 173 0 0 0.989056
-0.845673 -0.878181 6.105310 255 30 0 0.967341
-0.783752 -0.874906 6.077120 192 0 0 0.985830
-0.805066 -0.872783 6.062750 196 0 0 0.983969
-0.763027 -0.877648 6.090420 178 0 0 0.988213
-0.742795 -0.879817 6.103500 173 0 0 0.989486
-0.760967 -0.882724 6.126400 192 0 0 0.984959
-0.616301 -0.325413 6.833470 9 241 238 0.775933
-0.617969 -0.332518 6.819640 45 255 203 0.796643
-0.610250 -0.310774 6.805980 71 255 177 0.813060
-0.610530 -0.317535 6.792730 119 255 129 0.837535
-0.617548 -0.339245 6.805600 67 255 180 0.810981
-0.604222 -0.294134 6.779420 109 255 138 0.833642
-0.610968 -0.324059 6.779070 161 255 87 0.859365
-0.604785 -0.300642 6.766590 167 255 80 0.862639
-0.604971 -0.306667 6.752670 174 255 74 0.865632
-0.618099 -0.345778 6.792230 109 255 138 0.833358
-0.612006 -0.330254 6.765980 158 255 90 0.856892
-0.619570 -0.353027 6.779630 116 255 132 0.836037
-0.600107 -0.276510 6.754030 151 255 96 0.855148
-0.600537 -0.281219 6.739950 164 255 84 0.860488
-0.598429 -0.255729 6.729550 145 255 103 0.851433
-0.597833 -0.252025 6.744580 135 255 113 0.846744
-0.599981 -0.271628 6.769380 116 255 132 0.836542
-0.596991 -0.248418 6.760560 96 255 151 0.826500
-0.599949 -0.267809 6.784760 90 255 158 0.823624
-0.604705 -0.290231 6.794960 100 255 148 0.828536
-0.604124 -0.285455 6.809970 58 255 190 0.805642
-0.596933 -0.244984 6.776970 71 255 177 0.811710
-0.599620 -0.263369 6.800530 48 255 200 0.799644
-0.610230 -0.306375 6.821370 64 255 184 0.808140
-0.620624 -0.358371 6.766840 151 255 96 0.854886
-0.612739 -0.334186 6.752180 209 255 38 0.881198
-0.614018 -0.339026 6.739360 235 255 13 0.893120
-0.622307 -0.364235 6.754280 171 255 77 0.863768
-0.605383 -0.313886 6.726410 206 255 42 0.880441
-0.610494 -0.345214 6.729830 167 255 80 0.861995
-0.603109 -0.318165 6.716840 190 255 58 0.873314
-0.603447 -0.322677 6.707180 171 255 77 0.863245
-0.620633 -0.371324 6.742980 148 255 100 0.852134
-0.609485 -0.350445 6.720050 148 255 100 0.852325
-0.617957 -0.377965 6.732900 132 255 116 0.844437
-0.599770 -0.290757 6.704050 71 255 177 0.812058
-0.601329 -0.294149 6.694110 116 255 132 0.836851
-0.602213 -0.266653 6.682450 3 233 245 0.771215
-0.599675 -0.265064 6.693590 0 197 255 0.751040
-0.600060 -0.288383 6.714850 145 255 103 0.851007
-0.598848 -0.262845 6.704500 61 255 187 0.807439
-0.601377 -0.285444 6.727130 174 255 74 0.865371
-0.606189 -0.309593 6.738490 193 255 55 0.873804
-0.599465 -0.259913 6.716280 129 255 119 0.843881
-0.651486 -0.157760 6.659050 171 255 77 0.863504
-0.645552 -0.154374 6.674190 125 255 122 0.841174
-0.633887 -0.180756 6.671560 151 255 96 0.854911
-0.628109 -0.178712 6.686170 132 255 116 0.844132
-0.639386 -0.151129 6.689920 103 255 145 0.829210
-0.617692 -0.206339 6.686720 148 255 100 0.852139
-0.623123 -0.175597 6.701820 119 255 129 0.838377
-0.614275 -0.203413 6.701670 135 255 113 0.846186
-0.609935 -0.200737 6.718060 145 255 103 0.850698
-0.633836 -0.147526 6.705500 87 255 161 0.821472
-0.618568 -0.172661 6.717810 90 255 158 0.822101
-0.628559 -0.144494 6.720320 55 255 193 0.802354
-0.606307 -0.231872 6.706420 180 255 67 0.867543
-0.603407 -0.229013 6.721910 122 255 126 0.840476
-0.607183 -0.233755 6.693600 142 255 106 0.849653
-0.608881 -0.236588 6.681630 67 255 180 0.810974
-0.620198 -0.208693 6.673320 148 255 100 0.852987
-0.623641 -0.211129 6.660700 161 255 87 0.859329
-0.611522 -0.238619 6.670190 32 255 216 0.789484
-0.637492 -0.184603 6.656890 187 255 61 0.870391
-0.625063 -0.141559 6.736550 61 255 187 0.806304
-0.615787 -0.167697 6.733640 96 255 151 0.826939
-0.613553 -0.166099 6.750100 90 255 158 0.823157
-0.621762 -0.139540 6.752950 55 255 193 0.802335
-0.606424 -0.193055 6.750670 116 255 132 0.836593
-0.604587 -0.190597 6.767070 100 255 148 0.828735
-0.600027 -0.216822 6.769990 119 255 129 0.838895
-0.600652 -0.220700 6.753640 135 255 113 0.847116
-0.601629 -0.224825 6.738180 119 255 129 0.837677
-0.607913 -0.196114 6.734320 122 255 126 0.839881
-0.700871 -0.390479 6.896460 0 205 255 0.756045
-0.696649 -0.381660 6.911300 0 201 255 0.752555
-0.703649 -0.373540 6.933040 0 173 255 0.737914
-0.727258 -0.374475 6.945020 0 161 255 0.728889
-0.733514 -0.383468 6.928470 0 205 255 0.754856
-0.726907 -0.391965 6.906840 25 255 222 0.785949
-0.752409 -0.392683 6.918360 35 255 213 0.791161
-0.774205 -0.366772 6.964780 13 245 235 0.777200
-0.782241 -0.375535 6.947510 84 255 164 0.819336
-0.778017 -0.387323 6.926190 87 255 161 0.821485
-0.802927 -0.381913 6.934940 113 255 135 0.834688
-0.757750 -0.381368 6.938660 19 253 229 0.780449
-0.750836 -0.372510 6.955110 0 201 255 0.753261
-0.804889 -0.367164 6.956370 77 255 171 0.815500
-0.796269 -0.357981 6.973800 71 255 177 0.812235
-0.816965 -0.346440 6.982200 87 255 161 0.820523
-0.826910 -0.356180 6.962770 122 255 126 0.840463
-0.825539 -0.370745 6.941810 155 255 93 0.855577
-0.847832 -0.361010 6.947010 158 255 90 0.856862
-0.854231 -0.319509 6.994010 55 255 193 0.802888
-0.866150 -0.330827 6.971910 90 255 158 0.823308
-0.867594 -0.347843 6.949740 164 255 84 0.861230
-0.887359 -0.335590 6.952330 113 255 135 0.834926
-0.846890 -0.344216 6.968730 119 255 129 0.837824
-0.836399 -0.333673 6.988610 51 255 196 0.801033
-0.899696 -0.346348 6.930500 190 255 58 0.873122
-0.900885 -0.362158 6.910700 245 249 3 0.896314
-0.912711 -0.372453 6.890340 255 197 0 0.915450
-0.913319 -0.388079 6.871900 255 164 0 0.925628
-0.935699 -0.378103 6.869720 255 197 0 0.914915
-0.890190 -0.383311 6.892880 255 201 0 0.913024
-0.890713 -0.399105 6.873480 255 175 0 0.922045
-0.879409 -0.373579 6.911020 255 238 0 0.900104
-0.868376 -0.363908 6.929870 203 255 45 0.877962
-0.947609 -0.389599 6.849240 255 216 0 0.908656
-0.947193 -0.405876 6.830870 255 212 0 0.909639
-0.958523 -0.417743 6.808980 255 216 0 0.907888
-0.957425 -0.434711 6.788560 255 193 0 0.916659
-0.981802 -0.428930 6.779020 255 230 0 0.903113
-0.934352 -0.426113 6.815380 255 175 0 0.921956
-0.933106 -0.442717 6.795700 255 182 0 0.919637
-0.923699 -0.414803 6.834850 255 160 0 0.927927
-0.912847 -0.403718 6.854490 255 149 0 0.930733
-0.878507 -0.453607 6.804130 255 171 0 0.923267
-0.868686 -0.443727 6.821340 255 149 0 0.930613
-0.872084 -0.430173 6.838480 255 130 0 0.937500
-0.862168 -0.420314 6.855850 255 138 0 0.934411
-0.865309 -0.406850 6.872830 255 156 0 0.929248
-0.839484 -0.416233 6.871310 255 182 0 0.919571
-0.888153 -0.413016 6.855900 255 138 0 0.934441
-0.898665 -0.422726 6.837820 255 160 0 0.927904
-0.909356 -0.433094 6.819240 255 160 0 0.927277
-0.906088 -0.447127 6.800670 255 164 0 0.926083
-0.830112 -0.406847 6.887890 255 234 0 0.902531
-0.832696 -0.393633 6.905840 238 255 9 0.893274
-0.823576 -0.385115 6.921530 213 255 35 0.882420
-0.846354 -0.375290 6.927120 200 255 48 0.877526
-0.856653 -0.384025 6.909390 248 245 0 0.897330
-0.867172 -0.393332 6.891420 255 186 0 0.918449
-0.623537 -0.329749 6.856160 13 245 235 0.778029
-0.642671 -0.352172 6.874750 0 201 255 0.752728
-0.635395 -0.349397 6.851780 9 241 238 0.776217
-0.654342 -0.370813 6.869240 0 217 255 0.761546
-0.681237 -0.369045 6.918690 0 157 255 0.726906
-0.673802 -0.372944 6.896900 0 181 255 0.741183
-0.677712 -0.381751 6.881680 0 229 248 0.769746
-0.798321 -0.393115 6.915850 155 255 93 0.856621
-0.807510 -0.401334 6.900520 206 255 42 0.879522
-0.802943 -0.412749 6.881950 232 255 16 0.890786
-0.812097 -0.420622 6.867570 255 175 0 0.922179
-0.783708 -0.426446 6.862340 222 255 25 0.886357
-0.775202 -0.418400 6.875330 193 255 55 0.873355
-0.780413 -0.407174 6.893480 161 255 87 0.858588
-0.772809 -0.399045 6.907150 119 255 129 0.838246
-0.844281 -0.435949 6.839150 255 141 0 0.933628
-0.839378 -0.446986 6.821990 255 134 0 0.935576
-0.849406 -0.455791 6.805450 255 145 0 0.932769
-0.819148 -0.459545 6.805560 255 186 0 0.919122
-0.810457 -0.450169 6.821860 255 167 0 0.924994
-0.815839 -0.439331 6.838050 255 153 0 0.930338
-0.806667 -0.431455 6.851360 255 182 0 0.919989
-0.755214 -0.457616 6.795460 248 245 0 0.897468
-0.747387 -0.449544 6.808000 229 255 19 0.889607
-0.739249 -0.441874 6.819370 213 255 35 0.882639
-0.769865 -0.442790 6.827610 255 204 0 0.911990
-0.762244 -0.434480 6.839800 238 255 9 0.893191
-0.754439 -0.426322 6.852300 190 255 58 0.872812
-0.731703 -0.433516 6.831880 148 255 100 0.852415
-0.724694 -0.425110 6.844090 109 255 138 0.833280
-0.779086 -0.450541 6.814190 255 167 0 0.924734
-0.788355 -0.458186 6.801000 255 175 0 0.922367
-0.717911 -0.416741 6.856290 51 255 196 0.800629
-0.725243 -0.408881 6.874740 45 255 203 0.796473
-0.732731 -0.400804 6.893240 25 255 222 0.785922
-0.706142 -0.399524 6.882340 0 229 248 0.768963
-0.753214 -0.409809 6.884400 84 255 164 0.819619
-0.746629 -0.418001 6.865650 132 255 116 0.844751
-0.698275 -0.403417 6.862360 22 255 225 0.783236
-0.690089 -0.407304 6.842370 67 255 180 0.809810
-0.696152 -0.415529 6.830550 129 255 119 0.843499
-0.667598 -0.404616 6.817750 80 255 167 0.818003
-0.664125 -0.395771 6.830820 42 255 206 0.795494
-0.672532 -0.393197 6.849490 29 255 219 0.787688
-0.668972 -0.385053 6.862710 9 241 238 0.774683
-0.706409 -0.431785 6.806190 203 255 45 0.878018
-0.713335 -0.440395 6.794090 229 255 19 0.889834
-0.720918 -0.448821 6.782160 232 255 16 0.890617
-0.685373 -0.437745 6.769620 177 255 71 0.867011
-0.680537 -0.428639 6.781670 180 255 67 0.868672
-0.676106 -0.420419 6.793540 151 255 96 0.854964
-0.686417 -0.418265 6.811780 171 255 77 0.863133
-0.647752 -0.393828 6.774390 203 255 45 0.878324
-0.645371 -0.387264 6.786840 193 255 55 0.874719
-0.643674 -0.380723 6.799510 135 255 113 0.845887
-0.650794 -0.402134 6.762210 222 255 25 0.887009
-0.652643 -0.411605 6.750770 219 255 29 0.884963
-0.638529 -0.364079 6.824570 61 255 187 0.806737
-0.637263 -0.356769 6.838290 51 255 196 0.801666
-0.640889 -0.372187 6.812130 119 255 129 0.838963
-0.668512 -0.136622 6.664870 209 255 38 0.881926
-0.660973 -0.133799 6.680140 161 255 87 0.858394
-0.677342 -0.112772 6.687290 196 255 51 0.875948
-0.685414 -0.116469 6.671960 251 241 0 0.899482
-0.670192 -0.109357 6.702630 161 255 87 0.859757
-0.694410 -0.093121 6.696510 216 255 32 0.884603
-0.686626 -0.088962 6.711900 142 255 106 0.850314
-0.702555 -0.070295 6.720800 116 255 132 0.836285
-0.702648 -0.097070 6.680120 229 255 19 0.889359
-0.711136 -0.074919 6.705320 167 255 80 0.862605
-0.719798 -0.079769 6.689140 232 255 16 0.890643
-0.679108 -0.085730 6.727090 129 255 119 0.842856
-0.694892 -0.066050 6.737480 122 255 126 0.839859
-0.687391 -0.062197 6.753940 67 255 180 0.811202
-0.672930 -0.081221 6.743040 64 255 184 0.808828
-0.664171 -0.105764 6.718100 116 255 132 0.837143
-0.658195 -0.101843 6.733380 93 255 155 0.824312
-0.649013 -0.126469 6.710670 100 255 148 0.827611
-0.654628 -0.130075 6.695420 158 255 90 0.857285
-0.643163 -0.122687 6.725500 87 255 161 0.821122
-0.743896 -0.056327 6.717580 219 255 29 0.885080
-0.753431 -0.062053 6.697890 229 255 19 0.889344
-0.734128 -0.050778 6.735830 122 255 126 0.839936
-0.764939 -0.034322 6.746070 103 255 145 0.830732
-0.774853 -0.039919 6.727020 96 255 151 0.826810
-0.784431 -0.046772 6.706420 164 255 84 0.860460
-0.740305 -0.036737 6.759910 67 255 180 0.809820
-0.745745 -0.022646 6.786220 9 241 238 0.774794
-0.717159 -0.040971 6.770580 48 255 200 0.799571
-0.695504 -0.046998 6.781520 25 255 222 0.785129
-0.723745 -0.026034 6.800140 0 225 251 0.767434
-0.648192 -0.096440 6.767040 58 255 190 0.804396
-0.638438 -0.120045 6.742300 100 255 148 0.828360
-0.652844 -0.098714 6.750350 77 255 171 0.816473
-0.667051 -0.078097 6.760170 48 255 200 0.798606
-0.803107 -0.035388 6.732850 90 255 158 0.823183
-0.814171 -0.042276 6.711650 158 255 90 0.856889
-0.792455 -0.029344 6.753790 93 255 155 0.824570
-0.820818 -0.023742 6.759040 6 237 242 0.772668
-0.831857 -0.030676 6.735400 48 255 200 0.798873
-0.842450 -0.038514 6.713530 100 255 148 0.828628
-0.795832 -0.019819 6.778640 19 253 229 0.781395
-0.798398 -0.010129 6.805560 0 173 255 0.736924
-0.772181 -0.016189 6.796400 0 225 251 0.766180
-0.768858 -0.025203 6.770500 45 255 203 0.797535
-0.856984 -0.036001 6.738550 96 255 151 0.826945
-0.867804 -0.043458 6.713970 129 255 119 0.842445
-0.845497 -0.028176 6.762560 45 255 203 0.796415
-0.870299 -0.031649 6.762860 51 255 196 0.800513
-0.881552 -0.039992 6.738050 90 255 158 0.823059
-0.892593 -0.047884 6.712340 129 255 119 0.843882
-0.845939 -0.022630 6.787970 0 221 255 0.764919
-0.845995 -0.016755 6.815150 0 173 255 0.737003
-0.822631 -0.013856 6.810730 0 185 255 0.744370
-0.822147 -0.018885 6.783760 0 217 255 0.762882
-0.798480 -0.004145 6.836550 0 157 255 0.727379
-0.821795 -0.006703 6.842600 0 137 255 0.713395
-0.749369 -0.012925 6.815460 0 161 255 0.729976
-0.775176 -0.005777 6.827040 0 145 255 0.719070
0.367585 0.034010 6.561600 255 101 0 0.946472
0.384601 0.035704 6.543820 255 71 0 0.955982
0.361005 0.039739 6.533020 255 108 0 0.944513
0.402281 0.037099 6.525620 255 45 0 0.962862
0.378666 0.040983 6.514570 255 71 0 0.955681
0.396548 0.041600 6.495810 255 45 0 0.963623
0.420375 0.037966 6.507190 255 38 0 0.965760
0.355161 0.044028 6.503730 255 90 0 0.949549
0.373049 0.044531 6.484930 255 53 0 0.960567
0.349496 0.046505 6.473570 255 49 0 0.962409
0.333200 0.045646 6.493120 255 82 0 0.952301
0.339239 0.042146 6.522660 255 116 0 0.942189
0.317376 0.043633 6.511740 255 116 0 0.942270
0.324042 0.039589 6.540330 255 138 0 0.934898
0.345718 0.037216 6.551190 255 123 0 0.939918
0.330664 0.033705 6.568290 255 156 0 0.928630
0.302191 0.040955 6.529250 255 145 0 0.932396
0.309149 0.035499 6.557130 255 171 0 0.924109
0.287505 0.036500 6.545740 255 164 0 0.926172
0.352347 0.030827 6.579170 255 134 0 0.936027
0.435290 0.036763 6.488780 255 23 0 0.969772
0.451741 0.034737 6.471220 255 19 0 0.970808
0.425919 0.038368 6.458270 251 16 0 0.971534
0.468377 0.032447 6.453860 255 27 0 0.968208
0.442067 0.036146 6.440270 255 19 0 0.970339
0.458236 0.033146 6.422030 255 30 0 0.967977
0.485243 0.028921 6.436240 255 27 0 0.968615
0.417692 0.038880 6.427170 255 19 0 0.971196
0.433661 0.036326 6.408680 255 30 0 0.967207
0.409312 0.038714 6.395160 255 19 0 0.971308
0.394379 0.040527 6.414690 228 0 0 0.977606
0.402704 0.040675 6.446440 237 4 0 0.975076
0.379159 0.042255 6.434370 219 0 0 0.978839
0.387824 0.042573 6.465710 251 16 0 0.971861
0.411043 0.039961 6.476950 255 19 0 0.970817
0.364234 0.044485 6.454130 242 8 0 0.973806
0.311232 0.042761 6.341610 187 0 0 0.986233
0.297069 0.044127 6.362490 173 0 0 0.989185
0.321120 0.044302 6.375490 187 0 0 0.986868
0.307137 0.045965 6.396400 192 0 0 0.985212
0.283132 0.045755 6.383380 183 0 0 0.987477
0.330854 0.045676 6.408930 201 0 0 0.983147
0.293476 0.048136 6.417280 228 0 0 0.976652
0.317011 0.047777 6.429880 237 4 0 0.975205
0.303474 0.049697 6.450260 255 53 0 0.960976
0.269518 0.047954 6.404140 223 0 0 0.977765
0.279909 0.050191 6.437700 255 53 0 0.960674
0.256001 0.050033 6.424450 255 53 0 0.961438
0.340210 0.046657 6.441890 242 8 0 0.974077
0.326725 0.048506 6.462290 255 56 0 0.959642
0.355285 0.044384 6.421890 205 0 0 0.981834
0.370321 0.042266 6.402170 210 0 0 0.981570
0.345991 0.043688 6.389010 201 0 0 0.983671
0.361336 0.041859 6.369080 219 0 0 0.979447
0.385623 0.040621 6.382290 242 8 0 0.973445
0.336505 0.042580 6.355450 201 0 0 0.982925
0.241865 0.048081 6.444190 255 75 0 0.954416
0.263898 0.048658 6.456900 255 90 0 0.950346
0.250178 0.046094 6.476000 255 101 0 0.946056
0.228287 0.045326 6.463160 255 90 0 0.950312
0.271764 0.046267 6.488090 255 123 0 0.939713
0.236959 0.041828 6.493910 255 119 0 0.940177
0.258336 0.042348 6.506020 255 138 0 0.934820
0.245466 0.036222 6.522730 255 123 0 0.939724
0.215286 0.040575 6.480940 255 97 0 0.947925
0.224238 0.035016 6.510500 255 93 0 0.948220
0.202416 0.033236 6.497740 255 64 0 0.957477
0.279579 0.042352 6.517590 255 153 0 0.929887
0.266593 0.036663 6.534310 255 141 0 0.932899
0.294767 0.045251 6.500230 255 119 0 0.940067
