ply
format ascii 1.0
comment VCGLIB generated
element vertex 1020
property float x
property float y
property float z
property uchar red
property uchar green
property uchar blue
property float quality
end_header
-0.115249 -1.057190 5.230280 255 134 0 0.349131
-0.072155 -1.057350 5.232120 255 123 0 0.370268
-0.089858 -1.058530 5.251230 255 82 0 0.454136
-0.135978 -1.056980 5.249410 255 101 0 0.416519
-0.155336 -1.055610 5.268090 255 64 0 0.501188
-0.177196 -1.056110 5.246170 255 90 0 0.436235
-0.161018 -1.056390 5.227810 255 130 0 0.354046
-0.142176 -1.055990 5.208510 255 149 0 0.319784
-0.198232 -1.056730 5.224470 255 127 0 0.362084
-0.047088 -1.057300 5.253820 255 134 0 0.350295
-0.061507 -1.056560 5.272300 255 101 0 0.416682
-0.021264 -1.055720 5.275580 255 145 0 0.326250
-0.079462 -1.053590 5.291190 255 56 0 0.517895
-0.128811 -1.050860 5.289100 210 0 0 0.734826
-0.108105 -1.055980 5.270440 255 41 0 0.561632
-0.195223 -1.043960 5.308230 255 27 0 0.605647
-0.175638 -1.045640 5.302050 255 53 0 0.534175
-0.197782 -1.053090 5.281110 255 71 0 0.487155
-0.216046 -1.052420 5.286820 255 78 0 0.469643
-0.165857 -1.051260 5.285190 255 108 0 0.398487
-0.234583 -1.055090 5.264280 255 60 0 0.512646
-0.216627 -1.055080 5.258890 255 90 0 0.441542
-0.235517 -1.056950 5.236300 255 108 0 0.400869
-0.253760 -1.056260 5.242250 255 64 0 0.504009
-0.207489 -1.056180 5.241730 255 127 0 0.360923
-0.187765 -1.055310 5.263800 255 101 0 0.414239
-0.332400 -1.057130 5.406230 255 141 0 0.332740
-0.348534 -1.062220 5.398250 255 127 0 0.359421
-0.332241 -1.059220 5.386130 255 30 0 0.590221
-0.348184 -1.063820 5.378230 255 53 0 0.528459
-0.365358 -1.068710 5.370500 255 56 0 0.524798
-0.365072 -1.066020 5.390440 255 104 0 0.408213
-0.382168 -1.071500 5.382240 255 86 0 0.448527
-0.348019 -1.065590 5.358460 255 86 0 0.450455
-0.402297 -1.072520 5.356650 255 60 0 0.509117
-0.424141 -1.072770 5.331760 255 145 0 0.328260
-0.427514 -1.074280 5.353430 255 97 0 0.426994
-0.398818 -1.071090 5.334510 255 116 0 0.380470
-0.375743 -1.069000 5.338660 255 86 0 0.449639
-0.346174 -1.064140 5.321030 255 41 0 0.559952
-0.330935 -1.062390 5.347370 255 49 0 0.543911
-0.369382 -1.066980 5.317030 255 45 0 0.552684
-0.394147 -1.069340 5.313390 255 101 0 0.414312
-0.303287 -1.052360 5.364220 255 82 0 0.460303
-0.284430 -1.046220 5.368750 255 138 0 0.340423
-0.427603 -1.075430 5.375020 255 134 0 0.345554
-0.404771 -1.073390 5.378710 255 167 0 0.286620
-0.404962 -1.074350 5.400540 255 160 0 0.300545
-0.429131 -1.075970 5.397000 255 138 0 0.343238
-0.446152 -1.076310 5.387430 255 156 0 0.303447
-0.445159 -1.075650 5.365540 255 164 0 0.294586
-0.462031 -1.075520 5.356170 255 116 0 0.382543
-0.463394 -1.076520 5.378090 255 134 0 0.345665
-0.480569 -1.076260 5.368350 255 141 0 0.336243
-0.348516 -1.062370 5.424010 255 156 0 0.306731
-0.367580 -1.065960 5.416440 255 116 0 0.385871
-0.385843 -1.070260 5.408280 255 82 0 0.460495
-0.389630 -1.070120 5.442280 255 90 0 0.442573
-0.425006 -1.076130 5.420000 255 93 0 0.433232
-0.364537 -1.066150 5.443420 255 134 0 0.349273
-0.448847 -1.075980 5.416990 255 134 0 0.347937
-0.467839 -1.075630 5.407190 255 104 0 0.404288
-0.487029 -1.075100 5.397870 255 123 0 0.369139
-0.497757 -1.075140 5.382040 255 164 0 0.296579
-0.554451 -1.053150 5.493570 255 53 0 0.526657
-0.538434 -1.051560 5.515830 255 60 0 0.508501
-0.508601 -1.057860 5.509710 255 60 0 0.508541
-0.491603 -1.057540 5.532920 255 53 0 0.533395
-0.522138 -1.050670 5.537840 255 41 0 0.555826
-0.504978 -1.051180 5.560430 255 45 0 0.550301
-0.555349 -1.042660 5.541900 255 67 0 0.495408
-0.570956 -1.044330 5.520580 255 30 0 0.596446
-0.586516 -1.046240 5.499110 255 34 0 0.578416
-0.602679 -1.039130 5.525120 255 34 0 0.586022
-0.457016 -1.064310 5.524880 255 27 0 0.602045
-0.437052 -1.064100 5.546630 255 19 0 0.625418
-0.411490 -1.067260 5.553310 255 27 0 0.601800
-0.386131 -1.071790 5.560190 255 78 0 0.468419
-0.396208 -1.067870 5.588860 255 56 0 0.521938
-0.423448 -1.061640 5.581620 255 41 0 0.559768
-0.450448 -1.057130 5.574620 255 60 0 0.511161
-0.471260 -1.056310 5.553440 255 34 0 0.582318
-0.443016 -1.050760 5.637540 255 30 0 0.587829
-0.470687 -1.046650 5.629520 255 53 0 0.533326
-0.463527 -1.050660 5.611260 255 38 0 0.571128
-0.498496 -1.043470 5.621350 255 78 0 0.463785
-0.491068 -1.046420 5.603290 255 49 0 0.539599
-0.518637 -1.044060 5.595750 255 93 0 0.431990
-0.525518 -1.041780 5.613750 255 104 0 0.405242
-0.483869 -1.050230 5.585810 255 27 0 0.603070
-0.511689 -1.047360 5.578400 255 71 0 0.483718
-0.457093 -1.053350 5.593120 255 71 0 0.484742
-0.429970 -1.057600 5.600290 255 60 0 0.513096
-0.436610 -1.053550 5.618440 255 93 0 0.435243
-0.409706 -1.058320 5.625800 255 53 0 0.528934
-0.403040 -1.063030 5.607330 255 53 0 0.529783
-0.416216 -1.054740 5.644850 255 75 0 0.474370
-0.550667 -1.037770 5.603670 255 71 0 0.482927
-0.576587 -1.033990 5.593180 255 112 0 0.391549
-0.568955 -1.036810 5.576710 255 38 0 0.569863
-0.601634 -1.031530 5.582840 255 145 0 0.324256
-0.593856 -1.033920 5.566670 255 104 0 0.407321
-0.618519 -1.032150 5.557040 255 127 0 0.363922
-0.625971 -1.029600 5.572970 255 138 0 0.340479
-0.585945 -1.037430 5.550680 255 34 0 0.584891
-0.610734 -1.035230 5.541170 255 104 0 0.409778
-0.561850 -1.039430 5.559540 255 101 0 0.416388
-0.536990 -1.042660 5.568470 255 56 0 0.523907
-0.543946 -1.039810 5.585830 255 86 0 0.448845
-0.035872 -0.642393 5.438400 255 75 0 0.474458
-0.058251 -0.625384 5.425920 255 38 0 0.568891
-0.080888 -0.609926 5.414880 255 60 0 0.510626
-0.045840 -0.654261 5.427250 255 116 0 0.384646
-0.069109 -0.639071 5.413580 255 86 0 0.450976
-0.102222 -0.595107 5.405150 255 41 0 0.559590
-0.123216 -0.580582 5.395540 255 86 0 0.451198
-0.111576 -0.562873 5.408220 255 53 0 0.534416
-0.091128 -0.578832 5.417450 255 19 0 0.619695
-0.094431 -0.629820 5.400340 255 93 0 0.428746
-0.194267 -0.530176 5.358630 255 138 0 0.338942
-0.178342 -0.542654 5.371560 255 127 0 0.362892
-0.163687 -0.560999 5.378530 255 71 0 0.479636
-0.183727 -0.510126 5.368960 255 112 0 0.392824
-0.144616 -0.571175 5.387540 255 56 0 0.518421
-0.167897 -0.524345 5.383130 255 90 0 0.438058
-0.149356 -0.536584 5.393900 255 64 0 0.501040
-0.171025 -0.492370 5.380670 255 90 0 0.439177
-0.154642 -0.506694 5.394470 255 78 0 0.464477
-0.129749 -0.547120 5.403890 251 16 0 0.639894
-0.142848 -0.897865 6.247050 255 97 0 0.420892
-0.139503 -0.915223 6.217910 255 97 0 0.426205
-0.164731 -0.898869 6.235600 255 71 0 0.488172
-0.162013 -0.917130 6.206190 255 78 0 0.466480
-0.136906 -0.937057 6.189990 255 90 0 0.439855
-0.134132 -0.959562 6.162540 255 82 0 0.460002
-0.111734 -0.955760 6.174860 255 86 0 0.445446
-0.114720 -0.933446 6.201950 255 93 0 0.427846
-0.118018 -0.913033 6.230260 255 97 0 0.419863
-0.089766 -0.952522 6.186520 255 93 0 0.433632
-0.186938 -0.901152 6.222990 255 71 0 0.483103
-0.184308 -0.920659 6.193460 255 75 0 0.478094
-0.209527 -0.903059 6.210810 255 71 0 0.484231
-0.206797 -0.923121 6.181490 255 75 0 0.472448
-0.181756 -0.943381 6.165500 255 75 0 0.471280
-0.179579 -0.966815 6.137190 255 71 0 0.479920
-0.156669 -0.963862 6.150130 255 75 0 0.472711
-0.159378 -0.939410 6.177970 255 78 0 0.463281
-0.117918 -1.013240 6.035020 255 41 0 0.561988
-0.122122 -1.004450 6.067550 255 67 0 0.493410
-0.095078 -1.010710 6.048670 255 38 0 0.570335
-0.126174 -0.992624 6.100520 255 71 0 0.481676
-0.099070 -1.001620 6.081660 255 56 0 0.519186
-0.103315 -0.989175 6.114620 255 67 0 0.496050
-0.071752 -1.007840 6.062600 214 0 0 0.731082
-0.130071 -0.978107 6.132360 255 71 0 0.480617
-0.153246 -0.980708 6.119340 255 75 0 0.477159
-0.149334 -0.995207 6.087270 255 75 0 0.476113
-0.076027 -0.998653 6.095390 246 12 0 0.650238
-0.048837 -1.005180 6.076760 223 0 0 0.708636
-0.080492 -0.987121 6.127560 255 71 0 0.483289
-0.053335 -0.995809 6.109330 255 56 0 0.521561
-0.058327 -0.984158 6.140930 255 78 0 0.463168
-0.026054 -1.002500 6.090230 255 49 0 0.536753
-0.085030 -0.971521 6.157910 255 86 0 0.451775
-0.107332 -0.974639 6.145660 255 86 0 0.451297
-0.232411 -0.905728 6.198180 255 75 0 0.476058
-0.230317 -0.926351 6.168440 255 75 0 0.473595
-0.255855 -0.907684 6.185590 255 78 0 0.467947
-0.253992 -0.929070 6.156370 255 78 0 0.462581
-0.228514 -0.949340 6.139870 255 75 0 0.470685
-0.226835 -0.969821 6.109950 255 78 0 0.465701
-0.203282 -0.968223 6.123530 255 75 0 0.478410
-0.204873 -0.945979 6.152870 255 75 0 0.476489
-0.279099 -0.910201 6.173190 255 86 0 0.450289
-0.276660 -0.931046 6.143570 255 90 0 0.439783
-0.302226 -0.911965 6.161100 255 97 0 0.422614
-0.299850 -0.932039 6.131320 255 104 0 0.408150
-0.274628 -0.952064 6.114250 255 97 0 0.425144
-0.272832 -0.971851 6.084430 255 104 0 0.407886
-0.249929 -0.970706 6.097010 255 90 0 0.440898
-0.251861 -0.950302 6.127010 255 82 0 0.453470
-0.210611 -1.020640 5.984900 255 86 0 0.450063
-0.215169 -1.012320 6.015800 255 101 0 0.415303
-0.187960 -1.018920 5.996580 255 86 0 0.446540
-0.219441 -1.000170 6.047170 255 90 0 0.438853
-0.192665 -1.010160 6.028130 255 82 0 0.461447
-0.196856 -0.998316 6.060070 255 82 0 0.461433
-0.165404 -1.017620 6.008600 255 71 0 0.483449
-0.223392 -0.985757 6.078560 255 82 0 0.454129
-0.246474 -0.987052 6.066070 255 97 0 0.422667
-0.242709 -1.001120 6.035380 255 104 0 0.403894
-0.169512 -1.008850 6.040340 255 71 0 0.486260
-0.141987 -1.015540 6.021430 255 64 0 0.502133
-0.173078 -0.997277 6.072850 255 64 0 0.500888
-0.145727 -1.006430 6.053890 255 60 0 0.509938
-0.176427 -0.983335 6.105520 255 75 0 0.477395
-0.200296 -0.984502 6.091910 255 71 0 0.479525
-0.323753 -0.913600 6.149270 255 112 0 0.387727
-0.319982 -0.933187 6.119950 255 123 0 0.371164
-0.343935 -0.913774 6.138070 255 130 0 0.355765
-0.340384 -0.933301 6.108880 255 141 0 0.332166
-0.316424 -0.952874 6.090890 255 130 0 0.353578
-0.312992 -0.971997 6.061900 255 141 0 0.336039
-0.292789 -0.972164 6.073210 255 123 0 0.369471
-0.296412 -0.952221 6.102300 255 112 0 0.389784
-0.363402 -0.915321 6.127430 255 153 0 0.311146
-0.358915 -0.933853 6.098460 255 149 0 0.317254
-0.381790 -0.915684 6.117270 255 160 0 0.299962
-0.377271 -0.933380 6.088460 255 141 0 0.334319
-0.354221 -0.953588 6.070500 255 149 0 0.316498
-0.349661 -0.973665 6.043090 255 149 0 0.317238
-0.331165 -0.972716 6.052390 255 153 0 0.314691
-0.335797 -0.952877 6.080130 255 145 0 0.328095
-0.287022 -1.024250 5.947050 255 123 0 0.371154
-0.294000 -1.015720 5.976560 255 138 0 0.337527
-0.268512 -1.023750 5.956130 255 127 0 0.360586
-0.300537 -1.003190 6.005070 255 149 0 0.322555
-0.275675 -1.014700 5.985600 255 138 0 0.339310
-0.282737 -1.002310 6.014170 255 138 0 0.343180
-0.250236 -1.022730 5.965040 255 127 0 0.362160
-0.306922 -0.988623 6.033200 255 153 0 0.315552
-0.325323 -0.988790 6.023900 255 149 0 0.317691
-0.319090 -1.004200 5.996200 255 138 0 0.342799
-0.256654 -1.014140 5.994510 255 127 0 0.363931
-0.230527 -1.021580 5.974760 255 112 0 0.392568
-0.262396 -1.002490 6.024540 255 119 0 0.374727
-0.236785 -1.013050 6.004920 255 108 0 0.397433
-0.267933 -0.987938 6.054330 255 116 0 0.385126
-0.288110 -0.987712 6.043360 255 130 0 0.351104
-0.354912 -1.074370 5.549960 255 78 0 0.468043
-0.333910 -1.074910 5.568520 255 82 0 0.455092
-0.305832 -1.075050 5.560530 255 49 0 0.537752
-0.283251 -1.078310 5.579800 255 90 0 0.436549
-0.311557 -1.077090 5.588110 255 78 0 0.466546
-0.288739 -1.079730 5.607150 255 112 0 0.388447
-0.343204 -1.072340 5.597490 255 97 0 0.422446
-0.364273 -1.071640 5.579000 255 64 0 0.501405
-0.255580 -1.071380 5.565970 255 49 0 0.542022
-0.232322 -1.063520 5.567710 255 34 0 0.585198
-0.208488 -1.056830 5.568750 255 97 0 0.423745
-0.183938 -1.055940 5.582270 255 30 0 0.587978
-0.207273 -1.067660 5.593100 255 34 0 0.583264
-0.181914 -1.067490 5.605970 228 0 0 0.693785
-0.233562 -1.072440 5.593280 255 60 0 0.515221
-0.259712 -1.076500 5.594040 255 86 0 0.447694
-0.193550 -1.068260 5.682800 255 34 0 0.584441
-0.224098 -1.065950 5.682630 255 19 0 0.621880
-0.216519 -1.072750 5.664500 255 60 0 0.516194
-0.247030 -1.070350 5.664060 255 67 0 0.493446
-0.254765 -1.063250 5.682090 255 23 0 0.614220
-0.240459 -1.075490 5.645290 255 93 0 0.435599
-0.277377 -1.067850 5.663290 255 104 0 0.406235
-0.271066 -1.073450 5.644870 255 141 0 0.330027
-0.301276 -1.071470 5.644270 255 130 0 0.352708
-0.284915 -1.061230 5.681470 255 71 0 0.483226
-0.308028 -1.066020 5.662840 255 130 0 0.353310
-0.315143 -1.060030 5.681170 255 93 0 0.431548
-0.264753 -1.077960 5.625810 255 108 0 0.402411
-0.294710 -1.076080 5.625900 255 156 0 0.304384
-0.237640 -1.076580 5.626290 255 56 0 0.518399
-0.210532 -1.073670 5.626400 255 27 0 0.600332
-0.213045 -1.074020 5.645470 255 75 0 0.475657
-0.185827 -1.072010 5.645060 255 78 0 0.466099
-0.183236 -1.070750 5.625590 255 90 0 0.441388
-0.189063 -1.071270 5.664220 255 78 0 0.466512
-0.342396 -1.057270 5.676850 255 93 0 0.428133
-0.335277 -1.063810 5.657640 255 93 0 0.430121
-0.362556 -1.059830 5.653100 255 112 0 0.389574
-0.369538 -1.054400 5.672100 255 101 0 0.414393
-0.355964 -1.065410 5.634380 255 93 0 0.434914
-0.389721 -1.056350 5.648950 255 90 0 0.442819
-0.382987 -1.061670 5.630200 255 53 0 0.532990
-0.396429 -1.052760 5.668000 255 67 0 0.494774
-0.376079 -1.067070 5.611760 255 45 0 0.546982
-0.349072 -1.069690 5.616130 255 119 0 0.376989
-0.321881 -1.072710 5.620680 255 101 0 0.412999
-0.328270 -1.068290 5.639000 255 101 0 0.414033
0.089929 -0.597708 5.588580 255 138 0 0.342263
0.079702 -0.573832 5.583530 255 71 0 0.486049
0.079898 -0.551072 5.589280 255 75 0 0.477885
0.070010 -0.527731 5.583380 255 86 0 0.447639
0.073117 -0.504196 5.584770 255 82 0 0.456942
0.048690 -0.502337 5.567090 255 93 0 0.435330
0.093137 -0.529791 5.601330 255 75 0 0.477772
0.097182 -0.505891 5.601460 255 56 0 0.521533
0.101200 -0.551760 5.607000 255 78 0 0.463166
0.109414 -0.573423 5.612150 255 67 0 0.492182
0.108087 -0.596102 5.607710 255 71 0 0.484109
0.126385 -0.594591 5.625610 255 60 0 0.511318
0.035996 -0.479479 5.563800 255 90 0 0.441300
0.049841 -0.480981 5.573530 255 78 0 0.465672
0.038251 -0.456357 5.568660 255 108 0 0.399369
0.024375 -0.455285 5.559670 255 90 0 0.443674
0.052553 -0.457588 5.577720 255 101 0 0.414396
0.027971 -0.431157 5.563280 255 101 0 0.412458
0.042196 -0.432042 5.572190 255 108 0 0.397766
0.033007 -0.404795 5.566170 255 160 0 0.302759
0.013593 -0.430267 5.554670 255 71 0 0.481705
0.018422 -0.404251 5.557490 255 145 0 0.327836
0.003788 -0.403990 5.549120 255 160 0 0.301049
0.056599 -0.432890 5.580890 255 93 0 0.430259
0.047377 -0.405778 5.574710 255 164 0 0.296345
0.061703 -0.406785 5.583510 255 156 0 0.306683
0.078613 -0.457965 5.593200 255 93 0 0.434024
0.075064 -0.482149 5.589840 255 56 0 0.522661
0.126159 -0.409798 5.619360 255 178 0 0.267736
0.130694 -0.436388 5.625340 255 78 0 0.468419
0.122639 -0.461227 5.621270 255 45 0 0.550496
0.129339 -0.485637 5.624040 255 41 0 0.558058
0.123559 -0.507767 5.618270 255 60 0 0.507204
0.149500 -0.508892 5.634520 255 78 0 0.468226
0.102535 -0.484434 5.607940 255 38 0 0.573874
0.093732 -0.459391 5.603410 255 82 0 0.455947
0.085168 -0.433747 5.598540 255 116 0 0.386445
0.101042 -0.434965 5.608190 255 101 0 0.417700
0.093974 -0.408504 5.601740 255 156 0 0.307066
0.077874 -0.407638 5.592620 255 193 0 0.247327
0.109806 -0.409351 5.610820 255 149 0 0.318571
0.153870 -0.531655 5.640450 255 56 0 0.519359
0.146937 -0.552473 5.640650 255 71 0 0.483838
0.151862 -0.571924 5.646190 255 71 0 0.481940
0.146273 -0.592923 5.643180 255 71 0 0.484017
0.166212 -0.591535 5.659160 255 71 0 0.487025
0.130407 -0.573540 5.630650 255 75 0 0.472794
0.123978 -0.552056 5.623790 255 86 0 0.452748
0.117059 -0.530102 5.617150 255 56 0 0.524854
0.029504 -0.602454 5.518700 255 134 0 0.350393
0.016563 -0.576954 5.513220 255 34 0 0.578622
0.010213 -0.552953 5.518140 255 75 0 0.475796
-0.002961 -0.529323 5.514650 255 75 0 0.471808
-0.007346 -0.504085 5.518570 255 78 0 0.464381
-0.023364 -0.506561 5.502980 255 64 0 0.501446
0.012184 -0.527380 5.530760 255 101 0 0.418723
0.008519 -0.502410 5.533380 255 97 0 0.426370
0.025156 -0.551245 5.534510 255 101 0 0.411697
0.038074 -0.575315 5.538120 255 41 0 0.560075
0.043338 -0.601015 5.534950 255 75 0 0.476014
0.057005 -0.599805 5.551390 255 71 0 0.479421
-0.037345 -0.484886 5.501450 255 23 0 0.610474
-0.042798 -0.460942 5.507020 255 86 0 0.446805
-0.055378 -0.439177 5.503070 255 97 0 0.423023
-0.057610 -0.414159 5.504520 255 93 0 0.431869
-0.074218 -0.418809 5.490120 255 108 0 0.395758
-0.038764 -0.434758 5.518340 255 90 0 0.442200
-0.040550 -0.409118 5.518300 255 97 0 0.427029
-0.026460 -0.458216 5.521900 255 101 0 0.412441
-0.013399 -0.481105 5.524490 255 49 0 0.544129
0.002910 -0.456209 5.545760 255 71 0 0.486747
0.015541 -0.479799 5.548050 255 71 0 0.485477
0.028317 -0.502460 5.550840 255 119 0 0.374627
-0.019401 -0.432382 5.532180 255 97 0 0.421681
-0.018719 -0.406159 5.534380 255 123 0 0.365576
0.048859 -0.526766 5.565980 255 86 0 0.452023
0.060086 -0.550419 5.570710 255 82 0 0.453255
0.062668 -0.574391 5.566190 255 56 0 0.521846
0.074112 -0.598854 5.570490 255 82 0 0.459012
0.041654 -0.550686 5.552460 255 71 0 0.487857
0.029486 -0.526655 5.547450 255 119 0 0.377049
-0.069545 -0.595260 5.427690 255 38 0 0.566216
-0.098038 -0.547243 5.421360 214 0 0 0.730643
-0.076869 -0.563635 5.431650 223 0 0 0.701774
-0.056093 -0.581017 5.441050 255 23 0 0.618086
-0.042845 -0.606566 5.442810 251 16 0 0.633585
-0.024655 -0.629268 5.450750 255 130 0 0.354991
-0.135400 -0.519886 5.406650 255 34 0 0.585433
-0.156881 -0.475841 5.395500 255 86 0 0.445537
-0.139477 -0.490988 5.410170 255 78 0 0.464962
-0.120714 -0.504074 5.421180 255 67 0 0.493613
-0.110034 -0.525904 5.420800 233 1 0 0.680384
-0.125455 -0.447634 5.434080 255 123 0 0.365831
-0.112421 -0.467201 5.440350 255 123 0 0.367811
-0.104141 -0.490529 5.439950 255 108 0 0.403004
-0.088770 -0.508209 5.443090 255 64 0 0.498343
-0.077055 -0.528936 5.440440 219 0 0 0.711572
-0.128967 -0.480683 5.421450 255 123 0 0.365395
-0.135806 -0.456036 5.419910 255 119 0 0.375129
-0.052362 -0.543731 5.456320 246 12 0 0.645820
-0.040467 -0.569439 5.455890 255 86 0 0.450343
-0.024532 -0.591759 5.461790 242 8 0 0.652487
-0.012206 -0.617927 5.464990 255 90 0 0.444087
-0.058157 -1.025510 5.773560 255 130 0 0.356061
-0.044146 -1.019130 5.746940 255 164 0 0.291975
-0.073508 -1.032260 5.762880 255 101 0 0.417362
-0.030041 -1.012200 5.719530 255 167 0 0.290281
-0.060554 -1.026240 5.736410 255 149 0 0.320382
-0.046539 -1.018690 5.709460 255 141 0 0.330403
-0.089560 -1.037960 5.751950 255 149 0 0.318929
-0.016660 -1.001620 5.692410 255 138 0 0.343410
-0.004834 -0.988243 5.664440 255 75 0 0.472103
0.009702 -0.982137 5.672470 255 123 0 0.365700
-0.002852 -0.995756 5.700320 255 153 0 0.313120
-0.016799 -1.005600 5.727910 255 153 0 0.312646
0.023726 -0.976635 5.680200 255 138 0 0.339922
-0.073701 -1.032170 5.727150 255 160 0 0.300683
-0.103068 -1.043540 5.742360 255 149 0 0.318515
-0.088015 -1.037220 5.718480 255 104 0 0.408011
-0.064552 -1.026680 5.698020 255 82 0 0.460408
-0.118057 -1.047050 5.733010 255 104 0 0.407898
-0.041920 -1.012540 5.676390 255 108 0 0.401588
-0.028953 -0.997650 5.651250 255 97 0 0.427166
0.031101 -0.868372 5.585720 255 49 0 0.541315
0.022040 -0.901336 5.604470 255 38 0 0.572922
0.013666 -0.933207 5.623500 255 56 0 0.525541
0.048558 -0.862183 5.595990 255 108 0 0.397568
0.005594 -0.962368 5.644120 255 86 0 0.449440
-0.013551 -0.969411 5.634420 255 53 0 0.531830
0.043537 -0.894108 5.615920 255 75 0 0.471973
0.038905 -0.924097 5.636400 255 64 0 0.498224
0.064214 -0.856966 5.606050 255 75 0 0.472918
0.060310 -0.888072 5.625920 255 90 0 0.441703
0.032621 -0.951980 5.657470 255 119 0 0.379275
-0.078990 -1.023630 5.798220 255 23 0 0.613684
-0.108093 -1.024670 5.817970 255 101 0 0.416774
-0.127896 -1.026010 5.844180 255 86 0 0.448400
-0.155904 -1.030330 5.864750 255 67 0 0.496450
-0.137596 -1.028290 5.875970 255 101 0 0.416974
-0.145954 -1.028510 5.832730 255 93 0 0.427989
-0.174458 -1.031710 5.853740 255 112 0 0.390034
-0.125094 -1.028240 5.806800 255 130 0 0.352238
-0.103118 -1.032130 5.781830 255 75 0 0.477261
-0.156338 -1.026420 5.903910 223 0 0 0.703284
-0.184540 -1.024690 5.926390 255 82 0 0.457416
-0.202928 -1.023310 5.953430 255 75 0 0.470542
-0.222911 -1.024660 5.943390 255 97 0 0.422732
-0.203897 -1.026660 5.915770 255 134 0 0.343795
-0.184664 -1.028360 5.887850 255 49 0 0.541257
-0.268360 -1.027610 5.919830 255 82 0 0.460372
-0.240517 -1.028170 5.896550 255 93 0 0.433792
-0.220075 -1.029600 5.868010 255 108 0 0.401144
-0.191332 -1.032340 5.843880 255 130 0 0.351715
-0.208487 -1.032800 5.833810 255 119 0 0.376774
-0.203143 -1.029140 5.877700 255 97 0 0.423517
-0.222623 -1.027600 5.905870 255 123 0 0.367706
-0.241469 -1.025700 5.933630 255 90 0 0.444041
-0.186261 -1.032400 5.806950 255 127 0 0.358895
-0.156194 -1.034130 5.786220 255 149 0 0.320486
-0.133251 -1.039880 5.762240 255 119 0 0.379402
-0.118661 -1.036410 5.771480 255 119 0 0.374029
-0.140968 -1.031380 5.796160 255 138 0 0.340432
-0.162004 -1.030060 5.822170 255 123 0 0.369589
-0.367616 -1.034090 5.878280 228 0 0 0.687816
-0.367732 -1.036350 5.846050 237 4 0 0.666295
-0.396365 -1.035770 5.868410 205 0 0 0.749909
-0.396740 -1.038090 5.836150 251 16 0 0.633767
-0.368058 -1.037130 5.813360 223 0 0 0.701387
-0.367823 -1.038080 5.779520 246 12 0 0.645937
-0.329956 -1.035170 5.786880 219 0 0 0.712508
-0.331117 -1.033180 5.820880 210 0 0 0.735111
-0.331502 -1.032500 5.853730 228 0 0 0.691308
-0.292620 -1.034440 5.794510 210 0 0 0.742854
-0.432800 -1.038890 5.858750 242 8 0 0.658612
-0.450914 -1.039080 5.852690 255 67 0 0.496704
-0.441816 -1.041550 5.826590 255 38 0 0.570624
-0.469144 -1.040000 5.846550 255 123 0 0.369443
-0.459846 -1.042300 5.820480 255 101 0 0.413902
-0.450096 -1.042820 5.793730 255 41 0 0.557240
-0.435464 -1.041090 5.765450 255 41 0 0.559154
-0.427863 -1.040530 5.798460 255 41 0 0.565176
-0.413201 -1.039600 5.770400 255 19 0 0.618700
-0.405359 -1.038820 5.803030 237 4 0 0.674351
-0.419288 -1.039420 5.831510 255 49 0 0.544162
-0.390789 -1.038560 5.774790 255 34 0 0.576241
-0.409023 -1.046840 5.692310 255 56 0 0.523311
-0.382568 -1.047100 5.696540 255 71 0 0.484292
-0.395367 -1.042940 5.721470 255 64 0 0.499260
-0.355583 -1.048620 5.700580 255 75 0 0.478771
-0.368968 -1.042350 5.725020 255 56 0 0.522476
-0.341810 -1.043210 5.728990 255 23 0 0.617319
-0.328313 -1.050800 5.704840 255 41 0 0.565287
-0.381768 -1.039790 5.750510 242 8 0 0.658676
-0.355150 -1.038930 5.753980 205 0 0 0.748306
-0.404390 -1.040190 5.745780 251 16 0 0.634373
-0.426721 -1.041130 5.741090 246 12 0 0.646910
-0.418000 -1.042960 5.716830 255 34 0 0.580370
-0.278549 -1.052160 5.708700 228 0 0 0.692253
-0.303470 -1.044230 5.736350 223 0 0 0.704354
-0.248482 -1.053600 5.709190 210 0 0 0.735238
-0.273291 -1.043730 5.736150 205 0 0 0.756318
-0.243061 -1.044070 5.735850 219 0 0 0.713307
-0.218593 -1.055290 5.709650 214 0 0 0.728747
-0.297833 -1.038160 5.764980 187 0 0 0.802211
-0.268287 -1.036180 5.764130 196 0 0 0.774704
0.027274 -0.993298 5.826110 255 90 0 0.436817
0.006914 -0.994937 5.853230 196 0 0 0.784983
-0.024914 -1.000840 5.873490 187 0 0 0.809633
-0.043938 -1.006030 5.899330 255 41 0 0.558139
-0.073074 -1.015200 5.917540 233 1 0 0.679994
-0.050309 -1.010420 5.931670 255 41 0 0.561073
-0.066775 -1.012220 5.885030 255 30 0 0.586654
-0.095658 -1.019960 5.903230 233 1 0 0.677433
-0.047615 -1.007740 5.859170 255 30 0 0.596455
-0.027845 -1.005150 5.832670 210 0 0 0.739092
0.004148 -1.000370 5.813110 255 38 0 0.570291
-0.018518 -1.007940 5.799530 255 45 0 0.549641
-0.068122 -1.011000 5.957950 173 0 0 0.841328
-0.096977 -1.014070 5.977330 169 0 0 0.858122
-0.113707 -1.014740 6.002640 228 0 0 0.695972
-0.137006 -1.017140 5.990130 255 34 0 0.578724
-0.119782 -1.017400 5.963940 233 1 0 0.680439
-0.102386 -1.017510 5.937180 128 0 0 1.000000
-0.182008 -1.021350 5.965260 255 53 0 0.532650
-0.163742 -1.022620 5.938410 255 45 0 0.551337
-0.134789 -1.022540 5.917530 164 0 0 0.870909
-0.116491 -1.024360 5.889600 255 34 0 0.580855
-0.141840 -1.020170 5.951150 242 8 0 0.657126
-0.159489 -1.019590 5.976960 255 56 0 0.522277
-0.108917 -1.022390 5.857070 255 75 0 0.472252
-0.089505 -1.019490 5.830980 255 27 0 0.598039
-0.059943 -1.015430 5.812160 223 0 0 0.707990
-0.038366 -1.016790 5.786700 255 86 0 0.447290
-0.069265 -1.013960 5.844820 255 34 0 0.583615
-0.087785 -1.018070 5.870570 233 1 0 0.681538
0.096926 -0.622267 5.596160 255 75 0 0.475623
0.096235 -0.650256 5.595600 255 78 0 0.462722
0.104376 -0.678178 5.602530 255 93 0 0.430167
0.104486 -0.710354 5.600730 255 108 0 0.396526
0.118460 -0.706076 5.617620 255 127 0 0.363168
0.089977 -0.681695 5.585360 255 86 0 0.445850
0.090248 -0.713554 5.584070 255 108 0 0.395904
0.081908 -0.652721 5.576980 255 112 0 0.395082
0.073929 -0.625187 5.568800 255 71 0 0.487686
0.120152 -0.736496 5.628100 255 71 0 0.483754
0.115747 -0.771584 5.629720 255 97 0 0.422118
0.117787 -0.804421 5.639220 255 104 0 0.406994
0.112931 -0.839599 5.641740 255 112 0 0.387888
0.127352 -0.833804 5.655900 255 112 0 0.394919
0.103361 -0.810250 5.625260 255 97 0 0.419416
0.097122 -0.845137 5.629160 255 123 0 0.372113
0.101566 -0.776609 5.614490 255 90 0 0.440484
0.099939 -0.743523 5.603410 255 75 0 0.470362
0.070435 -0.820196 5.597090 255 78 0 0.465638
0.076736 -0.783943 5.589360 255 116 0 0.385404
0.075738 -0.749144 5.576130 255 67 0 0.488740
0.078453 -0.715849 5.570730 255 101 0 0.418108
0.067497 -0.717005 5.556310 255 134 0 0.346521
0.086769 -0.747178 5.588990 255 82 0 0.459682
0.088130 -0.780917 5.601580 255 101 0 0.416348
0.089589 -0.814510 5.612970 255 86 0 0.445410
0.083645 -0.850265 5.619220 255 101 0 0.415948
0.059328 -0.685164 5.545970 255 90 0 0.443149
0.056546 -0.655688 5.544080 255 97 0 0.421777
0.046698 -0.627900 5.535140 255 104 0 0.404190
0.059766 -0.627007 5.551860 255 86 0 0.446423
0.068615 -0.654552 5.559850 255 101 0 0.412372
0.076663 -0.683678 5.568440 255 82 0 0.455077
-0.037105 -0.680656 5.432230 255 149 0 0.316707
-0.024114 -0.701962 5.446810 255 123 0 0.371199
-0.013291 -0.727260 5.464060 255 112 0 0.393859
-0.003820 -0.753427 5.484840 255 93 0 0.429049
-0.027123 -0.671220 5.443190 255 104 0 0.410927
-0.014305 -0.694670 5.458770 255 134 0 0.347310
0.000148 -0.718768 5.479440 255 101 0 0.412373
0.011427 -0.746004 5.500650 255 67 0 0.489901
-0.006514 -0.879371 5.561720 242 8 0 0.655589
-0.004380 -0.846205 5.544620 255 60 0 0.511693
-0.003426 -0.814006 5.526460 255 112 0 0.395209
-0.020295 -0.878489 5.546280 255 67 0 0.493966
-0.018069 -0.845559 5.529290 255 75 0 0.473472
-0.002883 -0.782405 5.506050 255 101 0 0.412190
0.008919 -0.776894 5.518410 255 112 0 0.394831
-0.032475 -0.875290 5.530470 255 78 0 0.469667
-0.018460 -0.815526 5.508340 255 130 0 0.352049
0.009345 -0.807750 5.537190 255 116 0 0.384629
0.021403 -0.769787 5.527460 255 93 0 0.427500
0.023144 -0.738223 5.510480 255 149 0 0.320636
0.022312 -0.802658 5.546780 255 108 0 0.401598
0.013485 -0.839970 5.558830 255 34 0 0.584284
0.007722 -0.876250 5.572180 255 23 0 0.616387
-0.004915 -0.684134 5.470120 255 141 0 0.329805
-0.018100 -0.660204 5.454540 255 134 0 0.349741
-0.006660 -0.648882 5.467320 255 138 0 0.337711
0.006112 -0.675038 5.481530 255 123 0 0.369950
0.014318 -0.706739 5.493910 255 78 0 0.469308
0.008459 -0.636733 5.484550 255 123 0 0.365138
0.016718 -0.666348 5.493130 255 145 0 0.327578
0.028335 -0.696215 5.506950 255 64 0 0.504589
0.034327 -0.730858 5.518950 255 108 0 0.400377
0.041030 -0.760182 5.541330 255 108 0 0.400559
0.034927 -0.796383 5.554240 255 104 0 0.405430
0.031427 -0.832734 5.569150 255 56 0 0.524926
-0.025880 -0.912699 5.575740 233 1 0 0.678828
-0.047551 -0.942314 5.579940 246 12 0 0.651071
-0.066071 -0.973813 5.592980 255 56 0 0.517318
-0.086691 -1.001260 5.597140 255 45 0 0.549467
-0.078365 -1.007370 5.615000 255 38 0 0.567652
-0.073493 -0.967194 5.575180 242 8 0 0.657501
-0.095123 -0.993411 5.578780 255 45 0 0.553721
-0.060468 -0.937823 5.559630 246 12 0 0.642592
-0.038018 -0.909658 5.556180 223 0 0 0.707471
-0.102929 -1.031650 5.631920 255 23 0 0.613711
-0.103220 -1.024800 5.613250 255 41 0 0.560182
-0.129356 -1.045720 5.630570 251 16 0 0.638552
-0.131104 -1.048960 5.649870 223 0 0 0.700759
-0.129112 -1.040330 5.611310 246 12 0 0.648496
-0.157829 -1.062090 5.647650 255 56 0 0.519332
-0.156659 -1.057920 5.628640 255 60 0 0.511655
-0.161578 -1.061110 5.666800 255 19 0 0.625575
-0.155194 -1.054410 5.608860 255 27 0 0.601404
-0.138260 -1.033980 5.592640 255 49 0 0.540781
-0.112559 -1.018310 5.595060 255 41 0 0.557265
-0.140706 -1.019920 5.568530 255 45 0 0.550856
-0.119666 -1.003980 5.564650 255 49 0 0.540137
-0.098674 -0.985547 5.560480 255 30 0 0.595422
-0.160923 -1.045090 5.587860 255 19 0 0.623861
-0.064192 -0.928558 5.542950 255 23 0 0.610047
-0.081531 -0.958223 5.551770 246 12 0 0.648645
0.077265 -0.881472 5.634990 255 97 0 0.426989
0.069061 -0.912481 5.651710 255 53 0 0.533321
0.084315 -0.907069 5.660620 255 67 0 0.494115
0.091489 -0.876072 5.644410 255 119 0 0.373393
0.066568 -0.938883 5.674980 255 108 0 0.402300
0.061889 -0.962145 5.699610 255 130 0 0.357232
0.042744 -0.969455 5.690250 255 112 0 0.390847
0.047782 -0.946257 5.665200 255 97 0 0.425397
0.108337 -0.869453 5.657030 255 138 0 0.341359
0.103374 -0.899617 5.672910 255 93 0 0.430672
0.118698 -0.893390 5.685250 255 130 0 0.357790
0.123659 -0.864131 5.669930 255 138 0 0.341342
0.103997 -0.925164 5.696870 255 127 0 0.358613
0.102351 -0.947187 5.722030 255 127 0 0.362307
0.082552 -0.954953 5.710520 255 127 0 0.358220
0.084817 -0.932616 5.684740 255 112 0 0.388035
0.036689 -0.987778 5.794150 255 104 0 0.406275
0.046360 -0.981868 5.762870 255 123 0 0.371287
0.013771 -0.995190 5.782140 255 71 0 0.479979
0.022914 -0.989563 5.751030 255 108 0 0.397310
0.054490 -0.974055 5.730860 255 134 0 0.349282
0.075846 -0.966899 5.741780 255 127 0 0.364090
0.067125 -0.975183 5.773850 255 123 0 0.367900
-0.006717 -1.002720 5.770440 255 90 0 0.437372
0.004437 -0.997088 5.740370 255 134 0 0.343734
-0.027590 -1.011590 5.757910 255 138 0 0.338906
0.015177 -0.988560 5.710150 255 145 0 0.329705
0.033636 -0.981402 5.720200 255 127 0 0.364675
0.391162 -0.154461 5.800170 255 149 0 0.322302
0.410681 -0.151483 5.811260 255 145 0 0.329443
0.413166 -0.180401 5.801830 255 141 0 0.331726
0.430485 -0.148650 5.822290 255 138 0 0.342059
0.432940 -0.177845 5.813360 255 138 0 0.341567
0.452681 -0.175193 5.825080 255 130 0 0.356385
0.450653 -0.145656 5.833450 255 127 0 0.359362
0.435225 -0.207728 5.803190 255 138 0 0.341205
0.455085 -0.205200 5.815550 255 130 0 0.352851
0.457252 -0.235281 5.803640 255 134 0 0.348438
0.438339 -0.238222 5.792480 255 138 0 0.340058
0.416684 -0.210227 5.792150 255 141 0 0.334939
0.419181 -0.241359 5.782060 255 141 0 0.332642
0.397947 -0.213256 5.781570 255 141 0 0.330711
0.394774 -0.183157 5.791260 255 145 0 0.328729
0.376356 -0.186392 5.780910 255 145 0 0.328246
0.399371 -0.245199 5.772000 255 145 0 0.326780
0.378754 -0.216577 5.771340 255 145 0 0.328713
0.379278 -0.249410 5.762450 255 149 0 0.322207
0.372740 -0.157918 5.790100 255 149 0 0.322268
0.471319 -0.142325 5.843320 255 119 0 0.376183
0.493667 -0.138748 5.854180 255 108 0 0.395711
0.493173 -0.169213 5.846150 255 112 0 0.388099
0.516386 -0.134923 5.864910 255 101 0 0.416347
0.515150 -0.166177 5.857800 255 104 0 0.404358
0.515088 -0.196772 5.849340 255 112 0 0.393452
0.516948 -0.227459 5.838780 255 116 0 0.384917
0.494742 -0.199768 5.837950 255 116 0 0.380724
0.497143 -0.229831 5.826450 255 123 0 0.371688
0.474769 -0.202541 5.826580 255 123 0 0.366025
0.472724 -0.172308 5.835560 255 123 0 0.372460
0.477219 -0.232381 5.814650 255 127 0 0.358625
0.504278 -0.358581 5.803730 255 141 0 0.329878
0.507648 -0.327656 5.809390 255 134 0 0.346137
0.487452 -0.330826 5.801210 255 141 0 0.333474
0.485346 -0.360705 5.795160 255 153 0 0.314531
0.491723 -0.297467 5.805980 255 134 0 0.347016
0.468251 -0.333050 5.792270 255 149 0 0.321519
0.471782 -0.300696 5.797510 255 138 0 0.336858
0.452219 -0.303832 5.789180 255 145 0 0.327098
0.465844 -0.364419 5.786970 255 160 0 0.302258
0.448716 -0.336838 5.783900 255 153 0 0.311734
0.446048 -0.368498 5.778880 255 164 0 0.294156
0.475078 -0.266405 5.804090 255 134 0 0.348181
0.455663 -0.269721 5.795120 255 138 0 0.339786
0.495729 -0.263337 5.815010 255 127 0 0.358926
0.515866 -0.260490 5.826740 255 123 0 0.372092
0.513262 -0.293334 5.815980 255 127 0 0.358869
0.428331 -0.371264 5.769590 255 167 0 0.286760
0.428738 -0.341079 5.774100 255 156 0 0.304593
0.410865 -0.344188 5.764570 255 160 0 0.297501
0.410444 -0.375116 5.760570 255 175 0 0.278463
0.412130 -0.311979 5.769680 255 153 0 0.311264
0.392812 -0.347555 5.754970 255 167 0 0.289360
0.393634 -0.315888 5.760350 255 156 0 0.305666
0.375547 -0.319441 5.751100 255 160 0 0.298326
0.392391 -0.379072 5.751820 255 178 0 0.268551
0.374534 -0.352154 5.746440 255 171 0 0.280083
0.374820 -0.382680 5.742560 255 182 0 0.265111
0.396180 -0.281502 5.765390 255 149 0 0.316454
0.377061 -0.286119 5.756980 255 153 0 0.312349
0.416351 -0.277184 5.775080 255 149 0 0.322155
0.436202 -0.273013 5.784960 255 141 0 0.330009
0.432291 -0.307937 5.779480 255 149 0 0.317958
0.244914 -0.010273 6.094620 255 182 0 0.261243
0.268095 -0.010545 6.106780 255 182 0 0.264642
0.277015 -0.021870 6.090360 255 190 0 0.253329
0.291359 -0.011242 6.118900 255 156 0 0.308028
0.300099 -0.022169 6.102660 255 175 0 0.274035
0.323972 -0.023102 6.115170 255 149 0 0.322085
0.315131 -0.012652 6.131570 255 112 0 0.387816
0.309193 -0.032001 6.085020 255 182 0 0.262463
0.333058 -0.032697 6.097520 255 167 0 0.285624
0.342854 -0.039921 6.078880 255 175 0 0.276003
0.319471 -0.039938 6.066050 255 178 0 0.270610
0.286687 -0.032263 6.072520 255 186 0 0.258498
0.296975 -0.040198 6.053910 255 171 0 0.281073
0.264128 -0.032756 6.060450 255 178 0 0.272201
0.254364 -0.022224 6.078110 255 190 0 0.250581
0.231273 -0.022231 6.066090 255 171 0 0.282149
0.274351 -0.040744 6.041810 255 149 0 0.319579
0.241026 -0.032944 6.048580 255 149 0 0.316451
0.251328 -0.041125 6.029870 255 108 0 0.398860
0.221745 -0.010254 6.082540 255 160 0 0.300786
0.340967 -0.013469 6.145390 255 116 0 0.384311
0.367532 -0.014927 6.159500 255 123 0 0.367723
0.375951 -0.025088 6.142830 255 149 0 0.320698
0.394174 -0.017442 6.173200 255 127 0 0.364336
0.402602 -0.027147 6.156660 255 153 0 0.315919
0.411626 -0.035376 6.138890 255 167 0 0.289607
0.421639 -0.041087 6.119820 255 167 0 0.288258
0.385083 -0.034066 6.125110 255 167 0 0.289781
0.394987 -0.040484 6.106030 255 167 0 0.285296
0.358974 -0.033113 6.111260 255 167 0 0.288241
0.349693 -0.023814 6.128890 255 149 0 0.321944
0.368743 -0.040128 6.092360 255 171 0 0.280959
0.450924 -0.042649 6.053890 255 138 0 0.341996
0.424695 -0.044061 6.041380 255 141 0 0.334934
0.413534 -0.046824 6.064020 255 149 0 0.321763
0.399123 -0.045762 6.028850 255 145 0 0.325182
0.388111 -0.047546 6.051050 255 153 0 0.313855
0.363154 -0.048718 6.038450 255 156 0 0.304666
0.374209 -0.046857 6.016210 255 153 0 0.314364
0.377615 -0.045952 6.072110 255 164 0 0.297087
0.352640 -0.046256 6.059290 255 167 0 0.290097
0.403902 -0.045555 6.085770 255 156 0 0.303548
0.430789 -0.045532 6.099440 255 156 0 0.309133
0.440418 -0.045965 6.077350 255 145 0 0.328222
0.350949 -0.047560 6.004030 255 156 0 0.304730
0.328818 -0.048227 5.991900 255 164 0 0.296835
0.316985 -0.049702 6.014070 255 167 0 0.287777
0.306698 -0.048784 5.979960 255 153 0 0.312217
0.294950 -0.050138 6.002060 255 171 0 0.282155
0.272575 -0.051087 5.990180 255 149 0 0.317850
0.284187 -0.050338 5.968220 255 127 0 0.363403
0.283905 -0.047369 6.022560 255 167 0 0.288450
0.261661 -0.048192 6.010610 255 141 0 0.333077
0.306698 -0.046747 6.034660 255 175 0 0.275764
0.329277 -0.046328 6.046790 255 171 0 0.282650
0.339694 -0.048932 6.026380 255 164 0 0.295541
-0.055709 -0.896399 6.293840 255 38 0 0.570940
-0.052795 -0.910374 6.264950 255 78 0 0.466827
-0.077965 -0.896864 6.282490 255 30 0 0.590524
-0.075255 -0.910814 6.253600 255 78 0 0.462909
-0.050207 -0.927366 6.236830 255 93 0 0.431240
-0.046931 -0.947824 6.210050 255 93 0 0.428761
-0.025128 -0.944798 6.221940 255 90 0 0.435900
-0.028483 -0.924832 6.249150 255 78 0 0.464583
-0.031439 -0.908295 6.277340 255 64 0 0.503626
-0.003484 -0.941555 6.233600 255 90 0 0.436830
-0.099439 -0.897262 6.270410 255 45 0 0.550285
-0.095789 -0.912344 6.241330 255 93 0 0.429254
-0.121478 -0.897123 6.259040 255 90 0 0.439938
-0.092655 -0.931117 6.213550 255 97 0 0.421572
-0.068156 -0.949775 6.198120 255 97 0 0.425607
-0.071637 -0.929162 6.225600 255 97 0 0.426748
-0.030920 -0.992720 6.121920 255 78 0 0.466691
-0.004185 -1.000070 6.103250 255 41 0 0.556149
-0.036077 -0.981131 6.152630 255 86 0 0.448925
-0.009332 -0.990213 6.134590 255 64 0 0.502871
-0.015229 -0.977388 6.165180 255 86 0 0.446464
0.017543 -0.998005 6.116080 255 41 0 0.557842
-0.041731 -0.964705 6.181850 255 97 0 0.421857
-0.063134 -0.968372 6.170340 255 90 0 0.441209
0.012634 -0.988060 6.146780 255 71 0 0.486769
0.038695 -0.995731 6.128400 255 60 0 0.511249
0.006966 -0.974369 6.176320 255 82 0 0.454679
0.033698 -0.984863 6.158930 255 82 0 0.457653
0.028233 -0.971567 6.188280 255 101 0 0.417059
0.060109 -0.994023 6.140490 255 67 0 0.493754
0.001785 -0.959293 6.205070 255 101 0 0.418555
-0.020263 -0.961830 6.193590 255 90 0 0.437066
0.118304 -0.833778 6.369030 251 16 0 0.635250
0.131074 -0.844232 6.346520 173 0 0 0.843953
0.107236 -0.859079 6.337970 196 0 0 0.783583
0.093474 -0.847895 6.359580 251 16 0 0.636693
0.132134 -0.866669 6.321410 192 0 0 0.790073
0.133583 -0.892388 6.295900 210 0 0 0.745073
0.156893 -0.876245 6.305400 187 0 0 0.808717
0.155502 -0.850866 6.330280 214 0 0 0.733227
0.070987 -0.862622 6.351530 255 19 0 0.621159
0.084794 -0.874951 6.329630 228 0 0 0.695627
0.061653 -0.886857 6.321070 255 23 0 0.608791
0.047425 -0.874677 6.342930 219 0 0 0.710633
0.087665 -0.897387 6.304640 255 45 0 0.552660
0.090112 -0.921820 6.278290 255 71 0 0.480584
0.111857 -0.908572 6.287650 255 41 0 0.562600
0.109017 -0.882153 6.312650 233 1 0 0.679554
0.149214 -0.980470 6.182780 255 34 0 0.585209
0.144430 -0.961596 6.211840 255 38 0 0.574309
0.170103 -0.970544 6.191940 233 1 0 0.678982
0.139985 -0.940016 6.240500 246 12 0 0.641374
0.164974 -0.949609 6.221200 237 4 0 0.671500
0.160398 -0.924908 6.249520 201 0 0 0.760882
0.190780 -0.956646 6.201030 196 0 0 0.778792
0.136478 -0.916255 6.268690 205 0 0 0.754877
0.114896 -0.930890 6.259580 255 41 0 0.557128
0.118498 -0.951109 6.231040 255 64 0 0.504904
0.186166 -0.933379 6.229860 210 0 0 0.734577
0.212787 -0.940272 6.210300 183 0 0 0.813083
0.183714 -0.908590 6.258680 201 0 0 0.767647
0.209034 -0.916901 6.240250 255 19 0 0.624520
0.169763 -0.892535 6.282500 187 0 0 0.804698
0.024398 -0.883512 6.333050 242 8 0 0.662767
0.038385 -0.896120 6.310860 255 64 0 0.498229
0.014348 -0.901648 6.300280 255 30 0 0.595382
0.000553 -0.888709 6.322460 246 12 0 0.646708
0.040839 -0.915176 6.283600 255 71 0 0.481046
0.043132 -0.934274 6.256210 255 93 0 0.432950
0.066822 -0.929420 6.267340 255 67 0 0.488960
0.064287 -0.908538 6.294400 255 64 0 0.504003
-0.022118 -0.892753 6.311220 255 27 0 0.604071
-0.008435 -0.906519 6.288600 255 75 0 0.475476
-0.005922 -0.922967 6.260720 255 90 0 0.443132
0.019884 -0.938399 6.245140 255 82 0 0.453963
0.016914 -0.919402 6.272550 255 75 0 0.478441
0.055987 -0.982828 6.170120 255 104 0 0.404793
0.082867 -0.992369 6.151660 255 86 0 0.449864
0.051752 -0.968868 6.199060 255 101 0 0.414291
0.078141 -0.979273 6.181320 255 104 0 0.410982
0.074332 -0.964351 6.210570 255 97 0 0.422947
0.104722 -0.989921 6.162530 255 71 0 0.488181
0.047467 -0.952002 6.227840 255 93 0 0.430279
0.023874 -0.955894 6.216660 255 90 0 0.438614
0.101302 -0.976566 6.191980 255 78 0 0.465797
0.126953 -0.986482 6.172860 255 56 0 0.519669
0.097173 -0.958992 6.220780 255 78 0 0.464044
0.123386 -0.971233 6.202350 255 64 0 0.500720
0.093650 -0.941165 6.249440 255 71 0 0.481785
0.070350 -0.946934 6.238940 255 90 0 0.439226
0.165103 -0.986187 6.156570 178 0 0 0.829670
0.192052 -0.986747 6.135700 187 0 0 0.799124
0.208080 -0.987602 6.109230 255 45 0 0.554815
0.235052 -0.982668 6.088630 255 23 0 0.616404
0.213686 -0.989757 6.076600 255 30 0 0.594868
0.229271 -0.978215 6.119560 255 34 0 0.578391
0.256088 -0.967557 6.098890 255 19 0 0.618782
0.213070 -0.975963 6.144810 246 12 0 0.646031
0.196861 -0.971992 6.170720 169 0 0 0.854699
0.227867 -0.980428 6.050490 205 0 0 0.756186
0.253964 -0.967514 6.032230 210 0 0 0.742576
0.269630 -0.955047 6.008100 246 12 0 0.650353
0.292329 -0.942011 6.022740 255 71 0 0.482236
0.277140 -0.955299 6.045520 255 53 0 0.527770
0.261858 -0.966331 6.069120 210 0 0 0.746878
0.333574 -0.905472 6.051790 255 75 0 0.475119
0.319330 -0.919373 6.072410 255 49 0 0.545081
0.293649 -0.940347 6.087280 233 1 0 0.676345
0.278385 -0.950043 6.110320 255 30 0 0.591417
0.298542 -0.937789 6.058500 255 53 0 0.530641
0.313417 -0.923916 6.037110 255 86 0 0.450316
0.272817 -0.942799 6.140250 255 23 0 0.616805
0.255991 -0.942411 6.164690 233 1 0 0.682654
0.228516 -0.948428 6.184560 178 0 0 0.834085
0.233898 -0.960248 6.154160 210 0 0 0.737184
0.250629 -0.961250 6.128880 255 27 0 0.596801
0.174008 -0.571937 5.661870 255 82 0 0.461098
0.170658 -0.552360 5.655210 255 78 0 0.468636
0.179362 -0.531765 5.656600 255 64 0 0.499422
0.175946 -0.508393 5.650490 255 38 0 0.573281
0.201228 -0.507806 5.666340 255 45 0 0.550564
0.203578 -0.530285 5.671550 255 71 0 0.484094
0.194369 -0.551468 5.669850 255 86 0 0.449439
0.196190 -0.570933 5.675940 255 90 0 0.437334
0.187601 -0.590422 5.674280 255 78 0 0.463773
0.208514 -0.588562 5.689720 255 101 0 0.414111
0.157402 -0.486189 5.641720 255 60 0 0.514816
0.151626 -0.461866 5.638150 255 38 0 0.568142
0.166450 -0.462021 5.647880 255 71 0 0.482590
0.146137 -0.437039 5.633450 255 112 0 0.388501
0.161640 -0.436051 5.643230 255 97 0 0.419886
0.157572 -0.410239 5.636130 255 178 0 0.268557
0.141698 -0.410586 5.627670 255 164 0 0.295887
0.176993 -0.435877 5.651560 255 90 0 0.439264
0.173382 -0.409482 5.644700 255 153 0 0.314101
0.188642 -0.409122 5.652350 255 153 0 0.315487
0.193823 -0.460452 5.662640 255 53 0 0.531381
0.183934 -0.485324 5.657860 255 30 0 0.587732
0.249043 -0.404316 5.679340 255 167 0 0.288012
0.250021 -0.430863 5.684860 255 86 0 0.444931
0.236798 -0.458263 5.683640 255 78 0 0.465853
0.237618 -0.482706 5.686960 255 34 0 0.579214
0.226881 -0.506739 5.680260 255 38 0 0.569502
0.252495 -0.504615 5.695950 255 30 0 0.596106
0.210966 -0.485186 5.672900 255 41 0 0.563356
0.208549 -0.460111 5.669620 255 53 0 0.532516
0.206739 -0.434297 5.664930 255 93 0 0.429225
0.221722 -0.433251 5.671970 255 101 0 0.419121
0.219411 -0.407739 5.665430 255 160 0 0.303417
0.204537 -0.408276 5.658810 255 204 0 0.230134
0.234557 -0.405998 5.672350 255 145 0 0.323250
0.252923 -0.527923 5.699880 255 78 0 0.469922
0.242075 -0.551122 5.696080 255 101 0 0.417576
0.242885 -0.570301 5.701220 255 130 0 0.351440
0.231418 -0.588325 5.702120 255 127 0 0.364087
0.254589 -0.588260 5.714000 255 97 0 0.423392
0.219607 -0.570497 5.689470 255 112 0 0.391951
0.218390 -0.551315 5.682810 255 82 0 0.460728
0.228477 -0.529705 5.685840 255 71 0 0.487132
0.390828 -0.410364 5.750770 255 190 0 0.253709
0.408528 -0.407186 5.759390 255 186 0 0.256332
0.407215 -0.437278 5.760080 255 201 0 0.234805
0.425982 -0.404000 5.769030 255 182 0 0.264919
0.424152 -0.434713 5.768810 255 197 0 0.243132
0.441166 -0.432810 5.778540 255 178 0 0.271387
0.443264 -0.400951 5.778040 255 175 0 0.274417
0.423094 -0.463568 5.771000 255 212 0 0.222160
0.440319 -0.461816 5.779460 255 186 0 0.260290
0.439772 -0.489931 5.781510 255 164 0 0.295438
0.423269 -0.490611 5.774520 255 201 0 0.233980
0.406970 -0.465255 5.762890 255 212 0 0.222639
0.406551 -0.491726 5.766500 255 149 0 0.318597
0.390384 -0.466768 5.755830 255 164 0 0.293909
0.390898 -0.439284 5.752450 255 182 0 0.264167
0.374274 -0.442051 5.744950 255 149 0 0.320751
0.389754 -0.492371 5.759750 255 101 0 0.411489
0.373780 -0.468688 5.749400 255 123 0 0.365840
0.372686 -0.493357 5.752920 255 67 0 0.495672
0.374483 -0.413278 5.742710 255 167 0 0.290377
0.461132 -0.398457 5.785750 255 171 0 0.280676
0.480192 -0.394705 5.793860 255 164 0 0.292102
0.476508 -0.427453 5.793270 255 178 0 0.267620
0.499284 -0.391811 5.801730 255 156 0 0.307293
0.495520 -0.423994 5.800680 255 171 0 0.281614
0.492271 -0.456037 5.800630 255 186 0 0.255556
0.491254 -0.485737 5.801870 255 190 0 0.251759
0.474808 -0.458345 5.793700 255 186 0 0.255651
0.474276 -0.487007 5.794960 255 160 0 0.302717
0.457603 -0.460180 5.786600 255 171 0 0.282236
0.459032 -0.430165 5.785710 255 182 0 0.263339
0.457113 -0.488394 5.788470 255 153 0 0.314474
0.482443 -0.569022 5.818880 210 0 0 0.745693
0.462619 -0.590422 5.817150 237 4 0 0.668161
0.468073 -0.543448 5.807560 255 41 0 0.561064
0.448502 -0.566592 5.807210 237 4 0 0.668760
0.434578 -0.541367 5.795310 255 38 0 0.566813
0.428558 -0.588879 5.803720 255 30 0 0.594298
0.453516 -0.517216 5.795590 255 67 0 0.496515
0.471342 -0.516248 5.802120 255 90 0 0.438809
0.488591 -0.516055 5.807960 255 78 0 0.466901
0.485514 -0.543653 5.814250 255 78 0 0.465052
0.414283 -0.565542 5.792750 255 19 0 0.626733
0.396545 -0.588014 5.787060 255 41 0 0.556795
0.399706 -0.540390 5.780970 255 60 0 0.512589
0.381000 -0.564997 5.778200 255 38 0 0.571647
0.367010 -0.540954 5.767000 255 45 0 0.553926
0.364516 -0.586933 5.770610 255 75 0 0.472735
0.385524 -0.516346 5.767800 255 56 0 0.517491
0.403379 -0.516502 5.773920 255 86 0 0.451811
0.420501 -0.516982 5.780790 255 97 0 0.421144
0.417056 -0.540914 5.788480 255 86 0 0.448743
0.348652 -0.564457 5.761330 255 56 0 0.519948
0.335063 -0.586284 5.754760 255 82 0 0.454277
0.334904 -0.542679 5.750360 255 38 0 0.570287
0.319760 -0.566081 5.744770 255 60 0 0.510533
0.306439 -0.545324 5.734650 255 38 0 0.573549
0.306164 -0.586646 5.740040 255 101 0 0.416238
0.321119 -0.520728 5.737930 237 4 0 0.669486
0.309391 -0.498571 5.724940 255 30 0 0.588413
0.340776 -0.494758 5.738150 255 27 0 0.597329
0.352829 -0.518867 5.753670 255 23 0 0.615782
0.292109 -0.567015 5.728430 255 86 0 0.448566
0.279462 -0.587408 5.726470 255 116 0 0.381731
0.279208 -0.547267 5.717050 255 75 0 0.474808
0.266924 -0.568862 5.714310 255 101 0 0.411967
0.279245 -0.525312 5.714470 255 41 0 0.564857
0.280300 -0.501572 5.710290 255 49 0 0.540539
0.264465 -0.402255 5.685860 255 134 0 0.348121
0.280087 -0.427077 5.696330 255 93 0 0.434125
0.279751 -0.400141 5.693050 255 167 0 0.287409
0.279040 -0.452983 5.701340 255 71 0 0.486447
0.295374 -0.425258 5.703670 255 123 0 0.366123
0.294728 -0.451604 5.708550 255 101 0 0.414493
0.310646 -0.449894 5.716190 255 112 0 0.389356
0.294692 -0.397494 5.700540 255 182 0 0.264780
0.310604 -0.422939 5.711200 255 123 0 0.372299
0.310057 -0.395092 5.708550 255 219 0 0.208702
0.293902 -0.476216 5.713010 255 53 0 0.526612
0.309754 -0.475212 5.721210 255 41 0 0.558128
0.265003 -0.479699 5.699600 255 34 0 0.577481
0.325663 -0.392246 5.716020 255 182 0 0.266391
0.341943 -0.417912 5.725040 255 108 0 0.396892
0.341772 -0.389232 5.724330 255 167 0 0.289253
0.341651 -0.445469 5.728150 255 64 0 0.506366
0.358154 -0.416037 5.733790 255 145 0 0.326067
0.357750 -0.443367 5.736330 255 116 0 0.380878
0.358109 -0.386185 5.733440 255 175 0 0.277690
0.356616 -0.470332 5.741280 255 86 0 0.445162
0.376990 -0.609894 5.784370 255 75 0 0.474685
0.389057 -0.631303 5.796870 255 86 0 0.445885
0.408257 -0.610986 5.799690 255 64 0 0.503656
0.420367 -0.633166 5.811910 255 75 0 0.475627
0.401290 -0.652782 5.807590 255 101 0 0.412077
0.413001 -0.672747 5.817970 255 112 0 0.387828
0.383675 -0.670178 5.806020 255 104 0 0.410929
0.371962 -0.649901 5.793680 255 101 0 0.414944
0.359678 -0.628708 5.781860 255 90 0 0.441055
0.353677 -0.666743 5.796830 255 86 0 0.444488
0.440058 -0.611967 5.816000 255 45 0 0.547902
0.450968 -0.635513 5.826990 255 71 0 0.487006
0.473246 -0.614187 5.830170 255 41 0 0.559099
0.462349 -0.657002 5.836220 255 101 0 0.416728
0.443226 -0.675458 5.830560 255 127 0 0.363357
0.431658 -0.654544 5.822130 255 112 0 0.392819
0.420578 -0.728215 5.860290 255 67 0 0.493886
0.427565 -0.710567 5.848250 255 116 0 0.385524
