ply
format ascii 1.0
comment Seamless Cloth Simulation with High Geometric Fidelity 
comment Wed May  8 12:22:00 2019
element vertex 1000
property float x
property float y
property float z
property float quality
property uchar red
property uchar green
property uchar blue
end_header
-0.344898 0.0450921 6.2376 0.318779 255 0 255 
-0.324442 0.0435287 6.24471 0.325519 255 0 255 
-0.364659 0.0469678 6.23093 0.318409 255 0 255 
-0.258696 0.0558479 6.17222 0.273548 255 0 255 
-0.245662 0.0548736 6.15181 0.27813 255 0 255 
-0.264758 0.0550189 6.14267 0.274578 255 0 255 
-0.231916 0.052465 6.13017 0.279343 255 0 255 
-0.25151 0.0528357 6.12095 0.276302 255 0 255 
-0.237636 0.0489747 6.09802 0.27606 255 0 255 
-0.217733 0.0483637 6.10704 0.278414 255 0 255 
-0.270504 0.0533975 6.11173 0.270774 255 0 255 
-0.256722 0.0495032 6.08909 0.27015 255 0 255 
-0.275346 0.0502276 6.0802 0.263319 255 0 255 
-0.291076 0.055045 6.10449 0.265131 255 0 255 
-0.285749 0.0562475 6.135 0.270733 255 0 255 
-0.306363 0.0575755 6.1277 0.267922 255 0 255 
-0.300242 0.0574013 6.15677 0.270399 255 0 255 
-0.279617 0.0566053 6.16444 0.272245 255 0 255 
-0.320397 0.0581332 6.14939 0.267259 255 0 255 
-0.345693 0.0486536 6.04068 0.436406 255 0 255 
-0.362489 0.0539369 6.06537 0.432204 255 0 255 
-0.343913 0.0528973 6.07456 0.376844 255 0 255 
-0.359811 0.0559754 6.09844 0.342272 255 0 255 
-0.378167 0.057111 6.08895 0.387379 255 0 255 
-0.34138 0.055709 6.1076 0.304102 255 0 255 
-0.374472 0.0576368 6.1211 0.309598 255 0 255 
-0.356303 0.0572033 6.13021 0.28029 255 0 255 
-0.37023 0.0575472 6.15119 0.30729 255 0 255 
-0.392603 0.0587818 6.11178 0.367406 255 0 255 
-0.38802 0.0582379 6.14201 0.369876 255 0 255 
-0.405851 0.0596402 6.13291 0.454752 255 0 255 
-0.338085 0.0570611 6.1394 0.273364 255 0 255 
-0.351996 0.0573639 6.16022 0.272323 255 0 255 
-0.324107 0.056416 6.11758 0.275116 255 0 255 
-0.308941 0.0539127 6.09454 0.275807 255 0 255 
-0.326581 0.0532939 6.0846 0.310967 255 0 255 
-0.311134 0.0488904 6.06029 0.328502 255 0 255 
-0.2934 0.0494004 6.07028 0.270734 255 0 255 
-0.328536 0.0485529 6.0504 0.382405 255 0 255 
-0.421045 0.0581356 6.15503 0.435155 255 0 255 
-0.398175 0.054495 6.162 0.391049 255 0 255 
-0.413219 0.053027 6.18376 0.402631 255 0 255 
-0.435632 0.0567117 6.17655 0.405074 255 0 255 
-0.390369 0.0501058 6.19113 0.3513 255 0 255 
-0.427704 0.0514591 6.20503 0.398456 255 0 255 
-0.405318 0.0487025 6.21292 0.358635 255 0 255 
-0.450194 0.0548028 6.19731 0.369788 255 0 255 
-0.382775 0.0463925 6.22106 0.342154 255 0 255 
-0.372702 0.0500127 6.201 0.304343 255 0 255 
-0.362641 0.0533284 6.18064 0.279765 255 0 255 
-0.380604 0.0536678 6.17135 0.320655 255 0 255 
-0.314826 0.0405941 6.02751 0.504324 255 0 255 
-0.297157 0.0409556 6.03733 0.39897 255 0 255 
-0.283271 0.0324639 6.01406 0.499656 255 0 255 
-0.2794 0.041489 6.04727 0.326613 255 0 255 
-0.265372 0.0331809 6.02406 0.403534 255 0 255 
-0.247254 0.0338893 6.03395 0.358275 255 0 255 
-0.261413 0.0422382 6.05715 0.293348 255 0 255 
-0.251112 0.0249927 6.00027 0.451306 255 0 255 
-0.232878 0.0259409 6.01019 0.431317 255 0 255 
-0.218667 0.0188216 5.9861 0.410747 255 0 255 
-0.236683 0.017439 5.97643 0.424019 255 0 255 
-0.268931 0.02385 5.99034 0.393631 255 0 255 
-0.254579 0.0161236 5.96663 0.420303 255 0 255 
-0.286455 0.022962 5.9803 0.412922 255 0 255 
-0.30061 0.0316675 6.00391 0.424331 255 0 255 
-0.318013 0.0313422 5.99396 0.39728 255 0 255 
-0.272529 0.015127 5.95664 0.40819 255 0 255 
-0.304027 0.022369 5.9701 0.400185 255 0 255 
-0.290188 0.0143451 5.94634 0.449245 255 0 255 
-0.331997 0.0404645 6.01748 0.390394 255 0 255 
-0.243289 0.0420895 6.06662 0.267857 255 0 255 
-0.22385 0.0413611 6.07532 0.272399 255 0 255 
-0.210205 0.0337833 6.05254 0.265701 255 0 255 
-0.20379 0.0407646 6.08426 0.274748 255 0 255 
-0.19002 0.0333968 6.06123 0.266856 255 0 255 
-0.176136 0.0267891 6.03815 0.259415 255 0 255 
-0.162318 0.0205705 6.01453 0.25361 255 0 255 
-0.195976 0.0263802 6.02878 0.284271 255 0 255 
-0.181789 0.0197228 6.0048 0.284687 255 0 255 
-0.214714 0.0260232 6.01954 0.349836 255 0 255 
-0.229205 0.0337485 6.04327 0.293839 255 0 255 
-0.200574 0.019163 5.99555 0.327628 255 0 255 
-0.114533 -0.0104141 5.92421 0.452879 255 0 255 
-0.126379 -0.00239946 5.94732 0.452389 255 0 255 
-0.145106 -0.00411967 5.93719 0.446472 255 0 255 
-0.133035 -0.0120147 5.91378 0.446945 255 0 255 
-0.157461 0.00394854 5.96039 0.445342 255 0 255 
-0.163413 -0.00544589 5.92716 0.427995 255 0 255 
-0.175869 0.00273658 5.95056 0.433284 255 0 255 
-0.193536 0.00187313 5.94082 0.398424 255 0 255 
-0.151069 -0.0134344 5.90369 0.445769 255 0 255 
-0.181064 -0.00647967 5.91735 0.411134 255 0 255 
-0.16878 -0.0145599 5.8938 0.464755 255 0 255 
-0.188204 0.0110119 5.97338 0.431714 255 0 255 
-0.20615 0.0102568 5.96353 0.412334 255 0 255 
-0.169593 0.0117568 5.98271 0.352249 255 0 255 
-0.150481 0.0128204 5.99238 0.313022 255 0 255 
-0.138499 0.00509563 5.96985 0.393832 255 0 255 
-0.186905 -0.0164371 5.88446 0.388331 255 0 255 
-0.199116 -0.00829489 5.90767 0.317956 255 0 255 
-0.217141 -0.00989317 5.89819 0.342725 255 0 255 
-0.204961 -0.0180881 5.87491 0.406497 255 0 255 
-0.229303 -0.00134884 5.92107 0.311101 255 0 255 
-0.235416 -0.0112177 5.88847 0.323009 255 0 255 
-0.247487 -0.00255769 5.91138 0.303861 255 0 255 
-0.265924 -0.00358214 5.90139 0.35495 255 0 255 
-0.223233 -0.0193938 5.86531 0.366884 255 0 255 
-0.253728 -0.0122218 5.87855 0.342047 255 0 255 
-0.241348 -0.0203017 5.85559 0.390564 255 0 255 
-0.259688 0.0061645 5.93381 0.322706 255 0 255 
-0.278004 0.00539531 5.92415 0.360825 255 0 255 
-0.241743 0.00725832 5.94382 0.368759 255 0 255 
-0.22394 0.0086568 5.95371 0.376432 255 0 255 
-0.211522 0.000104669 5.93087 0.345015 255 0 255 
-0.361708 0.0472468 6.02947 0.372495 255 0 255 
-0.378229 0.0534015 6.05158 0.465835 255 0 255 
-0.394181 0.0524604 6.04007 0.409728 255 0 255 
-0.377861 0.0461062 6.01769 0.379979 255 0 255 
-0.409344 0.0564741 6.06195 0.469868 255 0 255 
-0.410459 0.0519795 6.02808 0.433943 255 0 255 
-0.425516 0.0566524 6.04976 0.433082 255 0 255 
-0.442791 0.0579477 6.03694 0.46969 255 0 255 
-0.394268 0.0454842 6.00561 0.398877 255 0 255 
-0.427479 0.0527364 6.01543 0.43174 255 0 255 
-0.411448 0.0453876 5.99335 0.430937 255 0 255 
-0.440011 0.0602615 6.07096 0.455981 255 0 255 
-0.457561 0.0617622 6.0583 0.4104 255 0 255 
-0.47191 0.0648772 6.07893 0.392741 255 0 255 
-0.454253 0.062628 6.09344 0.38399 255 0 255 
-0.423528 0.0590514 6.08528 0.421766 255 0 255 
-0.43746 0.0606619 6.10716 0.386264 255 0 255 
-0.408122 0.0583526 6.09874 0.372401 255 0 255 
-0.393748 0.0564979 6.07584 0.432332 255 0 255 
-0.421683 0.0596301 6.12035 0.373724 255 0 255 
-0.42862 0.0438114 5.98034 0.443923 255 0 255 
-0.443819 0.0513709 5.99897 0.540267 255 0 255 
-0.462791 0.0505143 5.98485 0.545285 255 0 255 
-0.447604 0.0426365 5.96655 0.462698 255 0 255 
-0.477381 0.0569305 6.00333 0.669047 255 0 255 
-0.483422 0.0490823 5.97029 0.513031 255 0 255 
-0.497915 0.0555681 5.98865 0.528797 255 0 255 
-0.518921 0.0532272 5.97356 0.408474 255 0 255 
-0.467901 0.0412286 5.95208 0.520863 255 0 255 
-0.504819 0.0464728 5.95497 0.45345 255 0 255 
-0.489534 0.0387607 5.93622 0.575509 255 0 255 
-0.51226 0.06109 6.00715 0.624556 255 0 255 
-0.533766 0.0590898 5.99204 0.43396 255 0 255 
-0.547714 0.0641863 6.01043 0.543781 255 0 255 
-0.527245 0.0655937 6.0287 0.495583 255 0 255 
-0.492756 0.062034 6.02492 0.524933 255 0 255 
-0.50724 0.0657996 6.04646 0.427689 255 0 255 
-0.474035 0.0619124 6.04227 0.440639 255 0 255 
-0.459074 0.0573811 6.02066 0.550873 255 0 255 
-0.488897 0.0656173 6.06311 0.460223 255 0 255 
-0.608469 0.0722262 6.06171 0.443842 255 0 255 
-0.588036 0.0732687 6.0813 0.430262 255 0 255 
-0.57276 0.072042 6.06733 0.376273 255 0 255 
-0.55324 0.0720676 6.0863 0.44857 255 0 255 
-0.568377 0.0732344 6.10019 0.384007 255 0 255 
-0.536968 0.0702574 6.07277 0.413739 255 0 255 
-0.534066 0.0708189 6.10538 0.374736 255 0 255 
-0.519096 0.0697872 6.09097 0.486513 255 0 255 
-0.502033 0.0681641 6.10917 0.427778 255 0 255 
-0.54927 0.0721062 6.11869 0.325117 255 0 255 
-0.516923 0.0696367 6.12287 0.348935 255 0 255 
-0.531486 0.0701836 6.13645 0.370449 255 0 255 
-0.503641 0.0677051 6.07653 0.415647 255 0 255 
-0.487393 0.0668506 6.09434 0.428377 255 0 255 
-0.52277 0.0685313 6.05985 0.404138 255 0 255 
-0.542445 0.0682146 6.04283 0.407212 255 0 255 
-0.55798 0.070426 6.0551 0.354444 255 0 255 
-0.579139 0.0692778 6.03752 0.381095 255 0 255 
-0.563587 0.067009 6.02444 0.418521 255 0 255 
-0.593725 0.0709706 6.04994 0.407232 255 0 255 
-0.512504 0.063651 6.15781 0.430167 255 0 255 
-0.497895 0.066028 6.13744 0.44947 255 0 255 
-0.481072 0.0610057 6.15795 0.445759 255 0 255 
-0.49555 0.058615 6.17817 0.404089 255 0 255 
-0.466554 0.0629369 6.13703 0.479675 255 0 255 
-0.465281 0.0575224 6.17769 0.415864 255 0 255 
-0.450792 0.0592735 6.15695 0.454338 255 0 255 
-0.47948 0.0546691 6.19872 0.387668 255 0 255 
-0.435713 0.0608426 6.13567 0.51887 255 0 255 
-0.452323 0.0620226 6.12248 0.456919 255 0 255 
-0.469439 0.0640491 6.10908 0.458826 255 0 255 
-0.483758 0.0652803 6.1236 0.426902 255 0 255 
-0.258475 -0.0222432 5.8472 0.292121 255 0 255 
-0.270769 -0.0143345 5.8691 0.325636 255 0 255 
-0.288277 -0.0158443 5.86042 0.3568 255 0 255 
-0.276117 -0.0237282 5.83854 0.353594 255 0 255 
-0.300154 -0.00756301 5.88176 0.460098 255 0 255 
-0.3063 -0.0170616 5.85103 0.447291 255 0 255 
-0.318042 -0.0088043 5.8725 0.392888 255 0 255 
-0.335878 -0.00964729 5.86295 0.410905 255 0 255 
-0.294376 -0.0248755 5.82929 0.408982 255 0 255 
-0.324506 -0.0179418 5.84138 0.421988 255 0 255 
-0.312854 -0.0255957 5.82004 0.561373 255 0 255 
-0.329208 -0.000108925 5.89406 0.421916 255 0 255 
-0.347131 -0.000962939 5.88426 0.37203 255 0 255 
-0.357972 0.0082361 5.90567 0.400393 255 0 255 
-0.340563 0.00912153 5.91642 0.378255 255 0 255 
-0.311991 0.00124712 5.90439 0.400715 255 0 255 
-0.323508 0.0103631 5.92661 0.380217 255 0 255 
-0.295025 0.00305437 5.91433 0.355368 255 0 255 
-0.28298 -0.00582362 5.89164 0.374771 255 0 255 
-0.306753 0.0120898 5.93649 0.382266 255 0 255 
-0.331203 -0.027568 5.81122 0.40181 255 0 255 
-0.342164 -0.0201813 5.83144 0.390901 255 0 255 
-0.361494 -0.0219821 5.8217 0.352607 255 0 255 
-0.350487 -0.0292733 5.80185 0.347622 255 0 255 
-0.372144 -0.0140813 5.8416 0.478085 255 0 255 
-0.3818 -0.0237956 5.81131 0.368643 255 0 255 
-0.392457 -0.0159985 5.83094 0.436329 255 0 255 
-0.414446 -0.0180739 5.81949 0.384873 255 0 255 
-0.370993 -0.0310216 5.79176 0.320806 255 0 255 
-0.403604 -0.0257579 5.80009 0.377258 255 0 255 
-0.392596 -0.0328141 5.78101 0.402163 255 0 255 
-0.40367 -0.00748989 5.8505 0.529339 255 0 255 
-0.425613 -0.00953634 5.83881 0.423214 255 0 255 
-0.437048 -0.000193546 5.85865 0.547646 255 0 255 
-0.415239 0.00224496 5.87172 0.489798 255 0 255 
-0.383223 -0.00527763 5.86275 0.462835 255 0 255 
-0.394469 0.00424016 5.88408 0.429922 255 0 255 
-0.364388 -0.00323855 5.87399 0.392554 255 0 255 
-0.353395 -0.0119811 5.85279 0.435307 255 0 255 
-0.375461 0.00605683 5.89509 0.409202 255 0 255 
-0.455439 0.03136 5.93084 0.595282 255 0 255 
-0.43465 0.0330842 5.94555 0.502105 255 0 255 
-0.42119 0.0230167 5.92385 0.625219 255 0 255 
-0.415806 0.0346279 5.95912 0.422379 255 0 255 
-0.402308 0.0248658 5.93732 0.500098 255 0 255 
-0.384827 0.0266313 5.95005 0.426935 255 0 255 
-0.398325 0.0363694 5.97198 0.393012 255 0 255 
-0.388628 0.0149396 5.91502 0.490643 255 0 255 
-0.371143 0.0169512 5.92766 0.396587 255 0 255 
-0.407855 0.0133777 5.90393 0.50575 255 0 255 
-0.428637 0.0113815 5.89151 0.492768 255 0 255 
-0.442109 0.02114 5.91127 0.516702 255 0 255 
-0.46431 0.0190882 5.89827 0.417226 255 0 255 
-0.450742 0.00909078 5.8784 0.444748 255 0 255 
-0.477193 0.0290338 5.91744 0.451101 255 0 255 
-0.380821 0.0366452 5.98294 0.43707 255 0 255 
-0.364354 0.0373792 5.99492 0.405109 255 0 255 
-0.350368 0.0278994 5.97118 0.465781 255 0 255 
-0.348082 0.0387153 6.00641 0.364083 255 0 255 
-0.334029 0.0294639 5.98274 0.426985 255 0 255 
-0.320257 0.0202926 5.95872 0.437587 255 0 255 
-0.336792 0.0185797 5.94862 0.377272 255 0 255 
-0.353845 0.0176021 5.93852 0.405004 255 0 255 
-0.367231 0.0270384 5.96097 0.405933 255 0 255 
-0.498549 0.0249087 5.90576 0.349625 255 0 255 
-0.485936 0.0151487 5.88659 0.318128 255 0 255 
-0.507692 0.0105491 5.87521 0.27179 255 0 255 
-0.472286 0.00532919 5.86723 0.350665 255 0 255 
-0.494303 0.000949648 5.85592 0.293329 255 0 255 
-0.479759 -0.00807425 5.83678 0.340352 255 0 255 
-0.458126 -0.00410368 5.84737 0.42501 255 0 255 
-0.515494 -0.00424881 5.84512 0.261976 255 0 255 
-0.501728 -0.012828 5.82599 0.283376 255 0 255 
-0.523124 -0.0183429 5.81541 0.252064 255 0 255 
-0.535165 -0.0103322 5.83332 0.248203 255 0 255 
-0.527496 0.00427133 5.86266 0.259003 255 0 255 
-0.547701 -0.00178864 5.85088 0.243817 255 0 255 
-0.539536 0.0131233 5.88008 0.254469 255 0 255 
-0.519316 0.0193502 5.89269 0.288703 255 0 255 
-0.530789 0.0281898 5.91001 0.3302 255 0 255 
-0.559316 0.00636102 5.86794 0.239695 255 0 255 
-0.550666 0.0214666 5.89714 0.268292 255 0 255 
-0.570701 0.0146383 5.88522 0.236842 255 0 255 
-0.510551 0.0339363 5.92297 0.430824 255 0 255 
-0.447052 -0.0131247 5.8289 0.358827 255 0 255 
-0.436206 -0.021673 5.80946 0.346609 255 0 255 
-0.4577 -0.0254222 5.79958 0.329474 255 0 255 
-0.425068 -0.0294043 5.79015 0.367624 255 0 255 
-0.446673 -0.0330653 5.78042 0.404415 255 0 255 
-0.435545 -0.039927 5.76151 0.47888 255 0 255 
-0.414192 -0.0362033 5.77119 0.405559 255 0 255 
-0.468921 -0.0373168 5.77067 0.397367 255 0 255 
-0.458116 -0.0442256 5.75167 0.473511 255 0 255 
-0.480227 -0.0489103 5.74243 0.376627 255 0 255 
-0.490783 -0.0423273 5.76048 0.314758 255 0 255 
-0.479739 -0.0300025 5.78881 0.325024 255 0 255 
-0.501395 -0.0350501 5.77856 0.273526 255 0 255 
-0.490668 -0.0218118 5.80728 0.284081 255 0 255 
-0.468617 -0.0170424 5.81819 0.31058 255 0 255 
-0.512406 -0.0271042 5.79672 0.254438 255 0 255 
-0.563836 -0.0776023 5.71287 0.423006 255 0 255 
-0.573281 -0.0714259 5.72969 0.411416 255 0 255 
-0.554489 -0.0637685 5.73735 0.421598 255 0 255 
-0.563977 -0.0569566 5.75449 0.385211 255 0 255 
-0.582774 -0.0649478 5.74691 0.386076 255 0 255 
-0.543369 -0.0490476 5.76279 0.333487 255 0 255 
-0.573365 -0.0497744 5.77187 0.269277 255 0 255 
-0.553466 -0.0414673 5.78038 0.258868 255 0 255 
-0.563449 -0.033317 5.79809 0.248429 255 0 255 
-0.5915 -0.0576544 5.76411 0.288395 255 0 255 
-0.582504 -0.0417661 5.78942 0.268055 255 0 255 
-0.601147 -0.0500199 5.78155 0.332181 255 0 255 
-0.533403 -0.0341702 5.78838 0.25644 255 0 255 
-0.543631 -0.0255676 5.80671 0.242395 255 0 255 
-0.522699 -0.0419433 5.77028 0.287457 255 0 255 
-0.512358 -0.0491381 5.75234 0.300757 255 0 255 
-0.533414 -0.0562016 5.74468 0.363981 255 0 255 
-0.523174 -0.0626707 5.72677 0.393694 255 0 255 
-0.501714 -0.0555668 5.7344 0.333547 255 0 255 
-0.544471 -0.0700604 5.71953 0.476049 255 0 255 
-0.611799 -0.0434898 5.79791 0.247697 255 0 255 
-0.594135 -0.0345142 5.80707 0.225117 255 0 255 
-0.604562 -0.0274263 5.82332 0.199865 255 0 255 
-0.622065 -0.0368693 5.81405 0.241224 255 0 255 
-0.586639 -0.0184898 5.83276 0.208983 255 0 255 
-0.615149 -0.0206009 5.83925 0.201756 255 0 255 
-0.597426 -0.0109881 5.84885 0.209363 255 0 255 
-0.608002 -0.0041653 5.86442 0.208023 255 0 255 
-0.631769 -0.0301243 5.83008 0.201432 255 0 255 
-0.625214 -0.0138027 5.85501 0.193803 255 0 255 
-0.641962 -0.0237114 5.84592 0.183591 255 0 255 
-0.579315 -0.00201573 5.85877 0.225251 255 0 255 
-0.58992 0.00542841 5.87456 0.222314 255 0 255 
-0.567521 -0.00994271 5.84172 0.226036 255 0 255 
-0.555845 -0.0177801 5.82435 0.227411 255 0 255 
-0.575155 -0.0260528 5.81545 0.218329 255 0 255 
-0.897917 -0.0470174 6.75729 0.306298 255 0 255 
-0.910264 -0.0555443 6.72856 0.329984 255 0 255 
-0.885067 -0.0384473 6.78502 0.333827 255 0 255 
-0.90608 -0.0485316 6.7828 0.278256 255 0 255 
-0.919034 -0.0567375 6.75401 0.274817 255 0 255 
-0.931295 -0.064905 6.72515 0.275751 255 0 255 
-0.882202 -0.0348885 6.81302 0.268096 255 0 255 
-0.878144 -0.0303909 6.84304 0.22358 255 0 255 
-0.857631 -0.0213401 6.8422 0.263969 255 0 255 
-0.862166 -0.0254398 6.8108 0.333233 255 0 255 
-0.937069 -0.070675 6.75234 0.249909 255 0 255 
-0.949627 -0.0790614 6.72256 0.291227 255 0 255 
-0.9241 -0.0623055 6.7814 0.260771 255 0 255 
-0.943218 -0.0757571 6.77764 0.251438 255 0 255 
-0.955812 -0.0839799 6.74881 0.265559 255 0 255 
-0.968059 -0.0920115 6.71945 0.27097 255 0 255 
-0.920137 -0.0600608 6.81033 0.242949 255 0 255 
-0.915344 -0.0566124 6.8401 0.214957 255 0 255 
-0.896057 -0.0434413 6.84315 0.219722 255 0 255 
-0.901897 -0.0466989 6.81181 0.245728 255 0 255 
-0.863944 -0.0213497 6.91366 0.210075 255 0 255 
-0.871542 -0.0265359 6.87745 0.18571 255 0 255 
-0.890544 -0.0392013 6.8764 0.18098 255 0 255 
-0.883817 -0.033453 6.91148 0.210054 255 0 255 
-0.831737 -0.00750703 6.87295 0.228956 255 0 255 
-0.852267 -0.0159761 6.87608 0.227724 255 0 255 
-0.958498 -0.142986 6.95349 0.125829 255 0 255 
-0.970697 -0.149319 6.91663 0.144739 255 0 255 
-0.95024 -0.126688 6.95298 0.149621 255 0 255 
-0.981812 -0.154166 6.88273 0.17419 255 0 255 
-0.962916 -0.133375 6.91572 0.15582 255 0 255 
-0.975067 -0.138098 6.88059 0.183561 255 0 255 
-0.941942 -0.108856 6.95489 0.163426 255 0 255 
-0.992913 -0.157992 6.8498 0.195506 255 0 255 
-1.00335 -0.16016 6.81896 0.228085 255 0 255 
-1.01142 -0.178233 6.82084 0.210353 255 0 255 
-1.00146 -0.175679 6.85163 0.197606 255 0 255 
-0.991316 -0.172087 6.88288 0.175314 255 0 255 
-1.02014 -0.196465 6.82299 0.205676 255 0 255 
-0.952219 -0.11485 6.91849 0.157426 255 0 255 
-0.928942 -0.0898849 6.96015 0.179448 255 0 255 
-0.961892 -0.119108 6.884 0.169764 255 0 255 
-0.940578 -0.0962032 6.92185 0.158745 255 0 255 
-0.950927 -0.100607 6.88649 0.152618 255 0 255 
-0.970846 -0.121891 6.85178 0.18893 255 0 255 
-0.979341 -0.123465 6.82124 0.223526 255 0 255 
-0.991126 -0.142443 6.81962 0.229954 255 0 255 
-0.983284 -0.140802 6.84943 0.203037 255 0 255 
-1.03158 -0.161387 6.70177 0.242395 255 0 255 
-1.0238 -0.161241 6.73322 0.320409 255 0 255 
-1.04515 -0.182956 6.69903 0.268742 255 0 255 
-1.01683 -0.161475 6.76183 0.290837 255 0 255 
-1.03694 -0.181037 6.7329 0.314581 255 0 255 
-1.0304 -0.180812 6.76153 0.281422 255 0 255 
-1.05915 -0.204522 6.69659 0.278484 255 0 255 
-1.01016 -0.161076 6.79049 0.259811 255 0 255 
-0.998402 -0.142461 6.79083 0.255563 255 0 255 
-1.00561 -0.14275 6.76181 0.281059 255 0 255 
-1.04793 -0.201298 6.73273 0.303304 255 0 255 
-1.06861 -0.225529 6.69646 0.283848 255 0 255 
-1.03831 -0.199293 6.76396 0.262044 255 0 255 
-1.05775 -0.222593 6.73214 0.286107 255 0 255 
-1.04833 -0.219422 6.76476 0.240458 255 0 255 
-1.07893 -0.246219 6.69732 0.29274 255 0 255 
-1.02915 -0.1975 6.79406 0.221761 255 0 255 
-1.02083 -0.179493 6.79134 0.243511 255 0 255 
-0.970852 -0.0913352 6.69307 0.296018 255 0 255 
-0.973431 -0.0909435 6.66479 0.386647 255 0 255 
-0.952412 -0.0776574 6.69691 0.37487 255 0 255 
-0.954941 -0.0768357 6.66861 0.495957 255 0 255 
-0.97653 -0.0914305 6.63233 0.439476 255 0 255 
-0.979236 -0.0954551 6.59628 0.489212 255 0 255 
-1.00135 -0.110055 6.58992 0.417481 255 0 255 
-0.997857 -0.107081 6.62294 0.453448 255 0 255 
-0.993889 -0.10527 6.65708 0.412958 255 0 255 
-1.02359 -0.12253 6.5858 0.350014 255 0 255 
-0.932459 -0.0658001 6.70068 0.335916 255 0 255 
-0.933069 -0.0668596 6.67526 0.417224 255 0 255 
-0.911552 -0.0559197 6.70432 0.427519 255 0 255 
-0.933872 -0.0683177 6.64818 0.517211 255 0 255 
-0.944588 -0.0784283 6.61294 0.439712 255 0 255 
-0.955692 -0.0789909 6.64026 0.517278 255 0 255 
-0.98006 -0.10903 6.53302 0.441999 255 0 255 
-0.972535 -0.101072 6.55358 0.5259 255 0 255 
-0.997683 -0.109142 6.54825 0.54434 255 0 255 
-0.989287 -0.103066 6.5696 0.43194 255 0 255 
-0.9646 -0.0933781 6.57762 0.495678 255 0 255 
-1.01604 -0.118449 6.53059 0.446264 255 0 255 
-1.01929 -0.119037 6.54807 0.356601 255 0 255 
-1.03958 -0.126947 6.5304 0.393282 255 0 255 
-1.04301 -0.128548 6.54735 0.316128 255 0 255 
-1.02208 -0.12046 6.56645 0.449886 255 0 255 
-1.03934 -0.161712 6.66906 0.253248 255 0 255 
-1.0156 -0.142201 6.70722 0.296437 255 0 255 
-1.04766 -0.160018 6.63793 0.274971 255 0 255 
-1.02296 -0.141227 6.6756 0.305396 255 0 255 
-1.0313 -0.140293 6.64215 0.310499 255 0 255 
-1.00081 -0.124026 6.71052 0.297844 255 0 255 
-1.05542 -0.156342 6.60959 0.274543 255 0 255 
-1.06152 -0.150466 6.58545 0.27791 255 0 255 
-1.07749 -0.166248 6.58793 0.271345 255 0 255 
-1.07169 -0.172818 6.61024 0.274729 255 0 255 
-1.06464 -0.178165 6.63531 0.275088 255 0 255 
-1.09357 -0.181304 6.59063 0.290103 255 0 255 
-1.00584 -0.122657 6.68252 0.304639 255 0 255 
-0.984301 -0.108279 6.71505 0.296251 255 0 255 
-1.01176 -0.122913 6.6505 0.333487 255 0 255 
-0.989072 -0.106587 6.68724 0.325209 255 0 255 
-1.0182 -0.123058 6.61618 0.358615 255 0 255 
-1.04295 -0.137152 6.58509 0.307221 255 0 255 
-1.03806 -0.139853 6.61104 0.298682 255 0 255 
-1.06151 -0.136352 6.53176 0.313536 255 0 255 
-1.08096 -0.144587 6.51431 0.379836 255 0 255 
-1.06208 -0.140733 6.54945 0.277322 255 0 255 
-1.08183 -0.148023 6.53288 0.326701 255 0 255 
-1.08245 -0.152691 6.55039 0.28453 255 0 255 
-1.10177 -0.155062 6.51469 0.520812 255 0 255 
-1.06219 -0.145848 6.56721 0.309494 255 0 255 
-1.04331 -0.132679 6.56601 0.353821 255 0 255 
-1.10051 -0.160791 6.53445 0.426596 255 0 255 
-1.12008 -0.168776 6.5161 0.481762 255 0 255 
-1.0985 -0.166984 6.55384 0.334052 255 0 255 
-1.11818 -0.17474 6.53677 0.399084 255 0 255 
-1.11621 -0.1812 6.5562 0.322838 255 0 255 
-1.13861 -0.182723 6.51695 0.43366 255 0 255 
-1.09635 -0.173911 6.57247 0.291019 255 0 255 
-1.08062 -0.158683 6.56918 0.26453 255 0 255 
-0.971855 -0.100174 6.74503 0.266724 255 0 255 
-0.959166 -0.0917827 6.77418 0.250305 255 0 255 
-0.976306 -0.107476 6.76908 0.258909 255 0 255 
-0.988681 -0.11574 6.74028 0.303971 255 0 255 
-0.954321 -0.0905403 6.80208 0.233267 255 0 255 
-0.949302 -0.0882477 6.83041 0.215749 255 0 255 
-0.932203 -0.0730071 6.83523 0.200647 255 0 255 
-0.937939 -0.0746532 6.8065 0.229484 255 0 255 
-1.0027 -0.13371 6.73693 0.303239 255 0 255 
-0.990156 -0.125428 6.7655 0.269415 255 0 255 
-0.984803 -0.124672 6.79338 0.247251 255 0 255 
-0.96405 -0.106235 6.82575 0.214837 255 0 255 
-0.970152 -0.107051 6.79741 0.239072 255 0 255 
-0.925799 -0.0771821 6.92864 0.188545 255 0 255 
-0.934479 -0.0825856 6.89388 0.161611 255 0 255 
-0.910214 -0.0598514 6.93549 0.187385 255 0 255 
-0.919915 -0.0645112 6.89967 0.163148 255 0 255 
-0.942152 -0.086026 6.86102 0.190123 255 0 255 
-0.957737 -0.104021 6.85545 0.183279 255 0 255 
-0.901207 -0.0489517 6.9065 0.203098 255 0 255 
-0.908839 -0.0536357 6.87169 0.196064 255 0 255 
-0.926858 -0.0696891 6.86615 0.176053 255 0 255 
-1.19788 -0.194657 6.31293 0.34576 255 0 255 
-1.21213 -0.208747 6.2975 0.274468 255 0 255 
-1.19847 -0.195523 6.2901 0.278423 255 0 255 
-1.22688 -0.222797 6.28222 0.283054 255 0 255 
-1.21304 -0.20929 6.2753 0.276163 255 0 255 
-1.2279 -0.223028 6.26012 0.297329 255 0 255 
-1.19843 -0.196029 6.2678 0.290882 255 0 255 
-1.24199 -0.23676 6.2674 0.305959 255 0 255 
-1.25634 -0.250583 6.25349 0.321134 255 0 255 
-1.25364 -0.248318 6.27565 0.333004 255 0 255 
-1.23914 -0.234331 6.29057 0.310883 255 0 255 
-1.22461 -0.219671 6.30628 0.373346 255 0 255 
-1.25104 -0.245651 6.29907 0.314993 255 0 255 
-1.21262 -0.211211 6.2521 0.301854 255 0 255 
-1.19542 -0.197368 6.24471 0.320785 255 0 255 
-1.22706 -0.22578 6.23624 0.329026 255 0 255 
-1.20962 -0.211956 6.22892 0.334783 255 0 255 
-1.22455 -0.226274 6.2129 0.362762 255 0 255 
-1.19223 -0.198044 6.22127 0.36712 255 0 255 
-1.24159 -0.2409 6.22082 0.344168 255 0 255 
-1.25603 -0.255563 6.20576 0.355604 255 0 255 
-1.25667 -0.253315 6.2295 0.331928 255 0 255 
-1.24242 -0.238208 6.24452 0.311624 255 0 255 
-1.30077 -0.326355 6.20644 0.368128 255 0 255 
-1.29086 -0.307415 6.21721 0.352107 255 0 255 
-1.29908 -0.322162 6.22959 0.360595 255 0 255 
-1.28005 -0.288838 6.22845 0.345212 255 0 255 
-1.28861 -0.303197 6.24086 0.335362 255 0 255 
-1.27759 -0.284022 6.25307 0.326777 255 0 255 
-1.29711 -0.317604 6.25293 0.341365 255 0 255 
-1.26845 -0.269923 6.24088 0.330393 255 0 255 
-1.26842 -0.272251 6.2172 0.343179 255 0 255 
-1.27995 -0.290558 6.20536 0.354907 255 0 255 
-1.28615 -0.299829 6.26365 0.312482 255 0 255 
-1.29226 -0.313329 6.27616 0.318792 255 0 255 
-1.27508 -0.281766 6.27452 0.31193 255 0 255 
-1.28161 -0.294965 6.28708 0.299643 255 0 255 
-1.26981 -0.276802 6.29962 0.333358 255 0 255 
-1.28765 -0.308414 6.30053 0.285583 255 0 255 
-1.2627 -0.263907 6.28713 0.320674 255 0 255 
-1.26589 -0.266204 6.26425 0.328659 255 0 255 
-1.17726 -0.187993 6.2379 0.350953 255 0 255 
-1.16229 -0.177547 6.25467 0.346188 255 0 255 
-1.18073 -0.186492 6.26138 0.312056 255 0 255 
-1.16541 -0.176029 6.27814 0.305484 255 0 255 
-1.14734 -0.16696 6.27156 0.329877 255 0 255 
-1.13296 -0.156901 6.28809 0.340468 255 0 255 
-1.1286 -0.156875 6.26518 0.318445 255 0 255 
-1.14292 -0.166895 6.24906 0.336699 255 0 255 
-1.15757 -0.177394 6.23277 0.365571 255 0 255 
-1.12408 -0.156351 6.24288 0.36479 255 0 255 
-1.18268 -0.18617 6.28405 0.306125 255 0 255 
-1.16641 -0.176219 6.3006 0.345685 255 0 255 
-1.18242 -0.185744 6.30633 0.373 255 0 255 
-1.16662 -0.175284 6.32308 0.461852 255 0 255 
-1.15103 -0.166851 6.31655 0.318035 255 0 255 
-1.13623 -0.157285 6.3325 0.452227 255 0 255 
-1.13452 -0.157491 6.31018 0.256635 255 0 255 
-1.14964 -0.166627 6.29493 0.315406 255 0 255 
-1.08483 -0.139177 6.32492 0.499541 255 0 255 
-1.10022 -0.144863 6.3093 0.4268 255 0 255 
-1.11891 -0.151044 6.32646 0.363459 255 0 255 
-1.10355 -0.144723 6.34272 0.495749 255 0 255 
-1.0796 -0.137754 6.29276 0.427158 255 0 255 
-1.09442 -0.143803 6.27621 0.368664 255 0 255 
-1.07423 -0.135996 6.27164 0.415861 255 0 255 
-1.08917 -0.141998 6.25517 0.377825 255 0 255 
-1.10936 -0.149679 6.25963 0.351545 255 0 255 
-1.11387 -0.150518 6.28242 0.318507 255 0 255 
-1.10242 -0.146115 6.43539 0.641614 255 0 255 
-1.12708 -0.157639 6.43984 0.40233 255 0 255 
-1.11793 -0.151692 6.42168 0.500556 255 0 255 
-1.11166 -0.151898 6.4533 0.604372 255 0 255 
-1.14399 -0.165307 6.41535 0.466519 255 0 255 
-1.14894 -0.172142 6.43695 0.374983 255 0 255 
-1.16533 -0.181023 6.42058 0.430225 255 0 255 
-1.18236 -0.190086 6.40381 0.560782 255 0 255 
-1.16987 -0.187803 6.4428 0.378472 255 0 255 
-1.15482 -0.179502 6.45661 0.46283 255 0 255 
-1.13332 -0.164442 6.45985 0.490668 255 0 255 
-1.13065 -0.170115 6.48961 0.495134 255 0 255 
-1.11212 -0.156139 6.48939 0.5703 255 0 255 
-1.15185 -0.184557 6.4874 0.426921 255 0 255 
-1.08885 -0.144664 6.49153 0.65204 255 0 255 
-1.18049 -0.18467 6.33943 0.466911 255 0 255 
-1.16493 -0.174931 6.35531 0.411971 255 0 255 
-1.19433 -0.193563 6.34506 0.463822 255 0 255 
-1.15001 -0.165478 6.3712 0.505 255 0 255 
-1.136 -0.157273 6.36457 0.562441 255 0 255 
-1.17672 -0.183578 6.37267 0.477479 255 0 255 
-1.16084 -0.1742 6.38869 0.593834 255 0 255 
-1.1337 -0.157409 6.39672 0.58696 255 0 255 
-1.09089 -0.141614 6.41714 0.492523 255 0 255 
-1.10565 -0.146037 6.40497 0.528369 255 0 255 
-1.0907 -0.139622 6.38851 0.506427 255 0 255 
-1.12082 -0.15091 6.38072 0.394042 255 0 255 
-1.08828 -0.139343 6.3573 0.431574 255 0 255 
-1.10512 -0.145406 6.37401 0.467788 255 0 255 
-1.01088 -0.110246 6.18584 0.367909 255 0 255 
-0.998077 -0.105406 6.20372 0.325073 255 0 255 
-1.02308 -0.116018 6.20521 0.345131 255 0 255 
-0.985345 -0.100823 6.22154 0.295174 255 0 255 
-1.01063 -0.111348 6.22303 0.333595 255 0 255 
-0.997986 -0.107126 6.24047 0.280364 255 0 255 
-1.03552 -0.120287 6.22507 0.350124 255 0 255 
-0.973153 -0.0966733 6.23853 0.298423 255 0 255 
-0.960819 -0.0938223 6.25568 0.321823 255 0 255 
-0.947592 -0.0843784 6.24081 0.283732 255 0 255 
-0.95975 -0.0883759 6.22344 0.296971 255 0 255 
-0.972294 -0.0928507 6.20533 0.280015 255 0 255 
-0.934945 -0.0741576 6.22624 0.267156 255 0 255 
-1.02244 -0.117175 6.24125 0.406735 255 0 255 
-1.04458 -0.124906 6.24537 0.435068 255 0 255 
-1.00936 -0.114061 6.25744 0.369001 255 0 255 
-1.03153 -0.121727 6.26193 0.479163 255 0 255 
-0.977416 -0.105166 6.27949 0.399538 255 0 255 
-0.990572 -0.108143 6.26469 0.339038 255 0 255 
-0.917371 -0.0952307 6.29624 0.377073 255 0 255 
-0.935446 -0.097682 6.2869 0.400007 255 0 255 
-0.923636 -0.0881743 6.27478 0.378168 255 0 255 
-0.948048 -0.0959966 6.27139 0.34184 255 0 255 
-0.899652 -0.0782636 6.27923 0.384082 255 0 255 
-0.910881 -0.0772039 6.26205 0.365715 255 0 255 
-0.886347 -0.0652365 6.26898 0.35563 255 0 255 
-0.897699 -0.0646195 6.25153 0.29636 255 0 255 
-0.922596 -0.0755412 6.24396 0.256023 255 0 255 
-0.93556 -0.0860916 6.25777 0.30594 255 0 255 
-1.06709 -0.134072 6.24967 0.382864 255 0 255 
-1.08066 -0.141124 6.23287 0.384733 255 0 255 
-1.05804 -0.131033 6.22894 0.394184 255 0 255 
-1.07119 -0.138137 6.21244 0.395994 255 0 255 
-1.09431 -0.148367 6.2153 0.366966 255 0 255 
-1.10732 -0.156131 6.19784 0.405214 255 0 255 
-1.11567 -0.156692 6.22022 0.404088 255 0 255 
-1.10258 -0.149288 6.23764 0.38283 255 0 255 
-1.04788 -0.128745 6.20647 0.362594 255 0 255 
-1.06055 -0.137559 6.18776 0.398451 255 0 255 
-1.03578 -0.124413 6.18687 0.388636 255 0 255 
-1.04827 -0.133007 6.16792 0.432069 255 0 255 
-1.07311 -0.146549 6.16897 0.403438 255 0 255 
-1.08561 -0.154931 6.15105 0.423309 255 0 255 
-1.09621 -0.156234 6.17352 0.419661 255 0 255 
-1.08374 -0.147352 6.19318 0.39103 255 0 255 
-1.15794 -0.206524 6.12382 0.451284 255 0 255 
-1.14563 -0.194001 6.14194 0.452928 255 0 255 
-1.16891 -0.203673 6.14752 0.458199 255 0 255 
-1.13222 -0.182152 6.16027 0.447157 255 0 255 
-1.15477 -0.191755 6.16662 0.451151 255 0 255 
-1.14144 -0.178588 6.18679 0.436379 255 0 255 
-1.17827 -0.201042 6.17296 0.444172 255 0 255 
-1.11933 -0.169323 6.1791 0.430011 255 0 255 
-1.10888 -0.169123 6.1562 0.4373 255 0 255 
-1.12137 -0.181807 6.1382 0.44098 255 0 255 
-1.16425 -0.190061 6.19076 0.427434 255 0 255 
-1.18561 -0.199603 6.19641 0.406992 255 0 255 
-1.15009 -0.179086 6.20864 0.405874 255 0 255 
-1.17122 -0.188691 6.21478 0.387122 255 0 255 
-1.13688 -0.168034 6.22595 0.385288 255 0 255 
-1.12838 -0.167631 6.20342 0.415644 255 0 255 
-0.749009 -0.0840521 6.36307 0.424179 255 0 255 
-0.756575 -0.0688836 6.34974 0.519319 255 0 255 
-0.730804 -0.0741503 6.35693 0.465402 255 0 255 
-0.76389 -0.0530076 6.33658 0.604259 255 0 255 
-0.772203 -0.0354096 6.32359 0.529537 255 0 255 
-0.729863 -0.0555767 6.34197 0.543921 255 0 255 
-0.709927 -0.0672787 6.35197 0.450137 255 0 255 
-0.736654 -0.0390722 6.32879 0.500564 255 0 255 
-0.744093 -0.0215928 6.31578 0.39437 255 0 255 
-0.810277 -0.00842567 6.25322 0.319936 255 0 255 
-0.800427 -0.014668 6.2716 0.405752 255 0 255 
-0.82398 -0.0180091 6.2587 0.380734 255 0 255 
-0.790924 -0.0206531 6.28979 0.42386 255 0 255 
-0.814496 -0.0243247 6.27738 0.442084 255 0 255 
-0.805064 -0.0312241 6.29567 0.568746 255 0 255 
-0.837543 -0.0287341 6.26409 0.378416 255 0 255 
-0.781126 -0.0285939 6.30699 0.491519 255 0 255 
-0.760049 -0.0173797 6.30192 0.45147 255 0 255 
-0.833516 -0.0407214 6.28576 0.437144 255 0 255 
-0.823189 -0.0480634 6.30314 0.398826 255 0 255 
-0.620294 0.0225299 6.25031 0.372988 255 0 255 
-0.631851 0.0327004 6.23436 0.370955 255 0 255 
-0.609287 0.0129054 6.26623 0.378692 255 0 255 
-0.639204 0.00532824 6.26925 0.382461 255 0 255 
-0.650936 0.0159229 6.25324 0.38372 255 0 255 
-0.663154 0.0265031 6.23705 0.37194 255 0 255 
-0.61327 0.000134379 6.28304 0.381943 255 0 255 
-0.61742 -0.013738 6.29922 0.328297 255 0 255 
-0.592754 -0.00841265 6.29951 0.377796 255 0 255 
-0.587673 0.00369915 6.28258 0.410099 255 0 255 
-0.677258 0.0116223 6.25553 0.363169 255 0 255 
-0.691458 0.0191505 6.23958 0.360336 255 0 255 
-0.663507 0.00383449 6.2707 0.378052 255 0 255 
-0.691726 -0.00289193 6.27411 0.333525 255 0 255 
-0.705689 0.0046302 6.25905 0.341643 255 0 255 
-0.720901 0.0116602 6.24164 0.327165 255 0 255 
-0.664126 -0.00821497 6.28703 0.380422 255 0 255 
-0.6649 -0.0191436 6.30209 0.298694 255 0 255 
-0.640633 -0.0172109 6.30084 0.311405 255 0 255 
-0.640222 -0.0055327 6.28509 0.365353 255 0 255 
-0.622099 -0.0600678 6.34101 0.247939 255 0 255 
-0.606236 -0.0710068 6.35734 0.299661 255 0 255 
-0.620618 -0.045234 6.3276 0.287762 255 0 255 
-0.604156 -0.0575618 6.34284 0.279904 255 0 255 
-0.602456 -0.0430276 6.32909 0.311729 255 0 255 
-0.588584 -0.0664915 6.35996 0.263308 255 0 255 
-0.619243 -0.029954 6.31329 0.291926 255 0 255 
-0.642011 -0.0337569 6.3146 0.287284 255 0 255 
-0.64328 -0.0494146 6.32809 0.307088 255 0 255 
-0.583426 -0.0517233 6.3452 0.293624 255 0 255 
-0.568881 -0.0625302 6.36382 0.323095 255 0 255 
-0.578529 -0.0357864 6.3309 0.322773 255 0 255 
-0.563701 -0.0475453 6.34941 0.364276 255 0 255 
-0.573386 -0.0187359 6.31559 0.396806 255 0 255 
-0.597548 -0.0259747 6.31446 0.326503 255 0 255 
-0.604792 0.0734583 6.08674 0.461658 255 0 255 
-0.638263 0.0698779 6.07362 0.502177 255 0 255 
-0.600906 0.0737976 6.1112 0.38985 255 0 255 
-0.634249 0.0711602 6.09896 0.495112 255 0 255 
-0.629865 0.071407 6.12365 0.390563 255 0 255 
-0.667224 0.0666099 6.08544 0.468074 255 0 255 
-0.596908 0.0725976 6.13527 0.333112 255 0 255 
-0.593855 0.0707535 6.1592 0.252081 255 0 255 
-0.577932 0.0707778 6.15349 0.260153 255 0 255 
-0.58121 0.072851 6.12972 0.325602 255 0 255 
-0.56219 0.0712725 6.14742 0.328025 255 0 255 
-0.565359 0.0728598 6.12412 0.337828 255 0 255 
-0.584562 0.0737095 6.10556 0.37084 255 0 255 
-0.546691 0.070829 6.14193 0.320408 255 0 255 
-0.665375 0.0668611 6.1055 0.411314 255 0 255 
-0.697669 0.0565703 6.08957 0.411025 255 0 255 
-0.663275 0.0660647 6.1256 0.300765 255 0 255 
-0.695879 0.0571647 6.10961 0.345023 255 0 255 
-0.6936 0.0571018 6.12952 0.230485 255 0 255 
-0.727399 0.0451446 6.09372 0.27419 255 0 255 
-0.661206 0.0645454 6.1453 0.27231 255 0 255 
-0.659272 0.0620262 6.16501 0.219038 255 0 255 
-0.626849 0.0669803 6.16193 0.237752 255 0 255 
-0.628477 0.0698109 6.14313 0.326247 255 0 255 
-0.598993 0.0478623 6.21444 0.35976 255 0 255 
-0.597078 0.0558477 6.19589 0.324971 255 0 255 
-0.567014 0.0495424 6.21337 0.392107 255 0 255 
-0.564545 0.0575537 6.1953 0.340925 255 0 255 
-0.595116 0.0637858 6.17782 0.304534 255 0 255 
-0.627857 0.0596716 6.181 0.278412 255 0 255 
-0.628917 0.0517425 6.19973 0.303 255 0 255 
-0.537242 0.0524361 6.20708 0.412948 255 0 255 
-0.517242 0.0528929 6.20423 0.418733 255 0 255 
-0.534887 0.0587742 6.18391 0.384969 255 0 255 
-0.498265 0.0539292 6.20166 0.400141 255 0 255 
-0.514784 0.058317 6.18099 0.389644 255 0 255 
-0.532936 0.0647315 6.1604 0.356503 255 0 255 
-0.548073 0.0650031 6.16601 0.307655 255 0 255 
-0.563353 0.0648468 6.17177 0.319611 255 0 255 
-0.549745 0.0584088 6.18952 0.315904 255 0 255 
-0.872854 -0.0524698 6.25978 0.291318 255 0 255 
-0.883609 -0.0526271 6.24058 0.277998 255 0 255 
-0.853801 -0.0351883 6.24858 0.364392 255 0 255 
-0.894904 -0.0528725 6.2211 0.219288 255 0 255 
-0.905725 -0.0535352 6.20203 0.283886 255 0 255 
-0.920591 -0.0640497 6.21363 0.247934 255 0 255 
-0.909006 -0.0642848 6.23292 0.243707 255 0 255 
-0.839569 -0.0238832 6.24128 0.337746 255 0 255 
-0.85575 -0.0295253 6.22338 0.326097 255 0 255 
-0.842062 -0.0199242 6.21738 0.305473 255 0 255 
-0.826185 -0.013677 6.23513 0.317342 255 0 255 
-0.864989 -0.0314903 6.20269 0.328534 255 0 255 
-0.874627 -0.0335788 6.18301 0.313659 255 0 255 
-0.890441 -0.043033 6.19212 0.349248 255 0 255 
-0.88036 -0.0417583 6.21304 0.359934 255 0 255 
-0.946524 -0.0820217 6.11883 0.306726 255 0 255 
-0.936187 -0.0744925 6.13874 0.345123 255 0 255 
-0.964262 -0.0901258 6.13327 0.362065 255 0 255 
-0.92562 -0.0675701 6.15952 0.303334 255 0 255 
-0.952831 -0.0832034 6.1542 0.330448 255 0 255 
-0.942373 -0.0761547 6.17476 0.300884 255 0 255 
-0.981119 -0.0982379 6.1491 0.368294 255 0 255 
-0.915162 -0.0601146 6.1805 0.295939 255 0 255 
-0.899571 -0.0508456 6.17028 0.335325 255 0 255 
-0.908705 -0.0587374 6.14994 0.350989 255 0 255 
-0.969386 -0.0914226 6.16741 0.333016 255 0 255 
-0.995994 -0.104266 6.1667 0.38821 255 0 255 
-0.957581 -0.085356 6.18706 0.297484 255 0 255 
-0.984091 -0.0980575 6.18609 0.339773 255 0 255 
-0.946058 -0.0796719 6.2065 0.275287 255 0 255 
-0.931522 -0.0700501 6.19388 0.277282 255 0 255 
-0.743111 0.0354526 6.09405 0.289867 255 0 255 
-0.72694 0.0442405 6.1121 0.231111 255 0 255 
-0.742665 0.0350373 6.11221 0.267375 255 0 255 
-0.758585 0.0255458 6.09433 0.350226 255 0 255 
-0.72629 0.0428425 6.13035 0.21597 255 0 255 
-0.758482 0.0255719 6.11267 0.301135 255 0 255 
-0.74234 0.0338447 6.13073 0.261881 255 0 255 
-0.758028 0.0245429 6.13118 0.350873 255 0 255 
-0.77364 0.0153876 6.09444 0.35437 255 0 255 
-0.773741 0.0157718 6.11306 0.329817 255 0 255 
-0.788641 0.00609088 6.09537 0.438452 255 0 255 
-0.725854 0.0407662 6.14881 0.241113 255 0 255 
-0.742306 0.0323674 6.14916 0.320463 255 0 255 
-0.725818 0.0379936 6.16711 0.283065 255 0 255 
-0.70908 0.0447936 6.16687 0.324297 255 0 255 
-0.709575 0.0476315 6.14864 0.278344 255 0 255 
-0.692642 0.0508991 6.16614 0.239234 255 0 255 
-0.693119 0.0543467 6.14777 0.2324 255 0 255 
-0.710371 0.0504997 6.13031 0.277711 255 0 255 
-0.675841 0.0564865 6.16582 0.274745 255 0 255 
-0.802981 -0.00389233 6.09595 0.391672 255 0 255 
-0.802645 -0.00263819 6.11398 0.477196 255 0 255 
-0.818008 -0.0132479 6.09658 0.423988 255 0 255 
-0.787686 0.0080529 6.13175 0.478586 255 0 255 
-0.817434 -0.0122234 6.11461 0.515732 255 0 255 
-0.801985 -0.00179016 6.13238 0.431917 255 0 255 
-0.832963 -0.023322 6.09668 0.395482 255 0 255 
-0.848493 -0.0324865 6.09758 0.405765 255 0 255 
-0.786802 0.00787179 6.16898 0.574806 255 0 255 
-0.772632 0.016326 6.14971 0.430942 255 0 255 
-0.756952 0.0239363 6.16772 0.397977 255 0 255 
-0.722089 0.0191456 6.22304 0.413794 255 0 255 
-0.723089 0.0258351 6.20474 0.384894 255 0 255 
-0.692193 0.0275321 6.22182 0.404969 255 0 255 
-0.693288 0.0344497 6.20343 0.313595 255 0 255 
-0.72432 0.032501 6.186 0.378328 255 0 255 
-0.755746 0.0187419 6.18677 0.529557 255 0 255 
-0.75418 0.0127591 6.20636 0.461843 255 0 255 
-0.661429 0.0355779 6.21867 0.342017 255 0 255 
-0.660347 0.0446906 6.20068 0.299134 255 0 255 
-0.630108 0.0417372 6.21674 0.333641 255 0 255 
-0.659571 0.0534371 6.18309 0.259743 255 0 255 
-0.676047 0.0483727 6.18392 0.312286 255 0 255 
-0.692561 0.0432164 6.1849 0.293488 255 0 255 
-0.676708 0.0396066 6.20211 0.356439 255 0 255 
-0.754505 -0.119527 5.77953 0.427964 255 0 255 
-0.741557 -0.108653 5.78718 0.442091 255 0 255 
-0.719408 -0.101284 5.77998 0.409561 255 0 255 
-0.706774 -0.0895394 5.78804 0.436864 255 0 255 
-0.684809 -0.0818448 5.7818 0.478139 255 0 255 
-0.702936 -0.0725977 5.81115 0.532332 255 0 255 
-0.68895 -0.0983805 5.75891 0.341316 255 0 255 
-0.666677 -0.0914561 5.75241 0.388103 255 0 255 
-0.702685 -0.109004 5.75251 0.310503 255 0 255 
-0.716224 -0.118918 5.74645 0.295914 255 0 255 
-0.738125 -0.125449 5.7533 0.402601 255 0 255 
-0.722149 -0.132121 5.72722 0.362028 255 0 255 
-0.688128 -0.0607547 5.81965 0.395827 255 0 255 
-0.678775 -0.0663627 5.80344 0.524442 255 0 255 
-0.663639 -0.0546868 5.81186 0.369679 255 0 255 
-0.673522 -0.0488932 5.82804 0.295703 255 0 255 
-0.653893 -0.0606473 5.79575 0.483261 255 0 255 
-0.648183 -0.0426965 5.82064 0.255192 255 0 255 
-0.638502 -0.0490403 5.80457 0.323441 255 0 255 
-0.657917 -0.0365242 5.83658 0.210886 255 0 255 
-0.628436 -0.0549626 5.78886 0.443199 255 0 255 
-0.635209 -0.0709681 5.76665 0.458343 255 0 255 
-0.660424 -0.0764183 5.77387 0.467857 255 0 255 
-0.58272 -0.0869767 5.70741 0.501654 255 0 255 
-0.608994 -0.0907362 5.71725 0.43366 255 0 255 
-0.626224 -0.100116 5.71165 0.452591 255 0 255 
-0.650425 -0.103207 5.72175 0.434409 255 0 255 
-0.634172 -0.114689 5.69131 0.505557 255 0 255 
-0.642285 -0.0880252 5.74251 0.4503 255 0 255 
-0.62627 -0.0779202 5.74964 0.44921 255 0 255 
-0.609411 -0.0678416 5.75676 0.439351 255 0 255 
-0.600406 -0.0748601 5.73964 0.423221 255 0 255 
-0.649504 -0.124389 5.687 0.478401 255 0 255 
-0.671614 -0.12889 5.6956 0.370251 255 0 255 
-0.6859 -0.137463 5.69144 0.330653 255 0 255 
-0.707923 -0.141555 5.70025 0.304324 255 0 255 
-0.693445 -0.15096 5.67413 0.329761 255 0 255 
-0.700379 -0.128119 5.71802 0.32206 255 0 255 
-0.686521 -0.118133 5.72427 0.312799 255 0 255 
-0.672378 -0.107723 5.73079 0.310937 255 0 255 
-0.653435 -0.0197301 5.85994 0.202606 255 0 255 
-0.638555 -0.00866563 5.87066 0.190994 255 0 255 
-0.649665 -0.004573 5.88475 0.20985 255 0 255 
-0.664817 -0.0159869 5.87383 0.250176 255 0 255 
-0.634749 0.0067294 5.89616 0.198531 255 0 255 
-0.661379 -0.000775099 5.89902 0.256041 255 0 255 
-0.64611 0.0110283 5.91062 0.216546 255 0 255 
-0.65718 0.0149932 5.92515 0.261427 255 0 255 
-0.67533 -0.0121436 5.88828 0.300483 255 0 255 
-0.672285 0.00292278 5.9135 0.305977 255 0 255 
-0.6867 -0.00877164 5.90271 0.406687 255 0 255 
-0.630023 0.0223407 5.92243 0.205667 255 0 255 
-0.64124 0.0266615 5.9369 0.222238 255 0 255 
-0.624393 0.03752 5.94922 0.211125 255 0 255 
-0.611272 0.0326378 5.93323 0.219293 255 0 255 
-0.616913 0.016952 5.90623 0.211281 255 0 255 
-0.597953 0.0268817 5.91679 0.226824 255 0 255 
-0.603271 0.0113431 5.89021 0.216848 255 0 255 
-0.62128 0.00150816 5.88018 0.202159 255 0 255 
-0.584419 0.0207552 5.90054 0.23239 255 0 255 
-0.68508 0.00425344 5.92622 0.369479 255 0 255 
-0.710302 -0.0087824 5.92517 0.441099 255 0 255 
-0.683677 0.0171971 5.94995 0.381392 255 0 255 
-0.708474 0.0037973 5.94818 0.407984 255 0 255 
-0.706143 0.0160499 5.97071 0.455229 255 0 255 
-0.732759 -0.0100167 5.9466 0.411848 255 0 255 
-0.680779 0.0297547 5.97321 0.366502 255 0 255 
-0.677272 0.0420927 5.99705 0.391259 255 0 255 
-0.664522 0.0416048 5.98531 0.332298 255 0 255 
-0.668003 0.0290462 5.96127 0.28769 255 0 255 
-0.651426 0.0408486 5.97393 0.279282 255 0 255 
-0.654795 0.028219 5.9494 0.270062 255 0 255 
-0.670424 0.0162091 5.93744 0.312118 255 0 255 
-0.638248 0.0393158 5.96161 0.233527 255 0 255 
-0.612391 0.0661802 6.03549 0.306952 255 0 255 
-0.597928 0.0645319 6.02281 0.272552 255 0 255 
-0.617077 0.0583021 6.00737 0.255494 255 0 255 
-0.582804 0.0622496 6.00953 0.299363 255 0 255 
-0.602081 0.056246 5.99406 0.248392 255 0 255 
-0.586313 0.053594 5.98019 0.298164 255 0 255 
-0.566962 0.0595371 5.99533 0.394352 255 0 255 
-0.621126 0.0486253 5.97855 0.22412 255 0 255 
-0.605761 0.0459886 5.9641 0.241823 255 0 255 
-0.634743 0.0500433 5.99017 0.243404 255 0 255 
-0.647694 0.0512099 6.00187 0.323256 255 0 255 
-0.630071 0.0593927 6.01835 0.347448 255 0 255 
-0.643534 0.0600008 6.02954 0.464885 255 0 255 
-0.660686 0.0518229 6.01337 0.357988 255 0 255 
-0.62615 0.0669014 6.0457 0.406286 255 0 255 
-0.554093 0.0545952 5.97915 0.325524 255 0 255 
-0.539711 0.0484516 5.96035 0.302645 255 0 255 
-0.560525 0.0426637 5.94702 0.255534 255 0 255 
-0.524998 0.0414941 5.94165 0.340433 255 0 255 
-0.545653 0.0357028 5.92819 0.278054 255 0 255 
-0.56597 0.0288243 5.91542 0.246347 255 0 255 
-0.579414 0.035179 5.93164 0.242432 255 0 255 
-0.59271 0.0408193 5.94787 0.235491 255 0 255 
-0.573504 0.0484963 5.96372 0.267992 255 0 255 
-0.732452 -0.00047798 5.96565 0.410796 255 0 255 
-0.756769 -0.019527 5.95896 0.64223 255 0 255 
-0.731377 0.00889179 5.98435 0.431907 255 0 255 
-0.756184 -0.01039 5.97756 0.520493 255 0 255 
-0.755407 -0.000934747 5.99637 0.578575 255 0 255 
-0.780887 -0.0289106 5.97103 0.666621 255 0 255 
-0.730473 0.0183578 6.00343 0.34388 255 0 255 
-0.729171 0.027541 6.02229 0.436378 255 0 255 
-0.703667 0.0355133 6.00995 0.430518 255 0 255 
-0.704954 0.0260002 5.9901 0.395397 255 0 255 
-0.794578 -0.0310101 5.99013 0.514558 255 0 255 
-0.806931 -0.0453171 5.97786 0.444802 255 0 255 
-0.782064 -0.0163329 6.00275 0.688061 255 0 255 
-0.808223 -0.0333194 6.00775 0.502082 255 0 255 
-0.820888 -0.0472279 5.99515 0.432546 255 0 255 
-0.83326 -0.0604117 5.98311 0.541104 255 0 255 
-0.795199 -0.0190379 6.02044 0.460237 255 0 255 
-0.782801 -0.00445397 6.03328 0.577638 255 0 255 
-0.769229 -0.00281136 6.01523 0.5015 255 0 255 
-0.756419 0.0112488 6.0279 0.54531 255 0 255 
-0.728067 0.0413028 6.07561 0.318645 255 0 255 
-0.728515 0.0371138 6.05763 0.398167 255 0 255 
-0.698705 0.0533377 6.07139 0.405323 255 0 255 
-0.699346 0.0494465 6.05329 0.470235 255 0 255 
-0.729025 0.0325775 6.0402 0.358084 255 0 255 
-0.756277 0.0161681 6.04506 0.415664 255 0 255 
-0.755646 0.0210515 6.06208 0.400795 255 0 255 
-0.669883 0.0619581 6.06379 0.393339 255 0 255 
-0.672363 0.0563827 6.04197 0.416193 255 0 255 
-0.688103 0.0465939 6.02569 0.383177 255 0 255 
-0.966628 -0.0990791 6.10447 0.446905 255 0 255 
-0.994779 -0.117935 6.10027 0.518515 255 0 255 
-1.01374 -0.134112 6.0869 0.567921 255 0 255 
-1.04153 -0.151581 6.08384 0.437896 255 0 255 
-1.02348 -0.147712 6.06568 0.566774 255 0 255 
-1.03115 -0.13816 6.10636 0.4025 255 0 255 
-1.05894 -0.155425 6.10245 0.422203 255 0 255 
-1.01185 -0.123975 6.11765 0.532588 255 0 255 
-0.992586 -0.108763 6.12893 0.42446 255 0 255 
-1.042 -0.168887 6.05494 0.409033 255 0 255 
-1.04959 -0.167272 6.06885 0.369666 255 0 255 
-1.06816 -0.18758 6.05737 0.317886 255 0 255 
-1.06054 -0.189514 6.04413 0.286442 255 0 255 
-1.07667 -0.185716 6.07066 0.359527 255 0 255 
-1.0877 -0.206695 6.04634 0.279125 255 0 255 
-1.09561 -0.204265 6.05912 0.311676 255 0 255 
-1.11531 -0.222595 6.04761 0.247114 255 0 255 
-1.07949 -0.209219 6.03416 0.273642 255 0 255 
-1.10667 -0.225808 6.0358 0.200686 255 0 255 
-1.09724 -0.229691 6.02403 0.132812 255 0 255 
-1.10355 -0.202377 6.07214 0.375248 255 0 255 
-1.12381 -0.219948 6.06015 0.318718 255 0 255 
-1.13207 -0.217678 6.07317 0.393525 255 0 255 
-1.09505 -0.187754 6.08792 0.399862 255 0 255 
-1.06766 -0.170497 6.08608 0.387401 255 0 255 
-1.13239 -0.195587 6.11958 0.433634 255 0 255 
-1.10712 -0.183492 6.11426 0.412179 255 0 255 
-1.09639 -0.169453 6.13194 0.425761 255 0 255 
-1.07238 -0.155592 6.12603 0.422501 255 0 255 
-1.08287 -0.169925 6.10892 0.414763 255 0 255 
-1.12017 -0.200664 6.09248 0.401965 255 0 255 
-1.146 -0.212369 6.09742 0.429248 255 0 255 
-1.05923 -0.142251 6.15036 0.401623 255 0 255 
-1.03336 -0.127986 6.14926 0.47388 255 0 255 
-1.0222 -0.118921 6.16659 0.416079 255 0 255 
-1.00727 -0.11336 6.14852 0.447755 255 0 255 
-1.04651 -0.141743 6.12572 0.39534 255 0 255 
-0.848512 -0.070774 5.985 0.566169 255 0 255 
-0.864041 -0.0809359 5.98708 0.40697 255 0 255 
-0.839491 -0.0536366 6.00969 0.511018 255 0 255 
-0.855104 -0.0644882 6.01165 0.478749 255 0 255 
-0.87078 -0.074582 6.01267 0.420879 255 0 255 
-0.880321 -0.0911154 5.98893 0.472714 255 0 255 
-0.896208 -0.100786 5.9904 0.38923 255 0 255 
-0.844421 -0.0468271 6.03666 0.396426 255 0 255 
-0.828019 -0.0368637 6.03557 0.307631 255 0 255 
-0.812524 -0.0264222 6.03493 0.402563 255 0 255 
-0.912426 -0.111843 5.99203 0.464665 255 0 255 
-0.929345 -0.122608 5.99391 0.385217 255 0 255 
-0.904162 -0.0940315 6.01526 0.405158 255 0 255 
-0.920627 -0.105133 6.01603 0.439193 255 0 255 
-0.937844 -0.116351 6.01735 0.478425 255 0 255 
-0.94577 -0.133369 5.99614 0.402562 255 0 255 
-0.96326 -0.144532 5.99795 0.305546 255 0 255 
-0.910966 -0.0878708 6.03909 0.424756 255 0 255 
-0.89409 -0.0779093 6.03878 0.410535 255 0 255 
-0.877659 -0.0679407 6.03816 0.395722 255 0 255 
-0.887233 -0.084425 6.01356 0.429187 255 0 255 
-0.86068 -0.0574086 6.03743 0.448932 255 0 255 
-0.846818 -0.0393958 6.06666 0.461575 255 0 255 
-0.830865 -0.0306519 6.06591 0.41612 255 0 255 
-0.815971 -0.0211064 6.06515 0.43239 255 0 255 
-0.862775 -0.0503175 6.06656 0.500257 255 0 255 
-0.879359 -0.061347 6.06727 0.443905 255 0 255 
-0.785525 0.000881944 6.0635 0.482286 255 0 255 
-0.770893 0.0108802 6.06283 0.416567 255 0 255 
-0.798914 -0.0127877 6.04923 0.445164 255 0 255 
-0.76076 -0.105909 5.81184 0.285707 255 0 255 
-0.772716 -0.117472 5.80285 0.296568 255 0 255 
-0.748598 -0.0935342 5.82095 0.349446 255 0 255 
