ply
format ascii 1.0
comment VCGLIB generated
element vertex 1013
property float x
property float y
property float z
property uchar red
property uchar green
property uchar blue
property float quality
end_header
0.755029 -0.957021 6.748720 255 82 0 0.647540
0.771340 -1.008130 6.677110 103 255 145 0.846239
0.768849 -1.022430 6.652970 116 255 132 0.839723
0.743609 -1.030190 6.645210 151 255 96 0.822841
0.742104 -1.046110 6.621820 255 153 0 0.704695
0.766942 -1.037210 6.629280 219 255 29 0.784268
0.765093 -1.052440 6.605560 255 93 0 0.655105
0.786187 -1.027220 6.641650 161 255 87 0.816361
0.789477 -1.013090 6.666350 109 255 138 0.843268
0.793929 -0.999129 6.691860 119 255 129 0.838358
0.812243 -1.004230 6.681070 125 255 122 0.835051
0.727747 -1.048410 6.606510 255 112 0 0.673909
0.717690 -1.054990 6.583450 255 27 0 0.583726
0.736164 -1.057540 6.575010 255 19 0 0.575032
0.707530 -1.062850 6.560280 164 0 0 0.427266
0.725845 -1.064620 6.551850 169 0 0 0.431691
0.715175 -1.073430 6.528780 128 0 0 0.197403
0.697121 -1.072320 6.537160 128 0 0 0.150235
0.744063 -1.066380 6.543280 173 0 0 0.442617
0.733240 -1.074500 6.520250 128 0 0 0.235325
0.751135 -1.075710 6.511620 128 0 0 0.232552
0.758511 -1.062450 6.558530 219 0 0 0.530477
0.750184 -1.054360 6.590120 255 64 0 0.628152
0.805029 -1.077120 6.490180 128 0 0 0.203962
0.807264 -1.070790 6.513190 146 0 0 0.365734
0.797809 -1.064750 6.542040 196 0 0 0.495000
0.799391 -1.060210 6.565420 242 8 0 0.556553
0.789068 -1.055280 6.594810 255 67 0 0.629312
0.812658 -1.057800 6.583300 255 30 0 0.587115
0.775744 -1.058310 6.576540 255 34 0 0.592153
0.768481 -1.068990 6.529650 164 0 0 0.424551
0.778000 -1.076210 6.501020 133 0 0 0.264232
0.820839 -1.045560 6.602540 255 134 0 0.690880
0.820808 -1.032300 6.626990 245 249 3 0.767477
0.830461 -1.020900 6.647530 196 255 51 0.797234
0.811266 -1.017810 6.655890 148 255 100 0.824488
0.787409 -1.041190 6.618040 255 219 0 0.749406
0.899327 -1.055680 6.561350 155 0 0 0.403320
0.888275 -1.058290 6.540030 146 0 0 0.371117
0.896750 -1.059580 6.517020 137 0 0 0.315247
0.895127 -1.062630 6.494680 133 0 0 0.281657
0.902912 -1.065250 6.472250 128 0 0 0.182779
0.884585 -1.068310 6.473900 128 0 0 0.231425
0.915025 -1.059930 6.493520 128 0 0 0.222086
0.922703 -1.062120 6.470980 128 0 0 0.158388
0.916128 -1.057510 6.514610 137 0 0 0.302516
0.917140 -1.055900 6.536060 137 0 0 0.316688
0.933564 -1.058320 6.491360 128 0 0 0.204523
0.941717 -1.059910 6.470460 128 0 0 0.128828
0.931904 -1.012750 6.300250 133 0 0 0.270785
0.915161 -1.027130 6.325330 128 0 0 0.244714
0.907017 -1.038620 6.350280 128 0 0 0.224370
0.889507 -1.052430 6.375770 128 0 0 0.159843
0.907956 -1.048330 6.374900 128 0 0 0.163712
0.888322 -1.043470 6.350780 128 0 0 0.211216
0.870514 -1.056860 6.376040 128 0 0 0.135711
0.895841 -1.031910 6.324590 128 0 0 0.226189
0.902849 -1.020320 6.298610 133 0 0 0.265145
0.902822 -1.051890 6.399620 128 0 0 0.212288
0.888425 -1.057870 6.425920 128 0 0 0.228860
0.881925 -1.063130 6.450590 128 0 0 0.229511
0.866114 -1.070870 6.476580 128 0 0 0.205949
0.864025 -1.066230 6.453220 133 0 0 0.259550
0.847954 -1.073910 6.479060 128 0 0 0.221600
0.870053 -1.061170 6.427630 133 0 0 0.255742
0.875076 -1.057330 6.401730 128 0 0 0.238007
0.811057 -1.071450 6.463120 137 0 0 0.298069
0.828116 -1.065970 6.434830 137 0 0 0.311497
0.832513 -1.062950 6.407510 133 0 0 0.256430
0.848046 -1.059810 6.378800 128 0 0 0.164353
0.825569 -1.063360 6.381360 128 0 0 0.145639
0.854947 -1.060290 6.404690 128 0 0 0.239399
0.850196 -1.063850 6.430850 133 0 0 0.280340
0.844156 -1.068510 6.456540 133 0 0 0.274191
0.826549 -1.075330 6.484880 128 0 0 0.225236
0.833516 -1.052790 6.353390 128 0 0 0.224173
0.852361 -1.040520 6.325960 133 0 0 0.268208
0.859380 -1.029750 6.298390 133 0 0 0.285223
0.881818 -1.025180 6.298970 133 0 0 0.263387
0.874934 -1.036250 6.325150 133 0 0 0.258411
0.867507 -1.047260 6.351270 128 0 0 0.223832
0.877013 -1.064910 6.497650 137 0 0 0.298506
0.877998 -1.061460 6.519520 146 0 0 0.365612
0.870382 -1.059240 6.543980 178 0 0 0.454017
0.871278 -1.057020 6.566660 183 0 0 0.468149
0.853157 -1.058080 6.570530 214 0 0 0.522431
0.851397 -1.060850 6.546880 183 0 0 0.463860
0.859583 -1.063130 6.522790 155 0 0 0.400688
0.857849 -1.067310 6.500000 137 0 0 0.315083
0.888906 -1.045690 6.584680 219 0 0 0.527641
0.868281 -1.036010 6.610370 255 104 0 0.664903
0.869684 -1.046680 6.588440 255 34 0 0.592989
0.851328 -1.022830 6.640430 245 249 3 0.767424
0.840887 -1.034040 6.619630 255 197 0 0.736006
0.841648 -1.046010 6.596420 255 93 0 0.655381
0.832597 -1.057890 6.576910 251 16 0 0.566989
0.822125 -1.060920 6.556860 223 0 0 0.533585
0.819835 -1.064940 6.533340 178 0 0 0.460959
0.829062 -1.069360 6.507700 146 0 0 0.359462
0.840120 -1.064430 6.527060 164 0 0 0.426104
0.771163 -1.048110 6.308000 128 0 0 0.188740
0.769261 -1.051510 6.337110 137 0 0 0.324143
0.789730 -1.042800 6.306430 133 0 0 0.270249
0.790983 -1.048910 6.335570 142 0 0 0.351284
0.769796 -1.057170 6.366460 146 0 0 0.357136
0.772044 -1.066230 6.395430 133 0 0 0.261347
0.758633 -1.065460 6.397610 137 0 0 0.297609
0.757415 -1.057930 6.368500 146 0 0 0.359037
0.746103 -1.065610 6.399850 137 0 0 0.306921
0.746054 -1.059730 6.370740 142 0 0 0.335204
0.758912 -1.054030 6.339390 133 0 0 0.283921
0.734200 -1.066860 6.402410 133 0 0 0.273798
0.812787 -1.038620 6.302170 133 0 0 0.289741
0.816816 -1.045310 6.328530 133 0 0 0.288164
0.836292 -1.034200 6.299280 133 0 0 0.273677
0.808220 -1.054640 6.358510 133 0 0 0.274357
0.798674 -1.064260 6.388480 128 0 0 0.227695
0.784302 -1.071160 6.472290 142 0 0 0.329906
0.789861 -1.067730 6.443470 146 0 0 0.366770
0.763019 -1.067840 6.453660 155 0 0 0.391711
0.757463 -1.071060 6.482670 142 0 0 0.342187
0.781053 -1.065880 6.419580 142 0 0 0.343765
0.807767 -1.064770 6.412300 133 0 0 0.284834
0.743922 -1.068930 6.485130 151 0 0 0.387038
0.725929 -1.068270 6.493540 151 0 0 0.387819
0.736315 -1.064800 6.458370 183 0 0 0.468023
0.708086 -1.067910 6.502090 142 0 0 0.344434
0.718848 -1.064750 6.466990 173 0 0 0.445945
0.728656 -1.064400 6.431640 169 0 0 0.434240
0.740995 -1.064130 6.429070 173 0 0 0.445644
0.754041 -1.064810 6.426710 160 0 0 0.411439
0.749626 -1.066110 6.456050 169 0 0 0.433760
0.966386 -1.050430 6.446180 128 0 0 0.111641
0.971240 -1.043970 6.423050 128 0 0 0.129497
0.985583 -1.037890 6.400140 128 0 0 0.103366
1.000310 -1.031450 6.377640 128 0 0 0.090861
0.980995 -1.033180 6.377190 128 0 0 0.117373
0.989400 -1.020540 6.353820 128 0 0 0.128750
1.007700 -1.008100 6.331310 128 0 0 0.046412
1.015860 -0.995902 6.308390 128 0 0 0.015271
1.036410 -0.994702 6.309600 128 0 0 0.000000
1.008780 -1.019510 6.354340 128 0 0 0.108041
0.899967 -1.060210 6.449190 128 0 0 0.230312
0.905852 -1.054530 6.424520 128 0 0 0.223395
0.919835 -1.047950 6.399480 128 0 0 0.230475
0.924881 -1.043790 6.374810 128 0 0 0.183791
0.943360 -1.039570 6.375280 128 0 0 0.174968
0.938094 -1.044190 6.398740 128 0 0 0.187851
0.923546 -1.051150 6.423300 128 0 0 0.206275
0.918052 -1.057020 6.447280 128 0 0 0.194176
0.924762 -1.034410 6.350750 128 0 0 0.210955
0.932986 -1.022360 6.325990 128 0 0 0.230905
0.949463 -1.008110 6.302460 128 0 0 0.238956
0.968388 -1.003460 6.304020 133 0 0 0.254597
0.950228 -1.017690 6.327040 128 0 0 0.226919
0.942335 -1.029530 6.351030 128 0 0 0.211324
0.996572 -0.998766 6.307440 128 0 0 0.078270
0.988361 -1.010340 6.330390 128 0 0 0.190886
0.970545 -1.024190 6.353060 128 0 0 0.176873
0.961753 -1.036270 6.376220 128 0 0 0.154572
0.969181 -1.013780 6.328610 128 0 0 0.210103
0.966561 -1.039930 6.400380 128 0 0 0.134451
0.952285 -1.046990 6.423770 128 0 0 0.142520
0.947215 -1.053030 6.446980 128 0 0 0.141511
-0.463814 -0.590180 5.183870 255 71 0 0.634150
-0.448522 -0.585946 5.192170 255 90 0 0.651975
-0.429066 -0.588615 5.195000 255 75 0 0.640422
-0.414293 -0.583893 5.203630 255 86 0 0.649917
-0.395696 -0.586273 5.206370 255 49 0 0.612308
-0.404545 -0.571451 5.217270 255 60 0 0.625160
-0.404732 -0.597776 5.191510 255 75 0 0.638531
-0.385739 -0.599558 5.193300 255 34 0 0.594289
-0.412554 -0.608332 5.175790 255 53 0 0.615520
-0.432513 -0.606508 5.173600 255 67 0 0.632683
-0.452268 -0.603907 5.170930 255 27 0 0.583407
-0.440315 -0.616185 5.157720 228 0 0 0.540013
-0.389052 -0.570394 5.226540 255 27 0 0.584019
-0.371151 -0.575391 5.230620 223 0 0 0.533605
-0.355968 -0.573780 5.239880 178 0 0 0.460628
-0.338057 -0.578035 5.242310 155 0 0 0.399243
-0.345437 -0.593484 5.221870 173 0 0 0.448347
-0.377011 -0.591314 5.209570 246 12 0 0.562944
-0.315320 -0.613150 5.209930 151 0 0 0.385276
-0.332574 -0.610528 5.206740 169 0 0 0.438651
-0.338947 -0.618272 5.190580 183 0 0 0.468149
-0.356460 -0.615006 5.186400 214 0 0 0.521020
-0.362874 -0.621561 5.169870 196 0 0 0.496223
-0.354503 -0.601893 5.207990 201 0 0 0.503943
-0.327995 -0.596926 5.226030 151 0 0 0.378443
-0.381645 -0.621308 5.167620 214 0 0 0.524047
-0.386987 -0.630244 5.151170 178 0 0 0.458025
-0.406642 -0.629293 5.148820 173 0 0 0.444904
-0.426830 -0.627708 5.146130 178 0 0 0.454930
-0.412811 -0.638332 5.133720 137 0 0 0.296109
-0.420636 -0.618153 5.161330 242 8 0 0.560557
-0.070871 -0.666502 5.408060 128 0 0 0.000000
-0.056712 -0.685555 5.419550 128 0 0 0.000000
-0.045631 -0.708277 5.429940 128 0 0 0.000000
-0.035111 -0.732199 5.444370 128 0 0 0.000000
-0.029550 -0.760494 5.456600 128 0 0 0.000000
-0.063452 -0.694518 5.409140 128 0 0 0.000000
-0.077317 -0.677285 5.397490 128 0 0 0.000000
-0.028710 -0.786091 5.477430 128 0 0 0.000000
-0.034635 -0.814457 5.486870 128 0 0 0.000000
-0.041116 -0.843896 5.498850 128 0 0 0.000000
-0.049486 -0.872823 5.504410 128 0 0 0.000000
-0.035736 -0.788485 5.464080 128 0 0 0.000000
-0.055682 -0.867933 5.484610 128 0 0 0.000000
-0.048727 -0.841362 5.476320 128 0 0 0.000000
-0.042092 -0.814888 5.468080 128 0 0 0.000000
-0.035229 -0.764307 5.443060 128 0 0 0.000000
-0.043470 -0.741088 5.425780 128 0 0 0.000000
-0.053213 -0.718151 5.414640 128 0 0 0.000000
-0.038631 -0.790490 5.446680 128 0 0 0.000000
-0.050467 -0.863986 5.468930 128 0 0 0.000000
-0.039903 -0.814986 5.450680 128 0 0 0.000000
-0.042821 -0.838997 5.458140 128 0 0 0.000000
-0.032937 -0.767629 5.422250 128 0 0 0.000000
-0.082448 -0.697298 5.369070 128 0 0 0.000000
-0.068140 -0.710466 5.383540 128 0 0 0.000000
-0.055043 -0.726302 5.398740 128 0 0 0.000000
-0.042747 -0.745381 5.409960 128 0 0 0.000000
-0.082185 -0.689027 5.383690 128 0 0 0.000000
-0.062361 -0.901485 5.519220 128 0 0 0.000000
-0.079617 -0.925457 5.519040 128 0 0 0.000000
-0.095969 -0.950189 5.525200 128 0 0 0.000000
-0.112824 -0.972271 5.524980 128 0 0 0.000000
-0.069004 -0.895287 5.502480 128 0 0 0.000000
-0.133203 -0.995179 5.539440 128 0 0 0.000000
-0.154503 -1.007360 5.535130 128 0 0 0.009224
-0.175419 -1.023150 5.538120 128 0 0 0.141502
-0.196002 -1.033790 5.533900 128 0 0 0.216461
-0.176436 -1.012990 5.517330 128 0 0 0.105854
-0.156269 -0.998127 5.516390 128 0 0 0.000000
-0.134707 -0.985326 5.520660 128 0 0 0.000000
-0.193125 -1.017560 5.499320 128 0 0 0.229378
-0.174813 -1.002730 5.499060 128 0 0 0.035240
-0.155172 -0.988175 5.498490 128 0 0 0.000000
-0.135299 -0.975291 5.502850 128 0 0 0.000000
-0.115407 -0.960980 5.506290 128 0 0 0.000000
-0.100828 -0.934825 5.495460 128 0 0 0.000000
-0.085050 -0.914823 5.495670 128 0 0 0.000000
-0.178884 -0.998523 5.466320 128 0 0 0.000000
-0.161939 -0.983638 5.468050 128 0 0 0.000000
-0.144852 -0.972336 5.473050 128 0 0 0.000000
-0.126558 -0.957804 5.474620 128 0 0 0.000000
-0.108611 -0.945591 5.479820 128 0 0 0.000000
-0.170089 -0.993122 5.482400 128 0 0 0.000000
-0.188102 -1.007080 5.482050 128 0 0 0.134081
-0.091114 -0.922801 5.472210 128 0 0 0.000000
-0.077643 -0.904527 5.472540 128 0 0 0.000000
-0.063871 -0.883729 5.469740 128 0 0 0.000000
-0.069521 -0.889430 5.485580 128 0 0 0.000000
-0.322159 -1.055070 5.408240 255 160 0 0.710567
-0.305575 -1.048310 5.416980 255 178 0 0.723257
-0.291896 -1.043770 5.429900 255 134 0 0.690537
-0.274241 -1.039350 5.438480 255 75 0 0.639954
-0.259467 -1.037220 5.451560 255 27 0 0.585430
-0.285329 -1.045280 5.454190 255 97 0 0.659859
-0.304654 -1.049600 5.446210 255 156 0 0.707627
-0.318755 -1.053430 5.432990 255 193 0 0.733549
-0.337249 -1.060250 5.425470 255 141 0 0.695850
-0.236036 -1.023420 5.447400 178 0 0 0.462551
-0.220075 -1.017500 5.457870 137 0 0 0.301524
-0.201670 -1.008050 5.463960 128 0 0 0.112969
-0.247388 -1.032560 5.466620 210 0 0 0.515697
-0.214754 -1.025270 5.495570 142 0 0 0.346895
-0.233698 -1.030410 5.486510 178 0 0 0.461100
-0.270347 -1.046370 5.472900 255 27 0 0.585283
-0.255782 -1.040740 5.487620 228 0 0 0.540981
-0.296008 -1.053530 5.476790 255 64 0 0.625434
-0.313303 -1.055790 5.463740 255 112 0 0.672257
-0.334190 -1.060160 5.456810 255 123 0 0.682308
-0.350536 -1.064460 5.443510 255 112 0 0.673301
-0.238673 -1.037970 5.503440 183 0 0 0.468049
-0.218002 -1.035200 5.516430 146 0 0 0.371103
-0.260510 -1.047670 5.505240 205 0 0 0.508184
-0.281348 -1.057960 5.506760 201 0 0 0.502667
-0.276823 -1.051630 5.489480 251 16 0 0.567519
-0.241702 -1.048970 5.530750 146 0 0 0.357427
-0.218500 -1.045690 5.539730 133 0 0 0.260091
-0.263995 -1.059550 5.536320 142 0 0 0.348654
-0.286559 -1.068790 5.541820 133 0 0 0.265725
-0.284091 -1.063740 5.524380 155 0 0 0.397131
-0.381396 -1.071830 5.521530 255 19 0 0.574968
-0.356111 -1.069440 5.517910 255 23 0 0.579185
-0.376101 -1.071320 5.502630 255 23 0 0.577174
-0.330835 -1.066800 5.514320 242 8 0 0.559175
-0.350535 -1.067830 5.498640 255 38 0 0.596226
-0.325603 -1.063750 5.494870 255 34 0 0.592008
-0.370109 -1.070150 5.482900 255 38 0 0.600273
-0.305743 -1.062880 5.510580 233 1 0 0.546053
-0.308976 -1.066980 5.528010 178 0 0 0.455115
-0.334157 -1.069550 5.531450 205 0 0 0.505863
-0.343101 -1.064190 5.476380 255 86 0 0.647864
-0.361303 -1.067780 5.462720 255 60 0 0.624173
-0.344040 -1.025110 5.166700 128 0 0 0.000000
-0.343140 -1.035160 5.191600 128 0 0 0.000000
-0.342838 -1.045810 5.216410 128 0 0 0.000000
-0.322955 -1.040460 5.196570 128 0 0 0.000000
-0.363856 -1.040370 5.212030 128 0 0 0.021926
-0.387743 -1.033460 5.205740 128 0 0 0.110217
-0.365115 -1.029040 5.185850 128 0 0 0.000000
-0.388991 -1.022000 5.179800 128 0 0 0.000000
-0.307678 -1.047950 5.216410 128 0 0 0.000000
-0.323644 -1.051550 5.238340 128 0 0 0.078657
-0.303377 -1.053130 5.242570 128 0 0 0.044116
-0.283294 -1.054460 5.247270 128 0 0 0.001937
-0.319631 -1.056970 5.264690 128 0 0 0.177371
-0.341590 -1.055280 5.259570 128 0 0 0.189820
-0.360873 -1.049280 5.237780 128 0 0 0.153420
-0.370217 -1.063310 5.292500 133 0 0 0.253590
-0.381663 -1.055700 5.264690 128 0 0 0.242039
-0.393497 -1.047180 5.237050 128 0 0 0.151708
-0.404500 -1.052570 5.258150 128 0 0 0.212146
-0.360255 -1.057820 5.270460 128 0 0 0.231133
-0.425817 -1.041110 5.235200 128 0 0 0.206299
-0.410362 -1.034110 5.215540 128 0 0 0.196718
-0.432670 -1.026650 5.208240 128 0 0 0.219928
-0.455267 -1.019360 5.200320 128 0 0 0.183042
-0.417454 -1.020340 5.188420 128 0 0 0.120664
-0.223050 -0.591866 5.316340 128 0 0 0.000000
-0.238341 -0.593895 5.305350 128 0 0 0.000000
-0.252084 -0.595146 5.293120 128 0 0 0.000000
-0.223451 -0.607845 5.302750 128 0 0 0.000000
-0.237658 -0.609321 5.290530 128 0 0 0.000000
-0.265291 -0.594806 5.279890 128 0 0 0.000000
-0.278169 -0.593771 5.265880 128 0 0 0.045410
-0.281695 -0.575273 5.281230 128 0 0 0.100943
-0.268458 -0.576179 5.295370 128 0 0 0.000000
-0.246202 -0.614708 5.272050 128 0 0 0.000000
-0.219857 -0.624135 5.283960 128 0 0 0.000000
-0.231059 -0.624751 5.270130 128 0 0 0.000000
-0.257284 -0.614354 5.258770 128 0 0 0.000000
-0.267563 -0.613038 5.244340 128 0 0 0.083774
-0.310623 -0.604412 5.230240 133 0 0 0.278930
-0.305224 -0.593893 5.249730 128 0 0 0.194117
-0.285412 -0.605096 5.247750 128 0 0 0.103776
-0.291231 -0.613663 5.227140 128 0 0 0.221780
-0.323423 -0.580325 5.251960 133 0 0 0.281007
-0.310740 -0.574704 5.265880 128 0 0 0.217232
-0.297822 -0.568438 5.278810 128 0 0 0.200127
-0.093170 -0.653113 5.395030 128 0 0 0.000000
-0.115110 -0.641348 5.384190 128 0 0 0.000000
-0.135065 -0.629285 5.373470 128 0 0 0.000000
-0.153797 -0.616766 5.363210 128 0 0 0.000000
-0.147783 -0.601491 5.373400 128 0 0 0.000000
-0.129189 -0.613971 5.383770 128 0 0 0.000000
-0.099536 -0.665455 5.384490 128 0 0 0.000000
-0.121046 -0.655760 5.372790 128 0 0 0.000000
-0.141507 -0.645417 5.362220 128 0 0 0.000000
-0.158465 -0.634919 5.349450 128 0 0 0.000000
-0.207998 -0.599922 5.329650 128 0 0 0.000000
-0.191347 -0.606212 5.341340 128 0 0 0.000000
-0.218962 -0.570646 5.330350 128 0 0 0.000000
-0.203743 -0.578855 5.342860 128 0 0 0.000000
-0.173081 -0.611918 5.352400 128 0 0 0.000000
-0.212968 -0.547221 5.343390 128 0 0 0.044363
-0.185001 -0.581543 5.357800 128 0 0 0.000000
-0.197611 -0.557694 5.355770 128 0 0 0.000000
-0.166137 -0.589098 5.367710 128 0 0 0.000000
-0.252854 -0.574111 5.308280 128 0 0 0.000000
-0.280906 -0.551971 5.296680 128 0 0 0.240135
-0.265211 -0.550858 5.310030 128 0 0 0.169814
-0.248264 -0.550669 5.321940 128 0 0 0.072031
-0.234797 -0.564952 5.324260 128 0 0 0.000000
-0.314158 -0.550601 5.282580 142 0 0 0.337618
-0.328884 -0.558020 5.268120 146 0 0 0.366961
-0.344502 -0.547621 5.264060 178 0 0 0.460993
-0.329759 -0.540370 5.278620 183 0 0 0.463730
-0.345226 -0.529203 5.273930 237 4 0 0.550525
-0.296284 -0.543386 5.294300 146 0 0 0.353829
-0.339843 -0.491185 5.291450 255 49 0 0.611481
-0.322074 -0.494046 5.299970 255 41 0 0.601248
-0.306441 -0.504710 5.303870 255 19 0 0.574864
-0.288574 -0.505993 5.310660 228 0 0 0.541171
-0.273304 -0.515982 5.312840 187 0 0 0.476764
-0.310315 -0.523632 5.295950 201 0 0 0.497432
-0.325815 -0.512444 5.292410 255 19 0 0.574250
-0.342834 -0.510744 5.283660 255 27 0 0.582076
-0.253732 -0.507078 5.329870 187 0 0 0.481022
-0.241378 -0.524312 5.334660 137 0 0 0.321646
-0.226358 -0.532554 5.342220 133 0 0 0.252793
-0.103767 -0.677069 5.372040 128 0 0 0.000000
-0.125292 -0.667901 5.359770 128 0 0 0.000000
-0.144646 -0.659060 5.347130 128 0 0 0.000000
-0.161047 -0.648434 5.336630 128 0 0 0.000000
-0.124750 -0.677482 5.344860 128 0 0 0.000000
-0.104033 -0.686175 5.356580 128 0 0 0.000000
-0.206430 -0.635356 5.294710 128 0 0 0.000000
-0.193078 -0.642178 5.309640 128 0 0 0.000000
-0.177734 -0.645322 5.323450 128 0 0 0.000000
-0.209517 -0.620578 5.312290 128 0 0 0.000000
-0.194245 -0.626613 5.325980 128 0 0 0.000000
-0.177124 -0.631044 5.338360 128 0 0 0.000000
-0.193368 -0.648131 5.239950 128 0 0 0.000000
-0.202305 -0.647909 5.209730 128 0 0 0.011927
-0.186981 -0.651435 5.215600 128 0 0 0.000000
-0.170682 -0.653398 5.220880 128 0 0 0.000000
-0.210905 -0.646482 5.179430 128 0 0 0.069404
-0.218741 -0.643566 5.205330 128 0 0 0.084180
-0.234401 -0.637483 5.200510 128 0 0 0.174659
-0.159151 -0.651573 5.198480 128 0 0 0.000000
-0.146110 -0.647281 5.175430 128 0 0 0.000000
-0.137000 -0.650063 5.203850 128 0 0 0.000000
-0.167634 -0.648233 5.170850 128 0 0 0.000000
-0.189423 -0.647095 5.166790 128 0 0 0.000000
-0.207279 -0.659316 5.119030 128 0 0 0.000000
-0.218675 -0.654596 5.139710 128 0 0 0.000000
-0.230480 -0.650377 5.161560 128 0 0 0.062248
-0.238968 -0.654047 5.136320 128 0 0 0.000000
-0.198059 -0.652703 5.142350 128 0 0 0.000000
-0.177160 -0.650337 5.145550 128 0 0 0.000000
-0.255796 -0.649817 5.148120 128 0 0 0.057939
-0.257814 -0.644101 5.167870 128 0 0 0.190299
-0.273958 -0.642098 5.164770 128 0 0 0.234610
-0.232152 -0.643803 5.180040 128 0 0 0.145627
-0.102219 -0.642797 5.191720 128 0 0 0.000000
-0.080218 -0.638610 5.185680 128 0 0 0.000000
-0.102603 -0.641050 5.161330 128 0 0 0.000000
-0.081560 -0.639238 5.156510 128 0 0 0.000000
-0.061039 -0.638958 5.152310 128 0 0 0.000000
-0.059358 -0.637957 5.180890 128 0 0 0.000000
-0.037375 -0.636544 5.177070 128 0 0 0.000000
-0.083281 -0.640573 5.127820 128 0 0 0.000000
-0.104119 -0.640528 5.132130 128 0 0 0.000000
-0.124598 -0.641100 5.138090 128 0 0 0.000000
-0.124424 -0.643513 5.167440 128 0 0 0.000000
-0.146081 -0.644183 5.145810 128 0 0 0.000000
-0.012041 -0.636253 5.171390 128 0 0 0.000000
0.002262 -0.637367 5.153910 128 0 0 0.000000
0.026465 -0.638171 5.149390 128 0 0 0.000000
0.004255 -0.640918 5.125090 128 0 0 0.000000
-0.020776 -0.639783 5.129330 128 0 0 0.000000
-0.046725 -0.639843 5.134470 128 0 0 0.000000
-0.050212 -0.662105 5.075090 128 0 0 0.000000
-0.064353 -0.656334 5.088560 128 0 0 0.000000
-0.089981 -0.655424 5.093610 128 0 0 0.000000
-0.105038 -0.650583 5.108360 128 0 0 0.000000
-0.125589 -0.658764 5.090340 128 0 0 0.000000
-0.068011 -0.645400 5.112550 128 0 0 0.000000
-0.042872 -0.646156 5.107390 128 0 0 0.000000
-0.018296 -0.647601 5.102880 128 0 0 0.000000
-0.145955 -0.657395 5.095880 128 0 0 0.000000
-0.167139 -0.657654 5.103030 128 0 0 0.000000
-0.145019 -0.649608 5.119810 128 0 0 0.000000
-0.187579 -0.658356 5.110780 128 0 0 0.000000
-0.124700 -0.649237 5.113390 128 0 0 0.000000
-0.274200 -0.636364 5.185230 137 0 0 0.316331
-0.274784 -0.629859 5.205710 128 0 0 0.242348
-0.290011 -0.632886 5.181180 137 0 0 0.307271
-0.258366 -0.632020 5.208290 128 0 0 0.215865
-0.293797 -0.622399 5.207400 137 0 0 0.302893
-0.271280 -0.621931 5.225230 128 0 0 0.162237
-0.236356 -0.629074 5.251340 128 0 0 0.000000
-0.211095 -0.636878 5.264180 128 0 0 0.000000
-0.242132 -0.631359 5.231870 128 0 0 0.058690
-0.215468 -0.640707 5.245430 128 0 0 0.000000
-0.281191 -0.654787 5.134940 128 0 0 0.027832
-0.279195 -0.664446 5.116140 128 0 0 0.000000
-0.294971 -0.664851 5.111360 128 0 0 0.000000
-0.297574 -0.655348 5.130970 128 0 0 0.067866
-0.314152 -0.655334 5.126790 128 0 0 0.021682
-0.247444 -0.664974 5.113740 128 0 0 0.000000
-0.227508 -0.662609 5.116480 128 0 0 0.000000
-0.236744 -0.674949 5.096050 128 0 0 0.000000
-0.257074 -0.676826 5.092540 128 0 0 0.000000
-0.283074 -0.706767 5.066330 128 0 0 0.000000
-0.295416 -0.693298 5.078850 128 0 0 0.000000
-0.308298 -0.680066 5.092960 128 0 0 0.000000
-0.316945 -0.695724 5.076100 128 0 0 0.000000
-0.286962 -0.677322 5.095160 128 0 0 0.000000
-0.274952 -0.690068 5.080590 128 0 0 0.000000
-0.335830 -0.688424 5.083720 128 0 0 0.000000
-0.339322 -0.675337 5.098650 128 0 0 0.000000
-0.357717 -0.676163 5.094500 128 0 0 0.000000
-0.311009 -0.667073 5.108580 128 0 0 0.000000
-0.362384 -0.635254 5.148970 151 0 0 0.386188
-0.344804 -0.635978 5.153350 146 0 0 0.369876
-0.367970 -0.644295 5.134530 128 0 0 0.247771
-0.386801 -0.644091 5.131400 133 0 0 0.255911
-0.392353 -0.653445 5.117830 128 0 0 0.093636
-0.317008 -0.624570 5.189020 155 0 0 0.403173
-0.317069 -0.635342 5.167500 151 0 0 0.381778
-0.289601 -0.642243 5.160380 128 0 0 0.231698
-0.316240 -0.645493 5.147040 128 0 0 0.237069
-0.331113 -0.656208 5.122970 128 0 0 0.032653
-0.348766 -0.657534 5.119110 128 0 0 0.006600
-0.366730 -0.657628 5.115440 128 0 0 0.009999
0.123551 -0.703851 5.282570 128 0 0 0.000000
0.132308 -0.724841 5.297360 128 0 0 0.000000
0.111551 -0.721134 5.304120 128 0 0 0.000000
0.103023 -0.701746 5.289260 128 0 0 0.000000
0.120243 -0.742665 5.318480 128 0 0 0.000000
0.089852 -0.717756 5.309140 128 0 0 0.000000
0.099367 -0.738505 5.323640 128 0 0 0.000000
0.079162 -0.736195 5.330010 128 0 0 0.000000
0.080009 -0.698932 5.294260 128 0 0 0.000000
0.068595 -0.716179 5.314740 128 0 0 0.000000
0.057864 -0.697956 5.299420 128 0 0 0.000000
0.108333 -0.760452 5.338000 128 0 0 0.000000
0.088518 -0.757633 5.344710 128 0 0 0.000000
0.096794 -0.780082 5.358690 128 0 0 0.000000
0.114625 -0.782376 5.352040 128 0 0 0.000000
0.126219 -0.763747 5.331990 128 0 0 0.000000
0.131471 -0.785632 5.345160 128 0 0 0.000000
0.143659 -0.766608 5.324680 128 0 0 0.000000
0.138213 -0.745593 5.311180 128 0 0 0.000000
0.148668 -0.787929 5.337840 128 0 0 0.000000
0.037577 -0.716049 5.325190 128 0 0 0.000000
0.024496 -0.698707 5.309850 128 0 0 0.000000
0.050177 -0.735038 5.340210 128 0 0 0.000000
0.017863 -0.734160 5.350740 128 0 0 0.000000
0.004545 -0.716120 5.335730 128 0 0 0.000000
-0.009930 -0.699880 5.320940 128 0 0 0.000000
0.045646 -0.755116 5.359790 128 0 0 0.000000
0.039155 -0.775481 5.378950 128 0 0 0.000000
0.067978 -0.777438 5.368780 128 0 0 0.000000
0.043637 -0.868061 5.417270 128 0 0 0.000000
0.058752 -0.846770 5.403340 128 0 0 0.000000
0.071154 -0.871879 5.407580 128 0 0 0.000000
0.072388 -0.824502 5.389030 128 0 0 0.000000
0.086284 -0.849808 5.393790 128 0 0 0.000000
0.100295 -0.827521 5.379220 128 0 0 0.000000
0.099111 -0.874851 5.397650 128 0 0 0.000000
0.085408 -0.802623 5.374270 128 0 0 0.000000
0.056296 -0.799300 5.384090 128 0 0 0.000000
0.043331 -0.821071 5.398770 128 0 0 0.000000
0.118511 -0.853737 5.380990 128 0 0 0.000000
0.133985 -0.877606 5.380070 128 0 0 0.000000
0.135079 -0.832049 5.363420 128 0 0 0.000000
0.133678 -0.808989 5.354720 128 0 0 0.000000
0.116934 -0.805988 5.362320 128 0 0 0.000000
0.118385 -0.829878 5.371730 128 0 0 0.000000
-0.124127 -0.654942 5.217820 128 0 0 0.000000
-0.123487 -0.662529 5.237390 128 0 0 0.000000
-0.148383 -0.658917 5.229180 128 0 0 0.000000
-0.147580 -0.665671 5.248420 128 0 0 0.000000
-0.121844 -0.668048 5.256920 128 0 0 0.000000
-0.118634 -0.672110 5.275610 128 0 0 0.000000
-0.094969 -0.666743 5.265820 128 0 0 0.000000
-0.097769 -0.661491 5.247200 128 0 0 0.000000
-0.099205 -0.655146 5.227510 128 0 0 0.000000
-0.072464 -0.662809 5.257110 128 0 0 0.000000
-0.170715 -0.659383 5.243910 128 0 0 0.000000
-0.169085 -0.663085 5.265820 128 0 0 0.000000
-0.149409 -0.669784 5.274140 128 0 0 0.000000
-0.139558 -0.671901 5.290700 128 0 0 0.000000
-0.063971 -0.703324 5.345580 128 0 0 0.000000
-0.078993 -0.694600 5.328510 128 0 0 0.000000
-0.093526 -0.686458 5.311100 128 0 0 0.000000
-0.046164 -0.701988 5.335400 128 0 0 0.000000
-0.106861 -0.679470 5.293590 128 0 0 0.000000
-0.053892 -0.692041 5.316630 128 0 0 0.000000
-0.061209 -0.682092 5.296950 128 0 0 0.000000
-0.026599 -0.688947 5.304630 128 0 0 0.000000
-0.067380 -0.672424 5.276980 128 0 0 0.000000
0.049745 -0.642133 5.177400 128 0 0 0.000000
0.024868 -0.640898 5.181590 128 0 0 0.000000
0.037125 -0.645573 5.197310 128 0 0 0.000000
-0.000241 -0.640426 5.186630 128 0 0 0.000000
0.011725 -0.644800 5.201900 128 0 0 0.000000
-0.014907 -0.645386 5.207360 128 0 0 0.000000
-0.026295 -0.641141 5.192540 128 0 0 0.000000
0.024100 -0.649840 5.217260 128 0 0 0.000000
-0.002967 -0.649788 5.222320 128 0 0 0.000000
0.009671 -0.654481 5.237210 128 0 0 0.000000
0.060317 -0.654461 5.226390 128 0 0 0.000000
0.072512 -0.650635 5.206650 128 0 0 0.000000
-0.069269 -0.645079 5.201740 128 0 0 0.000000
-0.056259 -0.649313 5.216590 128 0 0 0.000000
-0.090299 -0.647056 5.206590 128 0 0 0.000000
-0.077956 -0.652055 5.222140 128 0 0 0.000000
-0.064604 -0.656280 5.237370 128 0 0 0.000000
-0.031717 -0.657503 5.245920 128 0 0 0.000000
0.010621 -0.687378 5.294350 128 0 0 0.000000
-0.003860 -0.678135 5.278930 128 0 0 0.000000
0.032996 -0.674593 5.268010 128 0 0 0.000000
0.045389 -0.686022 5.283710 128 0 0 0.000000
0.002033 -0.666343 5.257780 128 0 0 0.000000
-0.037806 -0.668481 5.267950 128 0 0 0.000000
0.069421 -0.687996 5.279380 128 0 0 0.000000
0.092886 -0.689476 5.274380 128 0 0 0.000000
0.082664 -0.678441 5.259180 128 0 0 0.000000
0.113842 -0.690923 5.268240 128 0 0 0.000000
0.103859 -0.679402 5.252780 128 0 0 0.000000
0.094677 -0.668250 5.237660 128 0 0 0.000000
0.071304 -0.666005 5.242820 128 0 0 0.000000
0.046666 -0.664528 5.247550 128 0 0 0.000000
0.058346 -0.676123 5.264040 128 0 0 0.000000
-0.184819 -0.655184 5.257740 128 0 0 0.000000
-0.183473 -0.656471 5.283730 128 0 0 0.000000
-0.164969 -0.664596 5.291060 128 0 0 0.000000
-0.153083 -0.667216 5.307590 128 0 0 0.000000
-0.198426 -0.646987 5.276190 128 0 0 0.000000
-0.174174 -0.656880 5.307790 128 0 0 0.000000
-0.138390 -0.674660 5.323170 128 0 0 0.000000
-0.110810 -0.685774 5.324560 128 0 0 0.000000
-0.126367 -0.679617 5.307870 128 0 0 0.000000
-0.021703 -0.716642 5.346000 128 0 0 0.000000
-0.007105 -0.733676 5.360940 128 0 0 0.000000
0.005367 -0.753270 5.375290 128 0 0 0.000000
0.006924 -0.773147 5.392500 128 0 0 0.000000
-0.025120 -0.733898 5.368870 128 0 0 0.000000
-0.043748 -0.716827 5.356940 128 0 0 0.000000
-0.016637 -0.752536 5.385860 128 0 0 0.000000
-0.010612 -0.773211 5.402290 128 0 0 0.000000
-0.015228 -0.866136 5.441650 128 0 0 0.000000
-0.006357 -0.842004 5.430360 128 0 0 0.000000
-0.000226 -0.818442 5.418070 128 0 0 0.000000
0.009001 -0.865697 5.431480 128 0 0 0.000000
0.004076 -0.795155 5.405590 128 0 0 0.000000
0.018350 -0.842475 5.418660 128 0 0 0.000000
0.033528 -0.797021 5.392520 128 0 0 0.000000
0.018338 -0.819185 5.409360 128 0 0 0.000000
-0.043300 -0.731778 5.381210 128 0 0 0.000000
-0.025894 -0.815920 5.434820 128 0 0 0.000000
-0.034638 -0.864077 5.453320 128 0 0 0.000000
-0.026911 -0.792393 5.426140 128 0 0 0.000000
-0.025786 -0.840536 5.441510 128 0 0 0.000000
0.096539 -0.992258 5.361930 128 0 0 0.000000
0.086425 -0.979359 5.375250 128 0 0 0.000000
0.115932 -0.965515 5.371570 128 0 0 0.000000
0.106350 -0.952330 5.384620 128 0 0 0.000000
0.075586 -0.966241 5.388640 128 0 0 0.000000
0.065531 -0.951984 5.402010 128 0 0 0.000000
0.039107 -0.980172 5.392370 128 0 0 0.000000
0.050085 -0.994018 5.379500 128 0 0 0.000000
0.061697 -1.007020 5.366270 128 0 0 0.000000
0.012267 -1.006810 5.381520 128 0 0 0.000000
0.133052 -0.933457 5.374740 128 0 0 0.000000
0.122153 -0.914918 5.382060 128 0 0 0.000000
0.145041 -0.897504 5.372890 128 0 0 0.000000
0.110492 -0.895942 5.390320 128 0 0 0.000000
0.091459 -0.895006 5.399610 128 0 0 0.000000
0.102488 -0.914938 5.391640 128 0 0 0.000000
0.082807 -0.914106 5.400670 128 0 0 0.000000
0.033596 -0.888647 5.420520 128 0 0 0.000000
0.038957 -0.910057 5.417440 128 0 0 0.000000
0.027933 -0.929574 5.418980 128 0 0 0.000000
0.032848 -0.949687 5.414710 128 0 0 0.000000
-0.001244 -0.947283 5.426430 128 0 0 0.000000
0.059684 -0.931999 5.406890 128 0 0 0.000000
0.063307 -0.891302 5.409700 128 0 0 0.000000
-0.019410 -0.960724 5.421640 128 0 0 0.000000
-0.037516 -0.972890 5.416720 128 0 0 0.000000
0.004157 -0.977141 5.404020 128 0 0 0.000000
-0.012962 -0.989888 5.398830 128 0 0 0.000000
-0.030302 -1.001870 5.393410 128 0 0 0.000000
-0.056790 -0.983460 5.411830 128 0 0 0.000000
-0.075968 -0.993657 5.407190 128 0 0 0.000000
-0.061669 -0.968268 5.424280 128 0 0 0.000000
-0.042160 -0.957447 5.428880 128 0 0 0.000000
-0.023234 -0.945143 5.433530 128 0 0 0.000000
-0.046685 -0.941661 5.440560 128 0 0 0.000000
-0.067008 -0.953283 5.436360 128 0 0 0.000000
-0.086998 -0.964362 5.432360 128 0 0 0.000000
-0.082392 -0.978547 5.419720 128 0 0 0.000000
-0.101299 -0.989458 5.415270 128 0 0 0.000000
-0.105626 -0.976062 5.427980 128 0 0 0.000000
-0.122964 -0.987547 5.423440 128 0 0 0.000000
0.014213 -0.908314 5.426280 128 0 0 0.000000
-0.003033 -0.886578 5.435150 128 0 0 0.000000
-0.017539 -0.905976 5.437990 128 0 0 0.000000
-0.008971 -0.927124 5.432330 128 0 0 0.000000
-0.032501 -0.924350 5.439720 128 0 0 0.000000
-0.030809 -0.885857 5.445590 128 0 0 0.000000
-0.046027 -0.904214 5.447670 128 0 0 0.000000
-0.059637 -0.922386 5.449570 128 0 0 0.000000
-0.073661 -0.939498 5.450530 128 0 0 0.000000
-0.093459 -0.951807 5.447010 128 0 0 0.000000
-0.112533 -0.963429 5.442930 128 0 0 0.000000
-0.130265 -0.975536 5.439630 128 0 0 0.000000
-0.147245 -0.987825 5.436070 128 0 0 0.000000
-0.095868 -0.940204 5.464600 128 0 0 0.000000
-0.064976 -0.902266 5.458690 128 0 0 0.000000
-0.050349 -0.883446 5.456130 128 0 0 0.000000
-0.165400 -0.991683 5.450660 128 0 0 0.000000
-0.148686 -0.978075 5.453170 128 0 0 0.000000
-0.133357 -0.965847 5.459250 128 0 0 0.000000
-0.111884 -0.952547 5.458980 128 0 0 0.000000
-0.272282 -1.042750 5.369850 255 82 0 0.646259
-0.289132 -1.049550 5.346120 255 49 0 0.612698
-0.305776 -1.056940 5.322840 196 0 0 0.493150
-0.309575 -1.055310 5.342030 242 8 0 0.559992
-0.285435 -1.051040 5.326580 205 0 0 0.507409
-0.266809 -1.045920 5.332700 237 4 0 0.550682
-0.269738 -1.044020 5.351200 255 38 0 0.596641
-0.250897 -1.039040 5.357050 228 0 0 0.541651
-0.333530 -1.061050 5.322700 173 0 0 0.450460
-0.327079 -1.059260 5.301980 151 0 0 0.379236
-0.348236 -1.061370 5.297120 137 0 0 0.320442
-0.310586 -1.056460 5.291840 146 0 0 0.365076
-0.274927 -1.053700 5.274490 128 0 0 0.236800
-0.266815 -1.052650 5.301500 155 0 0 0.392264
-0.253670 -1.052550 5.279960 128 0 0 0.242626
-0.288128 -1.054380 5.296410 155 0 0 0.393704
-0.296608 -1.055420 5.269340 128 0 0 0.204826
-0.233064 -1.047920 5.301430 142 0 0 0.342276
-0.244070 -1.044310 5.321540 183 0 0 0.469121
-0.222310 -1.040280 5.327730 160 0 0 0.412818
-0.200072 -1.036930 5.333710 146 0 0 0.351724
-0.232846 -1.037660 5.347720 183 0 0 0.468985
-0.244549 -1.028970 5.432620 201 0 0 0.500704
-0.222762 -1.018040 5.434340 142 0 0 0.344719
-0.205242 -1.010490 5.440790 128 0 0 0.190412
-0.188039 -1.001020 5.447780 128 0 0 0.000000
-0.277402 -1.037710 5.414950 255 90 0 0.654091
-0.288167 -1.043640 5.401890 255 153 0 0.704316
-0.304563 -1.050470 5.392980 255 149 0 0.703182
-0.256792 -1.031810 5.419160 251 16 0 0.571449
-0.258578 -1.035910 5.379070 255 38 0 0.597654
-0.244155 -1.030040 5.388360 214 0 0 0.524788
-0.240839 -1.026390 5.406220 187 0 0 0.473801
-0.225372 -1.021940 5.415440 155 0 0 0.402571
-0.261640 -1.033450 5.401030 255 56 0 0.619435
-0.199025 -1.011150 5.414460 128 0 0 0.149853
-0.182288 -1.003540 5.421420 128 0 0 0.001176
-0.165330 -0.995379 5.428920 128 0 0 0.000000
-0.383191 -1.068890 5.455870 255 71 0 0.634707
-0.407854 -1.070550 5.455310 255 53 0 0.615742
-0.392051 -1.070330 5.475840 255 49 0 0.612358
-0.432676 -1.072050 5.454700 242 8 0 0.559768
-0.458010 -1.073200 5.454600 205 0 0 0.509144
-0.444535 -1.075040 5.432860 173 0 0 0.444127
-0.419178 -1.072870 5.433180 219 0 0 0.527871
-0.399666 -1.069850 5.495690 255 71 0 0.636052
-0.423345 -1.068920 5.488870 255 93 0 0.657796
-0.429680 -1.067670 5.507880 255 145 0 0.700205
-0.405722 -1.068910 5.514580 255 101 0 0.661683
-0.450282 -1.067760 5.491630 255 130 0 0.688952
-0.477430 -1.066460 5.494190 255 134 0 0.690151
-0.468072 -1.070030 5.474740 255 41 0 0.602698
-0.440698 -1.070800 5.471660 255 53 0 0.616726
-0.565703 -1.057040 5.461140 233 1 0 0.549054
-0.539277 -1.060460 5.458950 255 30 0 0.589151
-0.552560 -1.062070 5.441010 164 0 0 0.428553
-0.512437 -1.064850 5.457090 255 23 0 0.581815
-0.525765 -1.065960 5.438940 173 0 0 0.447611
-0.498498 -1.069930 5.436850 173 0 0 0.450739
-0.538736 -1.067260 5.420130 133 0 0 0.277979
-0.485386 -1.069150 5.455770 233 1 0 0.548755
-0.495040 -1.065590 5.475720 255 82 0 0.646101
-0.522315 -1.060790 5.477290 255 108 0 0.670810
-0.514024 -1.069550 5.421140 142 0 0 0.339850
-0.526480 -1.069770 5.404660 128 0 0 0.203839
-0.502024 -1.072030 5.405790 133 0 0 0.256779
-0.483123 -1.072930 5.414600 142 0 0 0.341689
-0.514317 -1.071910 5.389000 128 0 0 0.121502
-0.464515 -1.073660 5.423670 160 0 0 0.413347
-0.007874 -1.049560 5.295990 128 0 0 0.000000
-0.019536 -1.045790 5.313070 128 0 0 0.000000
0.018806 -1.041850 5.316140 128 0 0 0.000000
0.006852 -1.038280 5.333170 128 0 0 0.000000
-0.033036 -1.041220 5.330200 128 0 0 0.000000
-0.046662 -1.035250 5.347080 128 0 0 0.000000
-0.078720 -1.040700 5.326900 128 0 0 0.000000
-0.062928 -1.047540 5.309820 128 0 0 0.000000
-0.049543 -1.052510 5.292770 128 0 0 0.000000
-0.110102 -1.046660 5.307600 128 0 0 0.000000
0.047622 -1.030540 5.334070 128 0 0 0.000000
0.036176 -1.023160 5.350260 128 0 0 0.000000
0.072337 -1.014280 5.349820 128 0 0 0.000000
0.024186 -1.015600 5.365930 128 0 0 0.000000
-0.018081 -1.021370 5.364080 128 0 0 0.000000
-0.005298 -1.030450 5.348750 128 0 0 0.000000
-0.089412 -1.008390 5.383370 128 0 0 0.000000
-0.112767 -1.004710 5.389930 128 0 0 0.000000
-0.062116 -1.014410 5.376450 128 0 0 0.000000
-0.099451 -1.024970 5.360350 128 0 0 0.000000
-0.123684 -1.020570 5.367470 128 0 0 0.000000
-0.145778 -1.017590 5.373980 128 0 0 0.000000
-0.072524 -1.030600 5.353270 128 0 0 0.000000
-0.153998 -1.028340 5.347310 128 0 0 0.087212
-0.174523 -1.026020 5.353710 128 0 0 0.173112
-0.130713 -1.031450 5.340700 128 0 0 0.000000
-0.160683 -1.040020 5.321160 128 0 0 0.090090
-0.181025 -1.038440 5.327430 128 0 0 0.194661
-0.136764 -1.042980 5.314700 128 0 0 0.000000
-0.105258 -1.035920 5.333870 128 0 0 0.000000
-0.195779 -1.025120 5.362900 133 0 0 0.287751
-0.168563 -1.016580 5.383210 128 0 0 0.062449
-0.189343 -1.016320 5.392610 128 0 0 0.142053
-0.204002 -1.020850 5.382820 133 0 0 0.279885
-0.217705 -1.026220 5.372710 155 0 0 0.402485
-0.209150 -1.030940 5.352950 146 0 0 0.368303
-0.135831 -1.001350 5.398830 128 0 0 0.000000
-0.140933 -0.994356 5.415920 128 0 0 0.000000
-0.157923 -1.001480 5.407890 128 0 0 0.000000
-0.152799 -1.008350 5.390860 128 0 0 0.000000
-0.174216 -1.008680 5.400080 128 0 0 0.000000
-0.222864 -1.023030 5.394090 160 0 0 0.410103
-0.237172 -1.032530 5.366740 201 0 0 0.499466
-0.110289 -1.054910 5.208970 128 0 0 0.000000
-0.128072 -1.055660 5.227940 128 0 0 0.000000
-0.086118 -1.056490 5.230730 128 0 0 0.000000
-0.103252 -1.057000 5.249080 128 0 0 0.000000
-0.147572 -1.054970 5.246750 128 0 0 0.000000
-0.165895 -1.053640 5.265370 128 0 0 0.000000
-0.188088 -1.053880 5.243830 128 0 0 0.000000
-0.172258 -1.054340 5.225560 128 0 0 0.000000
-0.154062 -1.054590 5.206650 128 0 0 0.000000
-0.209397 -1.054280 5.222420 128 0 0 0.000000
-0.061055 -1.056200 5.252610 128 0 0 0.000000
-0.074814 -1.054860 5.270680 128 0 0 0.000000
-0.035113 -1.054250 5.274590 128 0 0 0.000000
-0.091557 -1.051850 5.289310 128 0 0 0.000000
-0.139153 -1.049630 5.286590 128 0 0 0.000000
-0.120236 -1.054110 5.267890 128 0 0 0.000000
-0.203576 -1.044660 5.305980 133 0 0 0.258656
-0.184147 -1.045620 5.299710 128 0 0 0.159462
-0.207473 -1.052020 5.278600 128 0 0 0.024364
-0.225911 -1.051570 5.284690 128 0 0 0.210799
-0.175473 -1.049860 5.282720 128 0 0 0.000000
-0.245329 -1.053280 5.262600 128 0 0 0.099894
-0.227279 -1.053140 5.256810 128 0 0 0.001363
-0.246921 -1.054590 5.234690 128 0 0 0.000000
-0.265115 -1.054420 5.240810 128 0 0 0.000000
-0.218550 -1.053870 5.239650 128 0 0 0.000000
-0.198139 -1.053360 5.261340 128 0 0 0.000000
-0.337903 -1.058990 5.400390 255 134 0 0.690017
-0.353844 -1.063320 5.392480 255 64 0 0.628093
-0.338458 -1.060270 5.381180 255 75 0 0.640363
-0.354124 -1.064520 5.373270 246 12 0 0.565031
-0.370613 -1.068860 5.365410 183 0 0 0.472092
-0.369957 -1.066970 5.384550 251 16 0 0.570261
-0.386353 -1.071540 5.376480 173 0 0 0.450931
-0.354431 -1.066010 5.354100 196 0 0 0.495568
-0.406345 -1.071600 5.351630 142 0 0 0.336700
-0.427432 -1.070960 5.327390 128 0 0 0.176269
-0.430377 -1.072790 5.348280 128 0 0 0.236286
-0.403284 -1.069760 5.330390 133 0 0 0.292507
-0.381351 -1.068050 5.334560 146 0 0 0.364047
-0.354032 -1.063610 5.317900 151 0 0 0.385110
-0.338213 -1.062960 5.343610 201 0 0 0.498689
-0.376050 -1.065820 5.313640 137 0 0 0.320932
-0.399328 -1.067690 5.309820 128 0 0 0.222321
-0.310425 -1.054050 5.360330 255 71 0 0.634221
-0.291347 -1.048500 5.364940 255 104 0 0.666740
-0.430340 -1.074200 5.369330 137 0 0 0.301993
-0.408167 -1.072930 5.372890 151 0 0 0.380511
-0.408095 -1.074130 5.394040 164 0 0 0.423915
-0.431577 -1.075030 5.390600 146 0 0 0.353586
-0.448109 -1.075000 5.381290 133 0 0 0.281351
-0.447168 -1.073990 5.360060 128 0 0 0.212644
-0.463568 -1.073530 5.350790 128 0 0 0.102438
-0.464961 -1.074740 5.372090 128 0 0 0.177473
-0.481607 -1.074180 5.362670 128 0 0 0.060726
-0.353391 -1.063490 5.417260 255 112 0 0.672957
-0.371803 -1.066730 5.409670 255 53 0 0.616072
-0.389717 -1.070450 5.401760 223 0 0 0.538039
-0.393099 -1.070000 5.434330 255 41 0 0.601667
-0.427482 -1.075600 5.412860 160 0 0 0.412624
-0.368766 -1.066670 5.435700 255 86 0 0.649699
-0.450495 -1.075250 5.409940 146 0 0 0.370419
-0.468941 -1.074550 5.400500 133 0 0 0.293095
-0.487482 -1.073800 5.391380 128 0 0 0.200219
-0.498048 -1.073400 5.375830 128 0 0 0.084486
-0.550832 -1.055410 5.483820 255 134 0 0.689849
-0.535448 -1.054140 5.506410 213 255 35 0.787219
-0.506787 -1.059860 5.500330 255 238 0 0.759965
-0.490930 -1.059530 5.523470 184 255 64 0.804191
-0.519908 -1.053340 5.528960 103 255 145 0.846463
-0.503774 -1.053590 5.551800 45 255 203 0.873163
-0.551807 -1.045800 5.533200 58 255 190 0.867942
-0.566896 -1.047190 5.511160 193 255 55 0.799356
-0.582072 -1.048630 5.488980 255 138 0 0.693972
-0.597928 -1.041880 5.515790 232 255 16 0.774890
-0.458389 -1.064980 5.515450 255 227 0 0.753232
-0.439487 -1.064290 5.536900 245 249 3 0.767118
-0.415283 -1.066600 5.543650 255 175 0 0.721567
-0.391008 -1.070330 5.550610 255 56 0 0.619615
-0.400814 -1.067070 5.579570 255 138 0 0.694643
-0.426872 -1.061680 5.572530 190 255 58 0.799825
-0.452499 -1.057980 5.565630 87 255 161 0.854202
-0.471832 -1.057800 5.544370 100 255 148 0.848749
-0.445891 -1.052180 5.629500 0 217 255 0.897169
-0.472289 -1.048520 5.621770 0 137 255 0.923100
-0.465324 -1.052100 5.603150 0 177 255 0.910505
-0.498536 -1.045820 5.613930 0 105 255 0.931790
-0.491325 -1.048590 5.595480 0 145 255 0.920208
-0.517328 -1.046800 5.588110 0 145 255 0.920164
-0.524227 -1.044590 5.606610 0 121 255 0.927864
-0.484331 -1.052200 5.577360 0 217 255 0.896999
-0.510525 -1.050000 5.570130 0 209 255 0.900419
-0.458846 -1.054630 5.584550 19 253 229 0.885260
-0.433204 -1.058200 5.591510 129 255 119 0.833955
-0.439639 -1.054560 5.610180 35 255 213 0.878443
-0.413848 -1.058760 5.617480 151 255 96 0.822244
-0.407307 -1.062930 5.598580 255 234 0 0.759312
-0.420267 -1.055840 5.636730 74 255 174 0.861082
-0.548148 -1.040900 5.596580 0 129 255 0.925144
-0.573289 -1.037200 5.586090 0 165 255 0.913716
-0.565294 -1.040060 5.569060 0 209 255 0.899994
-0.597694 -1.034580 5.575750 19 253 229 0.884634
-0.589704 -1.037060 5.558940 42 255 206 0.875725
-0.613902 -1.034940 5.549170 138 255 109 0.828245
-0.621746 -1.032390 5.565750 116 255 132 0.840893
-0.581661 -1.040630 5.542280 80 255 167 0.857124
-0.606004 -1.038040 5.532580 174 255 74 0.810667
-0.558261 -1.042670 5.551300 16 249 232 0.886630
-0.534508 -1.045700 5.560440 0 205 255 0.901819
-0.541416 -1.042900 5.578290 0 161 255 0.915445
-0.046649 -0.638003 5.437450 128 0 0 0.000000
-0.069128 -0.620340 5.424650 128 0 0 0.000000
-0.091732 -0.604664 5.413090 128 0 0 0.000000
-0.056816 -0.649576 5.425860 128 0 0 0.000000
-0.080132 -0.633445 5.412150 128 0 0 0.000000
-0.113358 -0.589714 5.402770 128 0 0 0.000000
-0.134077 -0.575207 5.392610 128 0 0 0.000000
-0.121967 -0.558694 5.405310 128 0 0 0.000000
-0.101865 -0.574589 5.415170 128 0 0 0.000000
-0.105456 -0.623601 5.397960 128 0 0 0.000000
-0.204651 -0.524650 5.355350 137 0 0 0.303176
-0.188778 -0.537372 5.368100 128 0 0 0.108782
-0.174371 -0.555423 5.374840 128 0 0 0.000000
-0.194011 -0.504974 5.366130 178 0 0 0.459621
-0.155292 -0.565820 5.384110 128 0 0 0.000000
-0.178086 -0.519336 5.380030 133 0 0 0.276491
-0.159635 -0.531774 5.390820 128 0 0 0.174716
-0.181130 -0.487371 5.378230 237 4 0 0.555789
-0.164716 -0.501784 5.391670 192 0 0 0.484056
-0.139920 -0.542783 5.400600 128 0 0 0.017276
-0.146706 -0.904615 6.246500 255 149 0 0.702715
-0.143539 -0.919999 6.216580 229 255 19 0.778356
-0.169119 -0.905555 6.234560 255 138 0 0.692551
-0.166283 -0.921509 6.204620 174 255 74 0.809758
-0.140824 -0.939097 6.187780 122 255 126 0.837957
-0.138204 -0.958830 6.159340 251 241 0 0.762755
-0.115602 -0.955950 6.172130 255 208 0 0.741956
-0.118290 -0.936188 6.200430 193 255 55 0.799237
-0.121494 -0.917974 6.229510 242 253 6 0.768763
-0.093129 -0.953367 6.184590 255 141 0 0.695132
-0.191635 -0.907249 6.221810 255 167 0 0.715436
-0.188920 -0.924058 6.191600 155 255 93 0.819635
-0.214469 -0.908664 6.209480 255 164 0 0.713669
-0.211852 -0.925760 6.179420 148 255 100 0.824104
-0.186476 -0.943548 6.162520 61 255 187 0.866576
-0.184252 -0.964304 6.133450 222 255 26 0.781040
-0.161108 -0.962030 6.146570 242 253 6 0.768565
-0.163699 -0.940747 6.175370 87 255 161 0.854328
-0.123402 -1.011090 6.032670 128 0 0 0.197596
-0.127225 -1.001330 6.064950 137 0 0 0.322998
-0.100129 -1.009090 6.046340 128 0 0 0.149803
-0.130935 -0.989150 6.097350 187 0 0 0.476621
-0.103983 -0.999032 6.079030 133 0 0 0.285357
-0.107795 -0.986267 6.111460 178 0 0 0.454889
-0.076645 -1.006760 6.060260 128 0 0 0.084099
-0.134473 -0.975332 6.128850 255 64 0 0.626965
-0.157814 -0.977174 6.115700 255 86 0 0.649276
-0.154335 -0.991274 6.084160 201 0 0 0.500678
-0.080724 -0.996678 6.092680 128 0 0 0.226765
-0.053674 -1.004680 6.074360 128 0 0 0.000000
-0.084740 -0.984841 6.124520 155 0 0 0.391393
-0.057830 -0.994385 6.106740 128 0 0 0.154383
-0.062290 -0.982377 6.138340 142 0 0 0.330381
-0.030793 -1.002130 6.088030 128 0 0 0.000000
-0.088880 -0.970338 6.155150 242 8 0 0.560641
-0.111494 -0.972744 6.142390 255 41 0 0.604281
-0.237722 -0.910492 6.196740 255 167 0 0.715686
-0.235632 -0.927976 6.166010 142 255 106 0.827639
-0.261589 -0.911783 6.183970 255 160 0 0.708833
-0.259566 -0.929933 6.153590 138 255 109 0.829708
-0.233713 -0.948060 6.136380 45 255 203 0.874451
-0.231996 -0.966776 6.106100 177 255 71 0.807402
-0.208136 -0.965228 6.119760 193 255 55 0.799745
-0.209868 -0.945282 6.149660 45 255 203 0.873586
-0.284986 -0.913737 6.171340 255 167 0 0.715693
-0.282367 -0.931796 6.140740 135 255 113 0.830010
-0.308168 -0.915073 6.159010 255 164 0 0.713453
-0.305668 -0.932673 6.128390 155 255 93 0.820533
-0.280199 -0.950725 6.110600 48 255 200 0.871939
-0.278237 -0.969329 6.080350 161 255 87 0.816552
-0.255171 -0.967826 6.093110 164 255 84 0.814775
-0.257245 -0.949057 6.123420 45 255 203 0.873640
-0.217158 -1.018690 5.980210 146 0 0 0.364471
-0.221202 -1.009100 6.011800 169 0 0 0.432253
-0.194223 -1.016650 5.992650 142 0 0 0.332758
-0.225094 -0.996481 6.043270 246 12 0 0.564641
-0.198453 -1.006720 6.024620 164 0 0 0.425553
-0.202326 -0.994354 6.056550 237 4 0 0.552850
-0.171408 -1.015230 6.005340 133 0 0 0.285310
-0.228702 -0.981975 6.074670 255 156 0 0.707405
-0.251954 -0.983588 6.061970 255 160 0 0.711043
-0.248407 -0.997668 6.031010 255 30 0 0.589933
-0.174997 -1.005370 6.037370 151 0 0 0.375561
-0.147557 -1.013150 6.018840 128 0 0 0.247362
-0.178317 -0.993247 6.069670 214 0 0 0.522148
-0.150999 -1.003050 6.051310 146 0 0 0.359004
-0.181238 -0.979395 6.101850 255 104 0 0.667705
-0.205380 -0.980516 6.088220 255 123 0 0.682825
-0.329807 -0.916399 6.147040 255 167 0 0.714114
-0.325853 -0.933891 6.116870 164 255 84 0.815918
-0.350146 -0.916510 6.135750 255 138 0 0.692926
-0.346363 -0.934155 6.105850 187 255 61 0.802384
-0.322154 -0.952070 6.087150 71 255 177 0.861915
-0.318667 -0.970193 6.057620 145 255 103 0.824830
-0.298387 -0.969943 6.069030 158 255 90 0.819383
-0.302063 -0.951143 6.098570 61 255 187 0.866706
-0.369584 -0.917867 6.125070 255 138 0 0.694053
-0.364922 -0.934831 6.095280 200 255 48 0.795905
-0.388139 -0.918363 6.114890 255 123 0 0.682720
-0.383495 -0.934638 6.085120 219 255 29 0.783341
-0.360172 -0.953225 6.066370 84 255 164 0.855546
-0.355557 -0.972308 6.038010 151 255 96 0.821586
-0.337013 -0.971137 6.047830 145 255 103 0.825850
-0.341606 -0.952231 6.076380 80 255 167 0.858419
-0.293565 -1.023090 5.939690 196 0 0 0.489626
-0.300202 -1.013550 5.969860 214 0 0 0.523060
-0.275151 -1.022240 5.949300 178 0 0 0.456040
-0.306511 -1.000510 5.999190 255 71 0 0.635596
-0.281910 -1.012260 5.979540 205 0 0 0.506261
-0.288559 -0.999354 6.009020 255 60 0 0.623470
