ply
format ascii 1.0
comment VCGLIB generated
element vertex 1021
property float x
property float y
property float z
property uchar red
property uchar green
property uchar blue
property float quality
end_header
-1.065250 -0.815011 6.005280 255 41 0 0.601882
-1.046060 -0.827239 5.990110 255 101 0 0.662745
-1.057760 -0.824259 5.977550 255 60 0 0.623445
-1.034790 -0.830478 6.002060 255 119 0 0.679093
-1.141460 -0.763161 6.072340 137 0 0 0.324211
-1.166080 -0.743853 6.083930 128 0 0 0.173851
-1.168110 -0.741984 6.063710 128 0 0 0.171009
-1.189020 -0.723999 6.095000 128 0 0 0.001228
-1.192440 -0.722016 6.074690 128 0 0 0.000000
-1.195050 -0.720642 6.053840 128 0 0 0.000000
-1.178040 -0.737554 6.047700 128 0 0 0.018753
-1.160500 -0.754114 6.041410 128 0 0 0.146523
-1.150780 -0.758513 6.057220 133 0 0 0.254497
-1.017780 -0.838273 5.985610 255 208 0 0.743058
-1.029280 -0.835777 5.973870 255 167 0 0.713681
-1.012830 -0.844666 5.956930 255 230 0 0.755551
-1.040870 -0.833594 5.961320 255 134 0 0.690069
-1.024790 -0.842530 5.944630 255 197 0 0.736142
-1.036560 -0.839925 5.931860 255 141 0 0.696282
-1.052600 -0.830542 5.948370 255 78 0 0.642004
-1.009250 -0.851785 5.927240 255 234 0 0.758763
-1.021320 -0.849759 5.914540 255 178 0 0.722013
-1.006760 -0.859676 5.896260 255 208 0 0.741357
-0.992142 -0.862243 5.906750 229 255 19 0.777726
-0.994601 -0.853991 5.937440 213 255 35 0.787020
-0.977463 -0.864329 5.917230 193 255 55 0.797766
-0.980041 -0.855666 5.947080 164 255 84 0.814178
-0.998632 -0.846730 5.966750 209 255 38 0.789226
-0.962925 -0.865341 5.927570 148 255 100 0.822626
-1.072620 -0.825016 5.927940 228 0 0 0.540004
-1.059700 -0.833995 5.913390 255 38 0 0.599755
-1.076730 -0.830246 5.890940 210 0 0 0.513478
-1.089470 -0.821152 5.905520 164 0 0 0.427073
-1.055900 -0.841514 5.886980 255 30 0 0.588664
-1.052840 -0.848981 5.859600 255 30 0 0.590417
-1.029610 -0.854162 5.878010 255 141 0 0.695976
-1.014950 -0.875166 5.785860 255 97 0 0.659800
-1.011850 -0.872499 5.813580 255 141 0 0.694983
-0.988330 -0.883028 5.800960 255 175 0 0.720666
-1.009380 -0.869029 5.841680 255 175 0 0.719535
-0.985606 -0.879659 5.828750 255 208 0 0.741673
-0.983542 -0.875901 5.856490 242 253 6 0.767719
-0.962095 -0.890772 5.816050 255 219 0 0.748861
-1.008020 -0.864702 5.869060 255 190 0 0.730255
-1.030920 -0.858908 5.850880 255 112 0 0.673260
-1.033050 -0.863411 5.822880 255 93 0 0.657127
-0.945369 -0.894416 5.825350 238 255 9 0.771034
-0.957760 -0.886279 5.847610 235 255 13 0.773579
-0.941523 -0.889080 5.856640 193 255 55 0.798018
-0.929187 -0.897661 5.834420 209 255 38 0.788234
-0.954002 -0.880350 5.878460 187 255 61 0.801876
-0.925744 -0.891106 5.865790 174 255 74 0.809220
-0.938134 -0.882180 5.887700 158 255 90 0.818286
-0.913728 -0.900361 5.844230 190 255 58 0.799256
-0.951033 -0.872814 5.909400 148 255 100 0.824181
-0.965443 -0.872367 5.898290 193 255 55 0.798429
-0.980224 -0.870361 5.887310 219 255 29 0.782500
-0.968811 -0.878437 5.867650 225 255 22 0.778423
-0.708661 -0.151760 5.683170 148 255 100 0.822557
-0.714746 -0.163331 5.669190 171 255 77 0.811609
-0.727788 -0.156352 5.690430 148 255 100 0.823045
-0.734694 -0.168144 5.676140 177 255 71 0.807427
-0.754774 -0.173017 5.683060 190 255 58 0.800513
-0.741635 -0.180138 5.661650 216 255 32 0.785655
-0.747561 -0.161374 5.697710 145 255 103 0.824670
-0.767507 -0.166599 5.705540 145 255 103 0.825137
-0.742157 -0.147730 5.717310 100 255 148 0.847554
-0.723144 -0.142760 5.709450 119 255 129 0.838776
-0.759599 -0.185431 5.667320 222 255 26 0.781160
-0.777452 -0.190549 5.673010 229 255 19 0.777586
-0.800795 -0.207213 5.667360 248 245 0 0.763343
-0.777919 -0.204005 5.652450 255 227 0 0.753711
-0.812037 -0.202227 5.685570 219 255 29 0.783517
-0.790370 -0.184141 5.695190 184 255 64 0.802971
-0.772711 -0.178515 5.689130 187 255 61 0.801537
-0.839911 -0.199104 5.721140 132 255 116 0.832277
-0.822138 -0.190483 5.716460 145 255 103 0.824944
-0.819196 -0.179466 5.734220 90 255 158 0.852823
-0.804153 -0.182373 5.712280 148 255 100 0.823403
-0.800730 -0.171118 5.730400 87 255 161 0.853664
-0.782602 -0.162993 5.726800 100 255 148 0.847319
-0.797711 -0.159711 5.748430 51 255 196 0.870297
-0.785474 -0.149345 5.756840 25 255 222 0.882423
-0.765613 -0.141190 5.751430 42 255 206 0.874164
-0.754111 -0.130504 5.759300 6 237 242 0.890130
-0.737753 -0.136301 5.733730 77 255 171 0.858132
-0.762291 -0.155356 5.721840 100 255 148 0.848520
-0.878690 -0.286381 5.629160 255 175 0 0.719356
-0.877042 -0.270757 5.647510 255 190 0 0.729638
-0.875465 -0.256238 5.665930 255 216 0 0.747022
-0.896864 -0.275524 5.659900 255 186 0 0.727372
-0.853977 -0.238856 5.672070 229 255 19 0.776245
-0.855070 -0.251820 5.653080 255 212 0 0.745347
-0.856065 -0.266567 5.633960 255 186 0 0.728616
-0.838668 -0.245863 5.647750 255 230 0 0.755998
-0.898650 -0.264106 5.678750 255 238 0 0.759095
-0.900476 -0.254432 5.697260 209 255 38 0.788279
-0.920534 -0.272398 5.690650 255 238 0 0.760270
-0.879962 -0.237018 5.704820 158 255 90 0.817392
-0.877781 -0.246306 5.685040 225 255 22 0.779876
-0.836473 -0.208592 5.699530 196 255 51 0.796272
-0.832984 -0.219418 5.678190 245 249 3 0.765555
-0.857033 -0.227522 5.691850 209 255 38 0.788374
-0.860136 -0.217013 5.712100 161 255 87 0.815827
-0.823098 -0.223830 5.662310 255 219 0 0.748838
-0.811814 -0.229551 5.644110 255 193 0 0.732855
-0.990968 -0.251523 5.829180 0 177 255 0.909259
-1.006640 -0.257891 5.846130 0 153 255 0.917526
-1.022140 -0.263634 5.862880 0 97 255 0.933932
-1.022450 -0.275359 5.841130 0 165 255 0.913439
-1.005530 -0.246129 5.868080 0 81 255 0.938552
-0.986168 -0.226424 5.872860 0 65 255 0.942816
-0.989178 -0.238997 5.851160 0 153 255 0.917195
-0.969904 -0.219601 5.855520 0 157 255 0.916277
-1.042650 -0.291382 5.847770 0 185 255 0.907682
-1.043040 -0.281076 5.869350 0 205 255 0.900308
-1.057620 -0.298440 5.862400 6 237 242 0.889961
-1.072060 -0.315583 5.855250 84 255 164 0.855645
-1.058090 -0.287962 5.883470 9 241 238 0.888571
-1.042830 -0.270700 5.890090 0 157 255 0.916255
-1.021190 -0.252975 5.883780 0 173 255 0.911436
-1.020070 -0.240036 5.907040 0 109 255 0.929878
-0.996929 -0.217555 5.913460 0 81 255 0.938065
-1.002510 -0.231882 5.890670 0 9 255 0.958258
-1.042780 -0.257720 5.912550 0 153 255 0.917280
-0.967625 -0.202735 5.892410 0 0 251 0.966095
-0.940750 -0.185227 5.883870 0 41 255 0.949972
-0.907639 -0.209890 5.785260 0 229 248 0.892242
-0.919323 -0.207165 5.806610 0 197 255 0.902801
-0.930245 -0.204314 5.827370 0 165 255 0.913290
-0.938264 -0.222559 5.803980 0 209 255 0.899219
-0.911105 -0.190265 5.830680 0 137 255 0.922364
-0.890579 -0.175333 5.833550 0 113 255 0.929084
-0.899062 -0.192403 5.809360 0 169 255 0.912474
-0.878532 -0.177626 5.812260 0 153 255 0.917553
-0.959152 -0.233006 5.814780 0 189 255 0.906095
-0.955505 -0.218099 5.837400 0 161 255 0.914685
-0.973748 -0.234784 5.833470 0 165 255 0.913267
-0.948310 -0.202280 5.859640 0 69 255 0.941775
-0.923913 -0.189586 5.850580 0 113 255 0.929106
-0.907154 -0.161747 5.884910 0 0 237 0.969599
-0.917133 -0.173393 5.875090 0 29 255 0.953593
-0.892087 -0.160722 5.865940 0 29 255 0.953394
-0.882389 -0.149292 5.876090 0 0 237 0.969067
-0.902071 -0.171833 5.855920 0 41 255 0.949426
-0.860080 -0.141126 5.864460 0 0 237 0.969487
-0.870639 -0.152709 5.854340 0 29 255 0.953403
-0.847549 -0.144116 5.842380 0 41 255 0.949722
-0.837293 -0.132367 5.852370 0 0 255 0.963415
-0.869814 -0.159933 5.837980 0 101 255 0.932932
-0.838155 -0.188841 5.737590 96 255 151 0.849943
-0.855366 -0.199908 5.738200 90 255 158 0.852111
-0.836073 -0.179251 5.754540 45 255 203 0.873257
-0.853651 -0.189882 5.754850 58 255 190 0.867181
-0.851417 -0.180108 5.771670 6 237 242 0.889613
-0.871522 -0.201061 5.755360 64 255 184 0.865200
-0.833574 -0.169566 5.771780 0 221 255 0.895837
-0.831034 -0.159562 5.788540 0 189 255 0.906358
-0.814685 -0.159490 5.768370 9 241 238 0.888967
-0.816792 -0.169487 5.751440 42 255 206 0.874883
-0.871122 -0.192796 5.772170 13 245 235 0.887356
-0.889271 -0.205385 5.770350 22 255 226 0.882562
-0.870561 -0.184228 5.788570 0 197 255 0.902849
-0.889110 -0.196625 5.786660 0 229 248 0.893067
-0.859582 -0.165205 5.813370 0 137 255 0.921616
-0.850729 -0.172016 5.788810 0 185 255 0.907025
-0.818119 -0.128839 5.835080 0 25 255 0.954114
-0.828937 -0.140496 5.826120 0 61 255 0.944496
-0.808620 -0.137029 5.807420 0 109 255 0.930440
-0.797697 -0.125459 5.816630 0 69 255 0.942173
-0.829994 -0.150484 5.807740 0 137 255 0.921632
-0.848803 -0.153812 5.824070 0 113 255 0.929001
-0.780235 -0.126133 5.795400 0 157 255 0.916054
-0.791958 -0.137207 5.788010 0 197 255 0.903058
-0.803236 -0.148457 5.778210 0 213 255 0.898311
-0.924407 -0.264633 5.708570 206 255 42 0.790578
-0.928503 -0.257965 5.726970 135 255 113 0.830750
-0.940035 -0.274903 5.712250 193 255 55 0.798202
-0.912705 -0.248329 5.724020 135 255 113 0.830333
-0.894842 -0.238801 5.720050 122 255 126 0.836227
-0.953859 -0.277886 5.725620 167 255 80 0.812861
-0.944652 -0.262318 5.740640 113 255 135 0.841502
-0.959034 -0.266526 5.752620 96 255 151 0.848780
-0.968066 -0.281833 5.737720 138 255 109 0.829211
-0.941994 -0.250034 5.762040 35 255 213 0.878227
-0.926103 -0.245291 5.749240 58 255 190 0.867834
-0.909234 -0.224967 5.760390 48 255 200 0.871853
-0.891034 -0.220007 5.745180 87 255 161 0.854508
-0.925564 -0.229740 5.773760 22 255 226 0.883283
-0.876182 -0.217977 5.729370 135 255 113 0.830091
-0.977016 -0.248446 5.812660 0 201 255 0.902225
-0.963220 -0.245602 5.796340 0 229 248 0.892036
-0.980891 -0.261499 5.794480 0 221 255 0.895370
-0.996334 -0.275784 5.791850 9 241 238 0.888535
-0.993857 -0.263483 5.810210 0 205 255 0.900046
-1.009290 -0.277824 5.807450 0 221 255 0.895249
-0.945641 -0.238275 5.785850 9 241 238 0.889113
-0.959713 -0.257322 5.772800 19 253 229 0.884598
-0.982988 -0.287400 5.748270 125 255 122 0.835133
-0.976420 -0.273983 5.763300 80 255 167 0.857228
-0.991824 -0.280748 5.772200 74 255 174 0.860118
-0.998152 -0.294015 5.757260 116 255 132 0.839388
-1.014000 -0.302056 5.765070 125 255 122 0.835074
-1.010490 -0.291742 5.780790 61 255 187 0.866646
-1.027270 -0.301192 5.788040 67 255 180 0.863705
-1.030810 -0.311500 5.772080 125 255 122 0.835410
-1.048520 -0.322993 5.779110 135 255 113 0.830574
-1.061900 -0.329246 5.791470 122 255 126 0.836187
-1.076890 -0.342788 5.787890 229 255 19 0.777176
-1.050550 -0.315780 5.805060 45 255 203 0.873837
-1.034440 -0.301132 5.807810 0 225 251 0.894129
-1.089810 -0.350594 5.799280 248 245 0 0.764804
-1.102890 -0.358307 5.810180 255 153 0 0.703343
-1.113180 -0.371405 5.795830 251 16 0 0.568168
-1.092170 -0.346014 5.823790 187 255 61 0.802273
-1.078800 -0.337737 5.813020 135 255 113 0.830852
-1.063620 -0.323455 5.817050 51 255 196 0.870730
-1.057890 -0.307530 5.842880 55 255 193 0.868319
-1.043720 -0.299099 5.829850 0 209 255 0.898885
-1.077530 -0.330881 5.829800 93 255 155 0.851160
-1.024100 -0.284801 5.822610 0 189 255 0.905439
-1.007690 -0.268340 5.825920 0 173 255 0.910533
-1.143420 -0.378457 5.861300 192 0 0 0.482590
-1.162180 -0.394876 5.869960 128 0 0 0.236847
-1.181350 -0.410591 5.878380 128 0 0 0.000000
-1.174970 -0.411450 5.859080 128 0 0 0.000000
-1.167870 -0.394548 5.889110 133 0 0 0.258102
-1.153410 -0.374506 5.899300 205 0 0 0.507615
-1.147940 -0.376386 5.880850 192 0 0 0.487607
-1.133650 -0.355819 5.891060 255 101 0 0.664020
-1.197280 -0.434993 5.855720 128 0 0 0.000000
-1.205460 -0.439676 5.874530 128 0 0 0.000000
-1.218740 -0.456023 5.862450 128 0 0 0.000000
-1.231460 -0.472332 5.850190 128 0 0 0.000000
-1.227290 -0.460501 5.881980 128 0 0 0.000000
-1.213000 -0.442243 5.893690 128 0 0 0.000000
-1.188420 -0.413782 5.896750 128 0 0 0.000000
-1.213390 -0.428299 5.926780 128 0 0 0.000000
-1.199570 -0.412129 5.927830 128 0 0 0.000000
-1.187090 -0.402476 5.918250 128 0 0 0.158931
-1.174310 -0.386297 5.919300 142 0 0 0.348207
-1.200590 -0.423166 5.906070 128 0 0 0.000000
-1.225880 -0.446978 5.914940 128 0 0 0.000000
-1.148620 -0.353297 5.930170 255 93 0 0.655253
-1.125830 -0.331310 5.920760 232 255 16 0.775664
-1.140840 -0.355089 5.910630 255 101 0 0.662669
-1.175260 -0.425780 5.795600 128 0 0 0.000000
-1.186890 -0.434811 5.808150 128 0 0 0.000000
-1.204420 -0.447618 5.812390 128 0 0 0.000000
-1.178070 -0.423714 5.825000 128 0 0 0.000000
-1.166200 -0.414680 5.811940 128 0 0 0.000000
-1.157290 -0.404155 5.827450 128 0 0 0.030680
-1.211740 -0.452755 5.844790 128 0 0 0.000000
-1.196990 -0.437472 5.830110 128 0 0 0.000000
-1.218440 -0.462216 5.825720 128 0 0 0.000000
-1.239380 -0.479467 5.830210 128 0 0 0.000000
-1.157070 -0.396136 5.852360 128 0 0 0.191635
-1.249520 -0.496508 5.857460 128 0 0 0.000000
-1.266260 -0.521697 5.867920 128 0 0 0.000000
-1.260660 -0.512194 5.844510 128 0 0 0.000000
-1.255410 -0.505681 5.879710 128 0 0 0.000000
-1.244950 -0.486599 5.890940 128 0 0 0.000000
-1.238950 -0.478961 5.870090 128 0 0 0.000000
-1.272110 -0.539017 5.857580 128 0 0 0.000000
-1.279890 -0.567934 5.859200 128 0 0 0.000000
-1.274240 -0.567061 5.885610 128 0 0 0.000000
-1.270240 -0.548889 5.895300 128 0 0 0.000000
-1.270410 -0.561929 5.941230 128 0 0 0.000000
-1.269180 -0.546683 5.923990 128 0 0 0.000000
-1.266820 -0.526330 5.932690 128 0 0 0.000000
-1.263470 -0.511809 5.917060 128 0 0 0.000000
-1.266560 -0.532148 5.907840 128 0 0 0.000000
-1.271980 -0.564140 5.911870 128 0 0 0.000000
-1.272480 -0.580141 5.929490 128 0 0 0.000000
-1.255510 -0.493125 5.928870 128 0 0 0.000000
-1.245060 -0.475945 5.927560 128 0 0 0.000000
-1.236160 -0.463370 5.915140 128 0 0 0.000000
-1.254840 -0.498964 5.903790 128 0 0 0.000000
-1.229320 -0.712728 5.878680 128 0 0 0.000000
-1.214570 -0.726697 5.888820 128 0 0 0.000000
-1.210090 -0.736788 5.876760 128 0 0 0.000000
-1.197250 -0.749557 5.885190 128 0 0 0.000000
-1.209280 -0.744940 5.862000 128 0 0 0.000000
-1.199270 -0.740727 5.899410 128 0 0 0.000000
-1.184080 -0.754251 5.908390 128 0 0 0.000000
-1.205760 -0.728552 5.914890 128 0 0 0.000000
-1.222240 -0.713674 5.903750 128 0 0 0.000000
-1.238400 -0.699201 5.892100 128 0 0 0.000000
-1.229280 -0.701451 5.918920 128 0 0 0.000000
-1.189340 -0.760302 5.868680 128 0 0 0.000000
-1.187710 -0.766788 5.853750 128 0 0 0.000000
-1.171710 -0.773759 5.872920 128 0 0 0.000000
-1.169460 -0.781658 5.857410 128 0 0 0.000000
-1.153070 -0.794684 5.860090 128 0 0 0.000000
-1.168260 -0.789210 5.842190 128 0 0 0.000000
-1.136850 -0.800777 5.877880 128 0 0 0.000000
-1.159600 -0.777319 5.894610 128 0 0 0.000000
-1.177590 -0.764149 5.890730 128 0 0 0.000000
-1.123110 -0.797926 5.917600 128 0 0 0.217729
-1.137780 -0.785488 5.928500 128 0 0 0.052658
-1.157810 -0.771144 5.925570 128 0 0 0.000000
-1.173890 -0.757793 5.934990 128 0 0 0.000000
-1.139930 -0.792038 5.896670 128 0 0 0.000000
-1.120190 -0.806209 5.898550 128 0 0 0.199299
-1.180400 -0.746417 5.951790 128 0 0 0.000000
-1.196980 -0.731719 5.941520 128 0 0 0.000000
-1.209620 -0.716318 5.960720 128 0 0 0.000000
-1.226030 -0.701058 5.949560 128 0 0 0.000000
-1.213180 -0.716768 5.930500 128 0 0 0.000000
-1.190580 -0.742750 5.924740 128 0 0 0.000000
-1.269210 -0.593970 5.946750 128 0 0 0.000000
-1.267540 -0.610581 5.935300 128 0 0 0.000000
-1.271460 -0.595548 5.917630 128 0 0 0.000000
-1.268760 -0.612449 5.906280 128 0 0 0.000000
-1.264450 -0.627038 5.924040 128 0 0 0.000000
-1.260620 -0.643906 5.913150 128 0 0 0.000000
-1.258320 -0.643021 5.944680 128 0 0 0.000000
-1.261370 -0.626660 5.955360 128 0 0 0.000000
-1.275580 -0.596337 5.888510 128 0 0 0.000000
-1.275950 -0.611146 5.877730 128 0 0 0.000000
-1.268160 -0.642551 5.885080 128 0 0 0.000000
-1.268760 -0.627373 5.895930 128 0 0 0.000000
-1.249890 -0.684167 5.877830 128 0 0 0.000000
-1.255400 -0.669704 5.888090 128 0 0 0.000000
-1.242770 -0.685279 5.903890 128 0 0 0.000000
-1.245430 -0.673010 5.916230 128 0 0 0.000000
-1.237160 -0.686720 5.932630 128 0 0 0.000000
-1.244260 -0.671375 5.946620 128 0 0 0.000000
-1.232090 -0.687006 5.963710 128 0 0 0.000000
-1.249860 -0.656769 5.960780 128 0 0 0.000000
-1.252370 -0.657893 5.930380 128 0 0 0.000000
-1.097590 -0.824250 5.874080 142 0 0 0.336787
-1.117200 -0.812762 5.876160 128 0 0 0.160286
-1.114410 -0.819499 5.853760 128 0 0 0.162060
-1.095150 -0.830511 5.850840 142 0 0 0.346327
-1.093840 -0.836735 5.826940 137 0 0 0.308875
-1.073790 -0.842905 5.843100 187 0 0 0.479646
-1.075000 -0.836613 5.867340 196 0 0 0.496657
-1.134610 -0.806843 5.858840 128 0 0 0.000000
-1.131920 -0.813138 5.839640 128 0 0 0.000000
-1.150150 -0.801391 5.841370 128 0 0 0.000000
-1.146800 -0.808293 5.822560 128 0 0 0.000000
-1.130170 -0.819747 5.819590 128 0 0 0.000000
-1.128800 -0.825302 5.798980 128 0 0 0.000000
-1.111770 -0.831676 5.813310 128 0 0 0.124821
-1.112450 -0.825690 5.833400 128 0 0 0.183704
-1.101130 -0.845193 5.736400 128 0 0 0.115723
-1.097970 -0.845637 5.760170 128 0 0 0.237525
-1.081890 -0.852420 5.748120 137 0 0 0.322656
-1.095820 -0.844257 5.782910 133 0 0 0.273276
-1.078760 -0.852428 5.771140 151 0 0 0.384819
-1.076360 -0.850644 5.793630 164 0 0 0.420306
-1.060890 -0.859415 5.759540 196 0 0 0.490926
-1.094690 -0.841313 5.805260 137 0 0 0.301414
-1.112100 -0.835132 5.791420 128 0 0 0.131615
-1.113080 -0.837604 5.768890 128 0 0 0.076800
-1.057840 -0.859527 5.785360 210 0 0 0.518758
-1.037850 -0.867635 5.772700 255 34 0 0.591937
-1.055580 -0.856678 5.809980 242 8 0 0.556508
-1.035130 -0.866500 5.797900 255 56 0 0.620287
-1.053920 -0.852722 5.834730 255 30 0 0.586897
-1.074970 -0.847295 5.818530 169 0 0 0.435568
-1.115880 -0.838847 5.747400 128 0 0 0.000000
-1.129610 -0.828464 5.779070 128 0 0 0.000000
-1.146600 -0.814119 5.804150 128 0 0 0.000000
-0.970964 -0.342196 5.604050 128 0 0 0.070609
-0.966392 -0.331258 5.620320 128 0 0 0.224734
-0.962903 -0.320234 5.637150 142 0 0 0.348438
-0.983989 -0.333777 5.629160 128 0 0 0.138880
-0.941939 -0.307356 5.645580 219 0 0 0.527289
-0.944277 -0.318953 5.628030 173 0 0 0.443456
-0.948379 -0.329827 5.610410 137 0 0 0.303753
-0.925191 -0.317668 5.617480 214 0 0 0.523788
-0.982967 -0.325137 5.646810 133 0 0 0.264808
-0.982177 -0.317185 5.664040 155 0 0 0.404023
-1.002230 -0.330249 5.654990 128 0 0 0.194055
-0.961870 -0.303925 5.673960 255 27 0 0.583274
-0.962649 -0.312341 5.655710 183 0 0 0.463831
-0.919805 -0.281507 5.671650 255 156 0 0.706999
-0.919577 -0.291427 5.652920 255 75 0 0.638846
-0.941530 -0.297303 5.663710 255 41 0 0.600608
-0.941578 -0.287967 5.681690 255 119 0 0.678780
-0.899535 -0.288607 5.641280 255 123 0 0.680629
-0.902521 -0.302028 5.622960 255 60 0 0.624823
-0.922513 -0.304831 5.634780 255 27 0 0.583483
-1.011310 -0.339590 5.633420 128 0 0 0.000000
-1.028700 -0.342936 5.640530 128 0 0 0.000000
-0.996693 -0.346104 5.609760 128 0 0 0.000000
-1.045110 -0.339854 5.701650 142 0 0 0.328513
-1.041200 -0.332884 5.720590 223 0 0 0.533795
-1.063320 -0.347597 5.712790 142 0 0 0.349316
-1.037120 -0.326033 5.739450 255 127 0 0.685254
-1.016440 -0.317858 5.728150 255 153 0 0.703890
-1.075510 -0.351948 5.727590 155 0 0 0.402434
-1.096900 -0.364503 5.727540 128 0 0 0.191964
-1.067340 -0.344635 5.742250 255 19 0 0.576253
-1.038300 -0.321444 5.757200 248 245 0 0.763333
-1.021550 -0.311513 5.750520 235 255 13 0.772215
-1.060250 -0.335976 5.757290 255 149 0 0.700218
-1.000560 -0.302488 5.738040 242 253 6 0.769266
-1.002820 -0.324946 5.672640 142 0 0 0.338865
-1.003900 -0.319697 5.690450 183 0 0 0.469262
-1.022260 -0.332737 5.680130 133 0 0 0.287624
-0.984962 -0.306999 5.700510 255 75 0 0.636485
-0.983487 -0.311841 5.682600 233 1 0 0.544424
-1.022100 -0.325362 5.707160 214 0 0 0.523974
-0.980262 -0.295042 5.722020 255 219 0 0.748634
-0.966396 -0.290958 5.709700 255 178 0 0.723350
-0.963892 -0.297295 5.691710 255 101 0 0.662182
-1.050750 -0.344510 5.679920 128 0 0 0.003001
-1.020970 -0.335724 5.662750 128 0 0 0.101646
-1.043200 -0.345057 5.657880 128 0 0 0.000000
-1.098510 -0.365784 5.743640 146 0 0 0.363687
-1.114800 -0.377045 5.747740 128 0 0 0.198563
-1.101360 -0.366743 5.761440 196 0 0 0.493666
-1.083640 -0.354578 5.756660 255 53 0 0.616070
-1.134600 -0.392461 5.757530 128 0 0 0.000000
-1.106960 -0.369106 5.778370 233 1 0 0.549433
-1.089130 -0.354488 5.774730 255 108 0 0.670165
-1.124390 -0.382534 5.780900 137 0 0 0.316253
-1.084630 -0.358249 5.712990 128 0 0 0.128221
-1.073930 -0.353825 5.697190 128 0 0 0.042245
-0.523609 -0.880137 6.324880 142 0 0 0.331775
-0.536030 -0.871938 6.350840 128 0 0 0.197034
-0.510530 -0.885181 6.296980 223 0 0 0.534315
-0.528224 -0.887324 6.287860 205 0 0 0.511302
-0.541216 -0.881812 6.315520 137 0 0 0.321154
-0.553870 -0.873706 6.341750 128 0 0 0.191851
-0.505949 -0.888730 6.263580 255 153 0 0.704369
-0.500997 -0.889533 6.229720 171 255 77 0.810942
-0.483624 -0.888135 6.239500 161 255 87 0.815789
-0.488588 -0.887309 6.273780 255 153 0 0.704425
-0.559915 -0.882673 6.303810 142 0 0 0.336779
-0.573166 -0.875187 6.329840 128 0 0 0.210059
-0.546336 -0.887910 6.276430 214 0 0 0.523853
-0.542154 -0.889856 6.241870 255 178 0 0.721553
-0.519089 -0.889950 6.218400 222 255 26 0.780784
-0.523891 -0.889588 6.253290 255 153 0 0.705476
-0.484135 -0.892117 6.126180 155 0 0 0.399681
-0.461525 -0.902140 6.104880 160 0 0 0.407140
-0.489585 -0.887856 6.160030 255 19 0 0.575222
-0.466264 -0.892190 6.137100 169 0 0 0.437452
-0.471689 -0.887535 6.170960 255 34 0 0.592384
-0.443422 -0.902512 6.115590 173 0 0 0.443133
-0.494994 -0.886854 6.194570 255 204 0 0.740093
-0.513223 -0.887679 6.183530 255 197 0 0.735461
-0.448488 -0.891396 6.147040 173 0 0 0.444754
-0.426053 -0.902279 6.125600 183 0 0 0.465985
-0.454156 -0.886823 6.180640 255 38 0 0.599334
-0.431185 -0.890976 6.157210 178 0 0 0.459206
-0.468877 -0.886654 6.209930 216 255 32 0.784839
-0.564444 -0.223129 6.479970 128 0 0 0.000000
-0.570932 -0.204425 6.461380 128 0 0 0.000000
-0.571814 -0.184064 6.446840 128 0 0 0.000000
-0.555449 -0.199383 6.470490 128 0 0 0.000000
-0.549619 -0.218659 6.488860 128 0 0 0.000000
-0.571990 -0.162031 6.433020 128 0 0 0.000000
-0.572336 -0.137335 6.419850 128 0 0 0.000000
-0.536325 -0.193738 6.485850 128 0 0 0.000000
-0.544113 -0.153147 6.450830 128 0 0 0.000000
-0.556952 -0.133162 6.428730 128 0 0 0.000000
-0.553400 -0.178572 6.458010 128 0 0 0.000000
-0.568311 -0.077476 6.375090 255 93 0 0.656708
-0.563381 -0.096439 6.392220 192 0 0 0.481681
-0.582750 -0.102099 6.385480 146 0 0 0.369154
-0.588177 -0.082597 6.370060 255 56 0 0.617922
-0.568025 -0.117330 6.406190 128 0 0 0.160693
-0.552551 -0.112560 6.414090 133 0 0 0.252575
-0.604532 -0.086351 6.367920 255 27 0 0.581818
-0.606372 -0.108328 6.380700 133 0 0 0.276058
-0.591557 -0.124822 6.397510 128 0 0 0.000000
-0.575140 -0.544343 6.627190 128 0 0 0.000000
-0.564489 -0.508894 6.624430 128 0 0 0.000000
-0.593213 -0.580603 6.621100 128 0 0 0.000000
-0.608019 -0.613517 6.613030 128 0 0 0.000000
-0.582099 -0.509642 6.618080 128 0 0 0.000000
-0.613092 -0.578676 6.612190 128 0 0 0.000000
-0.592605 -0.545506 6.619890 128 0 0 0.000000
-0.647679 -0.693961 6.557230 128 0 0 0.110052
-0.650608 -0.718108 6.540090 128 0 0 0.087263
-0.630923 -0.668279 6.579080 128 0 0 0.043688
-0.621846 -0.691140 6.568150 128 0 0 0.019816
-0.624906 -0.715049 6.549520 128 0 0 0.060791
-0.626542 -0.642328 6.593730 128 0 0 0.000000
-0.608160 -0.713148 6.557900 128 0 0 0.000000
-0.604404 -0.664532 6.592290 128 0 0 0.000000
-0.598560 -0.687844 6.581020 128 0 0 0.000000
-0.606306 -0.639853 6.604050 128 0 0 0.000000
-0.593678 -0.731604 6.536060 128 0 0 0.140834
-0.595800 -0.751805 6.505170 146 0 0 0.353044
-0.609978 -0.732932 6.527390 128 0 0 0.232657
-0.612171 -0.753448 6.497240 151 0 0 0.385690
-0.597865 -0.774188 6.475650 178 0 0 0.459952
-0.599918 -0.798066 6.446680 187 0 0 0.479054
-0.582396 -0.797325 6.455550 169 0 0 0.434942
-0.580591 -0.773271 6.485410 155 0 0 0.397038
-0.628105 -0.734832 6.515270 142 0 0 0.345160
-0.631997 -0.755666 6.481700 205 0 0 0.509053
-0.625870 -0.776363 6.455740 255 23 0 0.580724
-0.619959 -0.800610 6.432100 219 0 0 0.528471
-0.584533 -0.858613 6.354650 142 0 0 0.330773
-0.596183 -0.840013 6.380060 164 0 0 0.427008
-0.576708 -0.838860 6.392420 155 0 0 0.400206
-0.565015 -0.857151 6.366590 137 0 0 0.314261
-0.598084 -0.818677 6.412660 196 0 0 0.491053
-0.618349 -0.821555 6.398560 219 0 0 0.529120
-0.547136 -0.856481 6.375840 133 0 0 0.283566
-0.558740 -0.837594 6.400820 160 0 0 0.408325
-0.561849 -0.817560 6.432670 164 0 0 0.422344
-0.579549 -0.818152 6.423630 178 0 0 0.458895
-0.516894 -0.426310 6.606770 128 0 0 0.000000
-0.516187 -0.388917 6.588290 128 0 0 0.000000
-0.516873 -0.351571 6.573120 128 0 0 0.000000
-0.520375 -0.317280 6.559120 128 0 0 0.000000
-0.503238 -0.421133 6.611080 128 0 0 0.000000
-0.503130 -0.347164 6.579930 128 0 0 0.000000
-0.503005 -0.383768 6.593990 128 0 0 0.000000
-0.532961 -0.237819 6.513350 128 0 0 0.000000
-0.532120 -0.261974 6.525570 128 0 0 0.000000
-0.523943 -0.287573 6.543620 128 0 0 0.000000
-0.548086 -0.241426 6.502300 128 0 0 0.000000
-0.545426 -0.265703 6.517220 128 0 0 0.000000
-0.733101 0.003989 6.254850 128 0 0 0.000000
-0.748614 0.008572 6.238810 128 0 0 0.000000
-0.717939 -0.000098 6.271080 128 0 0 0.046291
-0.742501 -0.004495 6.273940 128 0 0 0.000000
-0.757539 -0.000919 6.257830 128 0 0 0.000000
-0.773220 0.002711 6.240910 128 0 0 0.000000
-0.727215 -0.009749 6.288940 128 0 0 0.069808
-0.712521 -0.015567 6.303360 128 0 0 0.142169
-0.703998 -0.007911 6.285650 128 0 0 0.213823
-0.691137 -0.014703 6.300060 137 0 0 0.305831
-0.776561 -0.005883 6.260640 128 0 0 0.000000
-0.792913 -0.003153 6.244470 128 0 0 0.000000
-0.760643 -0.007638 6.275920 128 0 0 0.000000
-0.745401 -0.012488 6.291730 128 0 0 0.000000
-0.730774 -0.017279 6.306450 128 0 0 0.009820
-0.692072 -0.060157 6.342480 246 12 0 0.562101
-0.703663 -0.046937 6.330210 210 0 0 0.515363
-0.707823 -0.031297 6.316920 151 0 0 0.380800
-0.665723 -0.058149 6.339070 255 90 0 0.652854
-0.666646 -0.044194 6.325410 255 101 0 0.661451
-0.648138 -0.057113 6.337660 255 153 0 0.705129
-0.668064 -0.029412 6.312150 246 12 0 0.562685
-0.689229 -0.029772 6.314470 173 0 0 0.446860
-0.845017 -0.027537 6.114620 155 0 0 0.393916
-0.874259 -0.046793 6.100230 210 0 0 0.512441
-0.841820 -0.023054 6.133220 133 0 0 0.283543
-0.870930 -0.042961 6.118130 178 0 0 0.460445
-0.867597 -0.038934 6.136710 155 0 0 0.392216
-0.901027 -0.061043 6.104330 233 1 0 0.547048
-0.839018 -0.018999 6.151830 128 0 0 0.161470
-0.835818 -0.016297 6.170530 128 0 0 0.082996
-0.811840 -0.004215 6.168080 128 0 0 0.027518
-0.814573 -0.007673 6.149310 128 0 0 0.148840
-0.894306 -0.054260 6.122830 201 0 0 0.499775
-0.923190 -0.071732 6.112340 233 1 0 0.545020
-0.887900 -0.047434 6.141790 146 0 0 0.371107
-0.916310 -0.065093 6.131050 196 0 0 0.490834
-0.881931 -0.040817 6.161520 133 0 0 0.252140
-0.856006 -0.024612 6.175720 128 0 0 0.086020
-0.861773 -0.031602 6.156320 128 0 0 0.234067
-0.808678 -0.007139 6.226940 128 0 0 0.000000
-0.824381 -0.011373 6.208590 128 0 0 0.000000
-0.805105 -0.005065 6.205970 128 0 0 0.000000
-0.789205 -0.000731 6.223710 128 0 0 0.000000
-0.830264 -0.013206 6.189470 128 0 0 0.004730
-0.849732 -0.023061 6.194890 128 0 0 0.009463
-0.764250 0.007947 6.221600 128 0 0 0.000000
-0.780358 0.005991 6.203310 128 0 0 0.000000
-0.796496 0.001555 6.185650 128 0 0 0.000000
-0.977751 -0.146336 6.013790 132 255 116 0.831853
-0.990610 -0.161490 6.004310 77 255 171 0.858815
-0.964716 -0.131048 6.023700 206 255 42 0.791668
-0.995591 -0.151121 6.028800 200 255 48 0.794591
-1.006120 -0.171481 6.006950 71 255 177 0.862263
-1.021850 -0.181148 6.009590 87 255 161 0.854567
-0.982312 -0.136197 6.038790 248 245 0 0.763501
-0.968652 -0.121011 6.049730 255 156 0 0.706329
-0.951769 -0.117426 6.034300 187 255 61 0.802447
-0.938598 -0.103934 6.044960 255 234 0 0.757939
-1.039600 -0.192331 6.014220 84 255 164 0.856113
-1.022070 -0.171420 6.023620 184 255 64 0.804520
-1.039740 -0.182951 6.028390 167 255 80 0.812040
-1.057680 -0.203763 6.018370 103 255 145 0.846525
-1.021900 -0.162231 6.038260 255 238 0 0.759089
-1.057590 -0.194137 6.032610 184 255 64 0.804751
-1.039480 -0.174121 6.042650 248 245 0 0.764043
-1.075850 -0.214411 6.022660 116 255 132 0.839764
-1.021260 -0.153273 6.053550 255 160 0 0.710671
-0.994467 -0.132548 6.059530 255 127 0 0.685710
-0.940474 -0.086421 6.097840 255 45 0 0.606949
-0.957633 -0.101299 6.083680 255 108 0 0.667817
-0.934985 -0.091585 6.075630 255 138 0 0.693184
-0.917997 -0.076617 6.089550 255 75 0 0.638071
-0.963296 -0.111002 6.066610 255 101 0 0.662305
-0.988813 -0.123421 6.076160 255 97 0 0.659987
-0.889588 -0.060212 6.085670 255 53 0 0.616233
-0.905454 -0.073311 6.071720 255 116 0 0.675800
-0.907354 -0.079806 6.055930 255 153 0 0.703960
-0.936734 -0.097477 6.060360 255 178 0 0.722185
-1.040610 -0.244645 5.933890 0 141 255 0.921257
-1.040680 -0.232337 5.954200 0 137 255 0.921631
-1.058850 -0.252530 5.946360 0 169 255 0.912338
-1.075540 -0.271972 5.938270 0 217 255 0.897010
-1.058980 -0.239769 5.966320 0 165 255 0.913694
-1.038920 -0.219092 5.973460 0 161 255 0.915122
-1.010230 -0.199020 5.968800 0 133 255 0.923068
-1.095350 -0.284662 5.949330 29 255 219 0.880622
-1.087360 -0.265151 5.968800 0 217 255 0.896544
-1.073550 -0.227233 6.001010 29 255 219 0.880032
-1.055290 -0.215452 5.997640 16 249 232 0.885233
-1.037410 -0.204039 5.993400 3 233 245 0.891581
-1.077520 -0.240438 5.989570 0 221 255 0.895655
-1.009250 -0.184907 5.988230 0 225 251 0.894639
-0.993467 -0.175038 5.985700 0 205 255 0.900635
-1.085970 -0.321909 5.867990 100 255 148 0.847942
-1.099650 -0.327614 5.880070 125 255 122 0.834979
-1.098340 -0.337522 5.859640 177 255 71 0.808320
-1.086930 -0.312377 5.888180 58 255 190 0.867416
-1.072330 -0.294930 5.896040 9 241 238 0.888909
-1.072500 -0.305560 5.875660 45 255 203 0.872932
-1.116160 -0.353304 5.861030 255 186 0 0.728703
-1.118890 -0.347017 5.880830 255 208 0 0.742687
-1.130740 -0.362579 5.871750 255 71 0 0.633477
-1.121020 -0.339162 5.900050 238 255 9 0.770557
-1.101100 -0.320117 5.899380 119 255 129 0.839051
-1.101800 -0.303245 5.929540 87 255 161 0.854012
-1.084290 -0.291426 5.918310 22 255 226 0.882780
-1.059120 -0.265258 5.925780 0 181 255 0.908083
-1.058940 -0.277366 5.904380 0 185 255 0.906624
-1.130660 -0.384881 5.805850 146 0 0 0.366523
-1.121240 -0.372819 5.820490 246 12 0 0.562482
-1.151290 -0.404907 5.797770 128 0 0 0.000000
-1.140520 -0.388955 5.828090 142 0 0 0.346709
-1.129270 -0.368959 5.853470 255 56 0 0.618874
-1.099740 -0.345566 5.842410 242 253 6 0.769428
-1.111870 -0.359302 5.835530 255 112 0 0.671765
-1.162380 -0.415432 5.781920 128 0 0 0.000000
-1.139500 -0.395656 5.782460 128 0 0 0.064635
0.973865 -0.042108 6.455850 128 0 0 0.012126
0.927199 -0.032297 6.448180 146 0 0 0.357756
0.983819 -0.037727 6.435820 128 0 0 0.000000
0.937278 -0.027275 6.428290 128 0 0 0.153543
0.946914 -0.023368 6.407850 128 0 0 0.000000
0.916235 -0.033522 6.465660 223 0 0 0.535196
1.040340 -0.040167 6.362990 128 0 0 0.000000
1.000550 -0.026689 6.361270 128 0 0 0.000000
0.994108 -0.030240 6.386820 128 0 0 0.000000
0.960171 -0.018175 6.360870 128 0 0 0.000000
1.005420 -0.023172 6.333370 128 0 0 0.000000
0.965304 -0.016104 6.335590 128 0 0 0.000000
0.972082 -0.013456 6.309400 128 0 0 0.000000
0.988269 -0.033336 6.410250 128 0 0 0.000000
0.953619 -0.020236 6.384820 128 0 0 0.000000
0.675675 -0.036566 6.324270 246 12 0 0.563289
0.710520 -0.033813 6.344080 255 104 0 0.665069
0.719865 -0.034178 6.325410 255 141 0 0.696233
0.742832 -0.031009 6.362310 255 227 0 0.752509
0.753066 -0.029567 6.343480 209 255 38 0.788151
0.786202 -0.026241 6.362260 184 255 64 0.803926
0.775579 -0.028438 6.380830 174 255 74 0.809093
0.764026 -0.026999 6.325110 196 255 51 0.796789
0.797414 -0.021813 6.342850 255 230 0 0.756289
0.808632 -0.015788 6.322370 255 34 0 0.593460
0.774821 -0.021432 6.305400 255 201 0 0.738020
0.730130 -0.031395 6.306770 251 241 0 0.761699
0.740218 -0.026106 6.286980 225 255 22 0.778121
0.694186 -0.036448 6.286760 255 97 0 0.659206
0.685355 -0.037948 6.306170 255 23 0 0.579823
0.642240 -0.042341 6.282140 164 0 0 0.421350
0.704365 -0.031941 6.267390 255 208 0 0.741666
0.650634 -0.041426 6.262390 210 0 0 0.512816
0.659140 -0.037837 6.241270 255 49 0 0.609031
0.633380 -0.040179 6.300860 164 0 0 0.420779
0.808367 -0.026753 6.399500 174 255 74 0.809755
0.841953 -0.026971 6.419490 235 255 13 0.772370
0.853792 -0.024785 6.401550 255 108 0 0.669348
0.878311 -0.028439 6.441260 255 101 0 0.662542
0.889644 -0.026114 6.423560 219 0 0 0.526665
0.899337 -0.021618 6.403360 137 0 0 0.318134
0.910013 -0.017223 6.383390 128 0 0 0.119853
0.864454 -0.019415 6.381730 196 0 0 0.494529
0.875843 -0.014913 6.361960 128 0 0 0.241742
0.830701 -0.019667 6.361720 255 90 0 0.652168
0.819632 -0.024703 6.381380 248 245 0 0.764183
0.841623 -0.014619 6.341420 164 0 0 0.430049
0.938270 -0.008078 6.285890 128 0 0 0.000000
0.931086 -0.010067 6.311720 128 0 0 0.000000
0.898485 -0.006535 6.290440 128 0 0 0.000000
0.904853 -0.003670 6.264620 128 0 0 0.000000
0.889837 -0.008824 6.314310 128 0 0 0.000000
0.865088 -0.004359 6.270660 128 0 0 0.000000
0.857764 -0.007478 6.295200 128 0 0 0.000000
0.825105 -0.007465 6.277100 128 0 0 0.000000
0.873301 -0.001671 6.245380 128 0 0 0.000000
0.833165 -0.003358 6.252630 128 0 0 0.000000
0.840574 -0.000497 6.228490 128 0 0 0.000000
0.849309 -0.010824 6.318450 128 0 0 0.108311
0.816485 -0.011907 6.300170 151 0 0 0.382125
0.883000 -0.010889 6.338130 128 0 0 0.000000
0.917017 -0.014813 6.359980 128 0 0 0.000000
0.924162 -0.012122 6.336350 128 0 0 0.000000
0.807037 -0.001092 6.211870 128 0 0 0.000000
0.798795 -0.005715 6.235830 128 0 0 0.000000
0.763276 -0.008739 6.218720 128 0 0 0.010645
0.771869 -0.002647 6.195320 128 0 0 0.000000
0.755109 -0.015754 6.242070 173 0 0 0.443240
0.722981 -0.014360 6.197450 128 0 0 0.150432
0.717157 -0.021148 6.222070 228 0 0 0.540641
0.670811 -0.028505 6.194380 205 0 0 0.510536
0.727966 -0.006669 6.171360 128 0 0 0.000000
0.677120 -0.020002 6.168780 128 0 0 0.176890
0.683989 -0.012045 6.143700 128 0 0 0.000000
0.710806 -0.027481 6.245130 255 149 0 0.700897
0.664542 -0.034374 6.218070 255 23 0 0.577938
0.747699 -0.021602 6.264960 255 134 0 0.688908
0.782343 -0.016656 6.282750 255 23 0 0.576775
0.790456 -0.011305 6.259690 128 0 0 0.232969
0.727453 -0.001837 6.139830 128 0 0 0.000000
0.774777 0.001053 6.167460 128 0 0 0.000000
0.776158 0.003198 6.137700 128 0 0 0.000000
0.811613 0.000217 6.185650 128 0 0 0.000000
0.815560 0.001561 6.158210 128 0 0 0.000000
0.849597 -0.001794 6.175500 128 0 0 0.000000
0.844885 -0.000482 6.202380 128 0 0 0.000000
0.818916 0.000422 6.130200 128 0 0 0.000000
0.854074 -0.003396 6.148750 128 0 0 0.000000
0.857528 -0.006565 6.121680 128 0 0 0.000000
0.822739 -0.002973 6.102430 128 0 0 0.000000
0.777733 0.003090 6.106800 128 0 0 0.000000
0.779514 0.000332 6.075760 128 0 0 0.000000
0.731954 0.002004 6.078980 128 0 0 0.000000
0.729650 0.001069 6.109430 128 0 0 0.000000
0.693270 -0.004161 6.088090 128 0 0 0.000000
0.735813 0.000126 6.049970 128 0 0 0.000000
0.699131 -0.002848 6.060240 128 0 0 0.000000
0.705146 -0.005010 6.034060 128 0 0 0.000000
0.688103 -0.007845 6.115680 128 0 0 0.000000
0.876352 -0.002061 6.218990 128 0 0 0.000000
0.908530 -0.005318 6.237570 128 0 0 0.000000
0.911511 -0.005954 6.209720 128 0 0 0.000000
0.939995 -0.007817 6.257620 128 0 0 0.000000
0.943336 -0.009887 6.230090 128 0 0 0.000000
0.974964 -0.014546 6.251170 128 0 0 0.000000
0.973207 -0.013362 6.280450 128 0 0 0.000000
0.945545 -0.012192 6.201670 128 0 0 0.000000
0.977611 -0.017799 6.222350 128 0 0 0.000000
0.978509 -0.021479 6.194780 128 0 0 0.000000
0.948667 -0.017438 6.174920 128 0 0 0.000000
0.915089 -0.009094 6.183290 128 0 0 0.000000
0.918568 -0.013622 6.155970 128 0 0 0.000000
0.884665 -0.006026 6.165140 128 0 0 0.000000
0.881056 -0.003942 6.192770 128 0 0 0.000000
0.888147 -0.010545 6.138560 128 0 0 0.000000
0.966151 -0.068962 6.085670 128 0 0 0.000000
0.938417 -0.066948 6.070030 128 0 0 0.000000
0.940508 -0.049677 6.092690 128 0 0 0.000000
0.912664 -0.047038 6.075990 128 0 0 0.000000
0.910672 -0.064628 6.053700 128 0 0 0.000000
0.914182 -0.033361 6.101660 128 0 0 0.000000
0.884650 -0.044575 6.059760 128 0 0 0.000000
0.886303 -0.030067 6.084610 128 0 0 0.000000
0.856915 -0.027369 6.068200 128 0 0 0.000000
0.882718 -0.063527 6.037550 128 0 0 0.000000
0.855253 -0.043068 6.042190 128 0 0 0.000000
0.851046 -0.062483 6.017780 128 0 0 0.000000
0.886740 -0.018770 6.110630 128 0 0 0.000000
0.857020 -0.015907 6.093940 128 0 0 0.000000
0.916772 -0.022575 6.128030 128 0 0 0.000000
0.946083 -0.026440 6.145850 128 0 0 0.000000
0.943267 -0.037090 6.119330 128 0 0 0.000000
0.973158 -0.041541 6.137320 128 0 0 0.000000
0.976401 -0.030480 6.165490 128 0 0 0.000000
0.970264 -0.053585 6.111320 128 0 0 0.000000
0.807135 -0.061292 5.989390 128 0 0 0.000000
0.811253 -0.040218 6.013560 128 0 0 0.000000
0.770583 -0.040499 5.988560 128 0 0 0.000000
0.769179 -0.064443 5.970010 128 0 0 0.000000
0.770975 -0.021358 6.012190 128 0 0 0.000000
0.740553 -0.044419 5.975430 128 0 0 0.000000
0.738801 -0.024590 5.996350 128 0 0 0.000000
0.713213 -0.029863 5.987120 128 0 0 0.000000
0.740903 -0.068580 5.959720 128 0 0 0.000000
0.715923 -0.049472 5.967260 128 0 0 0.000000
0.716147 -0.072439 5.952730 128 0 0 0.000000
0.736188 -0.009787 6.020310 128 0 0 0.000000
0.709858 -0.014997 6.008740 128 0 0 0.000000
0.774397 -0.007661 6.042400 128 0 0 0.000000
0.820469 -0.011471 6.072880 128 0 0 0.000000
0.817472 -0.023912 6.042870 128 0 0 0.000000
1.004630 -0.021973 6.302870 128 0 0 0.000000
1.039090 -0.036893 6.331750 128 0 0 0.000000
1.036180 -0.032670 6.295070 128 0 0 0.000000
1.071100 -0.050782 6.326510 128 0 0 0.000000
1.067940 -0.047120 6.291570 128 0 0 0.000000
1.099040 -0.064050 6.287410 128 0 0 0.000000
1.066950 -0.048118 6.259320 128 0 0 0.000000
1.035890 -0.033586 6.265460 128 0 0 0.000000
1.036390 -0.036223 6.234890 128 0 0 0.000000
1.006980 -0.024815 6.242930 128 0 0 0.000000
1.005600 -0.022653 6.272460 128 0 0 0.000000
1.007670 -0.028445 6.214140 128 0 0 0.000000
1.140670 -0.122316 6.198870 128 0 0 0.000000
1.125490 -0.101928 6.214680 128 0 0 0.000000
1.115810 -0.111669 6.179790 128 0 0 0.000000
1.100180 -0.089927 6.195330 128 0 0 0.000000
1.107740 -0.081049 6.229200 128 0 0 0.000000
1.084810 -0.072467 6.212710 128 0 0 0.000000
1.090670 -0.100408 6.161000 128 0 0 0.000000
1.074650 -0.079507 6.177520 128 0 0 0.000000
1.066120 -0.091464 6.145010 128 0 0 0.000000
1.092210 -0.066945 6.249410 128 0 0 0.000000
1.041090 -0.085241 6.129990 128 0 0 0.000000
1.046410 -0.071576 6.156700 128 0 0 0.000000
1.020820 -0.066015 6.141050 128 0 0 0.000000
1.016210 -0.080063 6.115470 128 0 0 0.000000
1.024750 -0.051577 6.168790 128 0 0 0.000000
0.994834 -0.059838 6.126170 128 0 0 0.000000
0.999182 -0.046820 6.153270 128 0 0 0.000000
0.990805 -0.073406 6.099910 128 0 0 0.000000
1.000960 -0.034741 6.180870 128 0 0 0.000000
1.031140 -0.042901 6.201560 128 0 0 0.000000
1.060450 -0.052466 6.220950 128 0 0 0.000000
1.054610 -0.061508 6.190180 128 0 0 0.000000
0.586060 -1.036320 6.473170 255 56 0 0.620478
0.575134 -1.029600 6.496040 255 138 0 0.692502
0.564199 -1.021720 6.486190 251 241 0 0.761534
0.552962 -1.015140 6.508990 235 255 13 0.773397
0.563866 -1.023220 6.518630 255 190 0 0.729710
0.540965 -1.007860 6.498840 164 255 84 0.813956
0.541743 -1.008390 6.531340 200 255 48 0.793788
0.530011 -1.001030 6.521370 109 255 138 0.843347
0.518796 -0.993889 6.543550 77 255 171 0.858389
0.552477 -1.016700 6.540920 255 178 0 0.723410
0.530527 -1.001600 6.553630 167 255 80 0.812954
0.541087 -1.010170 6.563260 255 208 0 0.741496
0.516538 -0.994602 6.510510 48 255 200 0.871268
0.505519 -0.987326 6.533010 6 237 242 0.889525
0.490697 -0.981659 6.521930 0 229 248 0.893154
0.501813 -0.987510 6.498640 16 249 232 0.885548
0.527879 -1.000340 6.487650 93 255 155 0.850676
0.513078 -0.992892 6.475720 42 255 206 0.874890
0.539422 -1.005730 6.464700 125 255 122 0.835620
0.552465 -1.013410 6.475840 142 255 106 0.826457
0.564217 -1.019040 6.452930 196 255 51 0.795643
0.524450 -0.997837 6.452900 74 255 174 0.859376
0.551227 -1.010730 6.441840 109 255 138 0.843620
0.536374 -1.002450 6.430100 48 255 200 0.871638
0.575761 -1.027550 6.463230 255 178 0 0.723813
0.529588 -1.001810 6.584200 232 255 16 0.775581
0.518724 -0.993999 6.575480 132 255 116 0.830986
0.507378 -0.985610 6.597050 96 255 151 0.848740
0.518382 -0.993602 6.605730 196 255 51 0.796035
0.495293 -0.978258 6.587870 48 255 200 0.871236
0.495924 -0.976850 6.619030 80 255 167 0.857112
0.483768 -0.969365 6.609960 64 255 184 0.864534
0.506602 -0.985057 6.627590 174 255 74 0.808990
0.470357 -0.963030 6.600290 32 255 216 0.879639
0.455408 -0.957216 6.589030 0 213 255 0.898031
0.482216 -0.971468 6.577400 6 237 242 0.889360
0.467218 -0.965606 6.565970 0 201 255 0.901972
0.493989 -0.979572 6.555010 6 237 242 0.890123
0.507053 -0.986131 6.565520 45 255 203 0.873065
0.478934 -0.973722 6.543630 0 193 255 0.903924
0.385066 -0.939046 6.543220 87 255 161 0.853833
0.402599 -0.946657 6.555980 77 255 171 0.858797
0.415022 -0.952554 6.531770 71 255 177 0.862102
0.397926 -0.943889 6.519090 58 255 190 0.867256
0.432721 -0.957697 6.544100 13 245 235 0.886764
0.427606 -0.958588 6.508160 74 255 174 0.859729
0.445168 -0.964438 6.520710 25 255 222 0.881228
0.457321 -0.970819 6.497590 45 255 203 0.872809
0.410460 -0.949180 6.495370 51 255 196 0.870221
0.439871 -0.964566 6.485190 90 255 158 0.852824
0.422876 -0.954703 6.472360 61 255 187 0.865832
0.462407 -0.969152 6.532890 0 205 255 0.900938
0.474751 -0.976515 6.510120 9 241 238 0.888281
0.450808 -0.961506 6.555480 0 185 255 0.906493
0.438870 -0.953323 6.578450 0 177 255 0.909837
0.420887 -0.950132 6.567150 0 221 255 0.895419
0.434677 -0.957676 6.448550 48 255 200 0.872520
0.450840 -0.968928 6.461860 100 255 148 0.848119
0.462437 -0.972045 6.438390 84 255 164 0.855586
0.446098 -0.960983 6.424910 51 255 196 0.870023
0.479696 -0.980333 6.451590 80 255 167 0.856677
0.474079 -0.975095 6.414960 87 255 161 0.854319
0.491576 -0.983551 6.428220 74 255 174 0.860179
0.503527 -0.986875 6.404730 87 255 161 0.854201
0.457566 -0.964061 6.401710 58 255 190 0.868217
0.486104 -0.978351 6.391460 96 255 151 0.848726
0.469468 -0.966869 6.378380 67 255 180 0.862946
0.508409 -0.991440 6.441220 84 255 164 0.855371
0.520647 -0.994709 6.417750 90 255 158 0.853192
0.497052 -0.986860 6.463990 51 255 196 0.870343
0.485747 -0.982039 6.486900 32 255 216 0.878268
0.468478 -0.975887 6.474400 64 255 184 0.864499
0.441245 -0.954724 6.390460 96 255 151 0.849029
0.430107 -0.951077 6.413790 71 255 177 0.861387
0.414679 -0.940713 6.402610 145 255 103 0.824550
0.418425 -0.948648 6.437350 61 255 187 0.866429
0.403191 -0.937926 6.425940 87 255 161 0.854109
0.391203 -0.934951 6.449420 51 255 196 0.870555
0.406448 -0.946402 6.460970 74 255 174 0.860706
0.387746 -0.925436 6.413900 190 255 58 0.800959
0.375688 -0.922594 6.437440 113 255 135 0.841662
0.360094 -0.910411 6.425540 255 230 0 0.755974
0.373374 -0.912160 6.402060 255 145 0 0.697504
0.400417 -0.928397 6.390870 255 238 0 0.759679
0.385979 -0.916024 6.379270 255 75 0 0.639973
0.412582 -0.932144 6.368250 255 204 0 0.739135
0.426801 -0.944020 6.379460 174 255 74 0.809204
0.439015 -0.946663 6.356530 196 255 51 0.796045
0.397939 -0.919916 6.356510 255 38 0 0.597776
0.424528 -0.934740 6.345420 255 164 0 0.712846
0.409920 -0.923161 6.333770 255 23 0 0.579499
0.453785 -0.957281 6.367350 106 255 142 0.845439
0.393430 -0.941877 6.484710 71 255 177 0.861952
0.380710 -0.936986 6.508280 84 255 164 0.855875
0.364274 -0.926760 6.497020 48 255 200 0.871389
0.367533 -0.932922 6.532170 132 255 116 0.832314
0.350840 -0.923005 6.521120 90 255 158 0.852359
0.334043 -0.912519 6.509680 64 255 184 0.863830
0.317998 -0.899496 6.497130 93 255 155 0.851432
0.348257 -0.915927 6.485030 55 255 193 0.868799
0.332233 -0.902797 6.472570 148 255 100 0.824142
0.362203 -0.918214 6.460820 48 255 200 0.871198
0.378049 -0.930132 6.472890 29 255 219 0.879881
0.346282 -0.905521 6.448460 206 255 42 0.791461
0.258179 -0.849757 6.452800 128 0 0 0.023317
0.272061 -0.863202 6.464150 151 0 0 0.383859
0.286261 -0.866376 6.439680 133 0 0 0.288843
0.272046 -0.854037 6.428710 128 0 0 0.000000
0.300986 -0.879166 6.450910 237 4 0 0.552426
0.300237 -0.872420 6.416310 128 0 0 0.236677
0.315173 -0.883480 6.427150 192 0 0 0.487406
0.329345 -0.888619 6.404040 164 0 0 0.419827
0.285551 -0.859999 6.405290 128 0 0 0.000000
0.314036 -0.878166 6.393310 128 0 0 0.209490
0.298657 -0.868177 6.382620 128 0 0 0.000000
0.330534 -0.894978 6.438030 255 134 0 0.689298
0.344758 -0.899908 6.414880 255 49 0 0.611237
0.316389 -0.891902 6.461860 255 171 0 0.717386
0.302110 -0.889505 6.486450 219 255 29 0.783585
0.287000 -0.876252 6.475120 255 71 0 0.636146
0.311755 -0.873316 6.359630 128 0 0 0.000000
0.326993 -0.882420 6.370330 128 0 0 0.131874
0.340043 -0.887954 6.347590 128 0 0 0.133148
0.324630 -0.880480 6.336970 128 0 0 0.000000
0.355225 -0.896462 6.358130 137 0 0 0.315201
0.353012 -0.894145 6.325170 128 0 0 0.114745
0.368025 -0.901027 6.335530 133 0 0 0.280063
0.380647 -0.907181 6.313210 128 0 0 0.233114
0.337653 -0.887618 6.314520 128 0 0 0.000000
0.365520 -0.900484 6.302510 128 0 0 0.118066
0.350322 -0.895126 6.291810 128 0 0 0.000000
0.382797 -0.910701 6.346230 178 0 0 0.458087
0.395330 -0.915909 6.323640 164 0 0 0.426323
0.370805 -0.905865 6.368790 192 0 0 0.487520
0.358051 -0.902452 6.391640 237 4 0 0.551962
0.342486 -0.892345 6.380890 142 0 0 0.347788
0.683682 -1.031760 6.239710 128 0 0 0.000000
0.672388 -1.032620 6.272610 128 0 0 0.214477
0.658500 -1.027090 6.260220 128 0 0 0.203126
0.647797 -1.027410 6.293000 173 0 0 0.443424
0.660674 -1.034240 6.304030 160 0 0 0.410651
0.633741 -1.021060 6.280890 173 0 0 0.451856
0.636081 -1.029240 6.324350 251 16 0 0.571057
0.622810 -1.021540 6.313470 255 53 0 0.615323
0.611367 -1.024300 6.344560 255 123 0 0.681735
0.648047 -1.037120 6.334430 205 0 0 0.510997
0.623932 -1.032640 6.354840 255 49 0 0.608960
0.635145 -1.041180 6.364290 210 0 0 0.518084
0.608367 -1.014230 6.301540 255 93 0 0.654728
0.597493 -1.016120 6.333790 255 190 0 0.731033
0.581966 -1.007570 6.322510 255 238 0 0.760768
0.592928 -1.006730 6.291440 255 119 0 0.677284
0.618874 -1.014900 6.270190 178 0 0 0.459843
0.603088 -1.007320 6.258810 187 0 0 0.473808
0.629129 -1.016000 6.237100 128 0 0 0.140801
0.644519 -1.022060 6.249000 128 0 0 0.161496
0.654899 -1.022380 6.215810 128 0 0 0.000000
0.613052 -1.006940 6.225080 128 0 0 0.202671
0.638914 -1.015300 6.203070 128 0 0 0.000000
0.623117 -1.004730 6.190890 128 0 0 0.000000
0.669989 -1.027290 6.228280 128 0 0 0.000000
0.622922 -1.038760 6.391610 255 60 0 0.623762
0.611762 -1.030070 6.381080 255 156 0 0.706472
0.599884 -1.028800 6.408510 255 208 0 0.740915
0.610581 -1.037400 6.418630 255 97 0 0.660660
0.587776 -1.020040 6.398050 180 255 67 0.804826
0.587742 -1.027970 6.435930 255 219 0 0.748868
0.575972 -1.019330 6.425440 167 255 80 0.813728
0.598386 -1.036640 6.446010 255 93 0 0.655255
0.562739 -1.010500 6.414470 67 255 180 0.863212
0.547905 -1.002090 6.403900 3 233 245 0.891855
0.574447 -1.011180 6.388210 84 255 164 0.855502
0.559507 -1.002450 6.377390 13 245 235 0.886835
0.586307 -1.012810 6.361250 158 255 90 0.817648
0.599732 -1.021480 6.371230 242 253 6 0.767781
0.570989 -1.004240 6.350360 93 255 155 0.850889
0.481730 -0.964555 6.352820 45 255 203 0.873924
0.497515 -0.977081 6.365090 0 201 255 0.901881
0.509708 -0.975513 6.339000 0 157 255 0.915435
0.494139 -0.962630 6.327290 0 177 255 0.910242
0.525886 -0.986078 6.351440 0 193 255 0.904149
0.522083 -0.974162 6.312550 0 185 255 0.906429
0.538184 -0.986498 6.324540 19 253 229 0.883864
0.550154 -0.988092 6.297120 132 255 116 0.831804
0.506894 -0.960754 6.300960 0 213 255 0.897604
0.534610 -0.974275 6.285220 32 255 216 0.878326
0.519430 -0.959685 6.273560 51 255 196 0.870663
0.554597 -0.995932 6.337350 48 255 200 0.871190
0.566260 -0.998775 6.309730 196 255 51 0.796548
0.543179 -0.994667 6.364700 0 213 255 0.898292
0.532040 -0.994232 6.391410 0 197 255 0.903254
0.514496 -0.986409 6.378110 0 201 255 0.901768
0.531359 -0.956063 6.243200 161 255 87 0.816749
0.546092 -0.968947 6.253610 113 255 135 0.841909
0.557964 -0.967113 6.221740 238 255 9 0.770246
0.542948 -0.953629 6.211330 245 249 3 0.766888
