ply
format ascii 1.0
comment VCGLIB generated
element vertex 1050
property float x
property float y
property float z
property uchar red
property uchar green
property uchar blue
property float quality
end_header
0.343394 -0.862739 6.838090 255 123 0 0.682980
0.358341 -0.878878 6.819440 255 164 0 0.713042
0.311376 -0.834606 6.845250 255 123 0 0.683072
0.328491 -0.846405 6.856550 255 71 0 0.635790
0.294457 -0.823154 6.833760 255 153 0 0.706407
0.277073 -0.811999 6.822240 255 160 0 0.710231
0.291328 -0.828828 6.803710 255 197 0 0.737565
0.273425 -0.817996 6.792090 255 167 0 0.716673
0.259289 -0.800979 6.810460 255 141 0 0.696095
0.287655 -0.834682 6.773720 255 153 0 0.705364
0.374074 -0.889908 6.831260 255 64 0 0.628624
0.390753 -0.901615 6.842610 205 0 0 0.508415
0.374461 -0.885098 6.861320 187 0 0 0.479015
0.407170 -0.913259 6.853580 142 0 0 0.333734
0.390861 -0.896879 6.872310 137 0 0 0.313380
0.407035 -0.908552 6.882860 128 0 0 0.110220
0.423137 -0.924688 6.864040 128 0 0 0.125744
0.374914 -0.880390 6.891120 133 0 0 0.274405
0.391014 -0.892155 6.901760 128 0 0 0.079131
0.359719 -0.869072 6.880060 164 0 0 0.428574
0.344299 -0.857721 6.868510 237 4 0 0.555626
0.359115 -0.873916 6.849890 255 41 0 0.602014
0.177290 -0.684198 6.880900 201 0 0 0.500746
0.188850 -0.706847 6.865190 242 8 0 0.557883
0.173461 -0.699880 6.854730 219 0 0 0.528216
0.161827 -0.677088 6.870280 183 0 0 0.470844
0.184850 -0.722829 6.839010 233 1 0 0.547691
0.158031 -0.692980 6.844190 187 0 0 0.478037
0.169411 -0.716089 6.828650 201 0 0 0.498137
0.154076 -0.709105 6.818430 187 0 0 0.481324
0.146690 -0.669958 6.859820 173 0 0 0.443837
0.142793 -0.686008 6.833840 178 0 0 0.458762
0.131680 -0.662860 6.849270 164 0 0 0.419210
0.181023 -0.738997 6.813060 210 0 0 0.518939
0.165695 -0.732310 6.802880 187 0 0 0.479405
0.177267 -0.755332 6.787090 196 0 0 0.493925
0.194007 -0.762401 6.797560 233 1 0 0.546393
0.197794 -0.746294 6.823530 246 12 0 0.564813
0.210946 -0.769678 6.807920 251 16 0 0.570938
0.214736 -0.753628 6.833980 255 38 0 0.600414
0.201758 -0.730225 6.849650 255 34 0 0.593053
0.228034 -0.776672 6.818290 255 49 0 0.610351
0.117101 -0.658623 6.840090 151 0 0 0.382733
0.127133 -0.681917 6.824650 164 0 0 0.419719
0.112681 -0.677783 6.815790 151 0 0 0.385571
0.102593 -0.654443 6.831060 146 0 0 0.355971
0.122816 -0.701119 6.800530 155 0 0 0.403338
0.098275 -0.673559 6.806990 151 0 0 0.372400
0.108464 -0.696908 6.791850 151 0 0 0.382331
0.094219 -0.692475 6.783270 146 0 0 0.362591
0.088266 -0.650166 6.822290 142 0 0 0.344830
0.084095 -0.669207 6.798550 142 0 0 0.351533
0.074137 -0.645808 6.813510 137 0 0 0.315286
0.118855 -0.720115 6.776270 146 0 0 0.368486
0.104465 -0.715694 6.767660 146 0 0 0.353365
0.114989 -0.738407 6.751660 142 0 0 0.338300
0.130370 -0.742789 6.760390 151 0 0 0.373240
0.134276 -0.724176 6.785070 160 0 0 0.407032
0.145899 -0.747131 6.769230 155 0 0 0.398441
0.149825 -0.728183 6.793950 173 0 0 0.447205
0.138383 -0.705141 6.809400 169 0 0 0.441890
0.161461 -0.751272 6.778220 169 0 0 0.434548
0.166490 -0.795102 6.702790 169 0 0 0.435818
0.182923 -0.799457 6.712040 183 0 0 0.470448
0.169874 -0.782792 6.731120 178 0 0 0.454049
0.199438 -0.803774 6.721600 205 0 0 0.507861
0.186453 -0.786862 6.740410 196 0 0 0.491643
0.203249 -0.790614 6.749900 223 0 0 0.533688
0.216324 -0.807760 6.730980 246 12 0 0.563839
0.173450 -0.769488 6.759320 178 0 0 0.460256
0.190189 -0.773162 6.768600 210 0 0 0.514866
0.157789 -0.765185 6.750360 160 0 0 0.416381
0.142270 -0.760748 6.741380 155 0 0 0.393630
0.154347 -0.778150 6.722280 160 0 0 0.416883
0.139071 -0.773316 6.713430 160 0 0 0.405158
0.127001 -0.756057 6.732590 146 0 0 0.372316
0.151228 -0.790093 6.693900 169 0 0 0.434631
0.233091 -0.815102 6.741470 255 38 0 0.596903
0.251106 -0.822024 6.752250 255 82 0 0.644934
0.236968 -0.804815 6.770810 255 53 0 0.615456
0.269348 -0.828614 6.762930 255 141 0 0.696021
0.255147 -0.811598 6.781440 255 104 0 0.667044
0.241028 -0.794268 6.799720 255 86 0 0.650109
0.223940 -0.787553 6.789280 255 38 0 0.599620
0.206935 -0.780357 6.778980 237 4 0 0.554594
0.220052 -0.797934 6.760240 255 19 0 0.574494
0.348771 0.017236 6.583500 255 86 0 0.651845
0.369545 0.015255 6.595460 255 116 0 0.675284
0.351583 0.008457 6.612300 255 153 0 0.705777
0.331098 0.010085 6.600410 255 130 0 0.689443
0.373169 0.006629 6.624700 255 190 0 0.731246
0.333783 0.001166 6.629170 255 197 0 0.735202
0.354902 -0.000227 6.641450 255 212 0 0.744743
0.336636 -0.007584 6.658150 255 238 0 0.761655
0.313471 0.002406 6.617290 255 186 0 0.728062
0.315966 -0.006674 6.646040 251 241 0 0.763328
0.295859 -0.005909 6.634190 248 245 0 0.765824
0.377389 -0.001691 6.654350 255 227 0 0.753861
0.358548 -0.008564 6.670860 255 238 0 0.761161
0.381275 -0.009260 6.683870 255 227 0 0.755377
0.402858 -0.003136 6.667840 255 230 0 0.758254
0.399657 0.004240 6.638600 255 227 0 0.755118
0.424097 0.002835 6.651670 255 223 0 0.752867
0.421324 0.010262 6.622580 255 193 0 0.734313
0.394959 0.012530 6.608770 255 164 0 0.714123
0.445405 0.008666 6.635510 255 186 0 0.729818
0.277947 -0.019060 6.651320 138 255 109 0.829360
0.295114 -0.019456 6.662670 158 255 90 0.819557
0.276937 -0.031932 6.680140 93 255 155 0.852128
0.259781 -0.031565 6.668870 77 255 171 0.860678
0.294241 -0.032102 6.691410 109 255 138 0.845418
0.258606 -0.043677 6.697980 100 255 148 0.849379
0.275615 -0.043532 6.709050 125 255 122 0.836589
0.257094 -0.054482 6.727100 177 255 71 0.808663
0.241423 -0.043403 6.686870 90 255 158 0.854653
0.239965 -0.054553 6.716180 164 255 84 0.816087
0.222883 -0.054524 6.705090 145 255 103 0.827277
0.293046 -0.043510 6.720360 148 255 100 0.824864
0.274289 -0.054356 6.738250 200 255 48 0.795776
0.292020 -0.053955 6.749640 232 255 16 0.776541
0.314159 -0.043136 6.732700 167 255 80 0.814599
0.314797 -0.032122 6.703350 129 255 119 0.834366
0.336491 -0.032005 6.715980 158 255 90 0.819938
0.336632 -0.020331 6.686960 180 255 67 0.807692
0.315394 -0.019953 6.674560 167 255 80 0.814994
0.358979 -0.020584 6.699810 203 255 45 0.793431
0.362200 -0.050418 6.798110 255 82 0 0.645706
0.387697 -0.040746 6.781980 255 141 0 0.695963
0.367916 -0.041282 6.769470 255 182 0 0.726101
0.392957 -0.031236 6.753330 255 208 0 0.743867
0.412362 -0.030607 6.766070 255 156 0 0.708729
0.372979 -0.031620 6.740650 235 255 13 0.774780
0.417470 -0.020883 6.737380 255 197 0 0.737090
0.397789 -0.020991 6.724780 255 238 0 0.760480
0.422091 -0.010557 6.708830 255 186 0 0.728132
0.437110 -0.021007 6.749920 255 156 0 0.708522
0.441951 -0.011112 6.721270 255 153 0 0.706959
0.461597 -0.011497 6.733790 255 130 0 0.689987
0.377442 -0.020768 6.712210 222 255 26 0.783344
0.402120 -0.010031 6.696470 255 216 0 0.748051
0.355051 -0.031925 6.728410 193 255 55 0.800101
0.332355 -0.042797 6.744920 203 255 45 0.794474
0.350630 -0.042085 6.757280 245 249 3 0.767582
0.328093 -0.052480 6.773850 255 201 0 0.738020
0.309680 -0.053413 6.761730 255 223 0 0.752580
0.345458 -0.051424 6.786020 255 138 0 0.694685
0.485552 -0.007235 6.718010 255 149 0 0.701679
0.463060 -0.005966 6.704810 255 178 0 0.723452
0.487120 -0.001406 6.689400 255 171 0 0.719059
0.509421 -0.002959 6.702340 255 156 0 0.709250
0.464618 0.000320 6.676320 255 204 0 0.741209
0.510893 0.003250 6.673800 255 164 0 0.714175
0.488299 0.005051 6.660750 255 160 0 0.711184
0.533247 0.001533 6.686760 255 149 0 0.702183
0.465703 0.007058 6.647820 255 190 0 0.731750
0.444581 0.001512 6.663990 255 204 0 0.740124
0.423281 -0.004186 6.680200 255 223 0 0.751694
0.443549 -0.005101 6.692580 255 197 0 0.736553
0.205325 -0.070256 6.722730 187 255 61 0.803646
0.220572 -0.070653 6.733500 200 255 48 0.796021
0.203149 -0.086353 6.750730 255 212 0 0.746113
0.187952 -0.086094 6.739930 255 230 0 0.757142
0.218243 -0.086553 6.761510 255 204 0 0.740654
0.185444 -0.101576 6.768120 255 86 0 0.651924
0.200553 -0.101706 6.778950 255 49 0 0.612199
0.183055 -0.116891 6.795840 205 0 0 0.508256
0.170228 -0.101346 6.757330 255 86 0 0.651669
0.167913 -0.116833 6.785090 214 0 0 0.519985
0.152661 -0.116603 6.774370 205 0 0 0.511209
0.215588 -0.101748 6.789780 255 56 0 0.619162
0.197902 -0.116822 6.806890 178 0 0 0.461922
0.212990 -0.116575 6.817720 183 0 0 0.469806
0.232565 -0.100994 6.800940 255 34 0 0.595011
0.235241 -0.086025 6.772610 255 190 0 0.731113
0.252407 -0.085497 6.783620 255 153 0 0.705068
0.254883 -0.070317 6.755340 235 255 13 0.775021
0.237636 -0.070364 6.744520 219 255 29 0.784990
0.272220 -0.069849 6.766460 248 245 0 0.765084
0.137526 -0.136351 6.789280 164 0 0 0.430117
0.151368 -0.137286 6.799970 160 0 0 0.408837
0.136510 -0.157235 6.814410 133 0 0 0.286739
0.122426 -0.156127 6.803920 137 0 0 0.302873
0.121448 -0.177104 6.828730 128 0 0 0.123899
0.120473 -0.198316 6.853090 128 0 0 0.000000
0.107320 -0.176020 6.818300 128 0 0 0.122727
0.093051 -0.196543 6.831730 128 0 0 0.000000
0.149113 -0.178993 6.849770 128 0 0 0.090745
0.147828 -0.199640 6.874370 128 0 0 0.000000
0.163968 -0.178689 6.860700 128 0 0 0.064383
0.165362 -0.158309 6.835710 133 0 0 0.259456
0.180129 -0.157869 6.846780 128 0 0 0.244435
0.181641 -0.137438 6.821410 155 0 0 0.396781
0.166608 -0.137556 6.810650 155 0 0 0.394124
0.196457 -0.137138 6.832440 151 0 0 0.376585
0.200513 -0.201681 6.919400 128 0 0 0.000000
0.218050 -0.179476 6.905940 128 0 0 0.000000
0.203624 -0.180311 6.894540 128 0 0 0.000000
0.221337 -0.158280 6.880670 128 0 0 0.130462
0.236079 -0.157171 6.892010 128 0 0 0.149472
0.206904 -0.159113 6.869240 128 0 0 0.190229
0.239381 -0.136385 6.866460 137 0 0 0.317347
0.224590 -0.137201 6.855060 142 0 0 0.336893
0.242378 -0.115660 6.840390 164 0 0 0.430314
0.254206 -0.135126 6.878010 133 0 0 0.276716
0.257454 -0.114734 6.851930 155 0 0 0.391859
0.272668 -0.113308 6.863480 146 0 0 0.370958
0.227571 -0.116150 6.829190 178 0 0 0.454419
0.174159 -0.201091 6.896810 128 0 0 0.000000
0.295173 -0.097323 6.847220 201 0 0 0.502237
0.277933 -0.099058 6.835400 228 0 0 0.544781
0.300308 -0.083203 6.818850 255 64 0 0.629742
0.317717 -0.081675 6.830790 255 34 0 0.594484
0.282800 -0.084776 6.806790 255 119 0 0.679124
0.323168 -0.067456 6.802240 255 104 0 0.666844
0.305319 -0.068708 6.790060 255 164 0 0.713397
0.340094 -0.066072 6.814400 255 78 0 0.643954
0.287437 -0.069739 6.778130 255 197 0 0.737134
0.267703 -0.085299 6.795030 255 138 0 0.695711
0.247564 -0.100623 6.812270 255 41 0 0.604770
0.262672 -0.100228 6.823620 255 27 0 0.585009
0.237163 -0.484882 7.052330 128 0 0 0.000000
0.224799 -0.480223 7.042040 128 0 0 0.000000
0.230188 -0.515451 7.036730 128 0 0 0.000000
0.217665 -0.510555 7.026040 128 0 0 0.000000
0.212338 -0.475408 7.031420 128 0 0 0.000000
0.223408 -0.545905 7.020380 128 0 0 0.113553
0.205033 -0.505786 7.015190 128 0 0 0.000000
0.210601 -0.540959 7.009400 128 0 0 0.119861
0.197776 -0.536289 6.998350 128 0 0 0.120529
0.199679 -0.470758 7.020550 128 0 0 0.000000
0.192242 -0.501066 7.003860 128 0 0 0.000000
0.186972 -0.465978 7.009120 128 0 0 0.000000
0.216525 -0.576401 7.003260 128 0 0 0.205248
0.203561 -0.571649 6.992080 128 0 0 0.196520
0.209540 -0.607015 6.985440 128 0 0 0.225183
0.223604 -0.614546 6.997490 128 0 0 0.201651
0.230233 -0.584092 7.014830 128 0 0 0.153278
0.237395 -0.622055 7.009110 128 0 0 0.170552
0.243839 -0.591384 7.026340 128 0 0 0.150475
0.236846 -0.553318 7.031730 128 0 0 0.075335
0.250057 -0.560755 7.042860 128 0 0 0.093483
0.250926 -0.629492 7.020360 128 0 0 0.138353
0.257169 -0.598941 7.037460 128 0 0 0.138108
0.264420 -0.636967 7.031430 128 0 0 0.136554
0.243411 -0.522764 7.047800 128 0 0 0.000000
0.174115 -0.460605 6.998190 128 0 0 0.000000
0.178591 -0.492716 6.992210 128 0 0 0.000000
0.165456 -0.487289 6.981190 128 0 0 0.000000
0.161456 -0.455090 6.986750 128 0 0 0.000000
0.170034 -0.519651 6.974970 128 0 0 0.059295
0.152763 -0.481876 6.969490 128 0 0 0.000000
0.156859 -0.514265 6.963670 128 0 0 0.077613
0.143987 -0.508760 6.951950 128 0 0 0.100049
0.148630 -0.449677 6.975320 128 0 0 0.000000
0.139935 -0.476430 6.958010 128 0 0 0.000000
0.135860 -0.444424 6.963580 128 0 0 0.000000
0.161414 -0.546835 6.957310 128 0 0 0.163321
0.148124 -0.541390 6.945930 128 0 0 0.178864
0.152723 -0.573960 6.939500 128 0 0 0.230843
0.166914 -0.582142 6.951300 128 0 0 0.234374
0.175421 -0.555060 6.969090 128 0 0 0.158811
0.181033 -0.590511 6.963020 128 0 0 0.214799
0.189463 -0.563441 6.980830 128 0 0 0.212282
0.183819 -0.527949 6.986730 128 0 0 0.080698
0.195292 -0.598794 6.974290 128 0 0 0.216903
0.197071 -0.669865 6.915200 205 0 0 0.509816
0.212898 -0.680632 6.926930 201 0 0 0.504931
0.201288 -0.648803 6.938740 183 0 0 0.468009
0.228623 -0.691404 6.938310 196 0 0 0.496590
0.216987 -0.659540 6.950390 183 0 0 0.464042
0.232638 -0.670411 6.961820 178 0 0 0.460043
0.244283 -0.702304 6.949570 192 0 0 0.483053
0.205458 -0.627849 6.962190 155 0 0 0.395025
0.221060 -0.638474 6.973920 151 0 0 0.372626
0.191131 -0.619635 6.950990 151 0 0 0.382611
0.176674 -0.611451 6.939600 151 0 0 0.385434
0.186886 -0.640614 6.927470 183 0 0 0.468841
0.172375 -0.632443 6.916130 178 0 0 0.463069
0.162526 -0.603097 6.928020 146 0 0 0.361279
0.182551 -0.661816 6.903800 210 0 0 0.514959
0.258382 -0.709877 6.961230 183 0 0 0.464914
0.273386 -0.720058 6.973410 160 0 0 0.414024
0.260582 -0.685440 6.985040 160 0 0 0.418452
0.288005 -0.730283 6.985350 142 0 0 0.334708
0.275421 -0.695767 6.997060 146 0 0 0.355746
0.289805 -0.705870 7.008770 133 0 0 0.278743
0.302061 -0.740312 6.996890 128 0 0 0.220798
0.262503 -0.661115 7.008520 137 0 0 0.303881
0.277234 -0.671346 7.020290 128 0 0 0.247778
0.248851 -0.653528 6.997160 142 0 0 0.329597
0.235090 -0.646171 6.985590 142 0 0 0.331881
0.246538 -0.677773 6.973460 169 0 0 0.438072
0.476309 -0.044309 6.896250 128 0 0 0.000000
0.504049 -0.036222 6.880910 128 0 0 0.115395
0.490539 -0.036819 6.868270 128 0 0 0.243714
0.518192 -0.029207 6.852680 137 0 0 0.326742
0.532454 -0.029613 6.864960 128 0 0 0.235422
0.504421 -0.029103 6.840470 155 0 0 0.390342
0.546437 -0.022665 6.836730 155 0 0 0.401270
0.532245 -0.022117 6.824580 169 0 0 0.433797
0.559912 -0.015475 6.808610 196 0 0 0.497568
0.560717 -0.023052 6.849040 142 0 0 0.343311
0.574580 -0.016315 6.820900 183 0 0 0.466765
0.588695 -0.015857 6.833670 146 0 0 0.366094
0.518071 -0.022052 6.812160 210 0 0 0.516007
0.545306 -0.014775 6.796320 219 0 0 0.529483
0.531061 -0.014316 6.784140 255 27 0 0.584340
0.477794 -0.030136 6.816150 223 0 0 0.537701
0.464299 -0.037787 6.844400 151 0 0 0.381975
0.450462 -0.045755 6.872090 128 0 0 0.178833
0.423758 -0.046863 6.848270 146 0 0 0.367083
0.617539 -0.015764 6.819140 187 0 0 0.474405
0.601151 -0.013918 6.805790 205 0 0 0.509555
0.629429 -0.013479 6.791130 246 12 0 0.564383
0.646062 -0.015712 6.804380 219 0 0 0.527807
0.612926 -0.011083 6.778060 255 30 0 0.589062
0.657963 -0.013052 6.776620 255 34 0 0.594077
0.641533 -0.010209 6.763870 255 56 0 0.619637
0.625236 -0.007630 6.751010 255 71 0 0.636564
0.609897 -0.006684 6.738500 255 112 0 0.674415
0.598539 -0.010731 6.765730 255 60 0 0.623858
0.583549 -0.009420 6.753600 255 90 0 0.652552
0.571925 -0.012859 6.780910 255 34 0 0.593284
0.586428 -0.013689 6.793030 251 16 0 0.567621
0.557436 -0.011847 6.768940 255 53 0 0.617940
0.550877 0.000002 6.699160 255 149 0 0.704135
0.526906 -0.004395 6.714640 255 145 0 0.698745
0.544692 -0.005524 6.727310 255 127 0 0.685225
0.503068 -0.008420 6.730400 255 130 0 0.689247
0.520665 -0.009713 6.742830 255 108 0 0.671164
0.496676 -0.013315 6.758790 255 71 0 0.636947
0.479081 -0.012470 6.746270 255 93 0 0.655456
0.538163 -0.010370 6.755600 255 97 0 0.658867
0.514028 -0.014159 6.771340 255 60 0 0.626012
0.564054 -0.007279 6.740530 255 101 0 0.662434
0.590138 -0.004455 6.725340 255 119 0 0.679456
0.570518 -0.002093 6.712360 255 123 0 0.682731
0.452869 -0.021193 6.762150 255 123 0 0.682902
0.428200 -0.030289 6.778440 255 119 0 0.679428
0.443624 -0.030057 6.790670 255 64 0 0.629681
0.402918 -0.039874 6.794350 255 82 0 0.647748
0.418884 -0.039453 6.806830 255 49 0 0.610698
0.393306 -0.048989 6.822930 223 0 0 0.533822
0.378221 -0.049805 6.810470 255 30 0 0.589852
0.434091 -0.038780 6.819370 233 1 0 0.550024
0.408774 -0.047974 6.835550 183 0 0 0.466514
0.460802 -0.030166 6.803440 255 19 0 0.577740
0.487384 -0.021784 6.787470 255 38 0 0.598882
0.470314 -0.021517 6.774880 255 86 0 0.649906
0.354574 -0.065879 6.826440 255 34 0 0.592277
0.331824 -0.081010 6.842810 219 0 0 0.529378
0.346193 -0.080735 6.854710 192 0 0 0.482297
0.309479 -0.096641 6.859070 178 0 0 0.458254
0.323070 -0.095762 6.870980 146 0 0 0.368627
0.301013 -0.111369 6.887120 128 0 0 0.218028
0.287001 -0.112187 6.875460 133 0 0 0.280475
0.337386 -0.095397 6.882860 133 0 0 0.295046
0.314844 -0.110685 6.899110 128 0 0 0.117548
0.328477 -0.110159 6.910790 128 0 0 0.014335
0.352042 -0.094376 6.895090 128 0 0 0.205925
0.360982 -0.079638 6.866930 155 0 0 0.404155
0.376213 -0.078667 6.879290 137 0 0 0.309715
0.385157 -0.063819 6.851260 173 0 0 0.450319
0.369915 -0.064972 6.838700 214 0 0 0.526004
0.400190 -0.062824 6.863840 146 0 0 0.364311
0.262636 -0.157188 6.914950 128 0 0 0.061273
0.244644 -0.179664 6.928400 128 0 0 0.000000
0.226323 -0.202531 6.942070 128 0 0 0.000000
0.252082 -0.202942 6.964400 128 0 0 0.000000
0.270606 -0.179039 6.951450 128 0 0 0.000000
0.276303 -0.156309 6.926510 128 0 0 0.000000
0.289891 -0.155530 6.938260 128 0 0 0.000000
0.295078 -0.133372 6.912950 128 0 0 0.068208
0.281780 -0.134087 6.901210 128 0 0 0.163463
0.309165 -0.132712 6.924670 128 0 0 0.000000
0.299534 -0.206050 7.008390 128 0 0 0.000000
0.318399 -0.181087 6.995980 128 0 0 0.000000
0.325708 -0.156714 6.972110 128 0 0 0.000000
0.345319 -0.132510 6.958950 128 0 0 0.000000
0.352713 -0.109299 6.934060 128 0 0 0.000000
0.377005 -0.108347 6.957160 128 0 0 0.000000
0.294659 -0.180368 6.973890 128 0 0 0.000000
0.276272 -0.204314 6.986440 128 0 0 0.000000
0.401628 -0.092196 6.941940 128 0 0 0.000000
0.413733 -0.076608 6.915030 128 0 0 0.000000
0.438362 -0.060614 6.899640 128 0 0 0.017253
0.376729 -0.093155 6.918620 128 0 0 0.000000
0.151820 -0.414718 6.973840 128 0 0 0.000000
0.164550 -0.419975 6.985400 128 0 0 0.000000
0.168068 -0.384891 6.983460 128 0 0 0.000000
0.177219 -0.425190 6.996590 128 0 0 0.000000
0.180722 -0.390120 6.994720 128 0 0 0.000000
0.193461 -0.395307 7.005670 128 0 0 0.000000
0.189862 -0.430538 7.007790 128 0 0 0.000000
0.184782 -0.355420 6.992120 128 0 0 0.000000
0.197267 -0.360595 7.003520 128 0 0 0.000000
0.201960 -0.326051 7.000330 128 0 0 0.000000
0.177338 -0.320786 6.978300 128 0 0 0.000000
0.160309 -0.349893 6.969740 128 0 0 0.000000
0.143317 -0.379333 6.960530 128 0 0 0.000000
0.152508 -0.315467 6.955590 128 0 0 0.000000
0.214415 -0.437943 7.029600 128 0 0 0.000000
0.217542 -0.400462 7.027140 128 0 0 0.000000
0.227034 -0.442585 7.040110 128 0 0 0.000000
0.229988 -0.404926 7.037590 128 0 0 0.000000
0.242484 -0.409347 7.047650 128 0 0 0.000000
0.239434 -0.447134 7.050210 128 0 0 0.000000
0.233786 -0.367652 7.034670 128 0 0 0.000000
0.246380 -0.371824 7.044680 128 0 0 0.000000
0.250607 -0.335186 7.041680 128 0 0 0.000000
0.226070 -0.330454 7.021410 128 0 0 0.000000
0.275150 -0.235300 7.006100 128 0 0 0.000000
0.251122 -0.264729 7.003840 128 0 0 0.000000
0.251563 -0.233484 6.984200 128 0 0 0.000000
0.226467 -0.263680 6.982660 128 0 0 0.000000
0.225943 -0.295184 7.002200 128 0 0 0.000000
0.250540 -0.299554 7.023100 128 0 0 0.000000
0.274403 -0.269831 7.025440 128 0 0 0.000000
0.226596 -0.231137 6.962630 128 0 0 0.000000
0.201303 -0.259318 6.960890 128 0 0 0.000000
0.200836 -0.230297 6.940330 128 0 0 0.000000
0.175639 -0.257839 6.938460 128 0 0 0.000000
0.176407 -0.287285 6.958730 128 0 0 0.000000
0.201277 -0.292221 6.980880 128 0 0 0.000000
0.548412 -0.440182 7.258480 128 0 0 0.000000
0.557611 -0.467513 7.264950 128 0 0 0.000000
0.528539 -0.322630 7.236320 128 0 0 0.000000
0.531577 -0.351974 7.246980 128 0 0 0.000000
0.510333 -0.352917 7.234780 128 0 0 0.000000
0.508352 -0.384502 7.234620 128 0 0 0.000000
0.517749 -0.413826 7.240710 128 0 0 0.000000
0.516397 -0.445054 7.241330 128 0 0 0.000000
0.525808 -0.474078 7.247550 128 0 0 0.000000
0.503634 -0.478492 7.235740 128 0 0 0.000000
0.539037 -0.411232 7.252260 128 0 0 0.000000
0.540682 -0.381411 7.252650 128 0 0 0.000000
0.552351 -0.039509 6.981770 128 0 0 0.000000
0.572480 -0.033008 6.956660 128 0 0 0.000000
0.592493 -0.026825 6.931460 128 0 0 0.000000
0.603692 -0.022597 6.894840 128 0 0 0.000000
0.574306 -0.027803 6.910300 128 0 0 0.000000
0.554544 -0.034141 6.935610 128 0 0 0.000000
0.535177 -0.040568 6.961110 128 0 0 0.000000
0.517237 -0.041591 6.940070 128 0 0 0.000000
0.610764 -0.016485 6.856680 133 0 0 0.294881
0.553306 -0.028276 6.887150 128 0 0 0.054977
0.525107 -0.035512 6.902590 128 0 0 0.000000
0.496586 -0.042857 6.918220 128 0 0 0.000000
0.582266 -0.022119 6.872170 128 0 0 0.167685
0.594588 -0.970230 6.926810 128 0 0 0.000000
0.572489 -0.967472 6.915770 128 0 0 0.000000
0.586285 -0.974112 6.896250 128 0 0 0.000000
0.564751 -0.973060 6.886190 128 0 0 0.000000
0.550956 -0.966683 6.906070 128 0 0 0.000000
0.578638 -0.979592 6.866630 128 0 0 0.000000
0.543413 -0.972645 6.876460 128 0 0 0.000000
0.557488 -0.978977 6.856890 128 0 0 0.000000
0.535953 -0.978097 6.846590 128 0 0 0.000000
0.529384 -0.966168 6.896380 128 0 0 0.000000
0.521868 -0.971870 6.866460 128 0 0 0.000000
0.507790 -0.965412 6.886340 128 0 0 0.000000
0.571450 -0.985206 6.836980 128 0 0 0.100625
0.550296 -0.984438 6.826800 128 0 0 0.104179
0.564344 -0.990490 6.806800 128 0 0 0.213749
0.584644 -0.988796 6.814300 133 0 0 0.253693
0.591714 -0.983494 6.844190 128 0 0 0.178719
0.604750 -0.987103 6.821670 137 0 0 0.317703
0.612164 -0.982273 6.851700 128 0 0 0.232619
0.599257 -0.978177 6.873930 128 0 0 0.064842
0.620286 -0.978584 6.882330 128 0 0 0.070685
0.625389 -0.986397 6.829570 146 0 0 0.356654
0.633342 -0.982802 6.860280 128 0 0 0.227373
0.646434 -0.986857 6.838110 146 0 0 0.358514
0.607449 -0.974421 6.904620 128 0 0 0.000000
0.490594 -0.959746 6.876520 128 0 0 0.000000
0.503691 -0.966663 6.856420 128 0 0 0.000000
0.486804 -0.960911 6.846260 128 0 0 0.061086
0.473273 -0.953653 6.866190 128 0 0 0.000000
0.500139 -0.967995 6.826380 128 0 0 0.211521
0.469700 -0.954642 6.835780 128 0 0 0.188839
0.483288 -0.961923 6.815880 137 0 0 0.317313
0.456010 -0.947260 6.855700 128 0 0 0.008827
0.496508 -0.968964 6.795930 155 0 0 0.397297
0.510762 -0.975366 6.775920 173 0 0 0.452324
0.514466 -0.974301 6.806370 142 0 0 0.346409
0.528816 -0.980611 6.786520 164 0 0 0.425879
0.532426 -0.979380 6.816660 133 0 0 0.252761
0.518034 -0.973070 6.836520 128 0 0 0.110860
0.546826 -0.985676 6.796920 142 0 0 0.342570
0.556446 -0.992900 6.695670 255 119 0 0.680614
0.545029 -0.989062 6.715550 255 82 0 0.646774
0.563335 -0.993489 6.726640 255 19 0 0.577630
0.574725 -0.997292 6.706770 255 60 0 0.624490
0.551832 -0.989657 6.746460 210 0 0 0.517565
0.581319 -0.997612 6.737300 210 0 0 0.514360
0.569803 -0.993812 6.757000 192 0 0 0.482538
0.587323 -0.997882 6.767370 160 0 0 0.408845
0.592669 -1.001280 6.717480 233 1 0 0.549070
0.598849 -1.001590 6.747690 196 0 0 0.494446
0.610355 -1.005340 6.727950 228 0 0 0.539658
0.558103 -0.990008 6.776690 169 0 0 0.435769
0.575782 -0.994146 6.786980 142 0 0 0.329856
0.540357 -0.985200 6.766510 183 0 0 0.466571
0.522159 -0.979952 6.755750 219 0 0 0.528385
0.533656 -0.984522 6.735680 255 30 0 0.588748
0.629624 -1.003120 6.737230 233 1 0 0.549399
0.619086 -0.999935 6.755390 205 0 0 0.507430
0.638030 -0.997932 6.764430 196 0 0 0.497514
0.648638 -1.001200 6.746400 233 1 0 0.550913
0.627645 -0.994751 6.782600 173 0 0 0.448474
0.657419 -0.997038 6.774070 210 0 0 0.517409
0.647173 -0.993759 6.792180 192 0 0 0.486201
0.666980 -0.993839 6.802270 192 0 0 0.485724
0.668001 -1.000350 6.756160 246 12 0 0.567487
0.677379 -0.997305 6.784420 219 0 0 0.532190
0.687853 -1.000720 6.766650 255 23 0 0.581615
0.636750 -0.990333 6.810120 164 0 0 0.428959
0.656704 -0.990408 6.820220 169 0 0 0.437584
0.616239 -0.990918 6.802110 155 0 0 0.392951
0.596277 -0.992582 6.794740 146 0 0 0.369997
0.607726 -0.996342 6.775180 169 0 0 0.438182
0.527596 -0.055335 6.996930 128 0 0 0.000000
0.512025 -0.071331 7.022240 128 0 0 0.000000
0.487942 -0.088929 7.036670 128 0 0 0.000000
0.472374 -0.106750 7.060780 128 0 0 0.000000
0.453860 -0.106196 7.040820 128 0 0 0.000000
0.505459 -0.089041 7.056600 128 0 0 0.000000
0.490598 -0.108012 7.079990 128 0 0 0.000000
0.529366 -0.071754 7.042430 128 0 0 0.000000
0.553559 -0.055110 7.027880 128 0 0 0.000000
0.435852 -0.131950 7.053530 128 0 0 0.000000
0.427266 -0.158604 7.075400 128 0 0 0.000000
0.409039 -0.185535 7.087050 128 0 0 0.000000
0.401352 -0.213526 7.107840 128 0 0 0.000000
0.381957 -0.211425 7.089510 128 0 0 0.000000
0.428416 -0.187416 7.105430 128 0 0 0.000000
0.421084 -0.215567 7.125610 128 0 0 0.000000
0.445763 -0.160500 7.093980 128 0 0 0.000000
0.463596 -0.133630 7.082470 128 0 0 0.000000
0.461073 -0.220612 7.159540 128 0 0 0.000000
0.477545 -0.193323 7.149360 128 0 0 0.000000
0.484346 -0.164803 7.129980 128 0 0 0.000000
0.501258 -0.137967 7.119240 128 0 0 0.000000
0.509420 -0.110143 7.098930 128 0 0 0.000000
0.482786 -0.135292 7.100930 128 0 0 0.000000
0.465062 -0.162382 7.112250 128 0 0 0.000000
0.447847 -0.189495 7.123280 128 0 0 0.000000
0.441106 -0.218107 7.142790 128 0 0 0.000000
0.522822 -0.090393 7.075890 128 0 0 0.000000
0.450139 -0.253786 7.164480 128 0 0 0.000000
0.451131 -0.287123 7.176990 128 0 0 0.000000
0.441083 -0.320145 7.181930 128 0 0 0.000000
0.442417 -0.353282 7.193710 128 0 0 0.000000
0.420014 -0.352750 7.179850 128 0 0 0.000000
0.463745 -0.320448 7.196720 128 0 0 0.000000
0.465069 -0.353601 7.208240 128 0 0 0.000000
0.472821 -0.288753 7.191920 128 0 0 0.000000
0.482202 -0.257071 7.187450 128 0 0 0.000000
0.481575 -0.223575 7.175130 128 0 0 0.000000
0.502271 -0.226542 7.190690 128 0 0 0.000000
0.416918 -0.388098 7.180510 128 0 0 0.000000
0.426211 -0.421766 7.188400 128 0 0 0.000000
0.423869 -0.456599 7.189260 128 0 0 0.000000
0.433121 -0.490084 7.197020 128 0 0 0.000000
0.409636 -0.493457 7.183230 128 0 0 0.000000
0.447210 -0.453473 7.202940 128 0 0 0.000000
0.456271 -0.486798 7.210400 128 0 0 0.000000
0.449304 -0.420283 7.202400 128 0 0 0.000000
0.451365 -0.386906 7.201590 128 0 0 0.000000
0.494130 -0.447594 7.228990 128 0 0 0.000000
0.495491 -0.416237 7.228360 128 0 0 0.000000
0.485906 -0.384930 7.221690 128 0 0 0.000000
0.487612 -0.353403 7.221380 128 0 0 0.000000
0.472637 -0.418255 7.215970 128 0 0 0.000000
0.470425 -0.451424 7.216230 128 0 0 0.000000
0.480090 -0.482641 7.223080 128 0 0 0.000000
0.507937 -0.321565 7.223940 128 0 0 0.000000
0.516216 -0.291305 7.220050 128 0 0 0.000000
0.514412 -0.259585 7.209350 128 0 0 0.000000
0.494664 -0.290003 7.206470 128 0 0 0.000000
0.485207 -0.321985 7.210280 128 0 0 0.000000
0.359949 -0.243796 7.087230 128 0 0 0.000000
0.361581 -0.209982 7.070180 128 0 0 0.000000
0.338341 -0.276315 7.085000 128 0 0 0.000000
0.339625 -0.242251 7.068140 128 0 0 0.000000
0.317993 -0.274556 7.066320 128 0 0 0.000000
0.341943 -0.208731 7.050350 128 0 0 0.000000
0.316850 -0.308908 7.083200 128 0 0 0.000000
0.295480 -0.341733 7.081350 128 0 0 0.000000
0.317029 -0.343741 7.099840 128 0 0 0.000000
0.337994 -0.311007 7.101610 128 0 0 0.000000
0.359537 -0.278239 7.104020 128 0 0 0.000000
0.338145 -0.346040 7.117700 128 0 0 0.000000
0.318858 -0.239966 7.048110 128 0 0 0.000000
0.320674 -0.207262 7.029610 128 0 0 0.000000
0.295875 -0.271389 7.045920 128 0 0 0.000000
0.297591 -0.238340 7.027510 128 0 0 0.000000
0.273080 -0.303087 7.043680 128 0 0 0.000000
0.273079 -0.338293 7.061790 128 0 0 0.000000
0.295410 -0.306303 7.064000 128 0 0 0.000000
0.262421 -0.450071 7.069340 128 0 0 0.000000
0.260484 -0.488850 7.072100 128 0 0 0.000000
0.265029 -0.411457 7.066460 128 0 0 0.000000
0.288624 -0.416760 7.086120 128 0 0 0.000000
0.285923 -0.454909 7.088290 128 0 0 0.000000
0.283554 -0.493373 7.090480 128 0 0 0.000000
0.280259 -0.376219 7.073780 128 0 0 0.000000
0.307864 -0.456719 7.105990 128 0 0 0.000000
0.305798 -0.494919 7.108040 128 0 0 0.000000
0.310258 -0.418763 7.103700 128 0 0 0.000000
0.332245 -0.421094 7.121590 128 0 0 0.000000
0.330062 -0.458846 7.123730 128 0 0 0.000000
0.328142 -0.496817 7.125450 128 0 0 0.000000
0.324133 -0.382318 7.110790 128 0 0 0.000000
0.302624 -0.380056 7.092910 128 0 0 0.000000
0.379932 -0.245905 7.105410 128 0 0 0.000000
0.379155 -0.280368 7.120820 128 0 0 0.000000
0.358817 -0.313007 7.119370 128 0 0 0.000000
0.358580 -0.347855 7.134080 128 0 0 0.000000
0.378590 -0.315111 7.135480 128 0 0 0.000000
0.378436 -0.350091 7.149780 128 0 0 0.000000
0.399461 -0.282555 7.138240 128 0 0 0.000000
0.400187 -0.247927 7.123310 128 0 0 0.000000
0.345111 -0.383772 7.127940 128 0 0 0.000000
0.352632 -0.421443 7.137620 128 0 0 0.000000
0.350346 -0.459164 7.138950 128 0 0 0.000000
0.348252 -0.497034 7.140170 128 0 0 0.000000
0.368714 -0.496757 7.156010 128 0 0 0.000000
0.370694 -0.460007 7.154230 128 0 0 0.000000
0.372866 -0.423325 7.152560 128 0 0 0.000000
0.365786 -0.385467 7.143970 128 0 0 0.000000
0.401785 -0.457676 7.175590 128 0 0 0.000000
0.404072 -0.422557 7.174360 128 0 0 0.000000
0.396434 -0.386641 7.166300 128 0 0 0.000000
0.399379 -0.351267 7.164950 128 0 0 0.000000
0.388992 -0.495108 7.169260 128 0 0 0.000000
0.419727 -0.318503 7.167020 128 0 0 0.000000
0.429848 -0.285451 7.161760 128 0 0 0.000000
0.430351 -0.251036 7.148240 128 0 0 0.000000
0.399344 -0.316867 7.151900 128 0 0 0.000000
0.462136 -0.059321 6.922750 128 0 0 0.000000
0.437309 -0.075406 6.937880 128 0 0 0.000000
0.422376 -0.090811 6.964010 128 0 0 0.000000
0.397320 -0.107743 6.978740 128 0 0 0.000000
0.417564 -0.106735 7.000170 128 0 0 0.000000
0.442742 -0.089790 6.985450 128 0 0 0.000000
0.457999 -0.074270 6.959630 128 0 0 0.000000
0.481871 -0.057754 6.944630 128 0 0 0.000000
0.367686 -0.132291 6.981440 128 0 0 0.000000
0.348271 -0.156605 6.994280 128 0 0 0.000000
0.339602 -0.181930 7.017430 128 0 0 0.000000
0.360281 -0.182681 7.038060 128 0 0 0.000000
0.368932 -0.157056 7.015440 128 0 0 0.000000
0.388172 -0.131913 7.002590 128 0 0 0.000000
0.389868 -0.184305 7.068250 128 0 0 0.000000
0.407692 -0.157887 7.055970 128 0 0 0.000000
0.416978 -0.131749 7.033570 128 0 0 0.000000
0.436148 -0.106192 7.020820 128 0 0 0.000000
0.388863 -0.157254 7.036090 128 0 0 0.000000
0.469500 -0.088766 7.016520 128 0 0 0.000000
0.494712 -0.072169 7.001740 128 0 0 0.000000
0.510776 -0.056252 6.976460 128 0 0 0.000000
0.476332 -0.072946 6.981050 128 0 0 0.000000
0.520831 -0.140506 7.136770 128 0 0 0.000000
0.503915 -0.167558 7.146980 128 0 0 0.000000
0.497810 -0.196178 7.165390 128 0 0 0.000000
0.517799 -0.199682 7.181410 128 0 0 0.000000
0.408915 -0.792022 7.070910 128 0 0 0.000000
0.397834 -0.792619 7.061890 128 0 0 0.000000
0.415390 -0.819299 7.045840 128 0 0 0.000000
0.404266 -0.819952 7.035900 128 0 0 0.000000
0.386822 -0.793053 7.052140 128 0 0 0.000000
0.421952 -0.846615 7.019540 128 0 0 0.000000
0.393181 -0.820380 7.025600 128 0 0 0.000000
0.410853 -0.847092 7.009320 128 0 0 0.000000
0.399727 -0.847520 6.998380 128 0 0 0.000000
0.375637 -0.793399 7.041790 128 0 0 0.000000
0.382042 -0.820751 7.014790 128 0 0 0.000000
0.364332 -0.793627 7.030770 128 0 0 0.000000
0.428529 -0.873291 6.992370 128 0 0 0.000000
0.417709 -0.873934 6.981990 128 0 0 0.000000
0.435573 -0.899822 6.965020 128 0 0 0.000000
0.448469 -0.899681 6.975900 128 0 0 0.000000
0.441656 -0.873242 7.003040 128 0 0 0.000000
0.461585 -0.899493 6.986670 128 0 0 0.000000
0.454748 -0.872732 7.012960 128 0 0 0.000000
0.435113 -0.846363 7.029690 128 0 0 0.000000
0.448230 -0.845944 7.039050 128 0 0 0.000000
0.474674 -0.898891 6.996700 128 0 0 0.000000
0.467971 -0.872302 7.022840 128 0 0 0.000000
0.487817 -0.898278 7.006720 128 0 0 0.000000
0.428571 -0.819208 7.055200 128 0 0 0.000000
0.352153 -0.788975 7.020340 128 0 0 0.000000
0.367107 -0.814603 7.004240 128 0 0 0.000000
0.354709 -0.810051 6.993090 128 0 0 0.000000
0.339658 -0.784300 7.009000 128 0 0 0.000000
0.369767 -0.835337 6.976820 128 0 0 0.000000
0.342016 -0.805131 6.981380 128 0 0 0.037312
0.357277 -0.830580 6.965300 128 0 0 0.029600
0.327027 -0.779323 6.997300 128 0 0 0.000000
0.372552 -0.855696 6.948860 128 0 0 0.000000
0.390375 -0.882056 6.932330 128 0 0 0.000000
0.387680 -0.862010 6.960390 128 0 0 0.000000
0.405684 -0.888348 6.943760 128 0 0 0.000000
0.402569 -0.868070 6.971220 128 0 0 0.000000
0.384776 -0.841583 6.987850 128 0 0 0.000000
0.420415 -0.894148 6.954430 128 0 0 0.000000
0.437786 -0.930671 6.875260 128 0 0 0.010429
0.455196 -0.937257 6.885800 128 0 0 0.000000
0.436940 -0.920687 6.905400 128 0 0 0.000000
0.472606 -0.943696 6.896290 128 0 0 0.000000
0.454469 -0.927230 6.915680 128 0 0 0.000000
0.471690 -0.933245 6.925780 128 0 0 0.000000
0.489863 -0.949606 6.906160 128 0 0 0.000000
0.436210 -0.910435 6.935470 128 0 0 0.000000
0.453696 -0.916693 6.945450 128 0 0 0.000000
0.421315 -0.904657 6.924510 128 0 0 0.000000
0.406180 -0.898560 6.913280 128 0 0 0.000000
0.422040 -0.914716 6.894170 128 0 0 0.014810
0.502866 -0.949311 6.917360 128 0 0 0.000000
0.524490 -0.949673 6.926810 128 0 0 0.000000
0.497795 -0.932661 6.947770 128 0 0 0.000000
0.546037 -0.949860 6.935820 128 0 0 0.000000
0.519565 -0.932774 6.956600 128 0 0 0.000000
0.541775 -0.933880 6.966210 128 0 0 0.000000
0.568261 -0.951953 6.946440 128 0 0 0.000000
0.492618 -0.915470 6.977360 128 0 0 0.000000
0.514936 -0.916157 6.986420 128 0 0 0.000000
0.479592 -0.916120 6.967030 128 0 0 0.000000
0.466680 -0.916691 6.956540 128 0 0 0.000000
0.484901 -0.933167 6.937030 128 0 0 0.000000
0.313812 -0.743819 7.008280 128 0 0 0.158872
0.326534 -0.748827 7.020090 128 0 0 0.062523
0.313375 -0.713055 7.030930 128 0 0 0.171870
0.339118 -0.753689 7.031420 128 0 0 0.000000
0.325946 -0.718055 7.042200 128 0 0 0.079651
0.338384 -0.722979 7.052930 128 0 0 0.000000
0.351508 -0.758343 7.042250 128 0 0 0.000000
0.312588 -0.682201 7.052810 128 0 0 0.097151
0.325292 -0.687094 7.063640 128 0 0 0.028102
0.311949 -0.651338 7.074070 128 0 0 0.000000
0.300395 -0.648021 7.064130 128 0 0 0.000000
0.301167 -0.678777 7.042440 128 0 0 0.157055
0.288759 -0.644571 7.053670 128 0 0 0.058348
0.289291 -0.675157 7.031550 128 0 0 0.211760
0.301682 -0.709560 7.020000 128 0 0 0.227998
0.276707 -0.640907 7.042780 128 0 0 0.075980
0.372806 -0.757943 7.062080 128 0 0 0.000000
0.358768 -0.722512 7.071560 128 0 0 0.000000
0.383842 -0.757704 7.071780 128 0 0 0.000000
0.369877 -0.722534 7.081190 128 0 0 0.000000
0.381154 -0.722674 7.090680 128 0 0 0.000000
0.394877 -0.757514 7.080810 128 0 0 0.000000
0.356030 -0.687272 7.090550 128 0 0 0.000000
0.367481 -0.687628 7.100310 128 0 0 0.000000
0.353953 -0.652312 7.110010 128 0 0 0.000000
0.332632 -0.651839 7.092210 128 0 0 0.000000
0.322780 -0.534894 7.112230 128 0 0 0.019130
0.318045 -0.573147 7.099440 128 0 0 0.085417
0.300718 -0.533207 7.095360 128 0 0 0.000000
0.296831 -0.572292 7.083310 128 0 0 0.026311
0.314548 -0.612361 7.086990 128 0 0 0.034978
0.336115 -0.613036 7.105130 128 0 0 0.031585
0.340540 -0.574528 7.118120 128 0 0 0.031388
0.277915 -0.529106 7.077020 128 0 0 0.000000
0.273103 -0.565052 7.063120 128 0 0 0.080988
0.280752 -0.604769 7.058720 128 0 0 0.130678
0.292638 -0.608385 7.069040 128 0 0 0.099834
0.284965 -0.568772 7.073510 128 0 0 0.045792
0.414428 -0.750180 7.098990 128 0 0 0.000000
0.428446 -0.782868 7.090650 128 0 0 0.000000
0.400498 -0.717355 7.107240 128 0 0 0.000000
0.420686 -0.709045 7.127690 128 0 0 0.000000
0.434379 -0.741674 7.119440 128 0 0 0.000000
0.448311 -0.774269 7.111440 128 0 0 0.000000
0.396906 -0.680198 7.125490 128 0 0 0.000000
0.393658 -0.643053 7.143640 128 0 0 0.000000
0.373619 -0.647707 7.126640 128 0 0 0.000000
0.453879 -0.731712 7.136410 128 0 0 0.000000
0.467430 -0.762108 7.130060 128 0 0 0.000000
0.440753 -0.701357 7.143340 128 0 0 0.000000
0.459923 -0.689626 7.161470 128 0 0 0.000000
0.473125 -0.719908 7.155040 128 0 0 0.000000
0.486411 -0.750269 7.148720 128 0 0 0.000000
0.437266 -0.664948 7.158780 128 0 0 0.000000
0.433945 -0.628633 7.174250 128 0 0 0.000000
0.413661 -0.635711 7.158520 128 0 0 0.000000
0.417076 -0.672385 7.143190 128 0 0 0.000000
0.405412 -0.530464 7.173150 128 0 0 0.000000
0.401142 -0.567739 7.163020 128 0 0 0.000000
0.384851 -0.532462 7.159480 128 0 0 0.000000
0.380900 -0.570071 7.149850 128 0 0 0.000000
0.397312 -0.605242 7.153420 128 0 0 0.000000
0.417623 -0.598299 7.168670 128 0 0 0.000000
0.421407 -0.561189 7.178480 128 0 0 0.000000
0.364457 -0.535292 7.144290 128 0 0 0.000000
0.360594 -0.573898 7.132820 128 0 0 0.041268
0.344195 -0.535586 7.129140 128 0 0 0.000000
0.356946 -0.613064 7.121470 128 0 0 0.005189
0.377056 -0.608637 7.138130 128 0 0 0.000000
0.494882 -0.710532 7.169500 128 0 0 0.000000
0.507483 -0.739386 7.163980 128 0 0 0.000000
0.482435 -0.681712 7.175310 128 0 0 0.000000
0.503325 -0.671239 7.190240 128 0 0 0.000000
0.516033 -0.700087 7.185090 128 0 0 0.000000
0.528551 -0.729048 7.179850 128 0 0 0.000000
0.480516 -0.647599 7.188350 128 0 0 0.000000
0.479111 -0.613702 7.201660 128 0 0 0.000000
0.456481 -0.621031 7.187630 128 0 0 0.000000
0.458181 -0.655271 7.174690 128 0 0 0.000000
0.538125 -0.691541 7.197940 128 0 0 0.000000
0.549814 -0.719360 7.192570 128 0 0 0.000000
0.526568 -0.663797 7.203380 128 0 0 0.000000
0.547966 -0.654401 7.216090 128 0 0 0.000000
0.559188 -0.682163 7.210650 128 0 0 0.000000
0.570728 -0.710039 7.205570 128 0 0 0.000000
0.525867 -0.631375 7.215160 128 0 0 0.000000
0.525444 -0.599124 7.227220 128 0 0 0.000000
0.502338 -0.606286 7.214320 128 0 0 0.000000
0.502697 -0.638728 7.202210 128 0 0 0.000000
0.497321 -0.512063 7.226930 128 0 0 0.000000
0.491199 -0.545801 7.218440 128 0 0 0.000000
0.473546 -0.516401 7.214190 128 0 0 0.000000
0.467388 -0.550336 7.205620 128 0 0 0.000000
0.484930 -0.579740 7.209850 128 0 0 0.000000
0.508249 -0.572511 7.222620 128 0 0 0.000000
0.514455 -0.538703 7.231130 128 0 0 0.000000
0.450391 -0.522009 7.200950 128 0 0 0.000000
0.444801 -0.557398 7.192030 128 0 0 0.000000
0.427197 -0.525497 7.187550 128 0 0 0.000000
0.439202 -0.592942 7.183000 128 0 0 0.000000
0.461826 -0.585609 7.196530 128 0 0 0.000000
0.579952 -0.674409 7.222080 128 0 0 0.000000
0.591031 -0.701490 7.216880 128 0 0 0.000000
0.569148 -0.647549 7.227580 128 0 0 0.000000
0.589280 -0.638907 7.238490 128 0 0 0.000000
0.600134 -0.665794 7.233280 128 0 0 0.000000
0.611103 -0.692781 7.228280 128 0 0 0.000000
0.568557 -0.616447 7.238530 128 0 0 0.000000
0.568083 -0.585425 7.249560 128 0 0 0.000000
0.546647 -0.592300 7.238100 128 0 0 0.000000
0.547112 -0.623300 7.226990 128 0 0 0.000000
0.619777 -0.658719 7.244670 128 0 0 0.000000
0.629720 -0.685160 7.239160 128 0 0 0.000000
0.609384 -0.632510 7.250210 128 0 0 0.000000
0.608796 -0.602465 7.261280 128 0 0 0.000000
0.598351 -0.575732 7.266640 128 0 0 0.000000
0.588666 -0.608863 7.249650 128 0 0 0.000000
0.577993 -0.523042 7.265720 128 0 0 0.000000
0.562838 -0.496421 7.262270 128 0 0 0.000000
0.557618 -0.527515 7.253910 128 0 0 0.000000
0.572887 -0.554200 7.257510 128 0 0 0.000000
0.541940 -0.501933 7.251010 128 0 0 0.000000
0.536110 -0.534209 7.242710 128 0 0 0.000000
0.519926 -0.506400 7.239060 128 0 0 0.000000
0.530697 -0.566637 7.234900 128 0 0 0.000000
0.551989 -0.559812 7.245850 128 0 0 0.000000
0.126401 -0.470674 6.946720 128 0 0 0.000000
0.111115 -0.436065 6.941050 128 0 0 0.000000
0.117177 -0.496789 6.929760 128 0 0 0.026875
0.101752 -0.462120 6.924460 128 0 0 0.000000
0.092253 -0.488162 6.907850 128 0 0 0.043636
0.086715 -0.427749 6.918660 128 0 0 0.000000
0.107812 -0.523013 6.913030 128 0 0 0.105244
0.098417 -0.549503 6.896530 128 0 0 0.167965
0.111888 -0.555727 6.907130 128 0 0 0.198886
0.121028 -0.529202 6.923960 128 0 0 0.151554
0.125275 -0.561821 6.918010 128 0 0 0.202253
0.134618 -0.535370 6.934910 128 0 0 0.172027
0.130479 -0.502709 6.940880 128 0 0 0.034739
0.138883 -0.567901 6.928830 128 0 0 0.211797
0.076531 -0.453864 6.903230 128 0 0 0.000000
0.062566 -0.421510 6.897640 128 0 0 0.000000
0.066315 -0.480248 6.887970 128 0 0 0.042774
0.052471 -0.447702 6.882160 128 0 0 0.000000
0.042276 -0.473937 6.867450 128 0 0 0.027744
0.038589 -0.415737 6.876510 128 0 0 0.000000
0.056307 -0.506557 6.872760 128 0 0 0.129568
0.046409 -0.533335 6.857900 128 0 0 0.129189
0.072302 -0.541418 6.877130 128 0 0 0.133536
0.082138 -0.514632 6.892530 128 0 0 0.125742
0.080023 -0.621232 6.833840 142 0 0 0.333708
0.094226 -0.625585 6.842860 142 0 0 0.347215
0.086072 -0.596910 6.854630 137 0 0 0.305924
0.108589 -0.629970 6.852000 146 0 0 0.371173
0.100322 -0.601245 6.864000 142 0 0 0.349019
0.114697 -0.605784 6.873370 146 0 0 0.368230
0.123087 -0.634136 6.861290 155 0 0 0.400505
0.092161 -0.572968 6.875630 133 0 0 0.250001
0.106443 -0.577427 6.885120 137 0 0 0.299313
0.065998 -0.564924 6.856510 128 0 0 0.234924
0.060002 -0.588812 6.836010 133 0 0 0.264700
0.136833 -0.640161 6.871820 160 0 0 0.412835
0.151875 -0.647378 6.882500 173 0 0 0.445181
0.142077 -0.617851 6.894390 155 0 0 0.393865
0.167141 -0.654568 6.893270 183 0 0 0.469986
0.157194 -0.625040 6.905300 164 0 0 0.426550
0.147426 -0.595749 6.917110 142 0 0 0.338499
0.133524 -0.589731 6.906280 137 0 0 0.323628
0.119801 -0.583612 6.895560 137 0 0 0.314267
0.128292 -0.611782 6.883800 151 0 0 0.385285
0.175439 -0.227727 6.918050 128 0 0 0.000000
0.151027 -0.253795 6.916090 128 0 0 0.000000
0.149258 -0.226509 6.895480 128 0 0 0.000000
0.125206 -0.252483 6.893160 128 0 0 0.000000
0.127133 -0.280052 6.913530 128 0 0 0.000000
0.104009 -0.306907 6.909960 128 0 0 0.000000
0.128122 -0.311310 6.932930 128 0 0 0.000000
0.151605 -0.284367 6.935990 128 0 0 0.000000
0.123535 -0.224043 6.873660 128 0 0 0.000000
0.100006 -0.249165 6.871790 128 0 0 0.000000
0.096572 -0.222810 6.851920 128 0 0 0.000000
0.073474 -0.248196 6.849610 128 0 0 0.000000
0.077245 -0.274649 6.869070 128 0 0 0.000000
0.055283 -0.300951 6.865620 128 0 0 0.000000
0.079614 -0.303791 6.887840 128 0 0 0.000000
0.101974 -0.277826 6.890870 128 0 0 0.000000
0.054846 -0.388369 6.884620 128 0 0 0.000000
0.070971 -0.361017 6.893230 128 0 0 0.000000
0.079025 -0.394213 6.905860 128 0 0 0.000000
0.094969 -0.366848 6.914730 128 0 0 0.000000
0.087228 -0.333862 6.901890 128 0 0 0.000000
0.063455 -0.330977 6.879140 128 0 0 0.000000
0.047144 -0.358077 6.870870 128 0 0 0.000000
0.102788 -0.399523 6.928320 128 0 0 0.000000
0.118719 -0.371376 6.938200 128 0 0 0.000000
0.127142 -0.407722 6.950950 128 0 0 0.000000
0.135534 -0.343272 6.947330 128 0 0 0.000000
0.111272 -0.338948 6.924170 128 0 0 0.000000
0.027556 -0.442406 6.863260 128 0 0 0.000000
0.013899 -0.412253 6.857390 128 0 0 0.000000
0.016732 -0.469475 6.850020 128 0 0 0.000000
0.002882 -0.439151 6.844540 128 0 0 0.000000
-0.008032 -0.466178 6.831970 128 0 0 0.012848
-0.010758 -0.409053 6.838810 128 0 0 0.000000
0.005832 -0.496702 6.837200 128 0 0 0.052451
-0.004826 -0.524458 6.824610 128 0 0 0.120188
0.020703 -0.528757 6.840890 128 0 0 0.120093
0.031264 -0.501197 6.854080 128 0 0 0.080213
-0.022121 -0.436451 6.828090 128 0 0 0.000000
-0.035904 -0.407531 6.822690 128 0 0 0.000000
-0.033469 -0.464268 6.817710 128 0 0 0.003758
-0.047356 -0.434842 6.812460 128 0 0 0.000000
-0.058833 -0.462795 6.802690 128 0 0 0.042657
-0.062037 -0.405987 6.807270 128 0 0 0.000000
-0.044655 -0.492244 6.807400 128 0 0 0.036925
-0.055888 -0.520832 6.797500 128 0 0 0.043720
-0.030118 -0.522652 6.810820 128 0 0 0.071212
-0.019219 -0.494276 6.821090 128 0 0 0.064440
-0.032701 -0.633954 6.760870 128 0 0 0.088430
-0.025954 -0.606170 6.776980 128 0 0 0.107809
-0.006443 -0.635299 6.772620 128 0 0 0.126645
-0.018940 -0.578567 6.792790 128 0 0 0.141963
0.000324 -0.607605 6.788810 128 0 0 0.167672
0.007288 -0.579870 6.805070 128 0 0 0.176563
0.019885 -0.636672 6.784640 128 0 0 0.186050
-0.011873 -0.551203 6.808580 128 0 0 0.128230
-0.037366 -0.549537 6.795380 128 0 0 0.106394
-0.044522 -0.576961 6.779760 128 0 0 0.091864
0.026405 -0.610428 6.802640 128 0 0 0.196424
0.046833 -0.641315 6.798930 128 0 0 0.246836
0.032891 -0.584266 6.820680 128 0 0 0.207635
0.053407 -0.614959 6.817190 133 0 0 0.275002
0.039561 -0.558547 6.839140 128 0 0 0.181846
0.014024 -0.554039 6.822760 128 0 0 0.186798
-0.831386 -0.789448 6.386750 255 23 0 0.578984
-0.851070 -0.791622 6.370240 255 56 0 0.618602
-0.837279 -0.802191 6.355320 255 75 0 0.641060
-0.857240 -0.804973 6.339080 255 86 0 0.649880
-0.871033 -0.794375 6.353970 255 75 0 0.638874
-0.843360 -0.815496 6.324200 255 90 0 0.654754
-0.877206 -0.808177 6.323070 255 64 0 0.627968
-0.863291 -0.818650 6.308280 255 60 0 0.622428
-0.883482 -0.822306 6.292500 246 12 0 0.567213
-0.891008 -0.797453 6.337900 255 60 0 0.625784
-0.897296 -0.811662 6.307280 255 23 0 0.581294
-0.911110 -0.800947 6.321960 255 23 0 0.582438
-0.849316 -0.829135 6.293410 255 64 0 0.627127
-0.869399 -0.832685 6.277620 246 12 0 0.566442
-0.855250 -0.842877 6.262770 237 4 0 0.556167
-0.835276 -0.841083 6.277620 255 30 0 0.591378
-0.829396 -0.827585 6.308420 255 75 0 0.640877
-0.815355 -0.839498 6.292560 255 45 0 0.607268
-0.809530 -0.826358 6.323510 255 67 0 0.631485
-0.823484 -0.814312 6.339410 255 78 0 0.644355
-0.803741 -0.813508 6.354740 255 45 0 0.606302
-0.795599 -0.838266 6.307620 255 41 0 0.601459
-0.789849 -0.825526 6.338780 255 49 0 0.610561
-0.775893 -0.837408 6.322800 255 27 0 0.586065
-0.817641 -0.801446 6.370740 255 27 0 0.586630
-0.932862 -0.798589 6.305680 255 60 0 0.623953
-0.919295 -0.809301 6.290850 255 53 0 0.615790
-0.941409 -0.807485 6.274830 255 60 0 0.622729
-0.954873 -0.796838 6.289490 255 56 0 0.622225
-0.927740 -0.818098 6.260080 255 53 0 0.615935
-0.963600 -0.806113 6.258850 255 34 0 0.592260
-0.950053 -0.816811 6.244250 255 27 0 0.585514
-0.972244 -0.815305 6.228330 223 0 0 0.536978
-0.977013 -0.795232 6.273410 255 38 0 0.598250
-0.985927 -0.804694 6.242880 219 0 0 0.532486
-0.999296 -0.793914 6.257410 223 0 0 0.533373
-0.936119 -0.827004 6.229330 255 30 0 0.590957
-0.958409 -0.825724 6.213460 228 0 0 0.540264
-0.944322 -0.835746 6.198400 233 1 0 0.546906
-0.921787 -0.837257 6.214420 255 27 0 0.584230
-0.913617 -0.828589 6.245360 255 41 0 0.604904
-0.899361 -0.838801 6.230450 255 41 0 0.604600
-0.891397 -0.830458 6.261430 255 34 0 0.595553
-0.905493 -0.819971 6.276210 255 41 0 0.604383
-0.877207 -0.840663 6.246520 255 30 0 0.590307
-0.876642 -0.868530 6.129020 251 241 0 0.764472
-0.854873 -0.870361 6.144390 232 255 16 0.776324
-0.871878 -0.863429 6.162780 255 149 0 0.703511
-0.850119 -0.865443 6.178190 255 149 0 0.702870
-0.833408 -0.872807 6.159790 245 249 3 0.767504
-0.866645 -0.857377 6.196290 255 112 0 0.672191
-0.828429 -0.867657 6.193630 255 123 0 0.682115
-0.844845 -0.859477 6.211760 255 90 0 0.654642
-0.823201 -0.861752 6.227240 255 64 0 0.626395
-0.811785 -0.875025 6.175230 255 223 0 0.751735
-0.806880 -0.870065 6.209060 255 90 0 0.654220
-0.790423 -0.877602 6.190740 255 167 0 0.716048
-0.861038 -0.850366 6.229700 255 53 0 0.617877
-0.839315 -0.852582 6.245150 255 27 0 0.585948
-0.883155 -0.848492 6.213560 255 67 0 0.631551
-0.905471 -0.846789 6.197500 255 56 0 0.618681
-0.888784 -0.855473 6.180250 255 112 0 0.672172
-0.910952 -0.853698 6.164130 255 86 0 0.650410
-0.927918 -0.845281 6.181440 255 30 0 0.589629
-0.893912 -0.861476 6.146680 255 175 0 0.722652
-0.771136 -0.877698 6.203990 255 171 0 0.718380
-0.787243 -0.868506 6.224000 255 123 0 0.683288
-0.767812 -0.868678 6.237310 255 116 0 0.676135
-0.751892 -0.877827 6.217380 255 171 0 0.718119
-0.783601 -0.858470 6.257030 255 119 0 0.679888
-0.748528 -0.869035 6.250840 255 104 0 0.665913
-0.764239 -0.858927 6.270470 255 93 0 0.657336
-0.745078 -0.859749 6.284050 255 64 0 0.627462
-0.732839 -0.878379 6.230980 255 149 0 0.702374
-0.729429 -0.869970 6.264490 255 93 0 0.655746
-0.713757 -0.879263 6.244540 255 104 0 0.666892
-0.779751 -0.848018 6.289920 255 78 0 0.642993
-0.760490 -0.848778 6.303470 255 34 0 0.596685
-0.799529 -0.849278 6.274900 255 78 0 0.644311
-0.819420 -0.850882 6.260000 255 60 0 0.626038
-0.803312 -0.860025 6.242070 255 93 0 0.656960
-0.610031 -0.870799 6.318740 255 56 0 0.620832
-0.606412 -0.880921 6.285790 255 197 0 0.735510
-0.632863 -0.873240 6.302810 255 78 0 0.642973
-0.602707 -0.890411 6.252600 193 255 55 0.799233
