ply
format ascii 1.0
comment VCGLIB generated
element vertex 998
property float x
property float y
property float z
property uchar red
property uchar green
property uchar blue
property float quality
end_header
-1.222330 -0.364611 6.478220 128 0 0 0.000000
-1.230900 -0.354027 6.462880 128 0 0 0.000000
-1.241040 -0.360065 6.442990 128 0 0 0.000000
-1.211340 -0.375769 6.497410 128 0 0 0.000000
-1.207850 -0.357758 6.504420 128 0 0 0.000000
-1.197290 -0.366347 6.521820 128 0 0 0.000000
-1.204030 -0.339809 6.511430 128 0 0 0.000000
-1.218290 -0.346472 6.485480 128 0 0 0.000000
-1.259420 -0.462768 6.383370 128 0 0 0.000000
-1.248430 -0.472899 6.398540 128 0 0 0.021458
-1.240570 -0.488525 6.404800 128 0 0 0.060698
-1.230160 -0.498639 6.419850 128 0 0 0.101622
-1.235940 -0.509684 6.402230 128 0 0 0.022151
-1.234730 -0.477555 6.422540 128 0 0 0.117155
-1.224480 -0.487569 6.437600 128 0 0 0.120871
-1.238690 -0.458103 6.426490 128 0 0 0.096221
-1.249140 -0.448042 6.411470 128 0 0 0.000000
-1.222210 -0.516421 6.416390 128 0 0 0.164289
-1.213560 -0.535046 6.414340 128 0 0 0.237267
-1.208890 -0.523182 6.430650 133 0 0 0.289632
-1.200540 -0.541972 6.428500 137 0 0 0.301539
-1.195890 -0.529989 6.444890 142 0 0 0.341346
-1.203500 -0.512077 6.448200 133 0 0 0.272347
-1.216690 -0.505338 6.434000 128 0 0 0.194123
-1.182860 -0.506818 6.478860 155 0 0 0.401350
-1.196330 -0.500313 6.465120 137 0 0 0.323026
-1.202450 -0.483189 6.468820 133 0 0 0.284789
-1.216430 -0.476835 6.455060 128 0 0 0.198326
-1.210210 -0.493882 6.451370 128 0 0 0.244158
-1.189720 -0.518531 6.462110 146 0 0 0.354468
-1.219310 -0.456896 6.458370 128 0 0 0.214137
-1.230300 -0.447601 6.444080 128 0 0 0.160657
-1.232880 -0.429343 6.448450 128 0 0 0.085565
-1.241520 -0.438204 6.429820 128 0 0 0.058441
-1.227370 -0.467476 6.440770 128 0 0 0.162568
-1.285010 -0.460405 6.298030 128 0 0 0.000000
-1.279540 -0.476052 6.315870 128 0 0 0.000000
-1.287360 -0.435203 6.300880 128 0 0 0.000000
-1.282200 -0.451007 6.318890 128 0 0 0.000000
-1.284200 -0.425885 6.322050 128 0 0 0.000000
-1.276730 -0.466484 6.336780 128 0 0 0.000000
-1.289110 -0.409933 6.303920 128 0 0 0.000000
-1.289930 -0.384848 6.307280 128 0 0 0.000000
-1.292520 -0.392023 6.285960 128 0 0 0.000000
-1.291390 -0.417299 6.282980 128 0 0 0.000000
-1.289230 -0.442730 6.280130 128 0 0 0.000000
-1.294490 -0.399296 6.265030 128 0 0 0.000000
-1.278580 -0.442578 6.339540 128 0 0 0.000000
-1.271960 -0.456851 6.356880 128 0 0 0.000000
-1.279740 -0.418716 6.342560 128 0 0 0.000000
-1.273540 -0.433033 6.359940 128 0 0 0.000000
-1.280380 -0.394867 6.345840 128 0 0 0.000000
-1.285140 -0.378103 6.328210 128 0 0 0.000000
-1.284890 -0.401886 6.325090 128 0 0 0.000000
-1.275740 -0.316577 6.320390 128 0 0 0.000000
-1.280990 -0.339114 6.315950 128 0 0 0.000000
-1.278970 -0.320292 6.299920 128 0 0 0.000000
-1.284330 -0.342920 6.295550 128 0 0 0.000000
-1.285840 -0.361851 6.311530 128 0 0 0.000000
-1.281030 -0.355224 6.332510 128 0 0 0.000000
-1.281390 -0.325544 6.279160 128 0 0 0.000000
-1.286660 -0.349770 6.274230 128 0 0 0.000000
-1.282280 -0.329991 6.258230 128 0 0 0.000000
-1.287380 -0.354367 6.253340 128 0 0 0.000000
-1.291030 -0.374379 6.269410 128 0 0 0.000000
-1.288780 -0.367383 6.290720 128 0 0 0.000000
-1.180180 -0.577083 6.424550 133 0 0 0.279739
-1.195640 -0.572701 6.408970 128 0 0 0.208916
-1.167840 -0.593324 6.422790 133 0 0 0.295810
-1.183160 -0.588978 6.407140 133 0 0 0.256978
-1.170710 -0.605204 6.405430 133 0 0 0.277343
-1.198820 -0.584583 6.391530 128 0 0 0.169593
-1.155610 -0.609554 6.421060 133 0 0 0.285095
-1.143460 -0.625851 6.419190 128 0 0 0.230272
-1.140370 -0.613741 6.436000 133 0 0 0.283995
-1.152370 -0.597456 6.437950 137 0 0 0.320540
-1.185550 -0.600630 6.389830 128 0 0 0.238567
-1.200810 -0.595967 6.372760 128 0 0 0.174829
-1.172350 -0.616758 6.388120 133 0 0 0.259933
-1.187450 -0.612113 6.371060 128 0 0 0.219567
-1.174120 -0.628208 6.369420 128 0 0 0.248201
-1.159390 -0.633001 6.386470 128 0 0 0.237878
-1.146450 -0.649174 6.384770 128 0 0 0.191060
-1.144960 -0.637528 6.401960 128 0 0 0.219573
-1.157830 -0.621352 6.403680 133 0 0 0.255181
-1.096890 -0.661399 6.420000 137 0 0 0.322902
-1.112320 -0.649588 6.419780 137 0 0 0.315208
-1.096360 -0.649948 6.435120 142 0 0 0.343708
-1.111670 -0.638089 6.434950 142 0 0 0.333622
-1.127840 -0.637745 6.419430 133 0 0 0.289708
-1.129310 -0.649412 6.402300 133 0 0 0.272143
-1.113660 -0.661159 6.402580 137 0 0 0.303852
-1.094580 -0.638234 6.450990 146 0 0 0.352376
-1.108750 -0.626103 6.451670 146 0 0 0.363127
-1.091830 -0.626294 6.466580 151 0 0 0.386102
-1.123050 -0.613866 6.452280 142 0 0 0.348337
-1.125980 -0.625948 6.435470 137 0 0 0.311159
-1.264050 -0.473177 6.363580 128 0 0 0.000000
-1.255570 -0.489493 6.370610 128 0 0 0.000000
-1.260140 -0.499308 6.350380 128 0 0 0.000000
-1.268600 -0.482931 6.343480 128 0 0 0.000000
-1.250050 -0.510735 6.367320 128 0 0 0.000000
-1.244110 -0.532114 6.364240 128 0 0 0.031517
-1.240190 -0.520920 6.383180 128 0 0 0.075779
-1.245780 -0.499637 6.386360 128 0 0 0.012936
-1.271260 -0.493085 6.322990 128 0 0 0.000000
-1.263270 -0.509977 6.330100 128 0 0 0.000000
-1.256160 -0.531843 6.327100 128 0 0 0.000000
-1.246660 -0.542883 6.344160 128 0 0 0.015272
-1.253340 -0.521098 6.347220 128 0 0 0.024331
-1.211940 -0.582696 6.365960 128 0 0 0.189576
-1.223170 -0.569555 6.359070 128 0 0 0.187913
-1.220680 -0.558101 6.377920 128 0 0 0.195081
-1.209590 -0.571335 6.384720 128 0 0 0.206370
-1.233460 -0.550703 6.361600 128 0 0 0.140109
-1.235840 -0.561594 6.341550 128 0 0 0.125435
-1.217110 -0.546994 6.396720 128 0 0 0.217973
-1.204510 -0.553809 6.411650 133 0 0 0.251759
-1.226610 -0.528352 6.399370 128 0 0 0.185247
-1.230470 -0.539494 6.380440 128 0 0 0.153095
-1.188170 -0.623487 6.353310 128 0 0 0.209133
-1.173330 -0.639453 6.352580 128 0 0 0.238357
-1.188810 -0.634344 6.333770 128 0 0 0.197278
-1.173920 -0.650281 6.333100 128 0 0 0.228822
-1.158750 -0.655478 6.351870 128 0 0 0.246093
-1.144270 -0.671460 6.351190 128 0 0 0.207276
-1.145360 -0.660295 6.368010 128 0 0 0.209161
-1.159780 -0.644332 6.368690 128 0 0 0.235900
-1.187740 -0.645813 6.313960 128 0 0 0.182708
-1.170510 -0.662353 6.312710 133 0 0 0.266189
-1.187020 -0.656519 6.290800 128 0 0 0.204331
-1.153440 -0.678977 6.311520 133 0 0 0.287814
-1.140460 -0.683483 6.330620 133 0 0 0.262254
-1.157090 -0.666917 6.331910 133 0 0 0.270936
-1.084930 -0.702489 6.366520 151 0 0 0.378843
-1.102280 -0.696733 6.355900 146 0 0 0.360358
-1.109160 -0.683554 6.372530 137 0 0 0.312863
-1.091750 -0.689339 6.383260 142 0 0 0.335766
-1.123160 -0.684157 6.353580 137 0 0 0.299293
-1.119100 -0.695935 6.333090 142 0 0 0.351189
-1.094080 -0.678354 6.398190 142 0 0 0.328361
-1.128270 -0.660825 6.387090 133 0 0 0.268443
-1.127200 -0.671970 6.370290 133 0 0 0.277086
-1.282810 -0.490034 6.223390 128 0 0 0.000000
-1.285690 -0.467390 6.215660 128 0 0 0.000000
-1.288360 -0.458712 6.239010 128 0 0 0.000000
-1.285330 -0.481109 6.246570 128 0 0 0.000000
-1.289730 -0.440187 6.219540 128 0 0 0.000000
-1.292770 -0.413331 6.223710 128 0 0 0.000000
-1.288830 -0.421683 6.201080 128 0 0 0.000000
-1.285330 -0.448764 6.197200 128 0 0 0.000000
-1.286000 -0.472959 6.266940 128 0 0 0.000000
-1.289640 -0.451288 6.259230 128 0 0 0.000000
-1.292490 -0.425286 6.261960 128 0 0 0.000000
-1.293830 -0.406426 6.244130 128 0 0 0.000000
-1.291500 -0.432549 6.241500 128 0 0 0.000000
-1.282210 -0.335456 6.237100 128 0 0 0.000000
-1.287040 -0.361037 6.232100 128 0 0 0.000000
-1.280040 -0.340466 6.216270 128 0 0 0.000000
-1.284690 -0.366161 6.211630 128 0 0 0.000000
-1.290360 -0.387079 6.227670 128 0 0 0.000000
-1.291290 -0.380150 6.248500 128 0 0 0.000000
-1.277030 -0.346803 6.194370 128 0 0 0.000000
-1.280620 -0.374076 6.188590 128 0 0 0.000000
-1.271210 -0.354098 6.171690 128 0 0 0.000000
-1.285270 -0.397775 6.194600 128 0 0 0.000000
-1.105650 -0.298796 5.942510 255 182 0 0.725338
-1.117840 -0.313746 5.943460 255 119 0 0.680210
-1.129870 -0.321491 5.955200 255 56 0 0.620774
-1.142560 -0.336375 5.956020 219 0 0 0.532437
-1.154460 -0.344214 5.967680 201 0 0 0.499008
-1.155090 -0.358601 5.946290 155 0 0 0.393794
-1.141880 -0.322080 5.977330 255 45 0 0.608915
-1.153830 -0.329930 5.988960 251 16 0 0.569236
-1.127060 -0.305715 5.976080 255 149 0 0.703134
-1.112840 -0.289198 5.974500 255 234 0 0.758023
-1.100980 -0.281372 5.962930 245 249 3 0.767794
-1.095890 -0.264021 5.983460 158 255 90 0.818525
-1.166730 -0.375944 5.947000 133 0 0 0.267303
-1.179710 -0.388224 5.959380 128 0 0 0.183009
-1.191470 -0.406069 5.960520 128 0 0 0.000679
-1.203980 -0.418992 5.973420 128 0 0 0.000000
-1.201570 -0.429667 5.950200 128 0 0 0.000000
-1.193850 -0.395573 5.983780 128 0 0 0.137412
-1.206390 -0.408353 5.996630 128 0 0 0.033632
-1.180730 -0.375669 5.981600 133 0 0 0.291899
-1.167500 -0.356313 5.980010 169 0 0 0.436549
-1.203170 -0.369249 6.031470 133 0 0 0.264613
-1.187100 -0.355838 6.017040 151 0 0 0.381481
-1.175210 -0.327601 6.026210 201 0 0 0.502919
-1.158640 -0.314727 6.012240 255 34 0 0.593371
-1.170510 -0.342724 6.002880 187 0 0 0.478286
-1.196670 -0.381783 6.006720 128 0 0 0.234857
-1.212600 -0.395540 6.021430 128 0 0 0.092198
-1.145650 -0.290797 6.022720 255 119 0 0.677823
-1.125360 -0.269281 6.022750 232 255 16 0.775654
-1.128920 -0.281856 6.009630 255 204 0 0.741158
-1.105430 -0.247975 6.022490 187 255 61 0.803378
-1.108850 -0.260244 6.009640 193 255 55 0.800026
-1.089340 -0.238721 6.009370 135 255 113 0.831581
-1.085760 -0.226463 6.022400 164 255 84 0.815929
-1.112100 -0.273043 5.996630 216 255 32 0.786653
-1.092470 -0.251240 5.996530 148 255 100 0.823974
-1.141410 -0.305898 5.999240 255 101 0 0.663844
-1.209490 -0.448105 5.951730 128 0 0 0.000000
-1.218750 -0.463567 5.966740 128 0 0 0.000000
-1.225610 -0.482569 5.968590 128 0 0 0.000000
-1.233610 -0.498778 5.983950 128 0 0 0.000000
-1.230030 -0.505522 5.957880 128 0 0 0.000000
-1.229220 -0.475905 5.994700 128 0 0 0.000000
-1.236890 -0.492307 6.010030 128 0 0 0.000000
-1.221800 -0.454612 5.991190 128 0 0 0.000000
-1.213850 -0.433923 5.988010 128 0 0 0.000000
-1.234320 -0.522020 5.974810 128 0 0 0.000000
-1.234520 -0.542031 5.962540 128 0 0 0.000000
-1.237770 -0.538612 5.991880 128 0 0 0.000000
-1.237600 -0.558888 5.979760 128 0 0 0.000000
-1.240190 -0.575271 5.996650 128 0 0 0.000000
-1.237130 -0.578675 5.967350 128 0 0 0.000000
-1.240480 -0.555216 6.008840 128 0 0 0.000000
-1.242950 -0.571505 6.025720 128 0 0 0.000000
-1.240750 -0.532011 6.017910 128 0 0 0.000000
-1.237600 -0.515435 6.000970 128 0 0 0.000000
-1.251410 -0.541903 6.067600 128 0 0 0.000000
-1.250360 -0.520663 6.062240 128 0 0 0.000000
-1.245710 -0.504019 6.043030 128 0 0 0.000000
-1.243740 -0.482781 6.037570 128 0 0 0.000000
-1.245400 -0.548367 6.037020 128 0 0 0.000000
-1.249450 -0.564847 6.056190 128 0 0 0.000000
-1.240720 -0.456321 6.047460 128 0 0 0.000000
-1.232990 -0.433233 6.042580 128 0 0 0.000000
-1.221550 -0.417252 6.025570 128 0 0 0.000000
-1.226530 -0.444465 6.016420 128 0 0 0.000000
-1.233770 -0.465758 6.020050 128 0 0 0.000000
-1.250290 -0.577931 6.075080 128 0 0 0.000000
-1.245050 -0.597629 6.063470 128 0 0 0.000000
-1.244160 -0.584535 6.044530 128 0 0 0.000000
-1.238480 -0.604423 6.033100 128 0 0 0.000000
-1.239400 -0.617467 6.051950 128 0 0 0.000000
-1.233490 -0.636794 6.040020 128 0 0 0.000000
-1.238470 -0.632280 6.073660 128 0 0 0.000000
-1.243940 -0.612420 6.085200 128 0 0 0.000000
-1.239880 -0.588957 6.013380 128 0 0 0.000000
-1.236420 -0.606427 6.001020 128 0 0 0.000000
-1.236860 -0.592599 5.984270 128 0 0 0.000000
-1.233220 -0.609755 5.971680 128 0 0 0.000000
-1.232810 -0.623510 5.988400 128 0 0 0.000000
-1.228480 -0.640645 5.975820 128 0 0 0.000000
-1.231410 -0.638922 6.008030 128 0 0 0.000000
-1.235130 -0.621655 6.020550 128 0 0 0.000000
-1.204390 -0.696946 5.972070 128 0 0 0.000000
-1.212450 -0.682167 5.989310 128 0 0 0.000000
-1.204540 -0.697208 6.004780 128 0 0 0.000000
-1.220010 -0.667195 6.006330 128 0 0 0.000000
-1.212020 -0.682272 6.021850 128 0 0 0.000000
-1.219210 -0.667038 6.038680 128 0 0 0.000000
-1.203480 -0.697539 6.037410 128 0 0 0.000000
-1.227130 -0.651987 6.023200 128 0 0 0.000000
-1.224410 -0.653977 5.991170 128 0 0 0.000000
-1.216610 -0.669103 5.974160 128 0 0 0.000000
-1.202080 -0.698473 6.059200 128 0 0 0.000000
-1.214410 -0.680171 6.054920 128 0 0 0.000000
-1.212440 -0.681072 6.076790 128 0 0 0.000000
-1.200140 -0.699285 6.080850 128 0 0 0.000000
-1.224410 -0.662773 6.072450 128 0 0 0.000000
-1.209320 -0.682279 6.098440 128 0 0 0.000000
-1.221460 -0.663807 6.094200 128 0 0 0.000000
-1.197330 -0.700580 6.102540 128 0 0 0.000000
-1.233530 -0.645335 6.089830 128 0 0 0.000000
-1.229210 -0.649684 6.056220 128 0 0 0.000000
-1.190090 -0.713231 5.979940 128 0 0 0.000000
-1.183170 -0.725155 5.958890 128 0 0 0.000000
-1.175780 -0.729355 5.987630 128 0 0 0.000000
-1.168810 -0.741001 5.966410 128 0 0 0.000000
-1.154500 -0.756692 5.973850 128 0 0 0.000000
-1.161580 -0.752580 5.945140 128 0 0 0.000000
-1.161450 -0.745195 5.995100 128 0 0 0.000000
-1.146930 -0.761061 6.002620 128 0 0 0.000000
-1.175880 -0.729721 6.020320 128 0 0 0.000000
-1.190440 -0.713437 6.012640 128 0 0 0.000000
-1.148900 -0.764668 5.934230 128 0 0 0.000000
-1.128170 -0.780424 5.934740 128 0 0 0.114688
-1.115710 -0.791874 5.923450 128 0 0 0.232278
-1.095300 -0.806923 5.923460 151 0 0 0.382635
-1.111240 -0.799631 5.900530 128 0 0 0.225798
-1.099670 -0.799478 5.946420 151 0 0 0.374671
-1.079460 -0.814350 5.946250 183 0 0 0.467274
-1.116700 -0.786215 5.960670 133 0 0 0.257172
-1.133600 -0.772767 5.974630 128 0 0 0.078730
-1.061910 -0.814145 6.001000 255 45 0 0.607057
-1.081990 -0.801132 6.017760 192 0 0 0.484936
-1.090110 -0.797198 6.002170 178 0 0 0.460967
-1.101840 -0.787511 6.033920 146 0 0 0.371177
-1.110220 -0.783439 6.018330 137 0 0 0.321831
-1.130320 -0.769117 6.034150 128 0 0 0.173351
-1.121640 -0.773243 6.049710 128 0 0 0.247759
-1.118590 -0.779491 6.002680 133 0 0 0.268861
-1.138910 -0.764945 6.018350 128 0 0 0.071437
-1.101520 -0.792874 5.988640 146 0 0 0.370756
-1.084680 -0.805863 5.974350 183 0 0 0.469366
-1.073360 -0.809983 5.987740 219 0 0 0.531658
-1.056880 -0.822482 5.973150 255 27 0 0.584844
-1.068310 -0.818448 5.959830 219 0 0 0.531726
-1.045550 -0.826551 5.986250 255 64 0 0.627667
-1.135580 -0.758075 6.058760 128 0 0 0.229269
-1.157090 -0.739234 6.073550 128 0 0 0.086300
-1.158710 -0.738100 6.051940 128 0 0 0.074417
-1.177670 -0.720098 6.088140 128 0 0 0.000000
-1.179860 -0.718876 6.066490 128 0 0 0.000000
-1.181580 -0.717705 6.044680 128 0 0 0.000000
-1.167390 -0.733838 6.036130 128 0 0 0.000000
-1.153210 -0.749618 6.027370 128 0 0 0.000000
-1.144450 -0.753819 6.043180 128 0 0 0.125068
-1.030890 -0.835135 5.970550 255 138 0 0.694192
-1.042250 -0.831366 5.957550 255 101 0 0.662174
-1.027860 -0.840241 5.941760 255 171 0 0.719330
-1.053530 -0.827533 5.944240 255 38 0 0.598292
-1.039090 -0.836529 5.928430 255 123 0 0.683396
-1.050300 -0.832397 5.915050 255 82 0 0.646692
-1.064780 -0.823379 5.930760 246 12 0 0.564483
-1.024900 -0.845483 5.912450 255 216 0 0.747312
-1.036170 -0.841543 5.899010 255 164 0 0.714374
-1.022200 -0.850470 5.882770 255 238 0 0.760436
-1.008530 -0.854928 5.894320 190 255 58 0.800121
-1.011210 -0.849694 5.923860 222 255 26 0.781627
-0.994877 -0.859221 5.905760 145 255 103 0.825818
-0.997478 -0.853528 5.935080 171 255 77 0.812639
-1.014110 -0.844370 5.952970 255 234 0 0.759359
-0.981258 -0.862924 5.917090 96 255 151 0.850939
-1.083290 -0.815310 5.909810 169 0 0 0.438575
-1.071520 -0.823463 5.895940 233 1 0 0.546746
-1.087210 -0.816451 5.873000 178 0 0 0.461841
-1.099010 -0.808134 5.886880 146 0 0 0.363044
-1.067700 -0.828166 5.870410 255 41 0 0.604594
-1.064220 -0.832927 5.844780 255 90 0 0.652911
-1.043240 -0.841785 5.863840 255 153 0 0.704361
-1.024390 -0.858277 5.780090 219 255 29 0.784510
-1.023540 -0.856572 5.805940 184 255 64 0.805106
-1.000730 -0.868587 5.796250 142 255 106 0.827558
-1.022960 -0.854763 5.831800 196 255 51 0.796997
-0.999938 -0.866571 5.821970 116 255 132 0.840356
-0.999351 -0.864704 5.847700 132 255 116 0.832281
-0.977141 -0.878609 5.812200 84 255 164 0.856757
-1.022570 -0.852725 5.857350 229 255 19 0.778499
-1.043410 -0.843806 5.838270 255 186 0 0.728478
-1.043880 -0.845811 5.812530 255 219 0 0.750403
-0.962009 -0.883855 5.822060 45 255 203 0.873708
-0.974485 -0.876273 5.841620 67 255 180 0.864173
-0.959486 -0.881122 5.851440 35 255 213 0.878632
-0.946994 -0.888860 5.831780 19 253 229 0.885992
-0.972037 -0.873291 5.870720 55 255 193 0.869176
-0.944393 -0.885777 5.861080 3 233 245 0.891760
-0.956910 -0.877778 5.880380 22 255 226 0.884161
-0.931994 -0.893642 5.841680 9 241 238 0.890016
-0.969735 -0.869850 5.899860 55 255 193 0.870243
-0.983325 -0.866213 5.888220 90 255 158 0.853594
-0.997027 -0.862070 5.876860 132 255 116 0.833103
-0.985709 -0.869206 5.859260 84 255 164 0.855783
-0.699069 -0.150481 5.690590 35 255 213 0.878396
-0.705955 -0.163494 5.676890 87 255 161 0.854960
-0.719212 -0.156272 5.697920 80 255 167 0.858669
-0.726315 -0.169377 5.684230 71 255 177 0.862821
-0.746613 -0.175357 5.691630 55 255 193 0.869406
-0.733331 -0.182612 5.670670 64 255 184 0.865818
-0.739477 -0.162298 5.705320 58 255 190 0.867970
-0.759642 -0.168416 5.712950 45 255 203 0.873962
-0.733986 -0.147202 5.723610 64 255 184 0.865446
-0.713937 -0.141201 5.716000 29 255 219 0.882000
-0.751273 -0.188912 5.676620 48 255 200 0.872494
-0.769165 -0.195448 5.682670 35 255 213 0.879145
-0.793070 -0.214162 5.677800 35 255 213 0.878975
-0.769599 -0.210014 5.663040 42 255 206 0.875612
-0.804517 -0.209084 5.695140 29 255 219 0.881564
-0.782292 -0.188534 5.703980 22 255 226 0.884534
-0.764483 -0.181806 5.697750 38 255 209 0.876903
-0.832874 -0.205362 5.728160 9 241 238 0.889474
-0.814736 -0.195845 5.724160 13 245 235 0.888295
-0.811895 -0.182929 5.740590 0 221 255 0.896105
-0.796454 -0.186480 5.720210 6 237 242 0.890756
-0.793529 -0.173633 5.736680 3 233 245 0.892134
-0.775249 -0.164568 5.732910 29 255 219 0.881142
-0.790651 -0.160827 5.753090 13 245 235 0.888300
-0.778449 -0.149124 5.760520 19 253 229 0.886051
-0.757991 -0.140226 5.755630 42 255 206 0.875273
-0.746039 -0.128590 5.762940 0 229 248 0.894060
-0.729149 -0.134694 5.738870 9 241 238 0.889511
-0.754643 -0.155873 5.728240 35 255 213 0.877817
-0.873886 -0.287003 5.639070 203 255 45 0.792702
-0.871858 -0.274487 5.656370 161 255 87 0.816538
-0.869891 -0.262323 5.673920 119 255 129 0.838639
-0.891893 -0.278355 5.666640 190 255 58 0.800613
-0.847788 -0.246563 5.681090 64 255 184 0.866219
-0.849266 -0.258508 5.662910 96 255 151 0.849822
-0.850730 -0.271007 5.644890 129 255 119 0.834006
-0.832565 -0.253152 5.658440 64 255 184 0.865791
-0.892893 -0.268918 5.684240 142 255 106 0.827792
-0.893911 -0.259905 5.701960 90 255 158 0.853231
-0.914428 -0.275806 5.693760 164 255 84 0.816073
-0.873045 -0.244134 5.710400 45 255 203 0.874093
-0.871597 -0.253083 5.692020 80 255 167 0.858184
-0.829627 -0.216183 5.707920 22 255 226 0.883708
-0.826224 -0.227498 5.687950 48 255 200 0.872969
-0.850519 -0.235378 5.700000 45 255 203 0.874671
-0.853170 -0.224460 5.719060 25 255 222 0.882380
-0.816122 -0.231773 5.672830 51 255 196 0.871002
-0.804598 -0.237169 5.655590 61 255 187 0.866715
-0.978301 -0.248187 5.826110 3 233 245 0.891916
-0.993162 -0.251994 5.842520 0 229 248 0.893706
-1.008130 -0.255476 5.858640 16 249 232 0.886633
-1.009380 -0.268440 5.837440 42 255 206 0.875600
-0.991692 -0.239181 5.863800 0 209 255 0.900807
-0.973613 -0.221272 5.868220 0 173 255 0.912040
-0.976069 -0.234695 5.847160 0 205 255 0.901776
-0.958118 -0.216629 5.851360 0 189 255 0.906903
-1.029760 -0.282115 5.843940 80 255 167 0.857660
-1.029340 -0.271046 5.865270 61 255 187 0.867065
-1.044570 -0.287059 5.858680 161 255 87 0.817079
-1.059820 -0.303006 5.852030 235 255 13 0.773104
-1.044360 -0.275931 5.879780 113 255 135 0.842777
-1.028270 -0.259427 5.886050 55 255 193 0.870358
-1.006800 -0.243950 5.879590 0 173 255 0.911883
-1.006140 -0.230857 5.902800 0 185 255 0.908081
-0.986333 -0.210615 5.909040 0 41 255 0.951367
-0.989081 -0.224636 5.885980 0 121 255 0.927914
-1.027900 -0.246298 5.909020 0 229 248 0.893347
-0.958771 -0.198373 5.887660 0 89 255 0.937824
-0.933810 -0.181893 5.879080 0 113 255 0.930211
-0.898437 -0.213567 5.785350 0 209 255 0.900368
-0.910019 -0.209127 5.805190 0 197 255 0.904082
-0.921507 -0.204635 5.824850 0 193 255 0.905621
-0.927560 -0.224280 5.802340 0 205 255 0.901956
-0.903709 -0.189963 5.827930 0 189 255 0.907299
-0.883989 -0.174193 5.830740 0 181 255 0.909271
-0.891258 -0.193701 5.808140 0 189 255 0.906752
-0.871583 -0.177872 5.810950 0 189 255 0.906265
-0.947514 -0.232815 5.812390 0 213 255 0.898697
-0.944274 -0.216923 5.833930 0 189 255 0.907290
-0.961323 -0.232571 5.830030 0 201 255 0.902697
-0.939446 -0.200029 5.855420 0 177 255 0.910524
-0.916681 -0.188144 5.846550 0 177 255 0.910456
-0.901621 -0.157892 5.880180 0 73 255 0.942035
-0.911123 -0.170355 5.870370 0 113 255 0.930721
-0.886427 -0.157203 5.861790 0 141 255 0.922078
-0.876970 -0.144841 5.871710 0 109 255 0.931200
-0.895916 -0.169583 5.851950 0 129 255 0.925929
-0.854595 -0.136776 5.860610 0 117 255 0.928680
-0.865071 -0.149383 5.850710 0 141 255 0.921305
-0.841709 -0.140742 5.839440 0 157 255 0.916768
-0.831346 -0.128076 5.849330 0 141 255 0.921338
-0.863804 -0.157856 5.835160 0 185 255 0.907909
-0.831014 -0.193682 5.743320 3 233 245 0.892448
-0.848354 -0.205962 5.743480 0 229 248 0.893985
-0.828966 -0.182365 5.758780 0 209 255 0.900307
-0.846434 -0.194257 5.758640 0 221 255 0.895780
-0.844354 -0.182943 5.773990 0 209 255 0.899997
-0.863882 -0.206561 5.758630 0 221 255 0.896502
-0.826803 -0.170971 5.774070 0 201 255 0.902427
-0.824624 -0.159621 5.789350 0 209 255 0.899955
-0.807731 -0.160179 5.771190 0 225 251 0.895219
-0.809795 -0.171549 5.755870 0 217 255 0.897149
-0.863613 -0.196425 5.773980 0 209 255 0.900342
-0.881124 -0.210076 5.772080 0 209 255 0.900110
-0.863366 -0.186283 5.789130 0 201 255 0.902492
-0.880923 -0.199708 5.787180 0 205 255 0.900976
-0.853153 -0.164587 5.812020 0 189 255 0.907342
-0.843985 -0.172967 5.789330 0 197 255 0.904315
-0.811612 -0.124952 5.833290 0 161 255 0.915267
-0.822793 -0.137490 5.824430 0 173 255 0.911566
-0.802028 -0.134629 5.807240 0 201 255 0.902447
-0.790837 -0.122190 5.816180 0 185 255 0.907554
-0.823673 -0.148737 5.807100 0 201 255 0.903181
-0.842675 -0.151842 5.822030 0 193 255 0.905718
-0.773017 -0.123486 5.796480 0 201 255 0.903246
-0.785002 -0.135294 5.789300 0 213 255 0.898320
-0.796344 -0.147689 5.780300 3 233 245 0.891758
-0.917397 -0.268703 5.711190 122 255 126 0.838095
-0.920423 -0.262059 5.728830 77 255 171 0.859530
-0.933091 -0.277417 5.713440 145 255 103 0.826116
-0.904637 -0.253530 5.726770 55 255 193 0.869723
-0.887266 -0.245180 5.724120 35 255 213 0.878849
-0.946155 -0.279538 5.725760 132 255 116 0.832503
-0.935879 -0.265398 5.741080 77 255 171 0.858808
-0.949592 -0.268378 5.752410 71 255 177 0.861941
-0.959937 -0.282519 5.737120 129 255 119 0.833628
-0.932204 -0.252951 5.762220 32 255 216 0.880205
-0.916763 -0.249635 5.750230 29 255 219 0.881154
-0.900030 -0.229836 5.761670 3 233 245 0.891666
-0.882735 -0.226156 5.748140 13 245 235 0.888759
-0.915475 -0.233237 5.773810 3 233 245 0.892627
-0.868710 -0.225052 5.734240 19 253 229 0.885387
-0.965133 -0.247109 5.810480 0 229 248 0.893321
-0.952005 -0.245963 5.794800 13 245 235 0.888819
-0.969625 -0.260434 5.792910 35 255 213 0.878471
-0.985252 -0.273405 5.790130 58 255 190 0.868763
-0.981832 -0.260716 5.808120 29 255 219 0.881884
-0.997573 -0.273517 5.805200 58 255 190 0.867727
-0.934801 -0.240183 5.784970 0 229 248 0.893954
-0.949397 -0.258776 5.772110 32 255 216 0.879318
-0.974356 -0.286673 5.747150 138 255 109 0.828751
-0.966815 -0.274270 5.762320 93 255 155 0.852182
-0.981964 -0.279279 5.770860 109 255 138 0.844566
-0.989495 -0.291577 5.755650 171 255 77 0.811415
-1.005440 -0.297806 5.763330 200 255 48 0.794536
-1.000560 -0.288042 5.779000 132 255 116 0.832064
-1.017270 -0.295404 5.785970 161 255 87 0.816812
-1.022210 -0.305301 5.770260 245 249 3 0.767724
-1.039960 -0.314349 5.776980 255 204 0 0.741509
-1.052790 -0.318750 5.789630 255 175 0 0.721289
-1.068420 -0.329978 5.786360 255 45 0 0.608323
-1.040310 -0.306692 5.802460 206 255 42 0.791513
-1.023570 -0.294168 5.805270 116 255 132 0.840159
-1.080890 -0.336163 5.797910 242 8 0 0.561614
-1.093620 -0.342083 5.809210 192 0 0 0.483114
-1.105250 -0.353010 5.796180 133 0 0 0.276436
-1.081940 -0.331292 5.822210 255 71 0 0.636596
-1.068850 -0.324748 5.810830 255 116 0 0.677055
-1.053070 -0.312396 5.814630 225 255 22 0.779454
-1.045730 -0.296842 5.839400 155 255 93 0.821026
-1.031790 -0.290359 5.826620 119 255 129 0.839550
-1.066640 -0.317961 5.827300 255 190 0 0.729861
-1.011800 -0.278532 5.819720 64 255 184 0.865020
-0.995092 -0.263442 5.822940 25 255 222 0.882065
-1.131390 -0.359787 5.863350 128 0 0 0.238686
-1.149040 -0.376506 5.874180 128 0 0 0.021845
-1.166560 -0.393427 5.885120 128 0 0 0.000000
-1.161700 -0.392786 5.865180 128 0 0 0.000000
-1.153620 -0.377232 5.894070 128 0 0 0.108026
-1.139380 -0.357233 5.902810 146 0 0 0.354092
-1.135110 -0.358529 5.883240 137 0 0 0.318577
-1.120690 -0.338423 5.892000 196 0 0 0.490609
-1.181900 -0.417117 5.865850 128 0 0 0.000000
-1.187800 -0.424328 5.885730 128 0 0 0.000000
-1.199950 -0.440751 5.876020 128 0 0 0.000000
-1.211610 -0.457375 5.866430 128 0 0 0.000000
-1.205500 -0.448495 5.896410 128 0 0 0.000000
-1.192960 -0.429408 5.905530 128 0 0 0.000000
-1.171720 -0.398437 5.904730 128 0 0 0.000000
-1.191600 -0.417764 5.938610 128 0 0 0.000000
-1.180010 -0.399791 5.937550 128 0 0 0.000000
-1.169900 -0.388255 5.926100 128 0 0 0.067718
-1.158240 -0.370802 5.925300 128 0 0 0.244705
-1.182020 -0.409885 5.915970 128 0 0 0.000000
-1.202600 -0.437462 5.928310 128 0 0 0.000000
-1.133340 -0.336766 5.934090 228 0 0 0.541943
-1.111670 -0.314949 5.921990 255 104 0 0.665077
-1.126800 -0.338154 5.912610 214 0 0 0.525577
-1.165770 -0.400261 5.804550 128 0 0 0.000000
-1.175950 -0.410706 5.818970 128 0 0 0.000000
-1.191330 -0.424742 5.826150 128 0 0 0.000000
-1.166660 -0.401816 5.832870 128 0 0 0.000000
-1.156430 -0.391298 5.818440 128 0 0 0.000000
-1.147010 -0.382578 5.832200 128 0 0 0.000000
-1.195460 -0.434839 5.857860 128 0 0 0.000000
-1.183360 -0.416823 5.841410 128 0 0 0.000000
-1.202660 -0.442004 5.841550 128 0 0 0.000000
-1.219680 -0.463296 5.849780 128 0 0 0.000000
-1.145260 -0.376481 5.856260 128 0 0 0.000000
-1.225340 -0.485743 5.876660 128 0 0 0.000000
-1.237850 -0.515628 5.887950 128 0 0 0.000000
-1.235710 -0.502539 5.866180 128 0 0 0.000000
-1.227960 -0.498550 5.898100 128 0 0 0.000000
-1.218680 -0.478579 5.907240 128 0 0 0.000000
-1.215520 -0.467988 5.886860 128 0 0 0.000000
-1.243450 -0.533239 5.878140 128 0 0 0.000000
-1.250400 -0.564029 5.878260 128 0 0 0.000000
-1.243470 -0.564079 5.901270 128 0 0 0.000000
-1.238640 -0.546386 5.911020 128 0 0 0.000000
-1.236870 -0.562137 5.952880 128 0 0 0.000000
-1.236000 -0.545594 5.938240 128 0 0 0.000000
-1.233360 -0.525582 5.948020 128 0 0 0.000000
-1.231440 -0.509365 5.933630 128 0 0 0.000000
-1.234550 -0.529306 5.923700 128 0 0 0.000000
-1.239470 -0.562809 5.925680 128 0 0 0.000000
-1.240070 -0.579388 5.940350 128 0 0 0.000000
-1.224480 -0.490005 5.944660 128 0 0 0.000000
-1.217050 -0.470671 5.942570 128 0 0 0.000000
-1.210380 -0.455986 5.929830 128 0 0 0.000000
-1.225560 -0.493842 5.920310 128 0 0 0.000000
-1.221580 -0.700146 5.869300 128 0 0 0.000000
-1.208540 -0.714193 5.877120 128 0 0 0.000000
-1.208370 -0.721828 5.861840 128 0 0 0.000000
-1.196100 -0.735235 5.869110 128 0 0 0.000000
-1.208980 -0.728912 5.846070 128 0 0 0.000000
-1.195750 -0.727943 5.884660 128 0 0 0.000000
-1.182840 -0.741502 5.892040 128 0 0 0.000000
-1.198900 -0.717759 5.902340 128 0 0 0.000000
-1.212190 -0.703566 5.894500 128 0 0 0.000000
-1.225200 -0.689426 5.886560 128 0 0 0.000000
-1.215280 -0.693032 5.912010 128 0 0 0.000000
-1.191920 -0.742915 5.849660 128 0 0 0.000000
-1.192030 -0.747573 5.833010 128 0 0 0.000000
-1.175970 -0.756144 5.852450 128 0 0 0.000000
-1.175470 -0.761197 5.836000 128 0 0 0.000000
-1.159770 -0.774176 5.838380 128 0 0 0.000000
-1.175750 -0.765814 5.819100 128 0 0 0.000000
-1.143540 -0.782619 5.857660 128 0 0 0.000000
-1.163160 -0.762228 5.875210 128 0 0 0.000000
-1.179000 -0.749231 5.872510 128 0 0 0.000000
-1.129090 -0.785482 5.898730 128 0 0 0.027538
-1.141610 -0.773745 5.909930 128 0 0 0.000000
-1.159420 -0.759201 5.907750 128 0 0 0.000000
-1.172030 -0.747229 5.918710 128 0 0 0.000000
-1.145250 -0.776876 5.877300 128 0 0 0.000000
-1.127470 -0.791212 5.879110 128 0 0 0.040798
-1.174880 -0.738051 5.937110 128 0 0 0.000000
-1.188570 -0.723174 5.928920 128 0 0 0.000000
-1.196780 -0.710000 5.950520 128 0 0 0.000000
-1.210170 -0.694889 5.942090 128 0 0 0.000000
-1.201990 -0.708235 5.920560 128 0 0 0.000000
-1.185790 -0.732352 5.910420 128 0 0 0.000000
-1.237500 -0.593957 5.954720 128 0 0 0.000000
-1.237330 -0.609303 5.942180 128 0 0 0.000000
-1.240300 -0.594387 5.927510 128 0 0 0.000000
-1.239790 -0.610013 5.914960 128 0 0 0.000000
-1.236670 -0.624451 5.929400 128 0 0 0.000000
-1.235710 -0.639780 5.916670 128 0 0 0.000000
-1.232160 -0.640489 5.946470 128 0 0 0.000000
-1.232880 -0.625188 5.959160 128 0 0 0.000000
-1.245580 -0.593862 5.901350 128 0 0 0.000000
-1.248020 -0.607927 5.889800 128 0 0 0.000000
-1.244120 -0.637531 5.891620 128 0 0 0.000000
-1.241960 -0.623957 5.903410 128 0 0 0.000000
-1.235150 -0.674802 5.875240 128 0 0 0.000000
-1.235910 -0.662739 5.888800 128 0 0 0.000000
-1.225810 -0.677862 5.900480 128 0 0 0.000000
-1.225960 -0.666515 5.914430 128 0 0 0.000000
-1.219110 -0.680193 5.928130 128 0 0 0.000000
-1.222720 -0.666925 5.944040 128 0 0 0.000000
-1.213290 -0.682250 5.958210 128 0 0 0.000000
-1.225890 -0.653780 5.959960 128 0 0 0.000000
-1.229270 -0.653500 5.930500 128 0 0 0.000000
-1.106600 -0.807040 5.855390 137 0 0 0.326441
-1.125140 -0.794914 5.856590 128 0 0 0.099694
-1.122650 -0.798687 5.834130 128 0 0 0.150359
-1.104270 -0.810821 5.832630 146 0 0 0.371079
-1.102420 -0.814334 5.809710 160 0 0 0.406527
-1.083460 -0.823710 5.827250 210 0 0 0.516408
-1.085290 -0.820053 5.850230 196 0 0 0.497268
-1.142080 -0.786247 5.837830 128 0 0 0.000000
-1.140320 -0.790102 5.818170 128 0 0 0.000000
-1.158070 -0.777949 5.818710 128 0 0 0.000000
-1.156030 -0.781785 5.799010 128 0 0 0.000000
-1.139090 -0.793377 5.797810 128 0 0 0.000000
-1.137550 -0.797046 5.777750 128 0 0 0.000000
-1.120240 -0.805780 5.793850 133 0 0 0.256350
-1.121010 -0.802468 5.814070 128 0 0 0.182439
-1.104220 -0.820234 5.723880 133 0 0 0.289978
-1.103360 -0.819066 5.745830 155 0 0 0.396198
-1.085350 -0.829256 5.737470 219 0 0 0.529395
-1.102680 -0.817862 5.767160 164 0 0 0.423251
-1.084410 -0.828092 5.759040 233 1 0 0.546617
-1.083810 -0.826610 5.780570 255 27 0 0.584632
-1.066000 -0.838182 5.751010 255 104 0 0.665086
-1.102530 -0.816223 5.788650 169 0 0 0.435789
-1.120040 -0.807541 5.772740 137 0 0 0.298917
-1.120230 -0.809073 5.751230 133 0 0 0.274974
-1.065240 -0.837367 5.774700 255 104 0 0.666379
-1.045180 -0.848258 5.765550 255 186 0 0.727881
-1.064680 -0.836024 5.798080 255 104 0 0.665216
-1.044430 -0.847309 5.789100 255 212 0 0.744726
-1.064390 -0.834461 5.821460 255 90 0 0.653585
-1.083600 -0.825277 5.804030 242 8 0 0.559071
-1.121400 -0.811164 5.731290 128 0 0 0.181378
-1.138050 -0.799541 5.758200 128 0 0 0.017704
-1.155580 -0.785869 5.780980 128 0 0 0.000000
-0.969609 -0.326341 5.603600 128 0 0 0.000000
-0.965233 -0.318569 5.620520 128 0 0 0.074462
-0.961132 -0.311007 5.637610 133 0 0 0.273793
-0.983567 -0.319283 5.627200 128 0 0 0.000000
-0.938727 -0.302683 5.648080 219 0 0 0.528163
-0.942322 -0.310765 5.630570 160 0 0 0.405920
-0.946123 -0.318589 5.613100 128 0 0 0.239662
-0.922528 -0.310803 5.622700 219 0 0 0.529858
-0.981620 -0.314077 5.644860 128 0 0 0.162774
-0.979703 -0.308967 5.662450 142 0 0 0.327443
-1.001050 -0.317351 5.651460 128 0 0 0.056758
-0.958155 -0.300400 5.673660 251 16 0 0.569405
-0.959742 -0.305811 5.655680 164 0 0 0.425360
-0.914820 -0.283139 5.675570 248 245 0 0.764829
-0.915299 -0.290667 5.657460 255 130 0 0.688270
-0.937519 -0.295325 5.665850 255 64 0 0.627484
-0.936405 -0.288023 5.683590 255 164 0 0.713314
-0.895121 -0.288569 5.648700 255 212 0 0.745278
-0.898359 -0.298893 5.630780 255 116 0 0.674711
-0.919057 -0.300720 5.639940 255 49 0 0.611849
-1.011530 -0.322225 5.629130 128 0 0 0.000000
-1.029000 -0.323906 5.635160 128 0 0 0.000000
-0.996293 -0.326682 5.606160 128 0 0 0.000000
-1.042960 -0.326958 5.697830 128 0 0 0.120916
-1.037090 -0.322302 5.717530 146 0 0 0.368335
-1.060820 -0.332878 5.709900 128 0 0 0.101920
-1.031210 -0.317643 5.737110 255 27 0 0.584672
-1.011260 -0.311457 5.725240 255 56 0 0.619122
-1.071920 -0.336350 5.726000 128 0 0 0.133890
-1.093320 -0.345783 5.726430 128 0 0 0.000000
-1.062390 -0.331393 5.740740 146 0 0 0.358656
-1.030970 -0.313329 5.755330 255 127 0 0.684345
-1.014180 -0.305818 5.748540 255 164 0 0.713109
-1.053420 -0.324906 5.755730 237 4 0 0.554335
-0.993377 -0.299085 5.736230 255 197 0 0.736916
-1.000800 -0.314684 5.669410 128 0 0 0.201704
-1.000670 -0.311809 5.687500 151 0 0 0.384156
-1.020880 -0.320611 5.675990 128 0 0 0.114866
-0.980356 -0.302940 5.698810 255 53 0 0.613891
-0.980007 -0.305900 5.680720 187 0 0 0.479874
-1.018370 -0.316469 5.703990 160 0 0 0.414080
-0.973660 -0.293473 5.720760 255 216 0 0.746674
-0.959935 -0.290385 5.709380 255 216 0 0.747069
-0.959081 -0.295420 5.691460 255 108 0 0.668493
-1.050050 -0.328311 5.675430 128 0 0 0.000000
-1.020270 -0.321165 5.658300 128 0 0 0.000000
-1.043430 -0.326519 5.652960 128 0 0 0.000000
-1.094110 -0.347300 5.743820 128 0 0 0.040314
-1.109610 -0.355448 5.749100 128 0 0 0.000000
-1.095250 -0.348710 5.761360 128 0 0 0.181961
-1.077890 -0.339636 5.755690 146 0 0 0.360783
-1.128410 -0.367827 5.761490 128 0 0 0.000000
-1.100120 -0.350910 5.778810 128 0 0 0.233224
-1.081860 -0.339240 5.773900 169 0 0 0.432656
-1.117350 -0.361373 5.783100 128 0 0 0.001776
-1.082100 -0.340031 5.711320 128 0 0 0.000000
-1.072640 -0.335737 5.694070 128 0 0 0.000000
-0.539185 -0.877347 6.323290 255 134 0 0.691155
-0.552930 -0.866834 6.350000 255 27 0 0.585131
-0.525311 -0.887168 6.296170 209 255 38 0.788994
-0.543704 -0.889062 6.287710 222 255 26 0.780964
-0.557549 -0.879016 6.314670 255 134 0 0.689598
-0.571259 -0.868301 6.341270 255 41 0 0.601137
-0.520666 -0.897825 6.264610 84 255 164 0.856840
-0.516026 -0.908066 6.232990 29 255 219 0.881987
-0.497959 -0.906602 6.242130 0 185 255 0.908192
-0.502616 -0.896495 6.273890 77 255 171 0.858933
-0.576729 -0.880001 6.303780 255 160 0 0.709381
-0.590890 -0.869933 6.330100 255 60 0 0.622075
-0.562477 -0.889863 6.277130 196 255 51 0.798087
-0.558047 -0.899813 6.244690 119 255 129 0.839998
-0.534763 -0.909026 6.222640 29 255 219 0.881904
-0.539228 -0.898934 6.255120 125 255 122 0.836570
-0.499739 -0.933492 6.135250 0 93 255 0.936675
-0.476245 -0.943531 6.113300 0 89 255 0.936891
-0.505087 -0.923846 6.167580 0 89 255 0.937587
-0.481346 -0.932490 6.145330 0 85 255 0.938954
-0.486717 -0.922948 6.177680 0 81 255 0.939885
-0.457792 -0.942580 6.123380 0 81 255 0.939736
-0.510458 -0.915234 6.200190 0 121 255 0.928068
-0.529243 -0.916415 6.189920 0 125 255 0.926098
-0.463120 -0.931107 6.154780 0 81 255 0.939818
-0.440072 -0.941150 6.132830 0 73 255 0.941546
-0.468626 -0.921427 6.186700 0 73 255 0.942139
-0.445401 -0.929822 6.164360 0 77 255 0.941108
-0.483240 -0.913537 6.214400 0 113 255 0.929849
-0.592370 -0.213819 6.492520 128 0 0 0.000000
-0.597211 -0.190787 6.473780 128 0 0 0.000000
-0.595875 -0.166718 6.457070 128 0 0 0.000000
-0.579751 -0.187341 6.478190 128 0 0 0.000000
-0.575336 -0.210699 6.496950 128 0 0 0.000000
-0.593822 -0.142004 6.440610 128 0 0 0.000000
-0.591549 -0.116055 6.424770 128 0 0 0.246666
-0.557786 -0.185021 6.486400 128 0 0 0.000000
-0.561939 -0.137885 6.449990 128 0 0 0.024418
-0.574139 -0.114227 6.429740 137 0 0 0.322436
-0.575360 -0.163628 6.462520 128 0 0 0.000000
-0.583864 -0.054961 6.374570 255 190 0 0.729827
-0.579262 -0.074701 6.392630 255 175 0 0.720362
-0.601004 -0.078014 6.388490 255 104 0 0.665152
-0.605778 -0.057934 6.371250 255 178 0 0.723976
-0.585393 -0.095916 6.408410 242 8 0 0.559681
-0.568076 -0.093745 6.413410 255 49 0 0.612191
-0.623674 -0.060760 6.369300 255 145 0 0.700305
-0.626718 -0.082366 6.384970 255 38 0 0.600530
-0.611941 -0.100108 6.403570 151 0 0 0.385611
-0.608900 -0.521457 6.601730 128 0 0 0.000000
-0.606284 -0.488667 6.601420 128 0 0 0.000000
-0.621338 -0.556200 6.597660 128 0 0 0.000000
-0.633453 -0.590160 6.592340 128 0 0 0.000000
-0.623905 -0.490025 6.597450 128 0 0 0.000000
-0.640855 -0.556153 6.593120 128 0 0 0.000000
-0.626148 -0.523456 6.597270 128 0 0 0.000000
-0.669840 -0.683419 6.544030 137 0 0 0.319267
-0.672677 -0.712363 6.529460 128 0 0 0.227807
-0.653908 -0.652302 6.562260 133 0 0 0.256267
-0.644299 -0.679918 6.551410 133 0 0 0.292124
-0.647003 -0.709282 6.536440 128 0 0 0.196099
-0.650326 -0.622632 6.575760 128 0 0 0.166563
-0.630175 -0.707238 6.543110 128 0 0 0.156131
-0.627437 -0.648669 6.570540 128 0 0 0.172360
-0.620758 -0.676961 6.560810 128 0 0 0.209645
-0.630786 -0.619630 6.581910 128 0 0 0.076958
-0.615175 -0.729531 6.523940 128 0 0 0.226500
-0.616899 -0.753488 6.497810 137 0 0 0.310801
-0.632004 -0.731328 6.517160 133 0 0 0.294119
-0.633743 -0.755316 6.491350 142 0 0 0.341020
-0.618512 -0.777402 6.471940 151 0 0 0.374146
-0.620156 -0.800985 6.445990 151 0 0 0.377968
-0.602010 -0.799620 6.454000 142 0 0 0.327473
-0.600522 -0.776030 6.480330 133 0 0 0.294135
-0.650480 -0.733978 6.507200 142 0 0 0.351087
-0.654055 -0.758611 6.478100 169 0 0 0.440197
-0.647312 -0.781152 6.455210 178 0 0 0.462326
-0.640642 -0.804366 6.433190 164 0 0 0.427684
-0.603106 -0.853620 6.355920 255 71 0 0.636256
-0.615396 -0.837140 6.381990 255 30 0 0.587902
-0.595797 -0.835791 6.393480 228 0 0 0.543539
-0.583490 -0.852232 6.367240 255 30 0 0.591599
-0.617797 -0.819304 6.413960 214 0 0 0.520678
-0.638309 -0.822584 6.401360 228 0 0 0.539399
-0.565164 -0.851074 6.375570 255 23 0 0.577370
-0.577510 -0.834147 6.401110 214 0 0 0.521339
-0.580736 -0.816671 6.431700 160 0 0 0.416155
-0.598898 -0.818028 6.423740 178 0 0 0.460085
-0.571682 -0.415305 6.596670 128 0 0 0.000000
-0.570602 -0.383368 6.585080 128 0 0 0.000000
-0.565712 -0.350490 6.574780 128 0 0 0.000000
-0.561652 -0.318301 6.564560 128 0 0 0.000000
-0.556827 -0.411605 6.601050 128 0 0 0.000000
-0.550478 -0.347566 6.580180 128 0 0 0.000000
-0.555931 -0.379854 6.589710 128 0 0 0.000000
-0.558864 -0.235304 6.518580 128 0 0 0.000000
-0.561810 -0.262265 6.532760 128 0 0 0.000000
-0.558583 -0.289541 6.549790 128 0 0 0.000000
-0.576353 -0.237529 6.511800 128 0 0 0.000000
-0.577243 -0.264509 6.527970 128 0 0 0.000000
-0.746744 0.003132 6.242580 137 0 0 0.305479
-0.760454 0.004813 6.227420 133 0 0 0.286419
-0.733366 0.002088 6.257970 137 0 0 0.326981
-0.757832 -0.003534 6.260490 137 0 0 0.306889
-0.771139 -0.002508 6.245290 133 0 0 0.276240
-0.784918 -0.000824 6.230130 128 0 0 0.231784
-0.744465 -0.004908 6.275590 133 0 0 0.285244
-0.731257 -0.006718 6.290400 133 0 0 0.294479
-0.721376 -0.000933 6.273570 142 0 0 0.331744
-0.709700 -0.003723 6.289170 142 0 0 0.343180
-0.790232 -0.006523 6.248460 128 0 0 0.243584
-0.804809 -0.005570 6.234200 128 0 0 0.179306
-0.775999 -0.006724 6.262700 133 0 0 0.271383
-0.762655 -0.008291 6.277680 133 0 0 0.256434
-0.749471 -0.009697 6.292580 133 0 0 0.259902
-0.714148 -0.041354 6.336590 210 0 0 0.516685
-0.724944 -0.031657 6.321510 196 0 0 0.497006
-0.727968 -0.019183 6.306100 155 0 0 0.400699
-0.687118 -0.036879 6.334810 255 30 0 0.588019
-0.687204 -0.025482 6.319200 233 1 0 0.549195
-0.668933 -0.034389 6.334880 255 53 0 0.617492
-0.687513 -0.013339 6.303760 192 0 0 0.487197
-0.709146 -0.015937 6.304850 164 0 0 0.424185
-0.848268 -0.028895 6.119390 237 4 0 0.553566
-0.876281 -0.045717 6.108650 255 67 0 0.631768
-0.846315 -0.025672 6.136570 205 0 0 0.510038
-0.874283 -0.042653 6.125680 255 41 0 0.602794
-0.872314 -0.039524 6.142730 251 16 0 0.568341
-0.902432 -0.058861 6.115140 255 123 0 0.683339
-0.844566 -0.022291 6.153780 173 0 0 0.444956
-0.842629 -0.019727 6.170870 151 0 0 0.384010
-0.817592 -0.009674 6.166250 151 0 0 0.389195
-0.819363 -0.012786 6.149040 178 0 0 0.456548
-0.897597 -0.052701 6.132370 255 53 0 0.615623
-0.924062 -0.068355 6.124890 255 116 0 0.675955
-0.892854 -0.046466 6.149750 242 8 0 0.556819
-0.919168 -0.062213 6.142210 255 75 0 0.639901
-0.888315 -0.040283 6.167200 196 0 0 0.492658
-0.863375 -0.026582 6.177780 155 0 0 0.389702
-0.867884 -0.032804 6.160350 192 0 0 0.485598
-0.819071 -0.010167 6.219380 128 0 0 0.244402
-0.833545 -0.014540 6.204600 137 0 0 0.296481
-0.813659 -0.010063 6.200490 151 0 0 0.383574
-0.799214 -0.005426 6.215320 137 0 0 0.325720
-0.838141 -0.016863 6.187810 142 0 0 0.346151
-0.858619 -0.024423 6.194550 151 0 0 0.386382
-0.774435 0.002505 6.211750 137 0 0 0.306795
-0.788392 -0.000402 6.195980 142 0 0 0.340250
-0.803086 -0.004787 6.181130 151 0 0 0.386087
-0.970137 -0.139910 6.022220 58 255 190 0.868078
-0.982276 -0.154612 6.010720 19 253 229 0.885468
-0.957879 -0.125085 6.033830 109 255 138 0.844152
-0.987583 -0.143866 6.039720 103 255 145 0.847499
-0.997316 -0.163857 6.013610 16 249 232 0.886626
-1.012390 -0.172882 6.016520 42 255 206 0.875985
-0.975132 -0.129521 6.051380 138 255 109 0.828687
-0.962621 -0.115175 6.063110 196 255 51 0.797759
-0.945792 -0.112065 6.045250 84 255 164 0.856880
-0.933670 -0.099041 6.056600 129 255 119 0.833647
-1.029640 -0.183523 6.021380 58 255 190 0.869112
-1.012970 -0.163044 6.033470 100 255 148 0.848100
-1.029940 -0.173826 6.038470 109 255 138 0.844067
-1.047030 -0.194044 6.026220 71 255 177 0.862607
-1.013210 -0.153610 6.050640 161 255 87 0.817245
-1.047320 -0.184312 6.043260 122 255 126 0.838107
-1.030190 -0.164454 6.055510 164 255 84 0.816128
-1.064640 -0.204319 6.030900 125 255 122 0.835905
-1.013180 -0.144416 6.067880 216 255 32 0.785560
-0.987755 -0.125453 6.074250 248 245 0 0.766105
-0.939146 -0.082222 6.111800 255 197 0 0.735914
-0.954244 -0.096096 6.098690 225 255 22 0.779907
-0.932260 -0.087483 6.088980 209 255 38 0.788921
-0.917298 -0.073328 6.102020 255 223 0 0.752457
-0.958443 -0.105579 6.080820 235 255 13 0.773585
-0.983199 -0.116463 6.091880 245 249 3 0.766712
-0.890028 -0.058047 6.095530 255 156 0 0.709070
-0.904001 -0.070064 6.082500 255 227 0 0.753538
-0.904606 -0.076076 6.066190 222 255 26 0.781165
-0.933005 -0.093127 6.072750 164 255 84 0.815533
-1.027110 -0.233755 5.931160 0 201 255 0.902970
-1.028800 -0.221976 5.952650 0 185 255 0.908312
-1.044940 -0.240176 5.945060 19 253 229 0.885475
-1.060830 -0.258141 5.937340 90 255 158 0.853290
-1.046620 -0.228279 5.966480 0 229 248 0.893469
-1.028150 -0.209539 5.973780 0 181 255 0.909510
-1.001020 -0.191357 5.968770 0 141 255 0.921954
-1.080770 -0.269929 5.950230 148 255 100 0.823729
-1.073330 -0.251428 5.970350 90 255 158 0.854122
-1.062060 -0.216497 6.005830 80 255 167 0.858731
-1.044470 -0.205881 6.001280 35 255 213 0.879064
-1.027180 -0.195217 5.996430 6 237 242 0.890730
-1.065500 -0.228770 5.992910 58 255 190 0.868926
-1.000200 -0.177374 5.991390 0 189 255 0.906269
-0.985107 -0.168159 5.988520 0 185 255 0.908028
-1.073400 -0.307691 5.865130 255 190 0 0.731335
-1.086900 -0.312135 5.878070 255 141 0 0.695420
-1.086460 -0.322344 5.857460 255 93 0 0.655277
-1.073710 -0.297553 5.885770 248 245 0 0.765075
-1.058520 -0.281458 5.893110 161 255 87 0.817274
-1.059370 -0.292231 5.872600 187 255 61 0.802801
-1.104450 -0.336528 5.860200 233 1 0 0.548641
-1.106350 -0.330132 5.880400 251 16 0 0.569887
-1.118540 -0.344982 5.872020 169 0 0 0.440437
-1.107670 -0.322442 5.900220 255 82 0 0.646490
-1.087880 -0.304589 5.898070 255 204 0 0.741069
-1.087660 -0.287855 5.929830 242 253 6 0.769958
-1.069920 -0.276838 5.916940 148 255 100 0.823738
-1.044310 -0.252382 5.923310 38 255 209 0.876768
-1.044550 -0.264826 5.901250 64 255 184 0.865809
-1.122100 -0.364260 5.807380 128 0 0 0.101626
-1.111850 -0.354287 5.820720 137 0 0 0.318519
-1.142760 -0.381139 5.802570 128 0 0 0.000000
-1.130590 -0.368654 5.830580 128 0 0 0.043003
-1.117890 -0.350781 5.853780 151 0 0 0.387206
-1.088640 -0.330093 5.840750 255 49 0 0.611677
-1.101450 -0.342424 5.834790 192 0 0 0.486024
-1.154040 -0.388821 5.789050 128 0 0 0.000000
-1.132070 -0.372144 5.786020 128 0 0 0.000000
0.851418 -0.025864 6.392290 155 0 0 0.393550
0.816971 -0.018918 6.393740 192 0 0 0.482595
0.859816 -0.028482 6.374440 133 0 0 0.278659
0.825168 -0.021337 6.375860 155 0 0 0.396657
0.833560 -0.024004 6.357950 142 0 0 0.329468
0.808347 -0.015370 6.410890 242 8 0 0.559157
0.906122 -0.055948 6.312670 128 0 0 0.000000
0.875533 -0.044862 6.316420 128 0 0 0.105522
0.869885 -0.038673 6.335480 128 0 0 0.180162
0.844674 -0.034598 6.320060 128 0 0 0.188310
0.880473 -0.051053 6.296430 128 0 0 0.032924
0.849840 -0.040559 6.300710 128 0 0 0.084146
0.855332 -0.046885 6.281270 128 0 0 0.008534
0.864302 -0.033094 6.354270 133 0 0 0.263742
0.839233 -0.029276 6.339370 128 0 0 0.244086
0.616910 -0.013670 6.305620 0 5 255 0.960624
0.644710 -0.012933 6.320570 0 97 255 0.935333
0.652907 -0.016117 6.303040 0 185 255 0.908413
0.671975 -0.012659 6.335360 9 241 238 0.889524
0.680524 -0.015554 6.317940 80 255 167 0.858042
0.707943 -0.014540 6.332620 229 255 19 0.778374
0.699322 -0.011611 6.349930 129 255 119 0.834564
0.689105 -0.017869 6.300260 190 255 58 0.800595
0.716468 -0.017140 6.314990 255 156 0 0.708925
0.724856 -0.019431 6.297010 255 60 0 0.623280
0.697785 -0.019851 6.282590 255 153 0 0.704619
0.661526 -0.018650 6.285760 74 255 174 0.861675
0.670072 -0.020638 6.268070 209 255 38 0.789878
0.633704 -0.019782 6.271090 0 153 255 0.917581
0.625242 -0.017073 6.288480 0 61 255 0.945281
0.596738 -0.018069 6.273340 0 0 255 0.964370
0.642525 -0.021743 6.253510 80 255 167 0.858658
0.605058 -0.020774 6.255890 0 69 255 0.943565
0.613218 -0.022774 6.237860 0 221 255 0.896792
0.588455 -0.014517 6.290490 0 0 242 0.969743
0.726287 -0.012367 6.364760 255 238 0 0.761835
0.753430 -0.013348 6.379930 255 130 0 0.689349
0.761854 -0.016420 6.362390 255 64 0 0.627948
0.780910 -0.014421 6.395340 255 60 0 0.625550
0.789393 -0.017391 6.377960 255 23 0 0.578647
0.797692 -0.019495 6.360050 187 0 0 0.473492
0.806111 -0.022698 6.342430 151 0 0 0.385565
0.770472 -0.018797 6.344960 237 4 0 0.551267
0.779143 -0.021281 6.327160 178 0 0 0.457876
0.743272 -0.017799 6.329810 255 82 0 0.647719
0.734764 -0.015360 6.347380 255 167 0 0.715570
0.752005 -0.020174 6.312000 228 0 0 0.540462
0.828802 -0.045337 6.266140 128 0 0 0.078633
0.822949 -0.038687 6.285030 128 0 0 0.153925
0.796592 -0.037366 6.270310 128 0 0 0.209149
0.802216 -0.043401 6.251000 128 0 0 0.091286
0.790259 -0.031257 6.288850 133 0 0 0.284532
0.769894 -0.035500 6.255390 133 0 0 0.262849
0.763721 -0.029613 6.274290 146 0 0 0.363711
0.737517 -0.028467 6.259680 164 0 0 0.430421
0.776373 -0.042023 6.236280 128 0 0 0.180249
0.743765 -0.033953 6.240600 137 0 0 0.325913
0.749835 -0.040033 6.222000 128 0 0 0.211319
