ply
format ascii 1.0
comment VCGLIB generated
element vertex 1038
property float x
property float y
property float z
property uchar red
property uchar green
property uchar blue
property float quality
end_header
0.153976 -0.034651 5.984470 160 0 0 0.997536
0.144190 -0.028035 6.002690 146 0 0 0.998337
0.155631 -0.018840 6.031290 133 0 0 0.999436
0.134583 -0.019770 6.020290 133 0 0 0.999360
0.146268 -0.009530 6.048190 128 0 0 0.999807
0.167226 -0.009064 6.059130 128 0 0 0.999803
0.125191 -0.010363 6.037110 128 0 0 0.999838
0.226657 -0.038200 6.000560 173 0 0 0.996470
0.237163 -0.042287 5.981500 164 0 0 0.997110
0.216771 -0.043406 5.969750 164 0 0 0.997114
0.248083 -0.044282 5.961480 142 0 0 0.998739
0.227722 -0.045440 5.949630 142 0 0 0.998787
0.239068 -0.045924 5.928720 133 0 0 0.999495
0.259385 -0.044790 5.940620 133 0 0 0.999539
0.207101 -0.047025 5.937900 142 0 0 0.998674
0.218479 -0.047682 5.917010 133 0 0 0.999553
0.197664 -0.049533 5.905330 133 0 0 0.999619
0.186057 -0.048562 5.926460 142 0 0 0.998690
0.195945 -0.044716 5.958380 164 0 0 0.996926
0.174844 -0.046344 5.946900 169 0 0 0.996815
0.185205 -0.040219 5.977710 173 0 0 0.996377
0.206096 -0.038964 5.989130 169 0 0 0.996595
0.164158 -0.041667 5.966210 173 0 0 0.996330
0.121235 -0.055242 5.859100 133 0 0 0.999494
0.109739 -0.053941 5.880500 137 0 0 0.999091
0.129100 -0.052489 5.891170 137 0 0 0.999163
0.117875 -0.049866 5.911990 155 0 0 0.997617
0.098611 -0.051162 5.901040 160 0 0 0.997527
0.137030 -0.048512 5.922970 155 0 0 0.997737
0.107180 -0.044847 5.931940 164 0 0 0.997113
0.126279 -0.043627 5.943170 164 0 0 0.997181
0.115981 -0.036169 5.962240 151 0 0 0.998032
0.088005 -0.046000 5.920730 164 0 0 0.997060
0.096919 -0.037240 5.950960 151 0 0 0.998133
0.077910 -0.038450 5.939610 151 0 0 0.998074
0.145329 -0.042560 5.954230 164 0 0 0.996907
0.135117 -0.035314 5.973340 155 0 0 0.997804
0.156072 -0.047096 5.934870 160 0 0 0.997536
0.167192 -0.049767 5.914750 142 0 0 0.998933
0.148259 -0.051135 5.902870 137 0 0 0.999129
0.159741 -0.052065 5.882120 133 0 0 0.999525
0.178814 -0.050706 5.893690 133 0 0 0.999558
0.140642 -0.053606 5.870490 133 0 0 0.999496
0.067922 -0.031225 5.958730 142 0 0 0.998774
0.087021 -0.030467 5.969280 142 0 0 0.998769
0.077409 -0.021686 5.987600 133 0 0 0.999608
0.058380 -0.022653 5.977090 133 0 0 0.999563
0.096524 -0.020970 5.998020 133 0 0 0.999609
0.068216 -0.012194 6.005290 128 0 0 0.999854
0.087268 -0.011511 6.015630 128 0 0 0.999844
0.049210 -0.013158 5.994860 128 0 0 0.999861
0.106293 -0.011004 6.026010 128 0 0 0.999856
0.115646 -0.020291 6.009190 133 0 0 0.999516
0.125216 -0.028634 5.991670 146 0 0 0.998587
0.106094 -0.029383 5.980490 142 0 0 0.998767
0.183187 -0.129738 5.719920 255 34 0 0.988360
0.164990 -0.132987 5.709210 255 34 0 0.988303
0.155872 -0.113246 5.723500 255 49 0 0.987064
0.146606 -0.136550 5.698560 255 30 0 0.988814
0.137676 -0.116474 5.712650 255 45 0 0.987279
0.119216 -0.119994 5.701800 255 49 0 0.986850
0.128035 -0.140188 5.688010 255 30 0 0.988733
0.127644 -0.099426 5.728020 255 53 0 0.986485
0.109555 -0.102573 5.716780 255 53 0 0.986651
0.099197 -0.087776 5.733110 255 56 0 0.986118
0.116948 -0.084983 5.744050 255 56 0 0.986291
0.145531 -0.096649 5.738700 255 64 0 0.985346
0.134584 -0.082453 5.755100 255 53 0 0.986535
0.163293 -0.093863 5.749390 255 64 0 0.985404
0.173677 -0.110464 5.733930 255 45 0 0.987204
0.191221 -0.107813 5.744500 255 41 0 0.987671
0.152198 -0.079922 5.766090 255 49 0 0.986948
0.180691 -0.091389 5.760330 255 53 0 0.986669
0.169603 -0.077510 5.777170 255 49 0 0.987071
0.200800 -0.127151 5.730180 255 19 0 0.989957
0.109521 -0.143860 5.677510 255 27 0 0.989219
0.090879 -0.147989 5.665850 255 27 0 0.989238
0.082394 -0.127348 5.680340 255 38 0 0.988013
0.072282 -0.151902 5.654290 255 23 0 0.989491
0.063884 -0.131460 5.668450 255 34 0 0.988365
0.045718 -0.134886 5.656240 255 41 0 0.987821
0.053827 -0.155500 5.642830 255 30 0 0.988662
0.055152 -0.112681 5.683520 255 45 0 0.987256
0.037065 -0.116434 5.671160 255 45 0 0.987136
0.027878 -0.099910 5.687040 255 60 0 0.985791
0.045590 -0.096958 5.698530 255 56 0 0.986091
0.073262 -0.109411 5.694700 255 49 0 0.986969
0.063478 -0.093815 5.710110 255 56 0 0.986080
0.091461 -0.105972 5.705750 255 56 0 0.986310
0.100769 -0.123691 5.691060 255 38 0 0.987919
0.081382 -0.090852 5.721570 255 56 0 0.986205
-0.012942 -0.065965 5.770930 142 0 0 0.998861
0.003677 -0.064688 5.781970 137 0 0 0.999057
0.014574 -0.070966 5.762040 151 0 0 0.997990
0.031573 -0.069237 5.772870 151 0 0 0.998126
0.020410 -0.063366 5.793080 137 0 0 0.999206
0.042758 -0.075743 5.752580 183 0 0 0.995726
0.048590 -0.067578 5.783640 146 0 0 0.998308
0.059904 -0.073726 5.763120 183 0 0 0.995830
0.076978 -0.071518 5.773430 187 0 0 0.995414
0.037345 -0.061825 5.803950 137 0 0 0.999234
0.065511 -0.065644 5.794200 151 0 0 0.998185
0.054025 -0.060617 5.814990 133 0 0 0.999363
0.070938 -0.081238 5.743110 228 0 0 0.992052
0.088118 -0.078746 5.753170 233 1 0 0.991914
0.053383 -0.083671 5.731010 237 4 0 0.991433
0.035669 -0.086444 5.719140 237 4 0 0.991529
0.025309 -0.078000 5.740250 192 0 0 0.995100
0.008044 -0.080093 5.727930 196 0 0 0.994743
0.018105 -0.089015 5.707210 242 8 0 0.990932
-0.002465 -0.072676 5.749320 160 0 0 0.997589
0.070863 -0.059077 5.825790 133 0 0 0.999345
0.082616 -0.063897 5.806040 146 0 0 0.998310
0.099643 -0.062173 5.816760 146 0 0 0.998302
0.087694 -0.057687 5.836730 133 0 0 0.999378
0.111610 -0.067317 5.796520 187 0 0 0.995423
0.116634 -0.060556 5.827640 151 0 0 0.998111
0.128809 -0.065254 5.807000 187 0 0 0.995305
0.145882 -0.063241 5.817530 192 0 0 0.995111
0.104500 -0.056481 5.847950 133 0 0 0.999416
0.133547 -0.058890 5.838520 151 0 0 0.998170
0.140717 -0.071619 5.786820 237 4 0 0.991493
0.157840 -0.069405 5.797100 242 8 0 0.991179
0.123208 -0.073928 5.775550 237 4 0 0.991353
0.105691 -0.076270 5.764320 233 1 0 0.991911
0.094257 -0.069339 5.784910 183 0 0 0.995768
-0.069009 -0.018452 5.926750 128 0 0 0.999883
-0.052064 -0.017776 5.936190 128 0 0 0.999885
-0.042487 -0.026904 5.917210 128 0 0 0.999761
-0.035080 -0.016960 5.945730 128 0 0 0.999868
-0.025520 -0.026300 5.926760 128 0 0 0.999744
-0.008356 -0.025631 5.936360 128 0 0 0.999731
-0.017960 -0.016009 5.955320 128 0 0 0.999841
-0.015757 -0.034795 5.907580 137 0 0 0.999286
0.001366 -0.034269 5.917050 137 0 0 0.999259
0.011537 -0.041237 5.897200 142 0 0 0.998938
-0.005203 -0.041930 5.886890 137 0 0 0.999048
-0.032293 -0.035454 5.897150 133 0 0 0.999402
-0.021838 -0.042600 5.876640 137 0 0 0.999167
-0.048667 -0.036098 5.886740 133 0 0 0.999521
-0.058886 -0.027670 5.906820 128 0 0 0.999810
-0.075079 -0.028279 5.896460 128 0 0 0.999862
-0.038287 -0.043065 5.866320 133 0 0 0.999352
-0.064830 -0.036555 5.876390 133 0 0 0.999640
-0.054455 -0.043433 5.855980 133 0 0 0.999537
-0.085238 -0.019275 5.916360 128 0 0 0.999870
-0.001508 -0.014886 5.966020 128 0 0 0.999840
0.015404 -0.014249 5.975720 128 0 0 0.999852
0.024574 -0.023611 5.957890 128 0 0 0.999708
0.032370 -0.013638 5.985380 128 0 0 0.999862
0.041508 -0.023137 5.967510 133 0 0 0.999627
0.050977 -0.031706 5.949260 142 0 0 0.998875
0.061260 -0.039270 5.928970 151 0 0 0.998242
0.034405 -0.032670 5.938470 137 0 0 0.999041
0.044597 -0.039903 5.918320 146 0 0 0.998555
0.017911 -0.033412 5.927800 137 0 0 0.999176
0.008067 -0.024614 5.947110 128 0 0 0.999733
0.027993 -0.040594 5.907880 142 0 0 0.998756
0.092992 -0.054714 5.870420 137 0 0 0.999260
0.076197 -0.055758 5.859030 133 0 0 0.999400
0.065123 -0.052413 5.880430 151 0 0 0.998274
0.059502 -0.056841 5.847780 133 0 0 0.999520
0.048588 -0.053236 5.868880 142 0 0 0.998656
0.032093 -0.054036 5.857300 142 0 0 0.998874
0.042878 -0.057887 5.836560 133 0 0 0.999575
0.038014 -0.047904 5.889390 151 0 0 0.998076
0.021574 -0.048623 5.877590 146 0 0 0.998460
0.054681 -0.047296 5.899800 155 0 0 0.997821
0.071350 -0.046637 5.910260 160 0 0 0.997425
0.081900 -0.051767 5.890760 155 0 0 0.997917
0.025895 -0.058994 5.826850 133 0 0 0.999580
0.009239 -0.059964 5.815680 128 0 0 0.999659
-0.001645 -0.055756 5.837520 137 0 0 0.999032
-0.007289 -0.060984 5.804470 128 0 0 0.999709
-0.018029 -0.056478 5.826230 137 0 0 0.999293
-0.034181 -0.057114 5.814780 133 0 0 0.999539
-0.023684 -0.061879 5.793110 128 0 0 0.999710
-0.028506 -0.050619 5.847250 142 0 0 0.998948
-0.044441 -0.051126 5.835790 133 0 0 0.999313
-0.011942 -0.050170 5.857450 142 0 0 0.998669
0.004845 -0.049383 5.867480 146 0 0 0.998570
0.015219 -0.054910 5.847420 142 0 0 0.998951
0.271124 -0.047533 5.919590 146 0 0 0.998545
0.282091 -0.050310 5.898300 187 0 0 0.995169
0.262601 -0.051634 5.886270 192 0 0 0.994871
0.292976 -0.054219 5.876890 255 19 0 0.989798
0.273491 -0.055828 5.865100 255 27 0 0.989291
0.284059 -0.062463 5.844670 255 86 0 0.983202
0.303591 -0.060783 5.856230 255 78 0 0.983843
0.253941 -0.057816 5.853480 255 27 0 0.989268
0.264481 -0.064681 5.833250 255 75 0 0.984161
0.244666 -0.067297 5.821930 255 67 0 0.984980
0.233311 -0.060204 5.842150 255 19 0 0.989928
0.242103 -0.053618 5.874870 192 0 0 0.994942
0.221473 -0.055567 5.863390 187 0 0 0.995360
0.230199 -0.050831 5.896360 146 0 0 0.998546
0.250634 -0.049168 5.908050 146 0 0 0.998553
0.209535 -0.052389 5.884640 146 0 0 0.998574
0.313838 -0.073573 5.838040 255 64 0 0.985486
0.322574 -0.088983 5.820580 255 60 0 0.985908
0.304147 -0.091477 5.809540 255 60 0 0.985816
0.330559 -0.107273 5.804660 255 38 0 0.988081
0.312166 -0.109784 5.793760 255 41 0 0.987779
0.293583 -0.112508 5.783090 255 41 0 0.987843
0.273846 -0.115191 5.772270 255 38 0 0.988051
0.284544 -0.093601 5.798470 255 56 0 0.986113
0.264793 -0.096409 5.787370 255 53 0 0.986574
0.274800 -0.077871 5.815250 255 64 0 0.985323
0.294369 -0.075561 5.826580 255 67 0 0.985158
0.255001 -0.080516 5.804050 255 60 0 0.985933
0.220025 -0.124182 5.740260 255 38 0 0.988167
0.210472 -0.104811 5.754830 255 60 0 0.985904
0.229295 -0.102049 5.765360 255 53 0 0.986356
0.199925 -0.088422 5.770780 255 60 0 0.985784
0.218751 -0.085727 5.781580 255 64 0 0.985487
0.207594 -0.071883 5.799130 255 71 0 0.984525
0.188739 -0.074551 5.788040 255 56 0 0.986086
0.237299 -0.083198 5.792570 255 64 0 0.985565
0.226259 -0.069434 5.810390 255 71 0 0.984438
0.247128 -0.099098 5.776240 255 53 0 0.986607
0.256154 -0.118013 5.761270 255 41 0 0.987865
0.238240 -0.120961 5.750620 255 34 0 0.988514
0.177342 -0.066764 5.807620 251 16 0 0.990302
0.165321 -0.060842 5.828400 196 0 0 0.994720
0.184468 -0.058875 5.839530 201 0 0 0.994379
0.152914 -0.056814 5.849710 151 0 0 0.998026
0.172112 -0.055138 5.860990 151 0 0 0.998094
0.191110 -0.053594 5.872340 151 0 0 0.998243
0.203186 -0.056883 5.851190 196 0 0 0.994467
0.214899 -0.062067 5.830550 255 19 0 0.990015
0.196143 -0.064370 5.819210 251 16 0 0.990154
0.050639 -0.206760 5.614160 192 0 0 0.995121
0.057771 -0.232326 5.610020 160 0 0 0.997432
0.039548 -0.234807 5.598670 164 0 0 0.997030
0.064770 -0.257550 5.606100 146 0 0 0.998553
0.046562 -0.259789 5.595090 146 0 0 0.998284
0.053647 -0.283847 5.591030 155 0 0 0.997927
0.071890 -0.282274 5.602010 151 0 0 0.998209
0.028374 -0.261782 5.584410 146 0 0 0.998296
0.035468 -0.285510 5.580620 155 0 0 0.997903
0.017248 -0.286955 5.571020 146 0 0 0.998410
0.008707 -0.264158 5.573970 151 0 0 0.998136
0.019774 -0.237610 5.587820 164 0 0 0.997205
0.000233 -0.240435 5.576990 164 0 0 0.996952
0.011093 -0.213562 5.591100 192 0 0 0.994848
0.030740 -0.210320 5.602550 192 0 0 0.995036
0.021447 -0.186110 5.606790 251 16 0 0.990147
-0.008377 -0.216610 5.580340 196 0 0 0.994714
0.001991 -0.189774 5.595180 255 19 0 0.989774
-0.017038 -0.193307 5.583980 255 19 0 0.990076
0.041160 -0.181819 5.618650 246 12 0 0.990598
0.080931 -0.308305 5.603470 137 0 0 0.999088
0.087788 -0.334811 5.604070 133 0 0 0.999415
0.071531 -0.335354 5.595440 133 0 0 0.999557
0.094377 -0.359922 5.605550 133 0 0 0.999569
0.078165 -0.360658 5.596330 128 0 0 0.999666
0.062004 -0.360855 5.587280 128 0 0 0.999709
0.043549 -0.361566 5.577160 128 0 0 0.999674
0.053228 -0.336429 5.584880 133 0 0 0.999576
0.034690 -0.337184 5.575570 133 0 0 0.999623
0.044333 -0.311082 5.583080 137 0 0 0.999262
0.062750 -0.310127 5.592820 137 0 0 0.999009
0.026078 -0.312062 5.572940 133 0 0 0.999346
-0.016590 -0.365072 5.540900 142 0 0 0.998945
-0.000275 -0.363493 5.551260 137 0 0 0.999193
-0.011175 -0.340544 5.548880 137 0 0 0.999094
-0.027650 -0.342587 5.539230 146 0 0 0.998569
0.005362 -0.338796 5.558650 133 0 0 0.999350
-0.021853 -0.317500 5.546230 137 0 0 0.999185
-0.005349 -0.315372 5.555550 133 0 0 0.999366
-0.015312 -0.291649 5.550930 146 0 0 0.998311
-0.037946 -0.319764 5.536210 137 0 0 0.999041
-0.031535 -0.294253 5.541450 142 0 0 0.998718
-0.047614 -0.297079 5.531960 137 0 0 0.999058
0.011302 -0.313223 5.564880 133 0 0 0.999392
0.000836 -0.289403 5.560920 146 0 0 0.998309
0.019897 -0.337904 5.567260 133 0 0 0.999504
0.028769 -0.362055 5.568580 133 0 0 0.999553
0.014226 -0.362689 5.559840 133 0 0 0.999426
-0.061851 -0.274930 5.531550 146 0 0 0.998613
-0.039286 -0.272134 5.543900 151 0 0 0.998020
-0.053962 -0.249684 5.544270 160 0 0 0.997300
-0.075948 -0.252527 5.530940 164 0 0 0.997175
-0.031567 -0.246831 5.556850 169 0 0 0.996700
-0.068338 -0.227192 5.543670 196 0 0 0.994743
-0.046276 -0.223747 5.556880 196 0 0 0.994785
-0.060981 -0.201356 5.557140 242 8 0 0.990952
-0.089810 -0.230359 5.529520 192 0 0 0.994887
-0.082436 -0.204997 5.542920 255 19 0 0.989829
-0.103489 -0.208255 5.527970 255 30 0 0.988749
-0.023999 -0.220278 5.569540 205 0 0 0.994060
-0.039355 -0.197573 5.570430 251 16 0 0.990315
-0.015675 -0.243729 5.566630 173 0 0 0.996530
-0.007505 -0.266693 5.563930 151 0 0 0.998071
-0.023589 -0.269293 5.554270 151 0 0 0.998152
-0.098829 -0.261715 5.512470 155 0 0 0.997802
-0.085500 -0.283864 5.514460 142 0 0 0.998706
-0.071259 -0.305440 5.514370 137 0 0 0.999047
-0.094616 -0.313885 5.495880 137 0 0 0.999050
-0.108876 -0.298985 5.492960 137 0 0 0.999045
-0.110838 -0.272763 5.501240 155 0 0 0.997917
-0.122724 -0.283701 5.489310 146 0 0 0.998300
-0.124195 -0.257372 5.496190 173 0 0 0.996279
-0.112749 -0.246375 5.508540 173 0 0 0.996220
-0.126072 -0.230964 5.503640 219 0 0 0.992755
-0.136291 -0.268312 5.484660 160 0 0 0.997309
-0.137723 -0.241924 5.491350 223 0 0 0.992487
-0.149369 -0.252684 5.479130 210 0 0 0.993411
-0.114713 -0.219702 5.516180 246 12 0 0.990813
-0.049427 -0.347538 5.523150 142 0 0 0.998760
-0.038554 -0.369482 5.524860 142 0 0 0.998897
-0.061150 -0.375736 5.506800 137 0 0 0.999251
-0.073024 -0.355340 5.503980 137 0 0 0.999065
-0.072676 -0.330788 5.510150 137 0 0 0.999199
-0.095764 -0.390205 5.476020 128 0 0 0.999669
-0.099153 -0.367312 5.480990 133 0 0 0.999560
-0.110966 -0.349159 5.476100 133 0 0 0.999643
-0.113064 -0.324864 5.479030 142 0 0 0.998868
-0.131105 -0.335970 5.461610 151 0 0 0.998050
-0.092745 -0.338265 5.493290 133 0 0 0.999530
-0.078303 -0.381832 5.492130 133 0 0 0.999522
-0.145856 -0.323101 5.458050 142 0 0 0.998788
-0.151009 -0.302592 5.463050 142 0 0 0.998728
-0.165405 -0.289387 5.457920 155 0 0 0.997860
-0.169401 -0.268283 5.461120 187 0 0 0.995364
-0.189037 -0.283810 5.441600 205 0 0 0.994015
-0.127407 -0.309942 5.476080 137 0 0 0.998986
0.033437 -0.159625 5.632370 242 8 0 0.990914
0.013844 -0.164246 5.619720 246 12 0 0.990770
0.005780 -0.143533 5.634160 246 12 0 0.990671
-0.005335 -0.168520 5.607600 242 8 0 0.990991
-0.013161 -0.147990 5.621200 251 16 0 0.990274
-0.031649 -0.152414 5.608860 251 16 0 0.990307
-0.024046 -0.172415 5.595260 255 23 0 0.989686
-0.021560 -0.128958 5.636560 246 12 0 0.990606
-0.039936 -0.133306 5.623230 255 27 0 0.989312
-0.048487 -0.115318 5.638950 255 38 0 0.988183
-0.029836 -0.111840 5.650940 255 34 0 0.988401
-0.002336 -0.124980 5.647960 255 19 0 0.989799
-0.011039 -0.108080 5.662960 255 34 0 0.988359
0.017274 -0.120795 5.659560 255 30 0 0.988716
0.025598 -0.139072 5.645030 255 30 0 0.988896
0.008178 -0.104048 5.674900 255 41 0 0.987627
-0.044501 -0.175004 5.587710 219 0 0 0.992720
-0.066008 -0.179283 5.573420 223 0 0 0.992311
-0.071892 -0.157901 5.591480 210 0 0 0.993542
-0.087069 -0.183152 5.558650 233 1 0 0.991662
-0.092681 -0.162008 5.576060 214 0 0 0.993351
-0.113153 -0.165366 5.560500 233 1 0 0.991705
-0.107860 -0.186310 5.543390 246 12 0 0.990781
-0.099012 -0.141681 5.595560 205 0 0 0.994025
-0.119336 -0.145238 5.579050 223 0 0 0.992380
-0.126098 -0.125847 5.599260 233 1 0 0.991746
-0.107137 -0.123840 5.609450 233 1 0 0.991788
-0.079724 -0.139148 5.604820 210 0 0 0.993478
-0.087938 -0.121352 5.619420 242 8 0 0.991124
-0.060090 -0.136307 5.614000 237 4 0 0.991221
-0.051990 -0.155305 5.599980 228 0 0 0.992210
-0.068379 -0.118487 5.629150 255 19 0 0.989859
-0.160204 -0.077983 5.689860 146 0 0 0.998424
-0.141848 -0.077080 5.699450 142 0 0 0.998827
-0.132599 -0.086934 5.677160 151 0 0 0.998117
-0.113962 -0.085247 5.686410 155 0 0 0.997747
-0.123368 -0.075668 5.708730 142 0 0 0.998826
-0.104763 -0.095722 5.664400 178 0 0 0.996183
-0.095107 -0.083284 5.695520 160 0 0 0.997516
-0.085741 -0.093248 5.673210 187 0 0 0.995429
-0.066257 -0.090508 5.681740 205 0 0 0.993801
-0.104820 -0.074174 5.718140 142 0 0 0.998658
-0.076081 -0.080958 5.704530 164 0 0 0.997005
-0.086059 -0.072396 5.727490 146 0 0 0.998491
-0.076654 -0.104903 5.651570 219 0 0 0.992889
-0.057097 -0.101869 5.659830 237 4 0 0.991247
-0.096128 -0.107552 5.641210 210 0 0 0.993594
-0.115281 -0.109934 5.630710 201 0 0 0.994279
-0.123804 -0.097734 5.653450 173 0 0 0.996487
-0.142597 -0.099358 5.642440 178 0 0 0.996011
-0.134187 -0.111828 5.619880 210 0 0 0.993583
-0.151326 -0.088323 5.665880 160 0 0 0.997429
-0.068361 -0.071160 5.738140 142 0 0 0.998737
-0.058549 -0.079188 5.717800 155 0 0 0.997772
-0.040181 -0.077192 5.728090 155 0 0 0.997768
-0.050304 -0.069688 5.748850 142 0 0 0.998881
-0.030224 -0.085501 5.707690 183 0 0 0.995768
-0.021412 -0.075031 5.738600 155 0 0 0.997774
-0.011233 -0.082919 5.717730 187 0 0 0.995382
-0.031762 -0.067953 5.759870 142 0 0 0.998935
-0.001438 -0.092258 5.697450 223 0 0 0.992563
-0.020420 -0.095663 5.684850 223 0 0 0.992341
-0.038863 -0.098969 5.672400 228 0 0 0.992090
-0.048455 -0.088183 5.694810 187 0 0 0.995379
-0.170265 -0.071209 5.711730 133 0 0 0.999503
-0.152115 -0.070505 5.721000 128 0 0 0.999675
-0.162277 -0.063750 5.742650 128 0 0 0.999888
-0.180552 -0.064447 5.733430 128 0 0 0.999876
-0.144053 -0.063065 5.752040 128 0 0 0.999873
-0.172492 -0.056755 5.764140 128 0 0 0.999916
-0.154170 -0.056057 5.773610 128 0 0 0.999858
-0.164175 -0.047983 5.794880 128 0 0 0.999896
-0.190730 -0.057145 5.754840 128 0 0 0.999945
-0.182572 -0.048680 5.785330 128 0 0 0.999917
-0.201032 -0.049060 5.775850 128 0 0 0.999873
-0.135772 -0.055037 5.783050 128 0 0 0.999845
-0.145813 -0.047070 5.804350 128 0 0 0.999874
-0.127335 -0.045943 5.813960 128 0 0 0.999837
-0.117292 -0.054073 5.792980 128 0 0 0.999803
-0.125658 -0.062110 5.761640 128 0 0 0.999849
-0.107088 -0.061127 5.771380 128 0 0 0.999818
-0.115266 -0.068438 5.740020 128 0 0 0.999696
-0.133682 -0.069530 5.730520 128 0 0 0.999680
-0.096712 -0.067002 5.749480 128 0 0 0.999664
-0.211704 -0.042450 5.795940 128 0 0 0.999939
-0.193214 -0.041837 5.805880 128 0 0 0.999941
-0.203920 -0.034729 5.826120 128 0 0 0.999944
-0.222526 -0.035359 5.816140 128 0 0 0.999959
-0.185528 -0.033792 5.836030 128 0 0 0.999918
-0.214794 -0.026976 5.846320 128 0 0 0.999960
-0.196237 -0.026000 5.856210 128 0 0 0.999946
-0.233506 -0.027649 5.836360 128 0 0 0.999958
-0.177740 -0.024666 5.865980 128 0 0 0.999956
-0.159019 -0.023366 5.875320 128 0 0 0.999943
-0.167116 -0.032818 5.845570 128 0 0 0.999919
-0.148516 -0.031608 5.855050 128 0 0 0.999931
-0.156479 -0.040319 5.825030 128 0 0 0.999894
-0.174866 -0.041170 5.815430 128 0 0 0.999909
-0.137917 -0.039210 5.834540 128 0 0 0.999898
-0.103679 -0.020589 5.905860 128 0 0 0.999904
-0.093576 -0.029439 5.885960 128 0 0 0.999845
-0.111935 -0.030449 5.875320 128 0 0 0.999854
-0.083393 -0.037545 5.865860 128 0 0 0.999663
-0.101839 -0.038284 5.855250 128 0 0 0.999723
-0.091518 -0.045098 5.834770 128 0 0 0.999664
-0.073035 -0.044327 5.845430 133 0 0 0.999588
-0.119863 -0.038795 5.844700 128 0 0 0.999830
-0.109563 -0.045674 5.824300 128 0 0 0.999769
-0.130399 -0.031133 5.865100 128 0 0 0.999894
-0.140855 -0.022711 5.885410 128 0 0 0.999941
-0.122429 -0.021710 5.895620 128 0 0 0.999929
-0.062715 -0.052107 5.824180 133 0 0 0.999431
-0.052597 -0.058451 5.803380 133 0 0 0.999556
-0.070783 -0.059457 5.791850 128 0 0 0.999679
-0.042359 -0.063506 5.781920 128 0 0 0.999727
-0.060671 -0.064900 5.770670 128 0 0 0.999713
-0.078615 -0.065993 5.759410 128 0 0 0.999682
-0.089079 -0.060437 5.781580 128 0 0 0.999731
-0.099354 -0.053720 5.803250 133 0 0 0.999633
-0.081239 -0.053018 5.813620 133 0 0 0.999499
-0.171854 -0.088806 5.659500 155 0 0 0.997855
-0.163166 -0.100025 5.636080 169 0 0 0.996716
-0.183844 -0.100111 5.629380 160 0 0 0.997556
-0.154722 -0.112496 5.613940 187 0 0 0.995268
-0.175432 -0.112575 5.607230 169 0 0 0.996648
-0.167545 -0.126321 5.586330 187 0 0 0.995204
-0.146772 -0.126354 5.593180 205 0 0 0.994065
-0.196718 -0.112273 5.599740 173 0 0 0.996354
-0.188807 -0.125955 5.578650 187 0 0 0.995346
-0.210824 -0.125199 5.570350 187 0 0 0.995180
-0.217326 -0.113030 5.591170 164 0 0 0.997005
-0.203558 -0.101071 5.621490 160 0 0 0.997436
-0.224148 -0.101714 5.612810 160 0 0 0.997350
-0.210745 -0.090869 5.644110 146 0 0 0.998480
-0.191088 -0.090009 5.651980 146 0 0 0.998529
-0.198373 -0.080703 5.675240 137 0 0 0.999157
-0.231011 -0.091378 5.635510 151 0 0 0.998198
-0.217954 -0.081443 5.667420 137 0 0 0.999040
-0.238122 -0.081882 5.659100 142 0 0 0.998864
-0.179124 -0.079451 5.682660 142 0 0 0.998800
-0.144358 -0.139440 5.575050 219 0 0 0.992765
-0.138274 -0.159088 5.556090 210 0 0 0.993449
-0.163618 -0.152411 5.551030 205 0 0 0.993801
-0.132948 -0.179809 5.538910 205 0 0 0.994021
-0.157926 -0.172626 5.533260 196 0 0 0.994604
-0.152896 -0.193640 5.516940 205 0 0 0.993968
-0.128130 -0.201157 5.523370 210 0 0 0.993449
-0.183451 -0.165182 5.526680 205 0 0 0.993917
-0.178206 -0.185706 5.510110 205 0 0 0.993896
-0.204092 -0.177779 5.502450 214 0 0 0.993048
-0.205344 -0.163933 5.517660 205 0 0 0.994014
-0.184827 -0.151722 5.542780 196 0 0 0.994780
-0.206902 -0.150565 5.534170 192 0 0 0.994825
-0.186751 -0.138509 5.560300 192 0 0 0.994976
-0.165364 -0.139230 5.567930 196 0 0 0.994617
-0.208812 -0.137660 5.551920 196 0 0 0.994761
-0.300615 -0.167307 5.480920 223 0 0 0.992304
-0.301225 -0.155813 5.496280 205 0 0 0.993777
-0.277042 -0.156302 5.502750 192 0 0 0.995007
-0.277831 -0.145255 5.518590 183 0 0 0.995663
-0.302183 -0.144886 5.512080 196 0 0 0.994632
-0.253934 -0.145977 5.525120 173 0 0 0.996203
-0.278601 -0.134585 5.535380 169 0 0 0.996575
-0.254961 -0.135049 5.541540 173 0 0 0.996507
-0.255995 -0.124727 5.558900 164 0 0 0.996996
-0.303080 -0.134402 5.528990 183 0 0 0.995693
-0.279609 -0.124274 5.552800 169 0 0 0.996820
-0.304257 -0.123954 5.546710 178 0 0 0.996071
-0.231956 -0.135637 5.547630 173 0 0 0.996219
-0.233059 -0.125008 5.564770 169 0 0 0.996816
-0.230300 -0.148247 5.529850 183 0 0 0.995629
-0.228442 -0.161372 5.512880 192 0 0 0.995107
-0.252562 -0.158716 5.508050 192 0 0 0.995102
-0.251083 -0.171951 5.491310 214 0 0 0.993171
-0.227155 -0.174752 5.496940 219 0 0 0.992833
-0.275490 -0.169452 5.486160 210 0 0 0.993383
-0.309713 -0.113823 5.566290 169 0 0 0.996854
-0.286732 -0.112238 5.573890 164 0 0 0.997030
-0.292260 -0.102734 5.594090 155 0 0 0.997730
-0.315010 -0.104405 5.586640 160 0 0 0.997536
-0.270159 -0.101250 5.601690 155 0 0 0.997761
-0.297676 -0.093867 5.614920 151 0 0 0.998279
-0.275331 -0.092524 5.622680 146 0 0 0.998514
-0.280420 -0.084346 5.644140 137 0 0 0.999104
-0.320687 -0.095251 5.607210 155 0 0 0.997844
-0.302849 -0.085383 5.636240 142 0 0 0.998768
-0.325947 -0.086487 5.628210 151 0 0 0.998172
-0.253702 -0.091124 5.630210 146 0 0 0.998397
-0.258802 -0.083376 5.651980 137 0 0 0.999212
-0.246627 -0.101536 5.607460 155 0 0 0.997827
-0.239748 -0.112850 5.585520 164 0 0 0.997223
-0.262997 -0.112562 5.579770 160 0 0 0.997313
-0.251705 -0.029044 5.828240 128 0 0 0.999960
-0.240639 -0.036778 5.807960 128 0 0 0.999954
-0.259132 -0.037818 5.799680 128 0 0 0.999942
-0.229751 -0.043881 5.787870 128 0 0 0.999961
-0.248154 -0.045018 5.779710 128 0 0 0.999948
-0.237267 -0.051625 5.759820 128 0 0 0.999961
-0.219011 -0.050505 5.767940 128 0 0 0.999948
-0.266876 -0.045712 5.771410 128 0 0 0.999966
-0.255886 -0.052370 5.751510 128 0 0 0.999962
-0.275247 -0.052889 5.742770 128 0 0 0.999898
-0.285752 -0.046529 5.762040 128 0 0 0.999949
-0.277498 -0.038964 5.790580 128 0 0 0.999955
-0.296212 -0.039777 5.781230 128 0 0 0.999956
-0.287995 -0.031707 5.810050 128 0 0 0.999952
-0.269617 -0.030523 5.819290 128 0 0 0.999940
-0.306871 -0.032581 5.800600 128 0 0 0.999952
-0.209794 -0.057875 5.747540 128 0 0 0.999962
-0.199470 -0.065353 5.726110 128 0 0 0.999918
-0.218616 -0.066088 5.718650 128 0 0 0.999935
-0.189225 -0.072429 5.704470 128 0 0 0.999694
-0.208390 -0.073498 5.697040 128 0 0 0.999772
-0.227910 -0.073953 5.689100 128 0 0 0.999674
-0.247197 -0.074854 5.680170 133 0 0 0.999608
-0.237158 -0.067211 5.710270 128 0 0 0.999934
-0.256415 -0.067812 5.701330 128 0 0 0.999897
-0.246460 -0.060012 5.731040 128 0 0 0.999973
-0.227968 -0.059160 5.739500 128 0 0 0.999962
-0.265716 -0.060585 5.722230 128 0 0 0.999958
-0.333734 -0.079612 5.647960 142 0 0 0.998812
-0.311933 -0.077722 5.657090 137 0 0 0.999177
-0.319726 -0.071093 5.677330 133 0 0 0.999575
-0.341388 -0.072728 5.668080 137 0 0 0.999199
-0.298635 -0.069621 5.686330 128 0 0 0.999780
-0.327667 -0.064282 5.697480 128 0 0 0.999713
-0.306663 -0.062884 5.706440 128 0 0 0.999868
-0.314571 -0.055947 5.726260 128 0 0 0.999874
-0.349106 -0.065801 5.688350 133 0 0 0.999370
-0.335557 -0.057350 5.717590 128 0 0 0.999748
-0.356910 -0.058645 5.708430 133 0 0 0.999452
-0.286317 -0.061383 5.715050 128 0 0 0.999935
-0.294364 -0.054519 5.734900 128 0 0 0.999938
-0.277050 -0.068832 5.693990 128 0 0 0.999893
-0.267964 -0.076135 5.672930 128 0 0 0.999717
-0.289679 -0.076872 5.665020 133 0 0 0.999545
-0.366365 -0.052570 5.727250 133 0 0 0.999640
-0.345901 -0.050789 5.737120 128 0 0 0.999814
-0.355270 -0.044473 5.755720 128 0 0 0.999840
-0.375686 -0.046130 5.745970 128 0 0 0.999686
-0.335447 -0.042684 5.765140 128 0 0 0.999901
-0.364747 -0.037670 5.774170 128 0 0 0.999799
-0.345082 -0.035915 5.783560 128 0 0 0.999868
-0.384919 -0.039386 5.764300 128 0 0 0.999687
-0.326003 -0.034115 5.792710 128 0 0 0.999927
-0.315537 -0.041332 5.773400 128 0 0 0.999936
-0.304988 -0.048103 5.754200 128 0 0 0.999956
-0.325077 -0.049489 5.745820 128 0 0 0.999903
-0.347058 -0.089641 5.621450 146 0 0 0.998502
-0.354382 -0.083118 5.639850 142 0 0 0.998949
-0.375477 -0.086351 5.633500 142 0 0 0.998942
-0.368290 -0.092957 5.614890 146 0 0 0.998496
-0.382746 -0.079597 5.651750 137 0 0 0.999109
-0.396624 -0.089773 5.626600 142 0 0 0.998687
-0.403530 -0.083068 5.645480 137 0 0 0.999059
-0.424479 -0.086613 5.638510 146 0 0 0.998412
-0.389236 -0.096796 5.608710 146 0 0 0.998499
-0.417327 -0.093624 5.620380 146 0 0 0.998280
-0.410263 -0.100717 5.602310 151 0 0 0.997950
-0.410632 -0.076067 5.663780 137 0 0 0.999056
-0.431539 -0.079644 5.657170 142 0 0 0.998651
-0.438638 -0.072477 5.675710 142 0 0 0.998679
-0.418241 -0.068519 5.683640 137 0 0 0.999040
-0.390371 -0.072357 5.671720 137 0 0 0.999177
-0.397852 -0.064963 5.691650 137 0 0 0.999229
-0.369730 -0.068937 5.679890 133 0 0 0.999308
-0.362191 -0.076032 5.659660 137 0 0 0.999135
-0.377162 -0.061696 5.700090 133 0 0 0.999455
-0.430624 -0.106728 5.597410 146 0 0 0.998295
-0.437220 -0.099997 5.614280 146 0 0 0.998512
-0.457501 -0.106201 5.609520 146 0 0 0.998506
-0.450771 -0.113151 5.592840 146 0 0 0.998480
-0.464048 -0.099315 5.626530 142 0 0 0.998765
-0.477523 -0.112787 5.605310 142 0 0 0.998697
-0.484127 -0.105683 5.621930 142 0 0 0.998699
-0.504235 -0.112462 5.617780 146 0 0 0.998455
-0.470686 -0.119889 5.588700 146 0 0 0.998340
-0.497102 -0.119653 5.601450 146 0 0 0.998369
-0.490502 -0.127012 5.585120 151 0 0 0.998123
-0.491024 -0.098644 5.638770 142 0 0 0.998828
-0.510902 -0.105085 5.634460 146 0 0 0.998433
-0.517633 -0.097888 5.651130 146 0 0 0.998522
-0.498270 -0.091019 5.656740 142 0 0 0.998850
-0.471328 -0.091991 5.644460 142 0 0 0.998887
-0.478597 -0.084596 5.662600 137 0 0 0.998969
-0.451601 -0.085672 5.650480 142 0 0 0.998844
-0.444321 -0.092854 5.632280 142 0 0 0.998725
-0.458644 -0.078407 5.668820 142 0 0 0.998899
-0.523880 -0.072260 5.707510 137 0 0 0.999199
-0.504485 -0.065563 5.714670 137 0 0 0.999274
-0.495595 -0.072277 5.696980 133 0 0 0.999361
-0.484807 -0.059373 5.722130 133 0 0 0.999320
-0.476031 -0.065970 5.704560 133 0 0 0.999350
-0.456399 -0.060017 5.711840 137 0 0 0.999102
-0.464845 -0.053503 5.729760 137 0 0 0.999193
-0.467431 -0.072370 5.686230 137 0 0 0.999121
-0.447446 -0.066349 5.694020 137 0 0 0.998997
-0.487151 -0.078418 5.679890 137 0 0 0.999199
-0.506987 -0.084890 5.673810 137 0 0 0.999016
-0.515507 -0.078532 5.690740 137 0 0 0.999183
-0.534828 -0.085155 5.684870 142 0 0 0.998779
-0.526301 -0.091519 5.668030 142 0 0 0.998625
-0.543001 -0.078551 5.701610 142 0 0 0.998825
-0.444488 -0.049754 5.737860 133 0 0 0.999441
-0.424387 -0.046101 5.746540 133 0 0 0.999545
-0.415337 -0.052806 5.728200 133 0 0 0.999562
-0.404629 -0.042571 5.755540 133 0 0 0.999631
-0.395304 -0.049370 5.737130 128 0 0 0.999668
-0.385955 -0.055788 5.718510 133 0 0 0.999601
-0.406502 -0.058975 5.710190 133 0 0 0.999503
-0.427017 -0.062546 5.702010 133 0 0 0.999306
-0.435781 -0.056312 5.720030 133 0 0 0.999423
-0.015612 -0.675639 5.059730 255 112 0 0.980205
0.008455 -0.677739 5.053580 255 153 0 0.975930
0.023947 -0.688244 5.041090 255 171 0 0.973567
0.047853 -0.691280 5.035570 255 208 0 0.969241
0.030968 -0.707940 5.022350 255 171 0 0.973642
0.006179 -0.704361 5.028140 255 138 0 0.977422
-0.009249 -0.693683 5.040290 255 101 0 0.981631
-0.034518 -0.691210 5.045570 255 97 0 0.981762
-0.050589 -0.681908 5.058450 255 86 0 0.983158
-0.068985 -0.696481 5.045870 255 93 0 0.982400
0.080811 -0.686941 5.035280 184 255 64 0.955128
0.104811 -0.690663 5.028100 122 255 126 0.944413
0.088279 -0.707920 5.014890 200 255 48 0.957287
0.064029 -0.703624 5.021770 225 255 22 0.961422
0.074768 -0.761141 4.984450 255 167 0 0.973985
0.057270 -0.746870 4.995740 255 171 0 0.973444
0.032302 -0.742389 5.002770 255 116 0 0.979858
0.015317 -0.728080 5.013940 255 90 0 0.982587
-0.000164 -0.747639 5.005360 255 71 0 0.984491
0.048395 -0.721822 5.011550 255 201 0 0.970338
0.072788 -0.726267 5.004100 255 234 0 0.965958
-0.025795 -0.743274 5.012090 255 27 0 0.989180
-0.042749 -0.730171 5.021970 255 30 0 0.988984
-0.068396 -0.726936 5.027620 255 56 0 0.986027
-0.085701 -0.714935 5.037520 255 53 0 0.986724
-0.102527 -0.733030 5.029460 255 41 0 0.987620
-0.051536 -0.708559 5.035380 255 101 0 0.981497
-0.026606 -0.711394 5.029730 255 67 0 0.984979
-0.009576 -0.724309 5.019880 255 56 0 0.986048
0.072215 -0.805602 4.970360 255 171 0 0.973753
0.061085 -0.825796 4.970460 255 167 0 0.974108
0.049883 -0.845624 4.969930 255 138 0 0.977594
0.026613 -0.925472 4.983530 196 255 51 0.956987
-0.002698 -0.923003 4.990240 255 223 0 0.967382
-0.028572 -0.910176 4.994850 255 93 0 0.982099
-0.057029 -0.907754 5.001070 255 41 0 0.987733
-0.082551 -0.894624 5.005320 228 0 0 0.992245
-0.088373 -0.915715 5.008890 255 45 0 0.987305
-0.051213 -0.886831 4.997180 255 27 0 0.989122
-0.076688 -0.873646 5.001280 219 0 0 0.992852
-0.023527 -0.890104 4.990650 255 86 0 0.982921
0.004140 -0.893470 4.984160 255 134 0 0.977877
0.030187 -0.906322 4.979610 248 245 0 0.964661
0.034275 -0.886947 4.974700 255 216 0 0.968517
-0.116559 -0.912451 5.013940 255 49 0 0.986809
-0.140948 -0.897890 5.017720 251 16 0 0.990359
-0.169004 -0.894237 5.022930 242 8 0 0.990928
-0.193284 -0.878975 5.026520 214 0 0 0.993176
-0.201745 -0.901118 5.029460 255 38 0 0.987897
-0.161366 -0.872019 5.019740 205 0 0 0.993807
-0.185402 -0.857043 5.023190 196 0 0 0.994623
-0.134109 -0.876163 5.014190 219 0 0 0.992865
-0.107049 -0.880239 5.008860 228 0 0 0.992243
-0.162379 -0.812491 5.020610 187 0 0 0.995284
-0.136231 -0.816934 5.014830 201 0 0 0.994162
-0.115041 -0.832234 5.010170 201 0 0 0.994222
-0.088636 -0.836565 5.004250 201 0 0 0.994114
-0.066822 -0.851724 4.999530 210 0 0 0.993651
-0.056869 -0.829315 4.997200 214 0 0 0.993189
-0.098263 -0.858568 5.006200 219 0 0 0.992785
-0.125565 -0.854370 5.011790 205 0 0 0.993913
-0.152494 -0.850232 5.017360 196 0 0 0.994516
-0.173795 -0.834792 5.022320 183 0 0 0.995633
-0.030147 -0.833431 4.990350 246 12 0 0.990594
-0.007575 -0.847962 4.984990 255 49 0 0.986968
0.019098 -0.852111 4.978170 255 108 0 0.980556
0.042163 -0.866420 4.972430 255 178 0 0.972846
0.011130 -0.872835 4.980780 255 123 0 0.979155
-0.016596 -0.869429 4.987340 255 53 0 0.986714
-0.044330 -0.866069 4.993970 255 19 0 0.990009
-0.128395 -0.729653 5.034140 255 60 0 0.985597
-0.145064 -0.717930 5.042650 255 60 0 0.985767
-0.171912 -0.715467 5.048160 255 104 0 0.980898
-0.189389 -0.704640 5.058560 255 101 0 0.981504
-0.207874 -0.720606 5.051810 255 75 0 0.984211
-0.152978 -0.698298 5.056040 255 116 0 0.979706
-0.170997 -0.687978 5.066780 255 164 0 0.974421
-0.127440 -0.700792 5.050920 255 97 0 0.981954
-0.102128 -0.703017 5.046120 255 82 0 0.983289
-0.228974 -0.717231 5.056210 255 67 0 0.985057
-0.239675 -0.706643 5.065040 255 78 0 0.983911
-0.260178 -0.704285 5.069850 255 60 0 0.985627
-0.241108 -0.689865 5.079920 255 82 0 0.983351
-0.221144 -0.691498 5.073900 255 82 0 0.983568
-0.201073 -0.694130 5.068570 255 93 0 0.982316
-0.191575 -0.671801 5.091400 255 108 0 0.980590
-0.171420 -0.673041 5.084900 255 149 0 0.976200
-0.150939 -0.674501 5.079050 255 145 0 0.976560
-0.222656 -0.677423 5.092250 255 64 0 0.985269
-0.114710 -0.668081 5.079490 255 197 0 0.970464
-0.090496 -0.670342 5.074080 255 160 0 0.975059
-0.074872 -0.679925 5.062970 255 90 0 0.982686
-0.108995 -0.684381 5.061100 255 145 0 0.976545
-0.134687 -0.682470 5.066490 255 167 0 0.973849
-0.188637 -0.807864 5.025340 187 0 0 0.995371
-0.208501 -0.792835 5.031570 187 0 0 0.995179
-0.235165 -0.787496 5.035990 187 0 0 0.995407
-0.253823 -0.773284 5.040740 219 0 0 0.992879
-0.267821 -0.791495 5.038000 205 0 0 0.994026
-0.220908 -0.768542 5.037560 228 0 0 0.992265
-0.239961 -0.754581 5.042570 242 8 0 0.990970
-0.193884 -0.773503 5.031810 223 0 0 0.992386
-0.167516 -0.777913 5.026770 219 0 0 0.992915
-0.148418 -0.792254 5.021660 192 0 0 0.994975
-0.134303 -0.771541 5.021940 228 0 0 0.992025
-0.288557 -0.786460 5.039710 210 0 0 0.993529
-0.301784 -0.772877 5.043710 228 0 0 0.992157
-0.322602 -0.767948 5.045860 233 1 0 0.991657
-0.336587 -0.754282 5.050480 251 16 0 0.990164
-0.351410 -0.771813 5.046110 242 8 0 0.991113
-0.308313 -0.750772 5.049750 255 19 0 0.989800
-0.322300 -0.737481 5.054620 255 38 0 0.988113
-0.288012 -0.755151 5.047330 228 0 0 0.992117
-0.267765 -0.759572 5.044710 233 1 0 0.991711
-0.277037 -0.718767 5.061690 255 60 0 0.985798
-0.257250 -0.722383 5.057730 255 60 0 0.985784
-0.244593 -0.734064 5.051140 255 38 0 0.988242
-0.223891 -0.738006 5.047160 255 34 0 0.988422
-0.273052 -0.738401 5.051860 255 34 0 0.988407
-0.293367 -0.734168 5.054760 255 30 0 0.988748
-0.305695 -0.722586 5.061990 255 34 0 0.988605
-0.188993 -0.732821 5.043030 255 56 0 0.986007
-0.162361 -0.736266 5.037330 255 56 0 0.986256
-0.144283 -0.749086 5.030470 255 27 0 0.989087
-0.118517 -0.752629 5.025890 242 8 0 0.991144
-0.178312 -0.754505 5.033800 255 27 0 0.989099
-0.205500 -0.750510 5.039650 255 19 0 0.989977
-0.084703 -0.746233 5.022310 242 8 0 0.990950
-0.059058 -0.750022 5.015960 246 12 0 0.990714
-0.041056 -0.763832 5.008170 237 4 0 0.991255
-0.015046 -0.767243 5.002120 251 16 0 0.990381
-0.030232 -0.787373 4.998140 233 1 0 0.991640
-0.056689 -0.783690 5.004220 233 1 0 0.991692
-0.074657 -0.769820 5.012060 233 1 0 0.991881
-0.100660 -0.765953 5.018290 228 0 0 0.992074
0.017641 -0.762128 4.997120 255 90 0 0.982632
0.042689 -0.766480 4.990130 255 108 0 0.980606
0.060932 -0.781204 4.981310 255 145 0 0.976744
0.046767 -0.801001 4.977250 255 119 0 0.979376
0.028684 -0.786179 4.986200 255 86 0 0.982933
0.002816 -0.781796 4.993260 255 41 0 0.987642
0.029371 -0.831371 4.977230 255 93 0 0.982279
0.003080 -0.827135 4.983890 255 53 0 0.986493
-0.017189 -0.812816 4.991190 237 4 0 0.991390
-0.043559 -0.808665 4.997790 201 0 0 0.994091
0.015470 -0.806543 4.984310 255 64 0 0.985438
-0.076582 -0.814874 5.003790 214 0 0 0.993263
-0.103298 -0.810973 5.009670 201 0 0 0.994250
-0.122356 -0.796389 5.015700 205 0 0 0.993849
-0.089482 -0.790034 5.010230 210 0 0 0.993395
-0.520555 -0.695510 5.088820 246 12 0 0.990828
-0.540889 -0.701754 5.091250 210 0 0 0.993522
-0.542588 -0.718185 5.084960 219 0 0 0.992959
-0.561211 -0.707890 5.093160 205 0 0 0.993931
-0.563541 -0.724793 5.087140 210 0 0 0.993549
-0.584435 -0.731270 5.088570 242 8 0 0.991076
-0.565444 -0.741645 5.081490 251 16 0 0.990396
-0.582311 -0.713925 5.094300 214 0 0 0.993284
-0.603006 -0.720622 5.095670 255 19 0 0.989800
-0.577785 -0.695675 5.100110 223 0 0 0.992496
-0.556649 -0.690088 5.099160 205 0 0 0.993738
-0.536410 -0.684145 5.097090 228 0 0 0.992275
-0.551921 -0.672759 5.105820 223 0 0 0.992527
-0.584206 -0.751890 5.086430 219 0 0 0.992840
-0.581102 -0.770923 5.084110 219 0 0 0.992764
-0.602780 -0.762423 5.091440 214 0 0 0.993198
-0.599621 -0.781649 5.089370 228 0 0 0.992196
-0.617741 -0.792522 5.094830 251 16 0 0.990118
-0.596007 -0.800947 5.087930 251 16 0 0.990212
-0.621204 -0.773215 5.096460 223 0 0 0.992407
-0.639191 -0.784473 5.101710 255 27 0 0.989079
-0.622206 -0.751907 5.097500 228 0 0 0.991931
-0.603285 -0.741441 5.093250 228 0 0 0.992199
-0.680346 -0.766294 5.118220 255 90 0 0.982755
-0.670973 -0.748654 5.116660 255 53 0 0.986666
-0.651623 -0.737137 5.111320 251 16 0 0.990420
-0.641275 -0.720015 5.110190 242 8 0 0.991060
-0.620856 -0.709286 5.105210 251 16 0 0.990359
-0.638827 -0.697359 5.114180 255 38 0 0.987881
-0.622873 -0.731570 5.101100 237 4 0 0.991526
-0.641278 -0.763592 5.103860 242 8 0 0.991042
-0.660098 -0.775615 5.110110 255 45 0 0.987359
-0.624450 -0.684099 5.117500 237 4 0 0.991424
-0.603036 -0.677866 5.115470 214 0 0 0.993270
-0.588788 -0.665671 5.118820 201 0 0 0.994234
-0.567069 -0.659901 5.116560 205 0 0 0.993816
-0.581981 -0.646812 5.127000 214 0 0 0.993085
-0.573560 -0.678348 5.108130 201 0 0 0.994131
-0.599451 -0.702354 5.102940 223 0 0 0.992544
-0.566427 -0.637942 5.133310 183 0 0 0.995683
-0.544711 -0.636297 5.134060 164 0 0 0.997097
-0.529984 -0.627967 5.140220 151 0 0 0.997947
-0.508563 -0.626033 5.140070 155 0 0 0.997759
-0.521458 -0.613028 5.151930 151 0 0 0.998009
-0.516706 -0.641039 5.128290 155 0 0 0.997683
-0.495680 -0.638912 5.127890 164 0 0 0.997101
-0.523203 -0.655271 5.116800 169 0 0 0.996614
-0.545003 -0.657621 5.116880 183 0 0 0.995696
-0.506185 -0.607073 5.159900 137 0 0 0.999094
-0.485148 -0.608099 5.161450 133 0 0 0.999335
-0.470900 -0.602151 5.169150 133 0 0 0.999506
-0.459598 -0.615190 5.156200 133 0 0 0.999384
-0.467325 -0.627333 5.142700 142 0 0 0.998846
-0.487914 -0.627167 5.142040 137 0 0 0.999013
-0.434060 -0.639048 5.134010 142 0 0 0.998624
-0.440087 -0.650235 5.121640 155 0 0 0.997855
-0.454299 -0.639175 5.132540 142 0 0 0.998740
-0.460629 -0.650720 5.119950 160 0 0 0.997587
-0.481515 -0.650782 5.118080 173 0 0 0.996246
-0.467391 -0.661882 5.108130 187 0 0 0.995343
-0.474949 -0.639190 5.130460 151 0 0 0.998267
-0.446961 -0.627432 5.144890 142 0 0 0.998952
-0.488345 -0.664705 5.108430 173 0 0 0.996523
-0.493480 -0.678128 5.098260 196 0 0 0.994763
-0.508946 -0.667182 5.107650 173 0 0 0.996221
-0.514984 -0.681200 5.098190 201 0 0 0.994294
-0.530726 -0.669899 5.106890 192 0 0 0.995091
-0.502123 -0.652753 5.117490 169 0 0 0.996564
-0.367871 -0.698213 5.080910 237 4 0 0.991211
-0.363772 -0.712815 5.069720 255 19 0 0.989859
-0.382379 -0.715394 5.068180 255 41 0 0.987633
-0.387651 -0.699716 5.078920 246 12 0 0.990509
-0.408205 -0.701793 5.077130 255 27 0 0.989356
-0.328079 -0.714360 5.067980 255 27 0 0.989008
-0.347539 -0.728820 5.059740 255 53 0 0.986391
-0.370995 -0.754292 5.052790 242 8 0 0.991146
-0.391989 -0.736459 5.060250 255 27 0 0.989011
-0.394991 -0.758110 5.052420 255 30 0 0.988759
-0.368088 -0.732875 5.060390 255 34 0 0.988411
-0.420257 -0.748730 5.057110 255 30 0 0.988852
-0.409083 -0.727220 5.065380 255 19 0 0.990020
-0.430265 -0.731123 5.064770 255 30 0 0.988743
-0.452266 -0.734934 5.064010 255 34 0 0.988487
-0.499664 -0.692156 5.090060 201 0 0 0.994120
-0.473079 -0.675223 5.098990 187 0 0 0.995187
-0.445990 -0.677751 5.095430 196 0 0 0.994581
-0.451049 -0.690601 5.086890 205 0 0 0.993957
-0.470940 -0.693960 5.086840 210 0 0 0.993699
-0.475650 -0.707119 5.079070 242 8 0 0.990886
-0.496421 -0.710660 5.078670 255 19 0 0.989960
-0.447120 -0.661510 5.110690 164 0 0 0.997157
-0.420561 -0.649704 5.123370 151 0 0 0.997937
-0.400910 -0.664704 5.109510 173 0 0 0.996516
-0.420051 -0.665734 5.107730 173 0 0 0.996392
-0.425687 -0.676350 5.096900 196 0 0 0.994531
-0.380850 -0.678950 5.097260 192 0 0 0.994845
-0.399719 -0.680045 5.095020 201 0 0 0.994113
-0.427503 -0.705102 5.076930 242 8 0 0.990939
-0.447457 -0.708679 5.076570 242 8 0 0.991107
-0.469942 -0.725487 5.069780 251 16 0 0.990247
-0.489185 -0.522889 5.237260 146 0 0 0.998502
-0.470769 -0.518164 5.244500 146 0 0 0.998382
-0.451980 -0.521756 5.245080 151 0 0 0.998160
-0.433886 -0.516428 5.251470 146 0 0 0.998350
-0.415362 -0.519568 5.251410 151 0 0 0.998142
-0.416145 -0.500587 5.261980 151 0 0 0.998258
-0.432423 -0.534224 5.239820 155 0 0 0.997916
-0.413738 -0.537550 5.239250 151 0 0 0.998213
-0.448653 -0.539854 5.232770 151 0 0 0.997958
-0.464895 -0.544996 5.225040 146 0 0 0.998413
-0.484113 -0.541258 5.224110 142 0 0 0.998662
-0.478183 -0.558623 5.209960 142 0 0 0.998912
-0.397663 -0.497966 5.269490 151 0 0 0.998262
-0.380409 -0.504158 5.271740 151 0 0 0.998098
-0.362214 -0.501674 5.278570 151 0 0 0.997982
-0.364159 -0.519789 5.269010 169 0 0 0.996643
-0.381309 -0.523145 5.261800 164 0 0 0.996953
-0.397737 -0.525984 5.253700 160 0 0 0.997380
-0.378965 -0.549170 5.244760 173 0 0 0.996269
-0.394198 -0.551965 5.236470 164 0 0 0.997245
-0.409317 -0.554059 5.227520 151 0 0 0.998038
-0.363231 -0.537945 5.257930 173 0 0 0.996472
-0.422573 -0.567170 5.213710 146 0 0 0.998536
-0.437108 -0.573106 5.206470 146 0 0 0.998341
-0.455638 -0.569774 5.205050 142 0 0 0.998750
-0.470477 -0.574503 5.197150 137 0 0 0.999154
-0.443649 -0.556860 5.219520 146 0 0 0.998306
-0.427506 -0.551920 5.227010 151 0 0 0.998024
-0.481426 -0.588201 5.182870 133 0 0 0.999400
-0.496637 -0.594099 5.175270 133 0 0 0.999417
-0.517308 -0.592217 5.174380 137 0 0 0.999262
-0.532959 -0.598401 5.166470 146 0 0 0.998531
-0.543384 -0.582837 5.180420 151 0 0 0.998027
-0.526549 -0.577095 5.187910 137 0 0 0.999018
-0.506268 -0.578912 5.189080 137 0 0 0.999200
-0.490176 -0.572825 5.196320 137 0 0 0.999222
-0.543004 -0.614144 5.153350 146 0 0 0.998418
-0.557973 -0.622628 5.147090 155 0 0 0.997693
-0.580202 -0.623662 5.147640 173 0 0 0.996444
-0.595770 -0.632452 5.141480 205 0 0 0.993792
-0.608499 -0.617582 5.155690 219 0 0 0.992929
-0.591712 -0.608978 5.162250 173 0 0 0.996516
-0.570243 -0.607790 5.161380 151 0 0 0.998017
-0.554075 -0.599305 5.167660 146 0 0 0.998440
-0.636830 -0.585813 5.190300 255 34 0 0.988409
-0.617976 -0.576455 5.195840 214 0 0 0.993026
-0.595108 -0.575943 5.193990 173 0 0 0.996446
-0.576557 -0.567566 5.199860 155 0 0 0.997840
-0.554166 -0.566637 5.197180 151 0 0 0.998236
-0.564070 -0.549414 5.212740 164 0 0 0.997026
-0.566640 -0.583571 5.183470 146 0 0 0.998355
-0.582590 -0.592433 5.177410 155 0 0 0.997920
-0.605983 -0.593201 5.179840 178 0 0 0.996144
-0.623040 -0.601764 5.172820 237 4 0 0.991476
-0.544849 -0.542931 5.219090 151 0 0 0.997994
-0.523734 -0.545246 5.218700 146 0 0 0.998470
-0.505100 -0.538873 5.224920 142 0 0 0.998644
-0.499479 -0.556415 5.211080 142 0 0 0.998868
-0.515719 -0.562640 5.203920 142 0 0 0.998945
-0.537412 -0.560042 5.204170 142 0 0 0.998803
-0.237500 -0.496400 5.342030 151 0 0 0.998184
-0.266955 -0.478314 5.324170 196 0 0 0.994786
-0.248945 -0.479687 5.336760 169 0 0 0.996810
-0.218820 -0.498992 5.352850 146 0 0 0.998491
-0.303139 -0.474799 5.311990 151 0 0 0.998050
-0.318218 -0.464775 5.308380 160 0 0 0.997430
-0.335324 -0.463381 5.300830 169 0 0 0.996727
-0.281772 -0.469285 5.321990 173 0 0 0.996420
-0.320018 -0.422012 5.321380 228 0 0 0.992047
-0.300890 -0.426001 5.328900 214 0 0 0.993101
-0.286085 -0.436622 5.331640 205 0 0 0.993996
-0.267138 -0.440018 5.337960 219 0 0 0.992710
-0.252404 -0.450193 5.339570 251 16 0 0.990422
-0.326467 -0.438057 5.312830 205 0 0 0.993738
-0.229535 -0.448011 5.357520 196 0 0 0.994488
-0.218581 -0.464427 5.361980 160 0 0 0.997504
-0.202891 -0.474271 5.368800 151 0 0 0.997950
-0.184205 -0.304164 5.440490 155 0 0 0.997785
-0.169761 -0.317297 5.446360 142 0 0 0.998817
-0.163815 -0.336750 5.443360 137 0 0 0.999104
-0.148624 -0.349110 5.446800 142 0 0 0.998646
-0.165910 -0.362696 5.431400 146 0 0 0.998613
-0.182568 -0.353312 5.427350 137 0 0 0.998970
-0.188584 -0.333834 5.429990 142 0 0 0.998915
-0.204638 -0.323541 5.424280 142 0 0 0.998669
-0.210264 -0.303617 5.426060 160 0 0 0.997457
-0.231404 -0.323468 5.410110 146 0 0 0.998353
-0.127647 -0.358231 5.460940 133 0 0 0.999480
-0.115700 -0.376426 5.465720 133 0 0 0.999595
-0.110799 -0.397523 5.462340 128 0 0 0.999661
-0.097617 -0.414648 5.465140 133 0 0 0.999402
-0.112075 -0.421737 5.450510 142 0 0 0.998873
-0.126591 -0.407948 5.447800 133 0 0 0.999591
-0.131779 -0.386753 5.451320 133 0 0 0.999453
-0.144843 -0.371443 5.446140 133 0 0 0.999385
-0.153873 -0.427586 5.420780 137 0 0 0.999252
-0.160941 -0.408690 5.423090 137 0 0 0.999241
-0.175813 -0.395744 5.416690 137 0 0 0.998965
-0.181888 -0.376257 5.416790 151 0 0 0.998161
-0.198089 -0.389956 5.401810 155 0 0 0.997912
-0.160100 -0.382376 5.431890 137 0 0 0.999199
-0.146913 -0.397571 5.437230 133 0 0 0.999347
-0.139682 -0.416422 5.435020 133 0 0 0.999426
-0.125056 -0.430335 5.437730 142 0 0 0.998665
-0.215952 -0.383580 5.397660 146 0 0 0.998549
-0.224492 -0.366938 5.400090 146 0 0 0.998419
-0.242541 -0.360016 5.394770 151 0 0 0.998234
-0.250976 -0.342980 5.395870 146 0 0 0.998562
-0.270273 -0.363009 5.381330 151 0 0 0.998042
-0.223182 -0.340439 5.409090 142 0 0 0.998677
-0.206927 -0.350305 5.414620 142 0 0 0.998746
-0.198568 -0.366987 5.412410 146 0 0 0.998501
-0.280918 -0.179306 5.472860 237 4 0 0.991536
-0.256452 -0.181751 5.478790 223 0 0 0.992432
-0.261835 -0.191604 5.466060 246 12 0 0.990724
-0.232646 -0.184522 5.484660 228 0 0 0.992215
-0.238092 -0.194570 5.472380 233 1 0 0.991648
-0.214996 -0.197619 5.478510 242 8 0 0.991152
-0.209528 -0.187609 5.490110 242 8 0 0.990928
-0.243578 -0.204876 5.460200 255 23 0 0.989511
-0.220453 -0.208028 5.466770 255 23 0 0.989552
-0.226042 -0.218497 5.455280 255 38 0 0.988009
-0.271356 -0.212406 5.444010 255 30 0 0.988839
-0.290128 -0.199530 5.449780 255 30 0 0.988936
-0.309550 -0.187136 5.456700 255 34 0 0.988562
-0.319003 -0.207661 5.434910 255 64 0 0.985519
-0.189541 -0.195949 5.495600 210 0 0 0.993527
-0.163955 -0.204203 5.503360 196 0 0 0.994492
-0.175716 -0.214812 5.489580 201 0 0 0.994324
-0.139095 -0.212077 5.509860 214 0 0 0.993186
-0.150795 -0.223113 5.497530 201 0 0 0.994150
-0.162514 -0.233846 5.484820 187 0 0 0.995216
-0.168185 -0.244341 5.474250 192 0 0 0.994905
-0.181172 -0.225214 5.479240 196 0 0 0.994664
-0.186786 -0.235682 5.468220 210 0 0 0.993404
-0.200373 -0.216429 5.472850 219 0 0 0.992784
-0.194965 -0.206155 5.484300 214 0 0 0.993050
-0.206025 -0.226987 5.461940 228 0 0 0.992002
-0.207612 -0.276959 5.436400 187 0 0 0.995388
-0.216849 -0.260534 5.439870 196 0 0 0.994688
-0.235691 -0.253207 5.432960 223 0 0 0.992601
-0.245732 -0.237007 5.436280 255 19 0 0.990039
-0.264976 -0.255631 5.416960 255 38 0 0.988239
-0.188126 -0.259641 5.455190 183 0 0 0.995541
-0.286710 -0.253613 5.412420 255 23 0 0.989563
-0.300005 -0.241345 5.416440 255 30 0 0.988967
-0.322463 -0.239808 5.412230 255 45 0 0.987412
-0.336332 -0.228211 5.417330 255 60 0 0.985868
-0.353602 -0.249371 5.400530 255 60 0 0.985788
