ply
format ascii 1.0
comment VCGLIB generated
element vertex 1043
property float x
property float y
property float z
property uchar red
property uchar green
property uchar blue
property float quality
end_header
-0.060563 0.040147 6.159950 0 0 164 0.999832
-0.109628 0.043811 6.165500 0 0 164 0.999837
-0.098340 0.041285 6.143990 0 0 192 0.999710
-0.117340 0.042010 6.136240 0 0 196 0.999682
-0.130056 0.045101 6.158080 0 0 173 0.999789
-0.122514 0.046783 6.187310 0 0 192 0.999707
-0.142689 0.048117 6.179690 0 0 205 0.999652
-0.134889 0.049112 6.208450 0 0 255 0.999389
-0.114825 0.047919 6.216270 0 0 246 0.999446
-0.154724 0.050355 6.200560 0 0 251 0.999429
-0.192473 0.045228 6.106200 0 0 228 0.999547
-0.206302 0.049441 6.128220 0 0 219 0.999592
-0.186194 0.047535 6.135240 0 0 183 0.999758
-0.199934 0.051177 6.156700 0 0 223 0.999569
-0.219849 0.052862 6.149490 0 0 255 0.999417
-0.179880 0.049464 6.163860 0 0 196 0.999680
-0.213129 0.053681 6.177330 0 17 255 0.999244
-0.193100 0.052379 6.184910 0 1 255 0.999330
-0.206038 0.053912 6.205230 0 85 255 0.998841
-0.233003 0.055088 6.169790 0 41 255 0.999113
-0.225906 0.054974 6.197420 0 89 255 0.998819
-0.245579 0.056187 6.189650 0 105 255 0.998722
-0.173187 0.050974 6.192450 0 0 255 0.999420
-0.186188 0.052805 6.213020 0 85 255 0.998855
-0.161411 0.048695 6.171730 0 0 187 0.999731
-0.149090 0.045767 6.150490 0 0 169 0.999802
-0.167782 0.046552 6.142840 0 0 173 0.999793
-0.155338 0.043276 6.121270 0 0 196 0.999695
-0.136525 0.042608 6.128730 0 0 196 0.999697
-0.174000 0.044145 6.113800 0 0 205 0.999653
-0.256530 0.052600 6.210000 0 0 233 0.999515
-0.235970 0.051174 6.217540 0 0 214 0.999596
-0.246628 0.047231 6.238350 0 0 164 0.999826
-0.266873 0.048706 6.230400 0 0 173 0.999791
-0.226105 0.045825 6.246200 0 0 160 0.999850
-0.257134 0.043816 6.259180 0 0 173 0.999788
-0.236689 0.042065 6.267180 0 0 164 0.999827
-0.277037 0.045330 6.250960 0 0 183 0.999751
-0.216133 0.040496 6.275330 0 0 151 0.999881
-0.206477 0.044844 6.254470 0 0 160 0.999843
-0.196496 0.049026 6.233680 0 0 219 0.999578
-0.216223 0.050040 6.225580 0 0 214 0.999604
-0.095246 -0.009464 5.935350 0 0 210 0.999615
-0.106483 -0.001859 5.956580 0 0 155 0.999861
-0.089306 -0.001366 5.965220 0 0 160 0.999845
-0.100802 0.005993 5.986320 0 0 142 0.999922
-0.118010 0.005591 5.977980 0 0 142 0.999928
-0.083022 0.006521 5.994870 0 0 151 0.999896
-0.112137 0.013300 6.007750 0 0 142 0.999922
-0.094548 0.013612 6.016160 0 0 142 0.999929
-0.106025 0.020969 6.037060 0 0 164 0.999831
-0.129493 0.013070 5.999290 0 0 146 0.999920
-0.123616 0.020812 6.028670 0 0 164 0.999830
-0.140996 0.020759 6.020260 0 0 178 0.999776
-0.076902 0.014215 6.024350 0 0 146 0.999909
-0.088446 0.021461 6.045490 0 0 169 0.999814
-0.070748 0.022066 6.053870 0 0 178 0.999774
-0.059687 0.015390 6.033710 0 0 146 0.999912
-0.066029 0.007575 6.004220 0 0 142 0.999921
-0.048760 0.008823 6.013510 0 0 151 0.999893
-0.055214 0.000797 5.984060 0 0 173 0.999798
-0.072181 -0.000390 5.974630 0 0 160 0.999852
-0.061521 -0.007764 5.954380 0 0 192 0.999718
-0.037936 0.002108 5.993450 0 0 183 0.999745
-0.044417 -0.006680 5.963810 0 0 196 0.999688
-0.027185 -0.005427 5.973450 0 0 242 0.999481
-0.078568 -0.008710 5.944890 0 0 187 0.999719
-0.153296 0.026214 6.041800 0 0 142 0.999929
-0.134922 0.025640 6.049410 0 0 137 0.999947
-0.147530 0.031378 6.070890 0 0 137 0.999950
-0.166194 0.032101 6.063480 0 0 142 0.999932
-0.128922 0.030862 6.078290 0 0 137 0.999958
-0.160614 0.037520 6.092210 0 0 151 0.999897
-0.141878 0.036813 6.099640 0 0 146 0.999916
-0.179286 0.038482 6.084950 0 0 160 0.999857
-0.123088 0.036246 6.107250 0 0 142 0.999927
-0.105197 0.036381 6.115760 0 0 146 0.999907
-0.111281 0.030987 6.086710 0 0 137 0.999959
-0.093472 0.031208 6.095440 0 0 137 0.999952
-0.099881 0.026038 6.066220 0 0 137 0.999947
-0.117368 0.025790 6.057900 0 0 137 0.999951
-0.082170 0.026404 6.074790 0 0 142 0.999936
-0.048905 0.034824 6.139610 0 0 133 0.999966
-0.038393 0.030469 6.119690 0 0 133 0.999969
-0.056031 0.030463 6.111210 0 0 133 0.999968
-0.028060 0.026615 6.099520 0 0 137 0.999953
-0.045738 0.026448 6.091110 0 0 137 0.999959
-0.035341 0.022868 6.070790 0 0 173 0.999792
-0.017599 0.023312 6.079170 0 0 178 0.999769
-0.063503 0.026274 6.082640 0 0 142 0.999940
-0.052947 0.022391 6.062290 0 0 164 0.999827
-0.074836 0.030823 6.103370 0 0 137 0.999958
-0.086379 0.035861 6.123700 0 0 146 0.999919
-0.067622 0.035347 6.131680 0 0 137 0.999947
-0.006530 0.017298 6.058760 0 0 173 0.999787
0.003956 0.011439 6.039430 0 0 183 0.999757
-0.013136 0.010382 6.030200 0 0 192 0.999718
0.014200 0.004852 6.020660 0 0 210 0.999621
-0.002995 0.003949 6.011220 0 0 201 0.999660
0.007132 -0.003595 5.992510 0 0 233 0.999522
0.024224 -0.002762 6.002140 0 0 210 0.999617
-0.020148 0.002816 6.001800 0 0 205 0.999637
-0.010239 -0.004529 5.982920 0 0 223 0.999567
-0.030986 0.009596 6.021940 0 0 169 0.999814
-0.041878 0.016010 6.042210 0 0 151 0.999882
-0.024303 0.016688 6.050540 0 0 164 0.999828
0.090662 0.043077 6.256030 0 0 133 0.999970
0.069778 0.042814 6.245730 0 0 137 0.999958
0.059153 0.044440 6.266120 0 0 155 0.999878
0.048662 0.042261 6.235430 0 0 133 0.999966
0.038166 0.044146 6.255800 0 0 160 0.999858
0.017196 0.043647 6.245520 0 0 151 0.999896
0.027562 0.041835 6.225160 0 0 137 0.999958
0.027482 0.045859 6.276080 0 0 223 0.999572
0.006184 0.045400 6.265840 0 0 196 0.999682
-0.005103 0.046322 6.286280 0 1 255 0.999329
0.016180 0.046652 6.295750 0 45 255 0.999078
0.048243 0.046129 6.285600 0 0 237 0.999498
0.037153 0.047027 6.305190 0 41 255 0.999093
0.068691 0.046332 6.295340 0 0 219 0.999590
0.079682 0.044486 6.275750 0 0 151 0.999895
0.057780 0.047437 6.314820 0 81 255 0.998880
0.007539 0.042069 6.216680 0 0 146 0.999917
-0.012505 0.042115 6.207650 0 0 151 0.999900
-0.023734 0.044285 6.228790 0 0 178 0.999760
-0.032780 0.042164 6.198500 0 0 151 0.999898
-0.044087 0.044354 6.219720 0 0 169 0.999815
-0.055556 0.046150 6.240970 0 0 242 0.999480
-0.066525 0.047154 6.261390 0 25 255 0.999201
-0.034939 0.045952 6.249380 0 0 237 0.999498
-0.046030 0.046916 6.269730 0 69 255 0.998954
-0.014314 0.045774 6.257560 0 0 233 0.999521
-0.003177 0.044063 6.237130 0 0 164 0.999822
-0.025578 0.046643 6.278050 0 33 255 0.999148
-0.098560 0.033708 6.325820 0 0 155 0.999862
-0.078734 0.033353 6.334010 0 0 155 0.999866
-0.067742 0.038358 6.312860 0 0 178 0.999764
-0.058857 0.032797 6.341920 0 0 155 0.999875
-0.047784 0.038193 6.320780 0 0 187 0.999736
-0.027738 0.037821 6.328580 0 0 187 0.999736
-0.039178 0.032071 6.349840 0 0 155 0.999867
-0.036609 0.042816 6.299800 0 0 214 0.999604
-0.016571 0.042633 6.307640 0 0 228 0.999538
-0.056831 0.043057 6.291340 0 0 242 0.999484
-0.077330 0.043308 6.282720 0 0 201 0.999657
-0.088128 0.038805 6.304030 0 0 164 0.999834
-0.018271 0.032150 6.359210 0 0 169 0.999814
0.002104 0.032532 6.367880 0 0 196 0.999677
0.014260 0.038335 6.347530 0 0 219 0.999576
0.022439 0.032731 6.376370 0 0 196 0.999692
0.034523 0.038655 6.356020 0 0 233 0.999525
0.046631 0.043831 6.335930 0 0 255 0.999352
0.025756 0.043453 6.326430 0 9 255 0.999293
0.004611 0.042983 6.317000 0 0 255 0.999338
-0.006813 0.038023 6.338050 0 0 219 0.999591
-0.309435 0.043169 6.263640 0 0 237 0.999501
-0.314681 0.035011 6.287090 0 0 164 0.999840
-0.336380 0.036267 6.278920 0 0 160 0.999842
-0.331029 0.044276 6.255850 0 0 242 0.999482
-0.341885 0.028870 6.302890 0 0 155 0.999871
-0.357110 0.037650 6.270920 0 0 169 0.999803
-0.362785 0.030220 6.294570 0 0 160 0.999848
-0.383240 0.031256 6.286510 0 0 169 0.999810
-0.351787 0.045571 6.248550 0 0 255 0.999371
-0.377687 0.038874 6.263250 0 0 183 0.999742
-0.372234 0.047015 6.241540 0 29 255 0.999179
-0.368478 0.023213 6.319290 0 0 205 0.999646
-0.388844 0.023952 6.310800 0 0 196 0.999680
-0.394467 0.016717 6.335320 0 53 255 0.999029
-0.375506 0.015744 6.343580 0 53 255 0.999039
-0.348951 0.021293 6.327100 0 0 178 0.999773
-0.356428 0.014186 6.351570 0 29 255 0.999174
-0.329151 0.019467 6.335040 0 0 164 0.999835
-0.321692 0.026895 6.310370 0 0 146 0.999913
-0.336746 0.012331 6.359880 0 9 255 0.999290
-0.395745 0.048476 6.232880 0 57 255 0.999003
-0.395660 0.040363 6.258460 0 0 228 0.999537
-0.418919 0.041487 6.249720 0 0 255 0.999398
-0.419437 0.050569 6.224610 0 89 255 0.998832
-0.418685 0.033468 6.276070 0 0 233 0.999511
-0.441676 0.042956 6.240850 0 0 251 0.999444
-0.441444 0.033752 6.266480 0 0 214 0.999613
-0.464262 0.034735 6.256960 0 0 192 0.999705
-0.442257 0.052936 6.216510 0 141 255 0.998511
-0.464867 0.045026 6.232040 0 0 255 0.999396
-0.465654 0.055918 6.208500 0 141 255 0.998504
-0.441152 0.025657 6.292820 0 17 255 0.999236
-0.463478 0.025222 6.282310 0 0 219 0.999587
-0.462660 0.016561 6.308330 0 77 255 0.998899
-0.446040 0.017174 6.315190 0 97 255 0.998791
-0.423887 0.025189 6.298870 0 0 255 0.999411
-0.429082 0.017195 6.321810 0 61 255 0.998988
-0.406782 0.024738 6.304870 0 0 228 0.999542
-0.401285 0.032506 6.281200 0 0 196 0.999688
-0.412189 0.017183 6.328540 0 73 255 0.998911
-0.445565 -0.020361 6.386170 0 33 255 0.999160
-0.430950 -0.019583 6.393990 0 29 255 0.999178
-0.428530 -0.007333 6.369930 0 0 242 0.999479
-0.416435 -0.019495 6.402140 0 9 255 0.999292
-0.414061 -0.007170 6.377690 0 0 237 0.999507
-0.399138 -0.007906 6.384680 0 0 210 0.999630
-0.401500 -0.020351 6.409840 0 0 246 0.999464
-0.411442 0.004682 6.352990 0 0 233 0.999519
-0.396670 0.004046 6.359740 0 0 219 0.999588
-0.428665 0.004783 6.345770 0 0 255 0.999374
-0.445880 0.004245 6.338240 0 0 237 0.999505
-0.445444 -0.008174 6.362040 0 0 246 0.999446
-0.462381 -0.009381 6.353760 0 0 219 0.999582
-0.462755 0.003510 6.331050 0 0 246 0.999451
-0.462394 -0.021910 6.377080 0 45 255 0.999091
-0.383168 -0.021781 6.419600 0 0 223 0.999558
-0.366566 -0.023032 6.427820 0 0 255 0.999407
-0.362040 -0.010685 6.403400 0 0 196 0.999681
-0.349910 -0.025027 6.435680 0 0 223 0.999566
-0.344860 -0.012313 6.410540 0 0 192 0.999712
-0.339726 0.000190 6.385880 0 0 219 0.999573
-0.359285 0.002140 6.377710 0 0 242 0.999478
-0.378215 0.003210 6.368650 0 0 223 0.999557
-0.380699 -0.008910 6.394130 0 0 205 0.999640
-0.484923 0.054539 6.212220 0 133 255 0.998559
-0.498575 0.043507 6.233310 0 0 251 0.999429
-0.504037 0.053036 6.215130 0 85 255 0.998854
-0.493286 0.034665 6.252390 0 0 219 0.999586
-0.517684 0.041251 6.236240 0 0 210 0.999625
-0.512091 0.031884 6.254870 0 0 205 0.999646
-0.531470 0.029698 6.257530 0 0 187 0.999727
-0.523362 0.051653 6.218140 0 77 255 0.998888
-0.537127 0.039571 6.239210 0 0 233 0.999517
-0.543509 0.050602 6.221550 0 121 255 0.998640
-0.506921 0.023751 6.274300 0 0 237 0.999509
-0.526102 0.020760 6.276540 0 0 246 0.999463
-0.520682 0.012289 6.295630 0 45 255 0.999082
-0.491730 0.014541 6.301750 0 49 255 0.999049
-0.565799 0.037300 6.239780 0 0 237 0.999502
-0.573861 0.047089 6.223020 0 53 255 0.999043
-0.558022 0.027556 6.256500 0 0 192 0.999702
-0.588071 0.023711 6.258710 0 0 196 0.999690
-0.596475 0.034424 6.241780 0 0 251 0.999428
-0.605450 0.044993 6.224690 0 109 255 0.998697
-0.565333 0.015875 6.274260 0 0 205 0.999652
-0.572918 0.005290 6.292480 0 21 255 0.999218
-0.546491 0.007858 6.293590 0 1 255 0.999318
-0.546841 -0.035255 6.346550 0 0 255 0.999376
-0.538418 -0.019477 6.330400 0 0 251 0.999441
-0.525568 -0.030781 6.353540 0 49 255 0.999050
-0.516514 -0.016070 6.335970 0 5 255 0.999295
-0.529774 -0.003805 6.313180 0 0 242 0.999486
-0.555501 -0.007972 6.310990 0 0 223 0.999559
-0.564319 -0.024592 6.327560 0 0 223 0.999558
-0.500112 -0.026925 6.361370 0 41 255 0.999103
-0.487836 -0.012129 6.344280 0 0 255 0.999416
-0.489779 0.000899 6.322560 0 0 255 0.999341
-0.297811 0.045753 6.241640 0 0 160 0.999846
-0.287911 0.049023 6.221570 0 0 160 0.999853
-0.308544 0.049323 6.213030 0 0 160 0.999860
-0.277661 0.052882 6.201580 0 0 205 0.999648
-0.298253 0.053261 6.193480 0 0 192 0.999709
-0.288019 0.057036 6.173800 0 61 255 0.998988
-0.266981 0.056693 6.181600 0 81 255 0.998872
-0.318741 0.053943 6.185550 0 0 192 0.999712
-0.308393 0.057745 6.166040 0 69 255 0.998944
-0.328603 0.058609 6.158370 0 89 255 0.998823
-0.339818 0.055393 6.179120 0 0 223 0.999559
-0.329993 0.050760 6.206370 0 0 160 0.999845
-0.350680 0.052528 6.199700 0 0 187 0.999728
-0.340993 0.048097 6.227200 0 0 178 0.999771
-0.319862 0.046673 6.234180 0 0 160 0.999842
-0.361417 0.049776 6.220480 0 0 214 0.999611
-0.252434 0.054691 6.160480 0 0 255 0.999394
-0.239514 0.052642 6.140300 0 0 219 0.999576
-0.258783 0.052761 6.131240 0 0 214 0.999607
-0.226218 0.049594 6.119270 0 0 201 0.999657
-0.245763 0.049872 6.110200 0 0 201 0.999658
-0.232471 0.046073 6.088480 0 0 233 0.999524
-0.212679 0.045642 6.097340 0 0 223 0.999553
-0.264908 0.050284 6.101230 0 0 210 0.999616
-0.251669 0.046480 6.079660 0 0 233 0.999521
-0.270495 0.047110 6.070990 0 5 255 0.999304
-0.285689 0.052015 6.094120 0 0 255 0.999422
-0.280019 0.054086 6.123760 0 0 242 0.999474
-0.300701 0.055510 6.116490 0 17 255 0.999246
-0.294456 0.056479 6.145210 0 17 255 0.999242
-0.273605 0.055543 6.152790 0 0 255 0.999342
-0.314935 0.057551 6.137870 0 45 255 0.999079
-0.342571 0.045827 6.031910 0 0 251 0.999433
-0.359029 0.051538 6.055340 0 0 242 0.999471
-0.339826 0.050235 6.064650 0 0 196 0.999680
-0.355672 0.054417 6.087550 0 0 210 0.999618
-0.374698 0.055740 6.078070 0 0 228 0.999531
-0.336703 0.053887 6.096660 0 0 214 0.999603
-0.370761 0.057439 6.109530 0 0 228 0.999539
-0.352002 0.056794 6.118760 0 0 246 0.999447
-0.366483 0.058605 6.139690 0 13 255 0.999264
-0.389555 0.058724 6.100160 0 0 210 0.999621
-0.384969 0.059350 6.130450 0 0 251 0.999437
-0.403449 0.060775 6.121240 0 0 223 0.999566
-0.333021 0.056524 6.128020 0 0 255 0.999379
-0.347662 0.058352 6.148820 0 49 255 0.999059
-0.318850 0.054485 6.106520 0 0 228 0.999531
-0.303991 0.051022 6.084300 0 0 233 0.999526
-0.321999 0.050518 6.074530 0 0 205 0.999649
-0.306990 0.045827 6.051540 0 0 242 0.999479
-0.288821 0.046325 6.061250 0 0 242 0.999480
-0.324800 0.045533 6.041700 0 0 233 0.999524
-0.419465 0.060075 6.143630 0 0 183 0.999741
-0.395664 0.056172 6.150850 0 0 164 0.999835
-0.411406 0.055282 6.172990 0 0 173 0.999783
-0.434977 0.059176 6.165750 0 0 201 0.999666
-0.387841 0.052313 6.180370 0 0 187 0.999738
-0.426834 0.054266 6.194740 0 0 246 0.999447
-0.403439 0.051416 6.202570 0 0 210 0.999628
-0.450374 0.057747 6.186970 0 5 255 0.999303
-0.380035 0.049165 6.210570 0 0 187 0.999730
-0.369600 0.052217 6.190200 0 0 169 0.999813
-0.358833 0.055117 6.169510 0 0 192 0.999717
-0.377422 0.055381 6.160170 0 0 173 0.999793
-0.311780 0.037967 6.019950 0 0 173 0.999795
-0.293656 0.038286 6.029800 0 0 164 0.999828
-0.280380 0.030492 6.007700 0 0 142 0.999934
-0.275513 0.038808 6.039620 0 0 169 0.999806
-0.262086 0.031143 6.017550 0 0 137 0.999951
-0.243628 0.031936 6.027300 0 0 142 0.999934
-0.257195 0.039567 6.049300 0 0 173 0.999786
-0.248563 0.023655 5.995100 0 0 133 0.999975
-0.230025 0.024610 6.004890 0 0 133 0.999964
-0.216469 0.017764 5.982090 0 0 151 0.999900
-0.234799 0.016360 5.972390 0 0 137 0.999943
-0.266692 0.022511 5.985290 0 0 128 0.999983
-0.252900 0.015034 5.962670 0 0 133 0.999966
-0.284516 0.021662 5.975320 0 0 128 0.999983
-0.298142 0.029785 5.997760 0 0 137 0.999946
-0.316012 0.029516 5.987810 0 0 142 0.999923
-0.270974 0.014086 5.952700 0 0 133 0.999961
-0.302455 0.021148 5.965200 0 0 133 0.999969
-0.288994 0.013409 5.942480 0 0 146 0.999914
-0.329420 0.037881 6.010060 0 0 164 0.999833
-0.238807 0.039531 6.058640 0 0 169 0.999806
-0.219414 0.038998 6.067290 0 0 160 0.999854
-0.206377 0.032099 6.045960 0 0 137 0.999956
-0.199526 0.038710 6.076190 0 0 155 0.999868
-0.186482 0.031980 6.054710 0 0 137 0.999954
-0.173453 0.025810 6.033020 0 0 137 0.999950
-0.160338 0.019620 6.010510 0 0 151 0.999883
-0.192895 0.025196 6.023580 0 0 133 0.999974
-0.179518 0.018770 6.000870 0 0 146 0.999903
-0.211647 0.024740 6.014210 0 0 133 0.999978
-0.225323 0.031919 6.036570 0 0 137 0.999952
-0.198192 0.018114 5.991530 0 0 142 0.999935
-0.114237 -0.011157 5.925050 0 0 178 0.999779
-0.125556 -0.003398 5.946730 0 0 146 0.999906
-0.144281 -0.004939 5.936720 0 0 137 0.999951
-0.132812 -0.012646 5.914750 0 0 160 0.999853
-0.156046 0.002987 5.958470 0 0 133 0.999965
-0.162718 -0.006183 5.926670 0 0 133 0.999966
-0.174553 0.001844 5.948680 0 0 133 0.999977
-0.192592 0.001041 5.938900 0 0 128 0.999981
-0.151068 -0.013881 5.904680 0 0 151 0.999888
-0.180742 -0.007057 5.916850 0 0 133 0.999966
-0.169043 -0.014783 5.894870 0 0 155 0.999875
-0.186349 0.010030 5.970280 0 0 133 0.999967
-0.204545 0.009315 5.960540 0 0 133 0.999965
-0.167755 0.010835 5.979780 0 0 133 0.999965
-0.148778 0.011845 5.989440 0 0 137 0.999944
-0.137168 0.004103 5.968060 0 0 133 0.999963
-0.187477 -0.016530 5.885430 0 0 133 0.999971
-0.198958 -0.008737 5.907190 0 0 128 0.999988
-0.217177 -0.010208 5.897680 0 0 128 0.999990
-0.205718 -0.018007 5.875840 0 0 128 0.999985
-0.228716 -0.001993 5.919320 0 0 128 0.999987
-0.235644 -0.011363 5.888020 0 0 128 0.999992
-0.247188 -0.003069 5.909700 0 0 128 0.999990
-0.265807 -0.003902 5.899900 0 0 128 0.999988
-0.224173 -0.019132 5.866270 0 0 128 0.999987
-0.254186 -0.012158 5.878260 0 0 128 0.999989
-0.242577 -0.019872 5.856520 0 0 137 0.999959
-0.258814 0.005366 5.931040 0 0 128 0.999989
-0.277322 0.004702 5.921420 0 0 133 0.999974
-0.240575 0.006346 5.940900 0 0 128 0.999986
-0.222620 0.007709 5.950710 0 0 128 0.999984
-0.210742 -0.000632 5.929090 0 0 128 0.999988
-0.359157 0.044373 6.020860 0 0 183 0.999752
-0.375363 0.050698 6.041910 0 0 223 0.999559
-0.392005 0.049858 6.030590 0 0 192 0.999710
-0.375827 0.043294 6.009290 0 0 192 0.999699
-0.407309 0.054952 6.051420 0 0 196 0.999682
-0.408999 0.049399 6.018720 0 0 192 0.999706
-0.424175 0.054947 6.039470 0 0 178 0.999766
-0.441977 0.055913 6.026910 0 0 210 0.999628
-0.392912 0.042648 5.997430 0 0 183 0.999759
-0.426504 0.049935 6.006310 0 0 210 0.999622
-0.410477 0.042397 5.985220 0 0 201 0.999665
-0.438967 0.059633 6.059740 0 0 173 0.999795
-0.456931 0.060682 6.047380 0 0 173 0.999798
-0.471574 0.064639 6.067470 0 0 196 0.999680
-0.453606 0.062857 6.081760 0 0 169 0.999806
-0.421889 0.058738 6.073840 0 0 183 0.999758
-0.436302 0.061450 6.095430 0 0 187 0.999729
-0.405590 0.058316 6.087220 0 0 178 0.999772
-0.390951 0.055130 6.065050 0 0 187 0.999736
-0.419761 0.060661 6.108660 0 0 173 0.999788
-0.427969 0.040720 5.972690 0 0 160 0.999857
-0.443188 0.048333 5.990380 0 0 210 0.999628
-0.461982 0.047073 5.976900 0 0 205 0.999645
-0.446841 0.039318 5.959360 0 0 183 0.999749
-0.476638 0.053793 5.994480 0 1 255 0.999326
-0.481873 0.045303 5.963000 0 0 246 0.999447
-0.496522 0.052004 5.980570 0 0 242 0.999478
-0.516630 0.049520 5.966300 0 29 255 0.999172
-0.466490 0.037616 5.945490 0 0 201 0.999667
-0.502318 0.042721 5.948510 0 0 255 0.999374
-0.487100 0.035289 5.930760 0 25 255 0.999183
-0.510932 0.057948 5.998200 0 37 255 0.999128
-0.531359 0.055617 5.984050 0 29 255 0.999161
-0.545562 0.061161 6.001610 0 109 255 0.998714
-0.526028 0.063070 6.018970 0 13 255 0.999268
-0.492083 0.059528 6.015190 0 0 223 0.999560
-0.506832 0.064018 6.035920 0 0 201 0.999671
-0.473762 0.060164 6.031840 0 0 196 0.999688
-0.458630 0.054917 6.011170 0 0 214 0.999594
-0.488741 0.064585 6.052080 0 0 173 0.999781
-0.606927 0.070304 6.053350 22 255 226 0.997734
-0.587687 0.072045 6.072280 0 101 255 0.998761
-0.572023 0.070515 6.057890 0 0 255 0.999366
-0.553526 0.071365 6.076430 0 0 228 0.999538
-0.569008 0.072810 6.090670 0 1 255 0.999321
-0.537167 0.069258 6.062300 0 0 205 0.999651
-0.535233 0.071075 6.094880 0 0 201 0.999663
-0.519748 0.069600 6.080100 0 0 210 0.999617
-0.502795 0.068889 6.097820 0 0 242 0.999487
-0.550800 0.072627 6.108610 0 0 255 0.999355
-0.518431 0.070749 6.111950 0 0 246 0.999449
-0.533386 0.071638 6.126130 0 0 255 0.999386
-0.503893 0.067247 6.065280 0 0 173 0.999795
-0.487641 0.067078 6.082890 0 0 201 0.999662
-0.522470 0.067106 6.049170 0 0 219 0.999574
-0.541393 0.066023 6.032810 0 0 246 0.999453
-0.557024 0.068606 6.045330 0 0 255 0.999366
-0.577126 0.066852 6.028480 0 53 255 0.999025
-0.561382 0.064199 6.015320 0 81 255 0.998874
-0.591912 0.068818 6.041190 0 133 255 0.998559
-0.514641 0.065973 6.147520 0 0 183 0.999755
-0.499267 0.067793 6.126510 0 0 237 0.999499
-0.482145 0.063358 6.147030 0 0 173 0.999798
-0.497418 0.061370 6.168050 0 0 201 0.999673
-0.466681 0.064699 6.125640 0 0 205 0.999640
-0.465961 0.060187 6.167120 0 0 201 0.999672
-0.450556 0.061389 6.145850 0 0 173 0.999797
-0.481012 0.057694 6.188520 0 0 255 0.999406
-0.434704 0.062334 6.123990 0 0 210 0.999631
-0.451701 0.063188 6.110710 0 0 178 0.999773
-0.469307 0.064892 6.097280 0 0 183 0.999755
-0.484269 0.066582 6.112150 0 0 192 0.999716
-0.259986 -0.021764 5.847980 0 0 128 0.999994
-0.271473 -0.014209 5.868720 0 0 128 0.999990
-0.289144 -0.015732 5.859940 0 0 133 0.999980
-0.277759 -0.023270 5.839130 0 0 128 0.999996
-0.300519 -0.007736 5.880390 0 0 133 0.999970
-0.307339 -0.016950 5.850550 0 0 128 0.999984
-0.318628 -0.008992 5.871040 0 0 133 0.999975
-0.336938 -0.009858 5.861370 0 0 128 0.999983
-0.296027 -0.024442 5.829880 0 0 128 0.999995
-0.325923 -0.017845 5.840830 0 0 128 0.999984
-0.314699 -0.025236 5.820450 0 0 133 0.999964
-0.329549 -0.000590 5.891520 0 0 133 0.999973
-0.347837 -0.001487 5.881670 0 0 128 0.999983
-0.358499 0.007358 5.902050 0 0 137 0.999960
-0.340605 0.008352 5.912800 0 0 128 0.999984
-0.311990 0.000763 5.901840 0 0 133 0.999976
-0.323157 0.009621 5.923020 0 0 128 0.999986
-0.294659 0.002475 5.911670 0 0 128 0.999989
-0.283098 -0.006017 5.890260 0 0 128 0.999985
-0.306014 0.011259 5.932800 0 0 128 0.999982
-0.333091 -0.027265 5.811610 0 0 128 0.999992
-0.343827 -0.020142 5.830830 0 0 128 0.999982
-0.362941 -0.022008 5.821240 0 0 133 0.999975
-0.352305 -0.029070 5.802250 0 0 128 0.999991
-0.373448 -0.014384 5.840220 0 0 137 0.999958
-0.382926 -0.023851 5.811120 0 0 133 0.999966
-0.393410 -0.016282 5.829970 0 0 137 0.999956
-0.414425 -0.018260 5.819100 0 0 142 0.999921
-0.372341 -0.030849 5.792370 0 0 128 0.999984
-0.403867 -0.025698 5.800480 0 0 142 0.999932
-0.393162 -0.032633 5.781970 0 0 142 0.999929
-0.404228 -0.008109 5.848680 0 0 137 0.999949
-0.425203 -0.010047 5.837780 0 0 146 0.999909
-0.436185 -0.001167 5.856720 0 0 160 0.999842
-0.415391 0.001116 5.868930 0 0 137 0.999947
-0.384281 -0.005909 5.860460 0 0 133 0.999964
-0.395176 0.003148 5.880780 0 0 133 0.999970
-0.365488 -0.003812 5.871460 0 0 128 0.999981
-0.354676 -0.012262 5.851180 0 0 133 0.999972
-0.376267 0.005097 5.891590 0 0 128 0.999981
-0.454076 0.028261 5.925160 0 0 173 0.999793
-0.434130 0.030150 5.939170 0 0 146 0.999908
-0.421039 0.020703 5.918470 0 0 142 0.999938
-0.415419 0.031803 5.952290 0 0 137 0.999954
-0.402256 0.022650 5.931580 0 0 133 0.999970
-0.384551 0.024526 5.943980 0 0 137 0.999951
-0.397727 0.033728 5.964830 0 0 151 0.999897
-0.389086 0.013474 5.910520 0 0 133 0.999972
-0.371383 0.015597 5.922880 0 0 133 0.999975
-0.408133 0.011720 5.899620 0 0 133 0.999962
-0.428291 0.009634 5.887700 0 0 142 0.999934
-0.441203 0.018724 5.906500 0 0 142 0.999929
-0.462306 0.016748 5.894290 0 0 173 0.999799
-0.449251 0.007529 5.875480 0 0 155 0.999876
-0.474967 0.026087 5.912700 0 0 201 0.999669
-0.379845 0.034104 5.975680 0 0 146 0.999903
-0.362727 0.034869 5.987530 0 0 151 0.999897
-0.349357 0.026098 5.965140 0 0 137 0.999947
-0.346026 0.036250 5.999020 0 0 146 0.999914
-0.332583 0.027654 5.976570 0 0 133 0.999969
-0.319215 0.019153 5.953930 0 0 133 0.999975
-0.336167 0.017481 5.943960 0 0 133 0.999968
-0.353609 0.016428 5.933750 0 0 133 0.999976
-0.366639 0.025085 5.954860 0 0 137 0.999956
-0.495201 0.022274 5.901890 0 0 192 0.999711
-0.482754 0.013123 5.883590 0 0 151 0.999888
-0.503348 0.008895 5.872870 0 0 160 0.999859
-0.469649 0.004038 5.865040 0 0 151 0.999895
-0.490339 -0.000089 5.854470 0 0 146 0.999904
-0.476671 -0.008578 5.836120 0 0 151 0.999881
-0.456212 -0.004820 5.846190 0 0 151 0.999894
-0.510538 -0.004775 5.844220 0 0 155 0.999875
-0.497441 -0.012923 5.825920 0 0 160 0.999854
-0.517889 -0.017886 5.815800 0 0 183 0.999749
-0.529701 -0.010313 5.833020 0 0 178 0.999778
-0.522470 0.003215 5.861080 0 0 160 0.999858
-0.541953 -0.002224 5.849910 0 0 192 0.999717
-0.534356 0.011591 5.877960 0 0 173 0.999780
-0.514964 0.017172 5.889700 0 0 173 0.999789
-0.526363 0.025592 5.906440 0 0 219 0.999579
-0.553491 0.005558 5.866550 0 0 201 0.999657
-0.545582 0.019435 5.894400 0 0 201 0.999673
-0.564836 0.013397 5.883180 0 0 233 0.999525
-0.507099 0.030806 5.918430 0 0 242 0.999478
-0.445551 -0.013421 5.828470 0 0 142 0.999921
-0.435010 -0.021615 5.809800 0 0 142 0.999936
-0.455595 -0.025124 5.800520 0 0 146 0.999919
-0.424293 -0.029126 5.791180 0 0 142 0.999938
-0.444997 -0.032630 5.781870 0 0 142 0.999927
-0.434279 -0.039408 5.763480 0 0 142 0.999921
-0.413772 -0.035892 5.772640 0 0 142 0.999927
-0.465996 -0.036508 5.772650 0 0 146 0.999908
-0.455548 -0.043359 5.754180 0 0 151 0.999890
-0.476495 -0.047635 5.745190 0 0 160 0.999841
-0.486700 -0.041103 5.762780 0 0 164 0.999829
-0.476504 -0.029364 5.790250 0 0 151 0.999892
-0.497018 -0.033966 5.780390 0 0 169 0.999813
-0.486860 -0.021479 5.808000 0 0 155 0.999880
-0.466129 -0.017115 5.818290 0 0 146 0.999911
-0.507535 -0.026205 5.797970 0 0 173 0.999784
-0.557045 -0.074498 5.715610 0 0 201 0.999670
-0.566412 -0.068405 5.732080 0 0 183 0.999740
-0.547858 -0.061108 5.739840 0 0 155 0.999861
-0.557212 -0.054441 5.756520 0 0 155 0.999867
-0.575793 -0.062063 5.748860 0 0 164 0.999831
-0.537487 -0.047052 5.764830 0 0 146 0.999907
-0.566511 -0.047460 5.773440 0 0 146 0.999910
-0.547316 -0.039697 5.781830 0 0 146 0.999916
-0.556957 -0.031979 5.798750 0 0 151 0.999898
-0.584603 -0.055006 5.765650 0 0 160 0.999851
-0.575659 -0.039840 5.790330 0 0 151 0.999887
-0.594056 -0.047651 5.782580 0 0 169 0.999802
-0.527763 -0.032749 5.789920 0 0 151 0.999882
-0.537644 -0.024690 5.807290 0 0 155 0.999866
-0.517451 -0.040415 5.772290 0 0 155 0.999879
-0.507246 -0.047451 5.754850 0 0 155 0.999880
-0.527596 -0.054034 5.747220 0 0 146 0.999904
-0.517569 -0.060498 5.729710 0 0 151 0.999889
-0.497092 -0.053913 5.737370 0 0 155 0.999869
-0.537919 -0.067359 5.722370 0 0 173 0.999791
-0.604639 -0.041526 5.798240 0 0 164 0.999829
-0.587170 -0.032919 5.807370 0 0 146 0.999910
-0.597620 -0.026179 5.823120 0 0 142 0.999923
-0.614982 -0.035112 5.814040 0 0 160 0.999844
-0.579884 -0.017740 5.832360 0 0 146 0.999916
-0.608199 -0.019629 5.838630 0 0 151 0.999895
-0.590671 -0.010578 5.848000 0 0 151 0.999881
-0.601169 -0.003948 5.863300 0 0 164 0.999837
-0.624957 -0.028668 5.829730 0 0 160 0.999845
-0.618400 -0.013056 5.854100 0 0 160 0.999860
-0.635198 -0.022402 5.845230 0 0 173 0.999787
-0.572756 -0.002166 5.857620 0 0 164 0.999827
-0.583363 0.004924 5.873050 0 0 183 0.999754
-0.561102 -0.009828 5.840990 0 0 155 0.999869
-0.549610 -0.017309 5.824210 0 0 155 0.999871
-0.568475 -0.024979 5.815580 0 0 142 0.999927
-0.904009 -0.051612 6.732190 0 5 255 0.999315
-0.915174 -0.059796 6.705040 0 0 255 0.999368
-0.892469 -0.043432 6.758350 0 9 255 0.999288
-0.914131 -0.053191 6.756030 0 33 255 0.999150
-0.925740 -0.060899 6.729040 0 41 255 0.999114
-0.936928 -0.068728 6.701790 0 5 255 0.999309
-0.891722 -0.040470 6.784050 0 5 255 0.999305
-0.890252 -0.037031 6.810960 0 0 255 0.999349
-0.869472 -0.027882 6.810270 0 9 255 0.999290
-0.870975 -0.030917 6.782670 0 69 255 0.998937
-0.944645 -0.074427 6.727800 0 0 214 0.999595
-0.956154 -0.082484 6.699660 0 0 205 0.999648
-0.932702 -0.066681 6.755150 0 0 205 0.999646
-0.952345 -0.079875 6.752110 0 0 237 0.999495
-0.963929 -0.087377 6.724990 0 0 246 0.999463
-0.975414 -0.095000 6.697160 0 0 219 0.999581
-0.930351 -0.065394 6.782060 0 0 201 0.999667
-0.927627 -0.063457 6.808840 0 0 205 0.999642
-0.908372 -0.050403 6.811050 0 0 187 0.999727
-0.911679 -0.052208 6.783080 0 0 219 0.999575
-0.882810 -0.032111 6.872120 0 0 201 0.999658
-0.886747 -0.034973 6.841080 0 0 192 0.999702
-0.905473 -0.047866 6.840600 0 0 187 0.999732
-0.901872 -0.044332 6.870960 0 0 223 0.999566
-0.846762 -0.015043 6.837880 0 17 255 0.999240
-0.867631 -0.024010 6.839780 0 0 251 0.999426
-0.974510 -0.158789 6.918810 0 0 205 0.999643
-0.985280 -0.162424 6.886460 0 0 187 0.999736
-0.966990 -0.142145 6.916460 0 0 183 0.999742
-0.995437 -0.165292 6.855440 0 0 173 0.999798
-0.978052 -0.145665 6.884290 0 0 164 0.999833
-0.988954 -0.148084 6.852450 0 0 173 0.999781
-0.959683 -0.124059 6.916110 0 0 196 0.999683
-1.005580 -0.167262 6.824940 0 0 160 0.999843
-1.015380 -0.168135 6.795580 0 0 173 0.999782
-1.023340 -0.186809 6.798380 0 0 169 0.999809
-1.013860 -0.185740 6.827670 0 0 192 0.999708
-1.004360 -0.183818 6.857200 0 0 242 0.999476
-1.031830 -0.205742 6.801380 0 0 233 0.999521
-0.968027 -0.126997 6.884910 0 0 155 0.999872
-0.948017 -0.105415 6.918290 0 0 187 0.999737
-0.976201 -0.128860 6.854010 0 0 151 0.999891
-0.957148 -0.108448 6.885710 0 0 169 0.999803
-0.965647 -0.110361 6.854750 0 0 183 0.999748
-0.983932 -0.129890 6.824420 0 0 160 0.999856
-0.991366 -0.130139 6.795710 0 0 178 0.999778
-1.003100 -0.149578 6.795250 0 0 155 0.999873
-0.996173 -0.149287 6.823480 0 0 155 0.999863
-1.041760 -0.162278 6.685460 0 0 196 0.999697
-1.034750 -0.164344 6.713590 0 0 196 0.999682
-1.055160 -0.183178 6.685000 0 0 210 0.999626
-1.028050 -0.166143 6.740990 0 0 164 0.999836
-1.047940 -0.184075 6.714430 0 0 210 0.999633
-1.041730 -0.185938 6.741380 0 0 210 0.999627
-1.069000 -0.204166 6.684300 0 0 233 0.999525
-1.021700 -0.167492 6.768290 0 0 164 0.999832
-1.009780 -0.148311 6.767790 0 0 164 0.999835
-1.016640 -0.146937 6.740020 0 0 196 0.999686
-1.058820 -0.203998 6.715960 0 0 223 0.999566
-1.078460 -0.225189 6.685410 0 0 255 0.999364
-1.049520 -0.204836 6.744600 0 0 192 0.999711
-1.068370 -0.225018 6.717490 0 0 223 0.999570
-1.059250 -0.225346 6.746520 0 0 255 0.999415
-1.088510 -0.246362 6.686920 0 1 255 0.999326
-1.040600 -0.205273 6.773140 0 0 201 0.999669
-1.032420 -0.186432 6.769930 0 0 173 0.999787
-0.977149 -0.094709 6.672110 0 0 237 0.999508
-0.978654 -0.094799 6.645880 0 25 255 0.999188
-0.957707 -0.081515 6.675120 0 41 255 0.999095
-0.959136 -0.081550 6.648280 32 255 216 0.997676
-0.980046 -0.095656 6.617290 0 229 248 0.997947
-0.981387 -0.099790 6.585060 96 255 151 0.997055
-1.004120 -0.113444 6.579580 0 89 255 0.998834
-1.001990 -0.110008 6.610060 0 145 255 0.998499
-0.999780 -0.107936 6.640380 0 81 255 0.998865
-1.026930 -0.125134 6.575270 0 49 255 0.999058
-0.936805 -0.069991 6.678640 0 45 255 0.999084
-0.936362 -0.071832 6.654530 0 149 255 0.998475
-0.915141 -0.060654 6.681940 0 153 255 0.998449
-0.935880 -0.074275 6.629300 200 255 48 0.995944
-0.945839 -0.084156 6.598840 116 255 132 0.996863
-0.958485 -0.084302 6.622970 103 255 145 0.997013
-0.980698 -0.112988 6.523980 0 97 255 0.998780
-0.973096 -0.105746 6.544550 48 255 200 0.997525
-0.998929 -0.113287 6.538610 32 255 216 0.997674
-0.990695 -0.107435 6.559890 0 197 255 0.998160
-0.965436 -0.098466 6.567540 135 255 113 0.996659
-1.017660 -0.122245 6.520090 0 21 255 0.999216
-1.021350 -0.122651 6.537820 0 21 255 0.999215
-1.041910 -0.130450 6.519040 0 17 255 0.999249
-1.045680 -0.131522 6.536170 0 33 255 0.999156
-1.024630 -0.123606 6.556190 0 109 255 0.998709
-1.047930 -0.161254 6.656170 0 0 214 0.999595
-1.025400 -0.144231 6.688350 0 0 187 0.999733
-1.054630 -0.159455 6.626500 0 0 255 0.999415
-1.031420 -0.141950 6.660480 0 0 214 0.999598
-1.038110 -0.140460 6.629630 0 0 251 0.999428
-1.010170 -0.126349 6.690310 0 0 201 0.999666
-1.061130 -0.156508 6.598570 0 1 255 0.999320
-1.066360 -0.151667 6.573770 0 0 255 0.999378
-1.083150 -0.166925 6.575600 0 0 246 0.999447
-1.078050 -0.172702 6.598600 0 1 255 0.999329
-1.072170 -0.176884 6.624130 0 0 251 0.999426
-1.099980 -0.181733 6.577750 0 0 237 0.999492
-1.013940 -0.124613 6.664500 0 0 233 0.999521
-0.992615 -0.111035 6.693700 0 0 192 0.999698
-1.018200 -0.124301 6.636290 0 0 246 0.999446
-0.996346 -0.109415 6.667440 0 0 246 0.999452
-1.022940 -0.124922 6.604450 0 13 255 0.999268
-1.046890 -0.138962 6.574140 0 9 255 0.999280
-1.043190 -0.140573 6.599970 0 0 255 0.999361
-1.064320 -0.139235 6.519540 0 13 255 0.999269
-1.083880 -0.147137 6.501600 0 0 255 0.999368
-1.065470 -0.143222 6.537590 0 0 251 0.999437
-1.085480 -0.150144 6.519990 0 21 255 0.999207
-1.086640 -0.154398 6.537810 0 0 255 0.999386
-1.105290 -0.157110 6.501370 0 149 255 0.998470
-1.066260 -0.147349 6.555570 0 0 255 0.999348
-1.046590 -0.135058 6.555000 0 61 255 0.998984
-1.104670 -0.162569 6.521230 0 61 255 0.998986
-1.124160 -0.170577 6.502880 0 129 255 0.998578
-1.103450 -0.168333 6.540630 0 0 237 0.999500
-1.122980 -0.176139 6.523230 0 49 255 0.999060
-1.121780 -0.182220 6.542530 0 53 255 0.999038
-1.143020 -0.184182 6.503800 0 185 255 0.998241
-1.102020 -0.174881 6.559200 0 0 223 0.999569
-1.085270 -0.160175 6.556720 0 0 242 0.999480
-0.980639 -0.103462 6.722030 0 0 192 0.999704
-0.968851 -0.095831 6.749550 0 0 178 0.999760
-0.986506 -0.111461 6.745310 0 0 210 0.999618
-0.998298 -0.118811 6.718140 0 0 228 0.999547
-0.965230 -0.095703 6.775700 0 0 178 0.999767
-0.961450 -0.094687 6.802260 0 0 192 0.999716
-0.944435 -0.079482 6.805730 0 0 169 0.999800
-0.948559 -0.079935 6.778900 0 0 187 0.999720
-1.012930 -0.136919 6.715750 0 0 183 0.999745
-1.000720 -0.129565 6.742790 0 0 164 0.999828
-0.996023 -0.130024 6.769310 0 0 164 0.999821
-0.976211 -0.112701 6.798930 0 0 164 0.999834
-0.981255 -0.112262 6.772120 0 0 173 0.999790
-0.943477 -0.090080 6.889580 0 0 192 0.999705
-0.949836 -0.092573 6.859540 0 0 164 0.999833
-0.929007 -0.072782 6.894000 0 0 205 0.999656
-0.935993 -0.074893 6.863020 0 0 205 0.999649
-0.955789 -0.094008 6.830210 0 0 173 0.999797
-0.971033 -0.111917 6.826470 0 0 169 0.999815
-0.918340 -0.059652 6.867740 0 0 210 0.999617
-0.923251 -0.062172 6.837370 0 0 178 0.999760
-0.940742 -0.077840 6.833530 0 0 183 0.999749
-1.194080 -0.192747 6.312830 0 45 255 0.999075
-1.208110 -0.205955 6.299100 0 0 183 0.999739
-1.194240 -0.193042 6.291370 0 25 255 0.999195
-1.222570 -0.219164 6.285440 0 0 192 0.999699
-1.208620 -0.205968 6.277870 0 0 210 0.999617
-1.223320 -0.218807 6.264200 0 0 242 0.999481
-1.193970 -0.193108 6.270190 0 45 255 0.999087
-1.237560 -0.232178 6.271900 0 0 255 0.999416
-1.252060 -0.245308 6.258850 0 121 255 0.998627
-1.249500 -0.243706 6.280470 0 93 255 0.998800
-1.234960 -0.230539 6.293990 0 0 255 0.999418
-1.220650 -0.216704 6.307980 0 0 255 0.999378
-1.247010 -0.241703 6.302720 0 113 255 0.998696
-1.208040 -0.207350 6.255880 0 0 201 0.999662
-1.190870 -0.193911 6.248230 0 13 255 0.999251
-1.222490 -0.221081 6.241370 0 0 210 0.999618
-1.205080 -0.207679 6.233860 0 0 214 0.999599
-1.219910 -0.221051 6.219140 0 0 255 0.999361
-1.187650 -0.194072 6.226110 0 57 255 0.999019
-1.237040 -0.235212 6.227260 0 1 255 0.999330
-1.251740 -0.249104 6.213410 0 181 255 0.998254
-1.252310 -0.247406 6.235980 0 117 255 0.998659
-1.237840 -0.233056 6.249910 0 1 255 0.999327
-1.298950 -0.319736 6.215460 71 255 177 0.997300
-1.288310 -0.300904 6.225560 0 129 255 0.998591
-1.296700 -0.315907 6.237970 0 221 255 0.998000
-1.276630 -0.282485 6.236090 0 25 255 0.999204
-1.285470 -0.297154 6.248440 0 53 255 0.999032
-1.273890 -0.278308 6.259660 0 17 255 0.999248
-1.294100 -0.311777 6.260700 0 221 255 0.998008
-1.264420 -0.264021 6.247410 0 9 255 0.999272
-1.264610 -0.265813 6.224690 0 33 255 0.999159
-1.276890 -0.283740 6.213790 0 89 255 0.998829
-1.282640 -0.294310 6.270630 0 37 255 0.999124
-1.288930 -0.308062 6.283240 0 129 255 0.998584
-1.271270 -0.276638 6.280730 0 0 255 0.999362
-1.278040 -0.290144 6.293180 0 29 255 0.999175
-1.265970 -0.272364 6.304590 0 21 255 0.999215
-1.283970 -0.303695 6.306350 0 133 255 0.998573
-1.258600 -0.259200 6.291880 0 0 251 0.999429
-1.261820 -0.260882 6.270010 0 5 255 0.999314
-1.172820 -0.184871 6.241370 0 0 196 0.999682
-1.158010 -0.175322 6.256750 0 0 178 0.999778
-1.176310 -0.183947 6.263580 0 0 219 0.999578
-1.161260 -0.174341 6.278980 0 0 201 0.999669
-1.143420 -0.165619 6.272350 0 0 183 0.999741
-1.129400 -0.156226 6.287530 0 0 255 0.999397
-1.124820 -0.155793 6.265750 0 0 228 0.999551
-1.138930 -0.165011 6.250760 0 0 183 0.999745
-1.153240 -0.174539 6.235860 0 0 183 0.999750
-1.120260 -0.154680 6.244500 0 0 255 0.999339
-1.178480 -0.184085 6.285070 0 0 210 0.999630
-1.162660 -0.175077 6.300260 0 0 192 0.999711
-1.178590 -0.184183 6.306100 0 0 255 0.999361
-1.163410 -0.174561 6.321410 0 5 255 0.999307
-1.147720 -0.166411 6.314700 0 0 164 0.999823
-1.133440 -0.157523 6.329070 0 1 255 0.999319
-1.131260 -0.157227 6.308330 0 0 187 0.999720
-1.145900 -0.165723 6.294180 0 0 178 0.999778
-1.082700 -0.139865 6.321220 0 0 173 0.999797
-1.097510 -0.145078 6.306850 0 0 164 0.999822
-1.116260 -0.151550 6.323210 0 0 173 0.999780
-1.101510 -0.145729 6.338020 0 0 205 0.999648
-1.077040 -0.137726 6.290870 0 0 155 0.999868
-1.091210 -0.143461 6.275540 0 0 146 0.999912
-1.071420 -0.135848 6.270800 0 0 151 0.999897
-1.085740 -0.141264 6.255460 0 0 160 0.999844
-1.105690 -0.148789 6.260240 0 0 178 0.999771
-1.110470 -0.150126 6.281830 0 0 164 0.999836
-1.103020 -0.148460 6.424710 0 85 255 0.998842
-1.128150 -0.159255 6.429120 0 37 255 0.999129
-1.118140 -0.153517 6.411820 0 37 255 0.999116
-1.112990 -0.154004 6.441870 0 117 255 0.998667
-1.144160 -0.166443 6.406300 0 69 255 0.998952
-1.150120 -0.173247 6.426870 0 1 255 0.999323
-1.165830 -0.181620 6.412330 0 73 255 0.998915
-1.182050 -0.190141 6.397280 100 255 148 0.997041
-1.171470 -0.188387 6.433190 0 113 255 0.998675
-1.156960 -0.180568 6.445970 0 137 255 0.998546
-1.135270 -0.165954 6.448300 0 165 255 0.998366
-1.133940 -0.171565 6.476880 0 161 255 0.998385
-1.114910 -0.158100 6.476340 6 237 242 0.997890
-1.155260 -0.185732 6.475370 0 141 255 0.998506
-1.091200 -0.147240 6.478710 0 157 255 0.998401
-1.177680 -0.183719 6.337370 0 53 255 0.999041
-1.162700 -0.174839 6.351630 0 0 255 0.999395
-1.191530 -0.192332 6.343300 0 121 255 0.998629
-1.148370 -0.165997 6.365640 0 77 255 0.998892
-1.134160 -0.158167 6.358940 0 53 255 0.999038
-1.175080 -0.183329 6.368260 0 97 255 0.998784
-1.160030 -0.174714 6.382320 0 153 255 0.998449
-1.133080 -0.158689 6.388900 0 145 255 0.998480
-1.090780 -0.143912 6.407410 0 0 233 0.999518
-1.105110 -0.148046 6.395830 0 0 255 0.999399
-1.089760 -0.141728 6.380340 0 17 255 0.999229
-1.119590 -0.152300 6.373410 0 0 251 0.999430
-1.086870 -0.140839 6.351510 0 0 183 0.999753
-1.103840 -0.146932 6.367240 0 0 228 0.999533
-1.008350 -0.109924 6.188300 0 0 201 0.999666
-0.996297 -0.105637 6.205130 0 0 160 0.999843
-1.020560 -0.115609 6.207100 0 0 178 0.999773
-0.984548 -0.101396 6.221580 0 0 173 0.999788
-1.008830 -0.111433 6.223810 0 0 164 0.999836
-0.997123 -0.107383 6.239990 0 0 169 0.999805
-1.033050 -0.119957 6.226060 0 0 205 0.999653
-0.973165 -0.097161 6.237630 0 0 187 0.999728
-0.961781 -0.093781 6.253680 0 0 223 0.999562
-0.948598 -0.085023 6.239250 0 0 228 0.999550
-0.959951 -0.089318 6.222870 0 0 192 0.999715
-0.971564 -0.093676 6.206160 0 0 173 0.999793
-0.935982 -0.075403 6.224810 0 0 242 0.999470
-1.020560 -0.116990 6.241310 0 0 164 0.999834
-1.042140 -0.124589 6.245490 0 0 187 0.999729
-1.008160 -0.113865 6.256660 0 0 178 0.999770
-1.029690 -0.121420 6.261270 0 0 187 0.999731
-0.978060 -0.104415 6.277320 0 0 223 0.999555
-0.990253 -0.107910 6.263160 0 0 187 0.999724
-0.920783 -0.092890 6.292930 0 49 255 0.999051
-0.938083 -0.096190 6.283950 0 25 255 0.999197
-0.926488 -0.087012 6.271610 0 5 255 0.999315
-0.949820 -0.095093 6.268960 0 0 219 0.999573
-0.903081 -0.077278 6.274970 0 0 255 0.999398
-0.913574 -0.077027 6.258620 0 0 242 0.999475
-0.889816 -0.065476 6.264510 0 0 201 0.999660
-0.900419 -0.065502 6.248010 0 0 183 0.999754
-0.924479 -0.076416 6.241710 0 0 196 0.999677
-0.937404 -0.086033 6.255320 0 0 205 0.999636
-1.064160 -0.133610 6.249770 0 0 155 0.999878
-1.077230 -0.140020 6.233770 0 0 155 0.999877
-1.055090 -0.130384 6.230040 0 0 173 0.999785
-1.067880 -0.136697 6.214520 0 0 164 0.999829
-1.090540 -0.146341 6.217630 0 0 173 0.999797
-1.103420 -0.153158 6.201490 0 0 233 0.999526
-1.111900 -0.154424 6.222790 0 0 219 0.999588
-1.098860 -0.147803 6.238950 0 0 173 0.999796
-1.044920 -0.127690 6.208680 0 0 155 0.999869
-1.057080 -0.135562 6.191280 0 0 160 0.999853
-1.032680 -0.123271 6.189850 0 0 164 0.999832
-1.044770 -0.130991 6.172020 0 0 178 0.999777
-1.069370 -0.143601 6.173190 0 0 164 0.999823
-1.081690 -0.151062 6.156140 0 0 255 0.999352
-1.092380 -0.152645 6.178240 0 0 210 0.999617
-1.080010 -0.144869 6.196530 0 0 160 0.999841
-1.153830 -0.200482 6.131370 0 81 255 0.998881
-1.141400 -0.188552 6.148700 0 0 219 0.999582
-1.164560 -0.197966 6.154810 0 77 255 0.998890
-1.128160 -0.177340 6.166220 0 0 160 0.999853
-1.150510 -0.186790 6.172950 0 0 187 0.999732
-1.137380 -0.174640 6.191830 0 0 164 0.999828
-1.173820 -0.195816 6.179790 0 65 255 0.998958
-1.115350 -0.165467 6.183940 0 0 151 0.999882
-1.104900 -0.164709 6.161520 0 0 178 0.999775
-1.117310 -0.176565 6.144540 0 0 196 0.999692
-1.159840 -0.185727 6.196230 0 0 192 0.999711
-1.181060 -0.194999 6.202510 0 41 255 0.999101
-1.145940 -0.175721 6.212700 0 0 151 0.999892
-1.166810 -0.184986 6.219390 0 0 192 0.999706
-1.132870 -0.165477 6.228760 0 0 160 0.999848
-1.124470 -0.164490 6.207310 0 0 164 0.999837
-0.757907 -0.081130 6.355520 0 0 242 0.999473
-0.764681 -0.066555 6.341690 0 33 255 0.999142
-0.739519 -0.070873 6.349630 0 21 255 0.999223
-0.771361 -0.051240 6.327900 22 255 226 0.997760
-0.778911 -0.034488 6.314210 255 171 0 0.994377
-0.737880 -0.052724 6.334240 0 129 255 0.998593
-0.718531 -0.063226 6.345050 0 49 255 0.999066
-0.744008 -0.036719 6.320700 74 255 174 0.997272
-0.750861 -0.019681 6.306790 255 156 0 0.994151
-0.813855 -0.010257 6.245750 48 255 200 0.997529
-0.804679 -0.015918 6.263530 0 209 255 0.998071
-0.827740 -0.019880 6.251640 74 255 174 0.997293
-0.796190 -0.021195 6.280870 48 255 200 0.997530
-0.818892 -0.025457 6.269620 45 255 203 0.997538
-0.810372 -0.031640 6.287030 19 253 229 0.997763
-0.841499 -0.030330 6.257350 0 229 248 0.997955
-0.787161 -0.028180 6.297890 71 255 177 0.997315
-0.766200 -0.016731 6.292610 187 255 61 0.996100
-0.838165 -0.041614 6.278170 0 105 255 0.998741
-0.828769 -0.047887 6.294800 0 0 223 0.999553
-0.625301 0.028182 6.243000 0 0 183 0.999752
-0.636341 0.037129 6.227010 0 5 255 0.999313
-0.614622 0.019507 6.259060 0 0 173 0.999791
-0.644661 0.011452 6.262040 0 0 173 0.999794
-0.655975 0.020836 6.245920 0 0 192 0.999704
-0.667635 0.030179 6.229580 0 57 255 0.999015
-0.619018 0.007201 6.276070 0 0 192 0.999699
-0.623583 -0.005740 6.292650 0 0 219 0.999580
-0.598252 -0.000708 6.292570 0 0 228 0.999549
-0.592957 0.010792 6.275460 0 0 178 0.999762
-0.682439 0.015491 6.248040 0 0 242 0.999482
-0.695995 0.021585 6.231960 0 1 255 0.999333
-0.669325 0.008972 6.263420 0 0 233 0.999513
-0.697579 0.000978 6.266520 0 0 228 0.999545
-0.710896 0.007073 6.251120 0 0 223 0.999572
-0.725184 0.012700 6.234080 0 0 214 0.999608
-0.670380 -0.002297 6.279990 0 0 255 0.999339
-0.671807 -0.012764 6.295590 0 5 255 0.999300
-0.647308 -0.009812 6.294360 0 0 255 0.999358
-0.646216 0.001356 6.278310 0 0 219 0.999575
-0.629909 -0.051838 6.335780 0 0 228 0.999544
-0.613879 -0.062968 6.351860 0 1 255 0.999316
-0.627780 -0.037101 6.321810 0 0 228 0.999548
-0.611257 -0.049278 6.337210 0 0 219 0.999573
-0.608970 -0.034764 6.322950 0 0 219 0.999585
-0.595568 -0.059108 6.354270 0 5 255 0.999299
-0.625820 -0.021660 6.307240 0 0 196 0.999681
-0.649292 -0.026029 6.308710 0 0 201 0.999660
-0.651201 -0.041585 6.322620 0 0 246 0.999454
-0.589800 -0.043962 6.339010 0 0 214 0.999596
-0.575169 -0.055488 6.357650 0 1 255 0.999321
-0.584252 -0.028001 6.324170 0 0 210 0.999633
-0.569450 -0.040346 6.342560 0 0 242 0.999478
-0.578546 -0.011351 6.308570 0 0 187 0.999719
-0.603552 -0.017905 6.307860 0 0 183 0.999754
-0.604264 0.072178 6.078150 0 197 255 0.998147
-0.636668 0.068254 6.066080 90 255 158 0.997115
-0.601326 0.073242 6.102460 0 101 255 0.998767
-0.633663 0.070034 6.091060 9 241 238 0.997872
-0.630523 0.070949 6.115540 0 177 255 0.998295
-0.665866 0.065214 6.078640 161 255 87 0.996392
-0.598558 0.072943 6.126440 0 65 255 0.998962
-0.596177 0.072073 6.150240 0 221 255 0.997992
-0.580332 0.072253 6.144100 0 65 255 0.998968
-0.582722 0.073229 6.120440 0 29 255 0.999162
-0.564620 0.072685 6.137860 0 81 255 0.998865
-0.566892 0.073206 6.114600 0 29 255 0.999163
-0.585184 0.073182 6.096410 0 69 255 0.998939
-0.548950 0.072206 6.131980 0 17 255 0.999229
-0.664875 0.065709 6.098650 87 255 161 0.997155
-0.696465 0.055673 6.083660 74 255 174 0.997278
-0.663599 0.065366 6.118450 13 245 235 0.997818
-0.695382 0.056345 6.103560 0 193 255 0.998172
-0.694040 0.056441 6.123290 0 93 255 0.998801
-0.726340 0.044733 6.088630 0 137 255 0.998536
-0.662383 0.064407 6.138000 9 241 238 0.997846
-0.661202 0.062520 6.157450 0 181 255 0.998251
-0.628881 0.067843 6.153680 3 233 245 0.997909
-0.629804 0.069950 6.134790 13 245 235 0.997822
-0.603061 0.052000 6.206340 0 65 255 0.998962
-0.600566 0.059001 6.187630 0 17 255 0.999228
-0.570838 0.053791 6.204730 0 21 255 0.999222
-0.568055 0.060894 6.186380 0 9 255 0.999286
-0.598032 0.065931 6.169260 0 133 255 0.998554
-0.630667 0.061535 6.172960 0 89 255 0.998832
-0.632321 0.054515 6.191930 0 57 255 0.999004
-0.540603 0.056184 6.197790 0 0 255 0.999407
-0.520245 0.056469 6.194690 0 0 246 0.999466
-0.537956 0.061852 6.174320 0 0 205 0.999655
-0.500539 0.057270 6.191780 0 0 255 0.999406
-0.517385 0.061262 6.171180 0 0 196 0.999689
-0.535539 0.066964 6.150440 0 0 187 0.999738
-0.550898 0.067297 6.156440 0 0 214 0.999613
-0.566338 0.067220 6.162400 0 5 255 0.999313
-0.553083 0.061574 6.180280 0 0 210 0.999629
-0.876436 -0.053519 6.254730 0 0 192 0.999700
-0.886481 -0.054245 6.236760 0 0 187 0.999732
-0.857256 -0.037084 6.243110 0 33 255 0.999153
-0.896958 -0.054752 6.218630 0 0 178 0.999777
-0.907290 -0.055469 6.200980 0 5 255 0.999297
-0.921843 -0.065641 6.212630 0 0 246 0.999458
-0.911091 -0.065465 6.230520 0 0 183 0.999743
-0.842898 -0.025958 6.235610 0 37 255 0.999128
-0.858654 -0.031827 6.219210 0 0 237 0.999503
-0.844810 -0.022196 6.213180 0 45 255 0.999086
-0.829183 -0.015879 6.229420 0 117 255 0.998660
-0.867324 -0.033683 6.199910 0 0 255 0.999408
-0.876443 -0.035449 6.181310 0 105 255 0.998730
-0.892042 -0.045024 6.190850 0 89 255 0.998826
-0.882673 -0.043951 6.210200 0 9 255 0.999290
-0.945038 -0.081880 6.122050 0 0 251 0.999439
-0.935396 -0.074887 6.141230 0 0 178 0.999761
-0.962310 -0.089752 6.136750 0 0 242 0.999477
-0.925656 -0.068682 6.160820 0 0 160 0.999853
-0.951898 -0.083747 6.156450 0 0 169 0.999816
-0.942154 -0.077334 6.175990 0 0 169 0.999819
-0.978932 -0.097924 6.152210 0 0 214 0.999598
-0.916179 -0.061863 6.180750 0 0 178 0.999777
-0.900640 -0.052472 6.170430 0 0 214 0.999612
-0.909289 -0.059878 6.150760 0 0 155 0.999879
-0.968038 -0.091867 6.169760 0 0 169 0.999804
-0.993757 -0.104001 6.169780 0 0 223 0.999572
-0.957027 -0.086423 6.188210 0 0 173 0.999791
-0.982536 -0.098443 6.187990 0 0 169 0.999810
-0.946286 -0.081007 6.206440 0 0 187 0.999726
-0.931966 -0.071527 6.194150 0 0 183 0.999744
-0.742457 0.035439 6.089600 0 89 255 0.998829
-0.726588 0.043722 6.106930 0 113 255 0.998683
-0.742520 0.034662 6.107530 0 37 255 0.999116
-0.758054 0.025795 6.090320 0 97 255 0.998771
-0.726737 0.042230 6.125050 0 37 255 0.999123
-0.758493 0.025375 6.108550 0 1 255 0.999328
-0.742732 0.033247 6.125910 0 0 251 0.999437
-0.758510 0.024065 6.126910 0 0 196 0.999694
-0.773373 0.015951 6.091170 0 53 255 0.999029
-0.773884 0.015832 6.109650 0 0 255 0.999403
-0.788658 0.006765 6.092620 0 177 255 0.998284
-0.726892 0.040079 6.143210 0 13 255 0.999258
-0.743174 0.031642 6.144020 0 0 246 0.999455
-0.727397 0.037454 6.161200 0 41 255 0.999095
-0.711035 0.044324 6.160470 0 53 255 0.999038
-0.710773 0.047045 6.142550 0 57 255 0.999003
-0.694616 0.050822 6.159420 0 97 255 0.998785
-0.694379 0.053876 6.141300 0 109 255 0.998710
-0.710659 0.049792 6.124430 0 97 255 0.998782
-0.677860 0.056825 6.158670 0 161 255 0.998399
-0.803174 -0.003124 6.093710 0 0 255 0.999368
