ply
format ascii 1.0
comment VCGLIB generated
element vertex 985
property float x
property float y
property float z
property uchar red
property uchar green
property uchar blue
property float quality
end_header
0.091293 -0.003001 0.880655 111 255 137 0.483617
0.092890 -0.003305 0.878345 114 255 134 0.484836
0.099934 -0.002728 0.885452 111 255 137 0.481490
0.097202 -0.003046 0.880720 114 255 134 0.484852
0.101473 -0.002797 0.883088 104 255 143 0.475465
0.088490 -0.003533 0.875892 111 255 137 0.482970
0.075636 0.000581 0.884635 95 255 153 0.461424
0.080504 0.000196 0.887178 104 255 143 0.475763
0.078739 0.001045 0.889418 101 255 147 0.472074
0.073775 0.001531 0.886852 98 255 150 0.467575
0.082915 0.000690 0.891714 104 255 143 0.473105
0.076868 0.001882 0.891622 104 255 143 0.473178
0.081136 0.001436 0.893936 104 255 143 0.476310
0.079361 0.002147 0.896164 101 255 147 0.471191
0.071895 0.002482 0.889090 104 255 143 0.473330
0.075090 0.002660 0.893878 108 255 140 0.479523
0.069975 0.003338 0.891305 108 255 140 0.476778
0.085232 0.001041 0.896189 108 255 140 0.477300
0.083433 0.001697 0.898400 108 255 140 0.479442
0.087585 0.001270 0.900713 104 255 143 0.472833
0.089458 0.000634 0.898545 108 255 140 0.477404
0.087199 0.000322 0.894073 104 255 143 0.473800
0.091441 -0.000025 0.896459 117 255 130 0.491920
0.089157 -0.000376 0.891977 101 255 147 0.471349
0.084895 -0.000091 0.889603 101 255 147 0.470162
0.093321 -0.000633 0.894329 121 255 127 0.494675
0.101813 -0.000976 0.905785 104 255 143 0.474239
0.103808 -0.001516 0.903710 98 255 150 0.467643
0.099513 -0.000941 0.901181 101 255 147 0.472424
0.105905 -0.001999 0.901696 88 255 160 0.454493
0.101560 -0.001509 0.899137 101 255 147 0.471718
0.103669 -0.001941 0.897114 104 255 143 0.475265
0.108028 -0.002356 0.899684 98 255 150 0.468665
0.097366 -0.001031 0.896687 111 255 137 0.484154
0.099414 -0.001576 0.894633 108 255 140 0.477039
0.095447 -0.000468 0.898801 104 255 143 0.473694
0.093603 0.000102 0.900962 104 255 143 0.475674
0.097631 -0.000426 0.903334 104 255 143 0.473888
0.095675 0.000136 0.905448 88 255 160 0.455275
0.091630 0.000705 0.903089 108 255 140 0.477929
0.099759 -0.000430 0.907846 108 255 140 0.477722
0.109721 -0.002758 0.897511 104 255 143 0.473338
0.111481 -0.002988 0.895352 108 255 140 0.477375
0.106950 -0.002745 0.892715 111 255 137 0.481390
0.113118 -0.003041 0.893105 108 255 140 0.479149
0.108554 -0.002883 0.890433 114 255 134 0.484384
0.110219 -0.002799 0.888105 114 255 134 0.487226
0.114796 -0.002870 0.890767 98 255 150 0.466489
0.104158 -0.002787 0.887886 114 255 134 0.484730
0.105838 -0.002761 0.885580 114 255 134 0.486488
0.102610 -0.002576 0.890202 111 255 137 0.482859
0.100996 -0.002154 0.892418 108 255 140 0.480450
0.105288 -0.002455 0.894926 108 255 140 0.478485
0.067640 0.003822 0.893477 108 255 140 0.478480
0.072642 0.003148 0.895963 117 255 130 0.489874
0.070231 0.003528 0.898110 111 255 137 0.481114
0.065354 0.004218 0.895712 108 255 140 0.479152
0.074738 0.002902 0.900400 111 255 137 0.481593
0.067845 0.003803 0.900297 111 255 137 0.480684
0.072479 0.003114 0.902608 111 255 137 0.481132
0.070226 0.003259 0.904839 101 255 147 0.469771
0.063050 0.004531 0.897946 108 255 140 0.479687
0.065475 0.004029 0.902496 111 255 137 0.480598
0.060794 0.004796 0.900203 108 255 140 0.480031
0.076510 0.002572 0.904747 101 255 147 0.471020
0.074355 0.002657 0.906986 111 255 137 0.482118
0.078247 0.002164 0.909081 111 255 137 0.483597
0.080581 0.002034 0.906978 111 255 137 0.482941
0.078849 0.002360 0.902619 111 255 137 0.481329
0.082871 0.001850 0.904853 111 255 137 0.481382
0.081130 0.002059 0.900493 108 255 140 0.480224
0.077039 0.002560 0.898262 108 255 140 0.478041
0.085159 0.001586 0.902755 104 255 143 0.472780
0.058264 0.004607 0.902554 108 255 140 0.480154
0.062390 0.003920 0.904566 111 255 137 0.480711
0.059734 0.003654 0.906825 111 255 137 0.480532
0.055798 0.004373 0.904931 108 255 140 0.479518
0.064425 0.002924 0.909114 111 255 137 0.481158
0.057157 0.003386 0.909088 108 255 140 0.480115
0.061751 0.002598 0.911316 104 255 143 0.476083
0.059048 0.002249 0.913483 111 255 137 0.480920
0.053421 0.004090 0.907274 101 255 147 0.468905
0.054715 0.003016 0.911358 108 255 140 0.480026
0.051099 0.003762 0.909584 108 255 140 0.478709
0.066082 0.001923 0.913474 111 255 137 0.482120
0.063569 0.001571 0.915717 111 255 137 0.481479
0.067309 0.001051 0.917641 111 255 137 0.481820
0.070006 0.001297 0.915498 111 255 137 0.482978
0.068815 0.002174 0.911318 111 255 137 0.482679
0.072755 0.001569 0.913366 111 255 137 0.483604
0.071552 0.002415 0.909143 111 255 137 0.482697
0.067352 0.003114 0.906988 111 255 137 0.481107
0.075489 0.001855 0.911213 111 255 137 0.483908
0.081067 -0.000723 0.925507 111 255 137 0.484157
0.084055 -0.000497 0.923572 114 255 134 0.484913
0.080378 -0.000072 0.921404 124 255 124 0.497042
0.083403 0.000159 0.919466 114 255 134 0.485736
0.087044 -0.000277 0.921578 114 255 134 0.485082
0.079688 0.000628 0.917309 108 255 140 0.479073
0.086368 0.000403 0.917424 114 255 134 0.485484
0.082707 0.000875 0.915330 114 255 134 0.484716
0.085705 0.001123 0.913342 111 255 137 0.483586
0.090223 -0.000045 0.919726 114 255 134 0.485953
0.089524 0.000609 0.915578 124 255 124 0.496458
0.093328 0.000134 0.917790 114 255 134 0.485500
0.078960 0.001381 0.913205 114 255 134 0.484440
0.082020 0.001611 0.911229 111 255 137 0.484044
0.076232 0.001067 0.915309 111 255 137 0.484237
0.073466 0.000775 0.917425 111 255 137 0.483615
0.076944 0.000321 0.919389 114 255 134 0.484747
0.074247 0.000029 0.921499 111 255 137 0.483153
0.070804 0.000498 0.919560 111 255 137 0.480717
0.077667 -0.000376 0.923471 111 255 137 0.484281
0.095923 -0.000117 0.915873 111 255 137 0.484275
0.091892 0.000498 0.913492 111 255 137 0.483896
0.094473 0.000223 0.911591 111 255 137 0.482465
0.098611 -0.000413 0.914005 111 255 137 0.482903
0.090461 0.000840 0.909209 111 255 137 0.480847
0.097201 -0.000102 0.909750 108 255 140 0.480368
0.093105 0.000492 0.907351 108 255 140 0.479227
0.101376 -0.000730 0.912189 111 255 137 0.480613
0.089011 0.001096 0.904950 101 255 147 0.472436
0.086672 0.001314 0.907047 111 255 137 0.480788
0.084276 0.001506 0.909102 111 255 137 0.482819
0.088089 0.000974 0.911304 101 255 147 0.469123
0.105078 -0.001480 0.914519 95 255 153 0.462171
0.102318 -0.001175 0.916328 111 255 137 0.481957
0.106058 -0.001933 0.918674 111 255 137 0.483865
0.099563 -0.000860 0.918162 114 255 134 0.484624
0.103207 -0.001623 0.920450 114 255 134 0.485655
0.100458 -0.001309 0.922317 114 255 134 0.485794
0.096816 -0.000573 0.919997 114 255 134 0.485711
0.104117 -0.002049 0.924611 114 255 134 0.486954
0.093269 -0.000526 0.921744 124 255 124 0.499461
0.090162 -0.000739 0.923656 114 255 134 0.484923
0.093303 -0.001200 0.925726 114 255 134 0.484518
0.087050 -0.000961 0.925534 111 255 137 0.483952
0.090170 -0.001380 0.927613 111 255 137 0.483295
0.087029 -0.001539 0.929508 111 255 137 0.482972
0.084058 -0.001112 0.927544 111 255 137 0.483387
0.093354 -0.001754 0.929735 111 255 137 0.483408
0.090018 -0.001917 0.931510 111 255 137 0.482445
0.093129 -0.002167 0.933675 111 255 137 0.482642
0.096855 -0.002333 0.932015 114 255 134 0.484435
0.096888 -0.001870 0.927981 114 255 134 0.485055
0.100549 -0.002502 0.930314 114 255 134 0.487035
0.100478 -0.001951 0.926269 114 255 134 0.486815
0.096838 -0.001237 0.923973 114 255 134 0.485639
0.099518 -0.002818 0.934056 114 255 134 0.484892
0.095876 -0.002560 0.935803 111 255 137 0.482916
0.056807 -0.128948 0.944923 20 254 228 0.374485
0.055242 -0.127354 0.943836 0 210 255 0.330383
0.057093 -0.128621 0.940959 0 178 255 0.297660
0.055392 -0.127070 0.939772 0 162 255 0.282075
0.053555 -0.125780 0.942658 0 194 255 0.314434
0.057163 -0.128383 0.936860 0 170 255 0.290630
0.053530 -0.125587 0.938500 0 138 255 0.260560
0.055316 -0.126953 0.935574 0 162 255 0.283470
0.053236 -0.125653 0.934195 56 255 192 0.415232
0.051705 -0.124257 0.941382 0 222 253 0.340961
0.051449 -0.124225 0.937108 62 255 185 0.423941
0.049617 -0.122841 0.939993 43 255 205 0.400144
0.057054 -0.128317 0.932657 4 234 244 0.352002
0.054975 -0.127064 0.931292 56 255 192 0.417012
0.056698 -0.128416 0.928351 53 255 195 0.411339
0.058785 -0.129488 0.929703 0 214 255 0.334530
0.058968 -0.129547 0.933951 23 255 224 0.376003
0.060702 -0.130696 0.930990 0 126 255 0.249944
0.060730 -0.130869 0.935169 0 138 255 0.259768
0.058929 -0.129738 0.938061 0 146 255 0.269364
0.060579 -0.131139 0.939183 0 218 255 0.339068
0.062475 -0.131990 0.932233 0 106 255 0.227363
0.062371 -0.132234 0.936292 0 210 255 0.331543
0.064147 -0.133338 0.933376 0 202 255 0.323555
0.058735 -0.130035 0.942072 30 255 218 0.386498
0.047422 -0.121577 0.938625 72 255 176 0.434049
0.049220 -0.123207 0.935718 95 255 153 0.463613
0.046724 -0.122202 0.934307 56 255 192 0.416861
0.044945 -0.120452 0.937196 114 255 134 0.486603
0.048481 -0.123925 0.931397 111 255 137 0.480537
0.043990 -0.121290 0.932825 140 255 108 0.516746
0.045763 -0.123067 0.929916 150 255 98 0.530436
0.042903 -0.122221 0.928439 163 255 85 0.545179
0.042215 -0.119479 0.935702 82 255 166 0.448160
0.041128 -0.120438 0.931323 156 255 92 0.535794
0.039357 -0.118513 0.934191 147 255 101 0.526188
0.047556 -0.124756 0.926975 163 255 85 0.545797
0.044706 -0.123925 0.925475 156 255 92 0.536127
0.046540 -0.125517 0.922464 176 255 72 0.559369
0.049376 -0.126135 0.924029 182 255 66 0.566944
0.050252 -0.125379 0.928485 114 255 134 0.486869
0.052022 -0.126786 0.925560 121 255 127 0.493877
0.052738 -0.126136 0.929935 104 255 143 0.475159
0.050994 -0.124693 0.932832 82 255 166 0.446021
0.054500 -0.127548 0.926996 108 255 140 0.479343
0.053638 -0.129323 0.909655 189 255 59 0.574502
0.056206 -0.130249 0.911388 224 255 24 0.619538
0.054519 -0.129448 0.914518 255 235 0 0.657341
0.057009 -0.130044 0.916111 205 255 43 0.597019
0.058672 -0.130965 0.913015 211 255 36 0.602845
0.055345 -0.129102 0.919217 195 255 53 0.584354
0.059376 -0.130692 0.917678 117 255 130 0.491094
0.057722 -0.129721 0.920785 124 255 124 0.498112
0.059889 -0.130440 0.922241 23 255 224 0.377723
0.061034 -0.131668 0.914589 134 255 114 0.508098
0.061519 -0.131429 0.919145 160 255 88 0.542185
0.063188 -0.132408 0.916068 36 255 211 0.393169
0.056115 -0.128714 0.923854 95 255 153 0.464648
0.058268 -0.129442 0.925299 127 255 121 0.502775
0.053700 -0.127976 0.922429 150 255 98 0.528366
0.051070 -0.127306 0.920880 202 255 46 0.591623
0.052779 -0.128406 0.917709 234 255 14 0.631504
0.050022 -0.127630 0.916087 189 255 59 0.577834
0.048261 -0.126613 0.919288 182 255 66 0.568156
0.051820 -0.128516 0.912863 192 255 56 0.578218
0.065258 -0.133274 0.917511 11 242 237 0.361887
0.063634 -0.132473 0.920555 23 255 224 0.377191
0.065527 -0.133437 0.921912 0 138 255 0.259057
0.067159 -0.134213 0.918865 0 178 255 0.297403
0.063924 -0.132645 0.924911 0 22 255 0.147825
0.067301 -0.134482 0.923193 0 106 255 0.227789
0.065678 -0.133712 0.926189 0 90 255 0.214578
0.067384 -0.134840 0.927447 0 178 255 0.299009
0.068966 -0.135237 0.920177 0 126 255 0.249262
0.069018 -0.135587 0.924461 4 234 244 0.352079
0.070657 -0.136306 0.921447 0 218 255 0.335952
0.064069 -0.132941 0.929176 0 106 255 0.230113
0.065736 -0.134092 0.930410 0 190 255 0.311465
0.062288 -0.131673 0.927963 0 18 255 0.142295
0.060383 -0.130497 0.926677 0 146 255 0.266145
0.062003 -0.131494 0.923637 0 130 255 0.252807
0.036556 -0.118076 0.932854 147 255 101 0.524939
0.038237 -0.120230 0.929913 134 255 114 0.511161
0.035526 -0.119604 0.928474 130 255 117 0.506589
0.033850 -0.117553 0.931409 134 255 114 0.510973
0.037262 -0.121441 0.925466 130 255 117 0.506269
0.032888 -0.118783 0.927038 124 255 124 0.499280
0.034648 -0.120527 0.923966 124 255 124 0.497161
0.032069 -0.119508 0.922507 117 255 130 0.490505
0.031207 -0.116804 0.929922 124 255 124 0.499703
0.030331 -0.117748 0.925506 140 255 108 0.518796
0.028629 -0.115878 0.928448 121 255 127 0.492728
0.036428 -0.122186 0.920934 124 255 124 0.496100
0.033913 -0.120909 0.919404 114 255 134 0.485074
0.035767 -0.122366 0.916326 114 255 134 0.485663
0.038335 -0.123557 0.917902 137 255 111 0.514432
0.039091 -0.123061 0.922455 130 255 117 0.507009
0.040983 -0.124478 0.919411 134 255 114 0.510152
0.041872 -0.123655 0.923974 147 255 101 0.525043
0.040036 -0.122025 0.926955 147 255 101 0.523875
0.043734 -0.125139 0.920964 163 255 85 0.546588
0.026229 -0.115347 0.927186 114 255 134 0.487996
0.027880 -0.117190 0.924106 114 255 134 0.487592
0.025567 -0.116417 0.922794 111 255 137 0.482923
0.023923 -0.114629 0.925867 114 255 134 0.485573
0.027291 -0.117951 0.919632 111 255 137 0.480612
0.023320 -0.115608 0.921519 111 255 137 0.481425
0.025081 -0.116966 0.918281 108 255 140 0.478997
0.022910 -0.116022 0.916972 108 255 140 0.479394
0.021688 -0.113846 0.924587 114 255 134 0.484474
0.021140 -0.114707 0.920272 111 255 137 0.481992
0.019450 -0.113116 0.923376 114 255 134 0.484441
0.026871 -0.118254 0.915104 104 255 143 0.475901
0.024765 -0.117076 0.913714 104 255 143 0.475950
0.026659 -0.117932 0.910373 101 255 147 0.471340
0.028830 -0.119125 0.911879 101 255 147 0.471480
0.029142 -0.119233 0.916539 108 255 140 0.477324
0.031071 -0.120320 0.913400 104 255 143 0.474268
0.031492 -0.120137 0.917969 111 255 137 0.481218
0.029649 -0.118799 0.921092 111 255 137 0.484151
0.033394 -0.121353 0.914867 108 255 140 0.478723
0.034868 -0.118728 0.896607 82 255 166 0.447554
0.036954 -0.120362 0.898193 56 255 192 0.417580
0.034910 -0.120045 0.901540 62 255 185 0.422236
0.037073 -0.121573 0.903156 56 255 192 0.415149
0.039135 -0.121888 0.899773 14 246 234 0.366684
0.035060 -0.121195 0.906532 85 255 163 0.452372
0.039343 -0.122901 0.904743 75 255 172 0.437841
0.037310 -0.122493 0.908127 104 255 143 0.474943
0.039639 -0.123707 0.909697 121 255 127 0.494304
0.041362 -0.123365 0.901374 43 255 205 0.400091
0.041652 -0.124181 0.906320 95 255 153 0.462519
0.043656 -0.124717 0.902976 72 255 176 0.436239
0.035297 -0.122088 0.911499 104 255 143 0.473440
0.037681 -0.123065 0.913011 88 255 160 0.456491
0.033037 -0.120823 0.909962 98 255 150 0.468211
0.030824 -0.119469 0.908452 98 255 150 0.467814
0.032876 -0.119710 0.904978 82 255 166 0.445834
0.030789 -0.118154 0.903425 91 255 156 0.457453
0.028694 -0.118084 0.906912 95 255 153 0.464156
0.032872 -0.118328 0.899988 85 255 163 0.452215
0.046091 -0.126226 0.904685 101 255 147 0.471952
0.044102 -0.125775 0.907939 114 255 134 0.485788
0.046620 -0.126890 0.909540 150 255 98 0.527443
0.048561 -0.127429 0.906315 124 255 124 0.497133
0.044683 -0.126349 0.912818 134 255 114 0.508939
0.049191 -0.127889 0.911221 166 255 82 0.549382
0.047325 -0.127150 0.914478 153 255 95 0.532945
0.051084 -0.128573 0.907992 153 255 95 0.532453
0.045497 -0.126253 0.917707 150 255 98 0.528969
0.042810 -0.125469 0.916134 143 255 104 0.521507
0.040213 -0.124402 0.914598 121 255 127 0.494165
0.042113 -0.125175 0.911286 121 255 127 0.492990
0.040596 -0.106105 0.966092 66 255 182 0.428048
0.039028 -0.104756 0.964721 75 255 172 0.437795
0.040824 -0.108113 0.962342 69 255 179 0.431305
0.039171 -0.106761 0.960873 69 255 179 0.431105
0.037289 -0.103374 0.963261 88 255 160 0.455538
0.041011 -0.110020 0.958510 20 254 228 0.372085
0.037330 -0.105374 0.959331 46 255 202 0.405882
0.039271 -0.108646 0.957005 30 255 218 0.384900
0.037307 -0.107307 0.955382 11 242 237 0.362333
0.035326 -0.101971 0.961666 75 255 172 0.441029
0.035270 -0.103988 0.957680 72 255 176 0.434820
0.033249 -0.100558 0.960030 79 255 169 0.444867
0.041168 -0.111871 0.954628 17 250 231 0.370578
0.039347 -0.110567 0.953082 56 255 192 0.415235
0.041361 -0.113798 0.950712 101 255 147 0.472388
0.043333 -0.115340 0.952232 88 255 160 0.454762
0.043064 -0.113496 0.956085 11 242 237 0.362021
0.045139 -0.116907 0.953658 43 255 205 0.399870
0.044811 -0.115106 0.957452 69 255 179 0.430396
0.042803 -0.111652 0.959920 27 255 221 0.379934
0.044497 -0.113242 0.961251 40 255 208 0.395712
0.046863 -0.118495 0.955002 95 255 153 0.462561
0.046449 -0.116693 0.958747 88 255 160 0.456481
0.048426 -0.120062 0.956228 88 255 160 0.454867
0.042548 -0.109743 0.963683 91 255 156 0.460314
0.030965 -0.099033 0.958467 101 255 147 0.468975
0.032902 -0.102278 0.956123 98 255 150 0.468331
0.030601 -0.100803 0.954507 114 255 134 0.486553
0.028733 -0.097531 0.956909 156 255 92 0.538217
0.032521 -0.104018 0.952210 114 255 134 0.485494
0.028307 -0.099294 0.952876 124 255 124 0.496817
0.030186 -0.102572 0.950587 121 255 127 0.494026
0.027850 -0.101156 0.948903 121 255 127 0.494435
0.026411 -0.096012 0.955225 121 255 127 0.493152
0.025985 -0.097814 0.951166 121 255 127 0.492766
0.024130 -0.094458 0.953537 117 255 130 0.488868
0.032098 -0.105854 0.948314 114 255 134 0.484967
0.029693 -0.104529 0.946651 46 255 202 0.406077
0.031599 -0.107895 0.944444 130 255 117 0.503937
0.034204 -0.109366 0.946098 117 255 130 0.491210
0.034657 -0.107435 0.949984 17 250 231 0.370838
0.036786 -0.110813 0.947699 56 255 192 0.414415
0.037094 -0.108998 0.951558 85 255 163 0.452116
0.035006 -0.105687 0.953842 114 255 134 0.484408
0.039211 -0.112286 0.949236 49 255 198 0.406380
0.040157 -0.116947 0.938298 101 255 147 0.470697
0.042879 -0.118083 0.939814 98 255 150 0.465637
0.040796 -0.115605 0.942429 117 255 130 0.490538
0.045387 -0.119283 0.941298 98 255 150 0.466559
0.043312 -0.116943 0.943955 88 255 160 0.453237
0.045536 -0.118349 0.945379 43 255 205 0.399430
0.047594 -0.120606 0.942689 62 255 185 0.422921
0.041195 -0.114587 0.946594 101 255 147 0.471731
0.043465 -0.116090 0.948061 79 255 169 0.444970
0.038809 -0.113191 0.945053 114 255 134 0.487927
0.036214 -0.111850 0.943514 124 255 124 0.496708
0.038212 -0.114384 0.940898 127 255 121 0.502786
0.035489 -0.113218 0.939354 134 255 114 0.511419
0.033549 -0.110554 0.941916 88 255 160 0.453904
0.037437 -0.115810 0.936826 143 255 104 0.519989
0.049518 -0.121973 0.944142 20 254 228 0.373053
0.051398 -0.123515 0.945452 62 255 185 0.422274
0.049186 -0.121253 0.948198 27 255 221 0.380148
0.053100 -0.125103 0.946637 36 255 211 0.392166
0.050929 -0.122864 0.949439 49 255 198 0.406980
0.052634 -0.124517 0.950613 30 255 218 0.384445
0.054719 -0.126728 0.947762 23 255 224 0.376332
0.048842 -0.120637 0.952252 11 242 237 0.362969
0.050515 -0.122287 0.953419 33 255 215 0.387106
0.047175 -0.119079 0.950953 17 250 231 0.368406
0.045400 -0.117567 0.949554 85 255 163 0.450231
0.047468 -0.119777 0.946844 36 255 211 0.392816
0.021922 -0.093461 0.951889 95 255 153 0.462671
0.023587 -0.096739 0.949570 82 255 166 0.448216
0.021401 -0.095749 0.948033 134 255 114 0.510281
0.019746 -0.092444 0.950314 114 255 134 0.485246
0.022995 -0.099124 0.945821 124 255 124 0.496862
0.019222 -0.094823 0.946514 121 255 127 0.492820
0.020799 -0.098244 0.944397 124 255 124 0.499692
0.018624 -0.097379 0.943029 140 255 108 0.515848
0.017633 -0.091464 0.948756 114 255 134 0.485073
0.017094 -0.093903 0.945053 117 255 130 0.490705
0.015560 -0.090512 0.947223 114 255 134 0.484694
0.022379 -0.101710 0.942304 130 255 117 0.503991
0.020184 -0.100940 0.940998 127 255 121 0.503636
0.021722 -0.104555 0.938934 130 255 117 0.505514
0.024132 -0.105362 0.940283 130 255 117 0.507501
0.024768 -0.102654 0.943746 130 255 117 0.504228
0.026581 -0.106214 0.941639 137 255 111 0.513585
0.027212 -0.103593 0.945180 124 255 124 0.499197
0.025404 -0.100136 0.947338 98 255 150 0.467253
0.029081 -0.107033 0.943022 134 255 114 0.511107
0.013584 -0.089989 0.945912 111 255 137 0.483193
0.014935 -0.093431 0.943799 114 255 134 0.486448
0.012956 -0.093016 0.942666 117 255 130 0.491115
0.011628 -0.089530 0.944683 114 255 134 0.484742
0.014252 -0.096546 0.940731 124 255 124 0.499580
0.010966 -0.092581 0.941534 121 255 127 0.494044
0.012263 -0.096172 0.939689 124 255 124 0.499068
0.010286 -0.095756 0.938684 124 255 124 0.499017
0.009691 -0.089066 0.943514 111 255 137 0.483859
0.009015 -0.092174 0.940542 130 255 117 0.504868
0.007791 -0.088625 0.942390 114 255 134 0.487626
0.013601 -0.099777 0.937716 179 255 69 0.564268
0.011621 -0.099344 0.936686 134 255 114 0.509344
0.013025 -0.102802 0.934510 127 255 121 0.501703
0.015159 -0.103310 0.935616 127 255 121 0.502189
0.015754 -0.100166 0.938807 134 255 114 0.508038
0.017317 -0.103760 0.936698 127 255 121 0.500444
0.017938 -0.100523 0.939886 127 255 121 0.502003
0.016416 -0.096950 0.941851 130 255 117 0.507231
0.019499 -0.104116 0.937817 127 255 121 0.501876
0.019961 -0.111433 0.927394 117 255 130 0.488444
0.022217 -0.112107 0.928630 117 255 130 0.489176
0.020495 -0.109499 0.931369 121 255 127 0.492655
0.024526 -0.112726 0.929924 117 255 130 0.491346
0.022824 -0.109974 0.932576 121 255 127 0.495332
0.025207 -0.110404 0.933821 127 255 121 0.500848
0.026917 -0.113202 0.931170 124 255 124 0.496186
0.021090 -0.107148 0.935226 124 255 124 0.498417
0.023464 -0.107480 0.936418 130 255 117 0.505480
0.018895 -0.106674 0.934094 124 255 124 0.497671
0.016741 -0.106154 0.932939 124 255 124 0.499572
0.018351 -0.108843 0.930202 117 255 130 0.491931
0.016258 -0.108166 0.929066 117 255 130 0.491930
0.014655 -0.105549 0.931835 147 255 101 0.526813
0.017854 -0.110728 0.926243 114 255 134 0.487450
0.029332 -0.114113 0.932561 130 255 117 0.505412
0.031976 -0.114843 0.933990 169 255 79 0.552619
0.030102 -0.111935 0.936566 88 255 160 0.455231
0.034683 -0.115420 0.935407 147 255 101 0.526603
0.032780 -0.112646 0.937972 140 255 108 0.518267
0.030867 -0.109824 0.940484 137 255 111 0.513927
0.028360 -0.109071 0.939097 137 255 111 0.513881
0.025873 -0.108320 0.937748 134 255 114 0.511697
0.027633 -0.111226 0.935175 127 255 121 0.503299
0.048623 0.002789 0.911933 108 255 140 0.478166
0.051652 0.002227 0.913613 108 255 140 0.479182
0.049137 0.001163 0.915928 108 255 140 0.477776
0.046194 0.001596 0.914249 108 255 140 0.476597
0.052446 0.000635 0.917760 108 255 140 0.478420
0.046678 -0.000072 0.918222 104 255 143 0.475681
0.049825 -0.000465 0.920022 104 255 143 0.476043
0.047220 -0.001794 0.922261 101 255 147 0.472304
0.043799 0.000221 0.916535 104 255 143 0.474414
0.044212 -0.001569 0.920493 108 255 140 0.477866
0.041376 -0.001373 0.918800 101 255 147 0.470124
0.053473 -0.000929 0.922050 104 255 143 0.476345
0.050685 -0.002096 0.924252 101 255 147 0.471528
0.054512 -0.002278 0.926382 104 255 143 0.472704
0.057820 -0.001340 0.924260 108 255 140 0.477305
0.056939 -0.000054 0.920015 108 255 140 0.479142
0.060984 -0.000480 0.922077 108 255 140 0.479481
0.060314 0.000787 0.917894 111 255 137 0.480626
0.055654 0.001475 0.915594 108 255 140 0.480242
0.064164 0.000294 0.919868 101 255 147 0.470465
0.038837 -0.003720 0.921183 88 255 160 0.456624
0.041262 -0.003864 0.922781 95 255 153 0.461614
0.038628 -0.005978 0.925312 98 255 150 0.467982
0.036196 -0.005839 0.923783 104 255 143 0.473728
0.041105 -0.006065 0.926869 95 255 153 0.464181
0.035978 -0.007857 0.928000 111 255 137 0.480793
0.038381 -0.007889 0.929503 101 255 147 0.470061
0.035663 -0.009469 0.932297 111 255 137 0.481943
0.033512 -0.007686 0.926561 121 255 127 0.496091
0.033237 -0.009380 0.930891 176 255 72 0.562306
0.030808 -0.009244 0.929438 127 255 121 0.501281
0.040915 -0.007902 0.931048 95 255 153 0.464351
0.038150 -0.009526 0.933779 98 255 150 0.465912
0.040768 -0.009431 0.935399 79 255 169 0.443685
0.044120 -0.007768 0.932924 91 255 156 0.459448
0.044104 -0.006075 0.928575 95 255 153 0.463000
0.047541 -0.005982 0.930584 95 255 153 0.463113
0.047391 -0.004085 0.926338 95 255 153 0.463664
0.044173 -0.004002 0.924482 95 255 153 0.462824
0.051051 -0.004090 0.928444 66 255 182 0.428791
0.051712 -0.007945 0.942814 85 255 163 0.452683
0.055717 -0.006583 0.940641 101 255 147 0.470448
0.052701 -0.006855 0.938726 91 255 156 0.457405
0.056564 -0.005382 0.936526 98 255 150 0.466733
0.059412 -0.005127 0.938457 98 255 150 0.466330
0.053499 -0.005618 0.934562 95 255 153 0.464185
0.060213 -0.003917 0.934318 111 255 137 0.480595
0.057282 -0.004015 0.932403 101 255 147 0.471562
0.060918 -0.002524 0.930241 108 255 140 0.476695
0.063131 -0.003873 0.936231 104 255 143 0.473965
0.063901 -0.002643 0.932115 108 255 140 0.477534
0.066833 -0.002706 0.934018 108 255 140 0.478493
0.054116 -0.004067 0.930454 98 255 150 0.467274
0.057875 -0.002432 0.928361 104 255 143 0.475292
0.050607 -0.005853 0.932595 95 255 153 0.462418
0.046998 -0.007584 0.934840 88 255 160 0.456225
0.050048 -0.007192 0.936857 91 255 156 0.457300
0.046444 -0.008784 0.939111 82 255 166 0.447685
0.043488 -0.009214 0.937203 85 255 163 0.450357
0.049201 -0.008329 0.941002 85 255 163 0.449435
0.070364 -0.002310 0.931839 108 255 140 0.479670
0.067034 -0.002053 0.929834 108 255 140 0.478354
0.070545 -0.001554 0.927723 104 255 143 0.473760
0.073905 -0.001891 0.929686 108 255 140 0.480063
0.067211 -0.001152 0.925753 95 255 153 0.461885
0.074088 -0.001005 0.925590 111 255 137 0.481621
0.070669 -0.000594 0.923622 111 255 137 0.480952
0.077469 -0.001375 0.927562 111 255 137 0.481979
0.067280 -0.000121 0.921694 111 255 137 0.480543
0.064175 -0.000837 0.923920 108 255 140 0.479116
0.061003 -0.001596 0.926135 108 255 140 0.477995
0.064112 -0.001831 0.928008 108 255 140 0.478177
0.028177 -0.011386 0.932254 130 255 117 0.504475
0.030378 -0.011596 0.933628 53 255 195 0.410681
0.027804 -0.013738 0.936325 91 255 156 0.458184
0.025633 -0.013598 0.934909 127 255 121 0.503329
0.029954 -0.013869 0.937710 111 255 137 0.483351
0.025158 -0.015711 0.938979 121 255 127 0.494030
0.027324 -0.015838 0.940394 117 255 130 0.488403
0.024802 -0.017879 0.942823 111 255 137 0.481954
0.022984 -0.015592 0.937540 127 255 121 0.500756
0.022625 -0.017762 0.941390 88 255 160 0.455021
0.020433 -0.017607 0.939964 117 255 130 0.490127
0.029456 -0.015921 0.941811 111 255 137 0.482570
0.026886 -0.017920 0.944306 111 255 137 0.481576
0.029006 -0.017863 0.945806 108 255 140 0.477434
0.031857 -0.015781 0.943345 104 255 143 0.475289
0.032369 -0.013828 0.939177 108 255 140 0.477243
0.034855 -0.013756 0.940623 98 255 150 0.468734
0.035270 -0.011757 0.936429 101 255 147 0.470313
0.032815 -0.011671 0.935031 108 255 140 0.477696
0.037788 -0.011660 0.937959 91 255 156 0.460713
0.018190 -0.020178 0.942097 111 255 137 0.483260
0.020180 -0.020408 0.943518 108 255 140 0.477696
0.018000 -0.022986 0.945517 62 255 185 0.424240
0.015944 -0.022679 0.944164 101 255 147 0.472011
0.015742 -0.025464 0.947479 101 255 147 0.469328
0.015556 -0.028280 0.950693 98 255 150 0.466729
0.013691 -0.025183 0.946106 101 255 147 0.471496
0.011662 -0.027835 0.947772 101 255 147 0.469138
0.019674 -0.025921 0.950321 72 255 176 0.433811
0.019356 -0.028524 0.953656 95 255 153 0.464725
0.021775 -0.025924 0.951766 95 255 153 0.464225
0.022117 -0.023331 0.948347 101 255 147 0.471058
0.024191 -0.023278 0.949890 101 255 147 0.471651
0.024495 -0.020627 0.946400 104 255 143 0.474982
0.022382 -0.020612 0.944902 85 255 163 0.452026
0.026571 -0.020593 0.947884 101 255 147 0.470560
0.026443 -0.028195 0.960119 69 255 179 0.433051
0.029173 -0.025364 0.958265 95 255 153 0.461651
0.027171 -0.025758 0.956653 95 255 153 0.462864
0.029873 -0.022844 0.954738 59 255 189 0.419324
0.031979 -0.022390 0.956309 91 255 156 0.458169
0.027843 -0.023241 0.953105 95 255 153 0.461130
0.032620 -0.019955 0.952725 72 255 176 0.436174
0.030511 -0.020328 0.951122 95 255 153 0.464319
0.033222 -0.017487 0.948947 98 255 150 0.465847
0.034767 -0.019418 0.954357 95 255 153 0.464382
0.035436 -0.017059 0.950582 95 255 153 0.463816
0.037688 -0.016448 0.952250 111 255 137 0.483307
0.031085 -0.017712 0.947404 101 255 147 0.471345
0.022889 -0.028545 0.956888 95 255 153 0.464530
0.041194 -0.014240 0.949884 85 255 163 0.449320
0.038558 -0.014946 0.948189 88 255 160 0.455583
0.042034 -0.012737 0.945748 79 255 169 0.444914
0.044758 -0.012155 0.947506 75 255 172 0.438781
0.039325 -0.013380 0.943948 85 255 163 0.451186
0.045690 -0.010563 0.943320 79 255 169 0.444520
0.042830 -0.011106 0.941447 82 255 166 0.446769
0.048257 -0.010092 0.945122 79 255 169 0.444224
0.040076 -0.011512 0.939660 85 255 163 0.452140
0.037099 -0.013628 0.942218 72 255 176 0.433609
0.034052 -0.015694 0.944855 98 255 150 0.467656
0.036277 -0.015462 0.946439 95 255 153 0.462303
0.029210 -0.064799 0.977395 114 255 134 0.486968
0.027599 -0.064197 0.976324 111 255 137 0.483949
0.028505 -0.069152 0.975338 137 255 111 0.511917
0.026882 -0.068502 0.974149 130 255 117 0.506731
0.025998 -0.063576 0.975134 108 255 140 0.479289
0.027836 -0.073502 0.973107 117 255 130 0.488449
0.025207 -0.067883 0.972822 111 255 137 0.484190
0.026109 -0.072845 0.971784 108 255 140 0.480017
0.024353 -0.072232 0.970366 104 255 143 0.476231
0.024301 -0.062972 0.973824 124 255 124 0.497701
0.023478 -0.067268 0.971332 108 255 140 0.477303
0.022663 -0.062362 0.972311 108 255 140 0.480152
0.027081 -0.077908 0.970677 111 255 137 0.482469
0.025273 -0.077285 0.969215 104 255 143 0.476164
0.026225 -0.082358 0.967985 130 255 117 0.505021
0.028227 -0.083367 0.969577 108 255 140 0.477484
0.028976 -0.078952 0.972077 156 255 92 0.535390
0.030154 -0.084387 0.970993 104 255 143 0.473542
0.030766 -0.079932 0.973388 91 255 156 0.459103
0.029613 -0.074502 0.974386 114 255 134 0.484798
0.031298 -0.075530 0.975546 114 255 134 0.485051
0.031931 -0.085383 0.972313 101 255 147 0.470940
0.032489 -0.080966 0.974575 104 255 143 0.472998
0.033672 -0.086406 0.973497 104 255 143 0.475137
0.030198 -0.070145 0.976488 117 255 130 0.491712
0.020940 -0.061681 0.970768 108 255 140 0.480189
0.021648 -0.066148 0.969768 104 255 143 0.472842
0.019911 -0.065452 0.968147 98 255 150 0.467601
0.019279 -0.060984 0.969116 127 255 121 0.500617
0.020569 -0.069980 0.967108 91 255 156 0.459514
0.018230 -0.064752 0.966369 95 255 153 0.460968
0.018800 -0.069280 0.965371 91 255 156 0.460294
0.017088 -0.068552 0.963529 85 255 163 0.451782
0.017653 -0.060323 0.967379 101 255 147 0.470102
0.016588 -0.064086 0.964559 75 255 172 0.438772
0.016061 -0.059700 0.965498 95 255 153 0.461518
0.019406 -0.073871 0.964285 137 255 111 0.513457
0.017623 -0.073149 0.962487 98 255 150 0.467965
0.018236 -0.077749 0.961319 98 255 150 0.466893
0.020183 -0.078890 0.963159 101 255 147 0.471733
0.021309 -0.075006 0.966037 104 255 143 0.475562
0.022148 -0.080076 0.964901 101 255 147 0.472131
0.023272 -0.076153 0.967736 104 255 143 0.472941
0.022425 -0.071096 0.968784 101 255 147 0.472498
0.024196 -0.081234 0.966488 85 255 163 0.450087
0.024651 -0.091440 0.957178 114 255 134 0.486202
0.026946 -0.092969 0.958848 111 255 137 0.481447
0.025180 -0.088430 0.960825 108 255 140 0.480061
0.029217 -0.094496 0.960432 101 255 147 0.470494
0.027460 -0.089945 0.962458 108 255 140 0.478231
0.029721 -0.091454 0.963995 134 255 114 0.509773
0.031464 -0.096021 0.961960 85 255 163 0.452748
0.025712 -0.085405 0.964444 117 255 130 0.489852
0.027974 -0.086883 0.966043 140 255 108 0.519151
0.023646 -0.084257 0.962873 108 255 140 0.476659
0.021575 -0.083070 0.961262 104 255 143 0.473759
0.023111 -0.087251 0.959221 114 255 134 0.484384
0.021038 -0.086087 0.957553 104 255 143 0.476480
0.019611 -0.081900 0.959503 101 255 147 0.469260
0.022576 -0.090271 0.955479 121 255 127 0.492510
0.033497 -0.097079 0.963558 75 255 172 0.437910
0.035521 -0.098505 0.965119 72 255 176 0.435601
0.033646 -0.093512 0.967050 79 255 169 0.444679
0.037387 -0.099925 0.966597 156 255 92 0.537508
0.035616 -0.094951 0.968489 72 255 176 0.434543
0.037378 -0.096343 0.969831 69 255 179 0.431153
0.039052 -0.101299 0.967961 66 255 182 0.426819
0.033708 -0.089947 0.970386 153 255 95 0.531357
0.035559 -0.091353 0.971679 114 255 134 0.486477
0.031867 -0.088924 0.969024 108 255 140 0.478056
0.029970 -0.087931 0.967567 172 255 75 0.558514
0.031688 -0.092465 0.965543 91 255 156 0.459831
0.068100 -0.005225 0.957679 98 255 150 0.466537
0.072344 -0.004307 0.955674 108 255 140 0.477673
0.070455 -0.004630 0.953732 108 255 140 0.476638
0.074735 -0.003893 0.951650 108 255 140 0.480026
0.076829 -0.003781 0.953562 108 255 140 0.479278
0.072807 -0.004023 0.949797 108 255 140 0.479140
0.079186 -0.003393 0.949554 108 255 140 0.478861
0.077055 -0.003446 0.947631 111 255 137 0.480808
0.081327 -0.002968 0.945459 101 255 147 0.471712
0.081243 -0.003292 0.951427 111 255 137 0.480793
0.083538 -0.002902 0.947424 95 255 153 0.461027
0.085672 -0.002619 0.949489 111 255 137 0.481218
0.074983 -0.003564 0.945687 111 255 137 0.481160
0.079129 -0.002959 0.943532 111 255 137 0.482187
0.077065 -0.002954 0.941677 111 255 137 0.482376
0.068988 -0.004529 0.946078 108 255 140 0.476866
0.066805 -0.005170 0.950141 104 255 143 0.473563
0.064487 -0.005916 0.954028 98 255 150 0.468727
0.060679 -0.006503 0.950423 95 255 153 0.464750
0.090192 -0.003032 0.947605 111 255 137 0.482755
0.087652 -0.002938 0.945419 111 255 137 0.484190
0.092065 -0.003140 0.943539 111 255 137 0.482834
0.094685 -0.003333 0.945700 111 255 137 0.481622
0.089571 -0.002932 0.941435 111 255 137 0.483363
0.096681 -0.003337 0.941707 111 255 137 0.482704
0.094203 -0.002968 0.939734 111 255 137 0.482859
0.091583 -0.002694 0.937622 111 255 137 0.482564
0.089112 -0.002633 0.935584 111 255 137 0.482291
0.087436 -0.002994 0.939519 111 255 137 0.483263
0.085083 -0.002844 0.937579 111 255 137 0.483129
0.083235 -0.003026 0.941478 111 255 137 0.483172
0.085423 -0.003064 0.943373 111 255 137 0.483429
0.081067 -0.002935 0.939628 111 255 137 0.483254
0.080130 -0.001649 0.929468 111 255 137 0.482172
0.076516 -0.002157 0.931535 101 255 147 0.471403
0.079148 -0.002336 0.933447 101 255 147 0.471934
0.072977 -0.002511 0.933703 108 255 140 0.480216
0.075554 -0.002745 0.935550 111 255 137 0.480857
0.072007 -0.002943 0.937781 108 255 140 0.480239
0.069398 -0.002854 0.935885 108 255 140 0.479046
0.078174 -0.002799 0.937528 111 255 137 0.482094
0.074578 -0.003094 0.939689 111 255 137 0.481625
0.082051 -0.002531 0.935516 111 255 137 0.482399
0.086046 -0.002308 0.933491 111 255 137 0.482569
0.083091 -0.001941 0.931509 111 255 137 0.482649
0.065480 -0.003822 0.938096 104 255 143 0.475009
0.061787 -0.004947 0.940348 79 255 169 0.442348
0.063998 -0.004779 0.942199 101 255 147 0.470491
0.057875 -0.006243 0.942499 95 255 153 0.462891
0.060273 -0.006011 0.944408 98 255 150 0.465299
0.056286 -0.007280 0.946558 91 255 156 0.460020
0.054129 -0.007661 0.944683 88 255 160 0.455448
0.062445 -0.005674 0.946320 98 255 150 0.468530
0.058555 -0.006911 0.948488 95 255 153 0.462358
0.066531 -0.004657 0.944161 104 255 143 0.474655
0.070569 -0.003768 0.941956 114 255 134 0.486871
0.068053 -0.003796 0.940029 108 255 140 0.477370
0.050376 -0.009879 0.946872 79 255 169 0.443404
0.046821 -0.011828 0.949239 75 255 172 0.440788
0.048963 -0.011610 0.950947 79 255 169 0.441872
0.043309 -0.013867 0.951568 82 255 166 0.446117
0.045260 -0.013504 0.953240 82 255 166 0.448919
0.041830 -0.015493 0.955561 66 255 182 0.427241
0.039795 -0.015882 0.953939 91 255 156 0.457667
0.047392 -0.013253 0.954961 82 255 166 0.448097
0.043777 -0.015162 0.957220 88 255 160 0.456665
0.045758 -0.014874 0.958880 88 255 160 0.456804
0.049423 -0.012873 0.956705 85 255 163 0.450510
0.051054 -0.011217 0.952725 82 255 166 0.445834
0.053261 -0.010806 0.954565 85 255 163 0.449829
0.054860 -0.009079 0.950609 88 255 160 0.453635
0.052660 -0.009517 0.948719 82 255 166 0.447768
0.057053 -0.008695 0.952518 88 255 160 0.455671
0.035741 -0.021548 0.959545 95 255 153 0.461586
0.032870 -0.024615 0.961422 95 255 153 0.463971
0.029966 -0.027714 0.963293 69 255 179 0.432440
0.033586 -0.027090 0.966258 98 255 150 0.468520
0.036475 -0.023916 0.964545 104 255 143 0.473237
0.037652 -0.021111 0.961135 88 255 160 0.456466
0.039524 -0.020777 0.962709 75 255 172 0.438482
0.040611 -0.018123 0.959213 91 255 156 0.458973
0.038745 -0.018475 0.957629 91 255 156 0.459229
0.042646 -0.017789 0.960858 88 255 160 0.454360
0.039951 -0.026746 0.972065 88 255 160 0.454961
0.042979 -0.023400 0.970443 101 255 147 0.470509
0.044465 -0.020364 0.967312 98 255 150 0.467039
0.047631 -0.017138 0.965552 117 255 130 0.491641
0.049125 -0.014354 0.962148 75 255 172 0.437697
0.052450 -0.013706 0.965419 95 255 153 0.462890
0.039807 -0.023664 0.967540 98 255 150 0.467857
0.036870 -0.026828 0.969214 101 255 147 0.470139
0.056306 -0.011621 0.963441 95 255 153 0.461855
0.058485 -0.009769 0.959823 91 255 156 0.459301
0.062354 -0.007598 0.957856 53 255 195 0.411270
0.052899 -0.012208 0.960108 62 255 185 0.425015
0.018065 -0.055528 0.967382 104 255 143 0.473849
0.019706 -0.056182 0.969113 124 255 124 0.496153
0.020205 -0.051385 0.969020 108 255 140 0.478093
0.021310 -0.056791 0.970750 114 255 134 0.486047
0.021870 -0.052041 0.970621 124 255 124 0.497065
0.023480 -0.052607 0.972118 111 255 137 0.483352
0.022970 -0.057453 0.972280 111 255 137 0.480532
0.022574 -0.047345 0.970266 108 255 140 0.477293
0.024155 -0.047915 0.971817 108 255 140 0.478983
0.025086 -0.043299 0.971303 108 255 140 0.477095
0.021920 -0.042918 0.968293 104 255 143 0.474172
0.019480 -0.046869 0.967013 121 255 127 0.494779
0.017129 -0.050860 0.965503 124 255 124 0.499168
0.018765 -0.042528 0.964941 121 255 127 0.493028
0.026154 -0.058352 0.975056 111 255 137 0.484280
0.026651 -0.053148 0.974809 114 255 134 0.484877
0.027839 -0.058937 0.976237 114 255 134 0.486937
0.028308 -0.053698 0.975934 114 255 134 0.487526
0.029930 -0.054222 0.976875 117 255 130 0.491148
0.029434 -0.059514 0.977209 117 255 130 0.489409
0.029046 -0.048552 0.975501 111 255 137 0.481507
0.030731 -0.049034 0.976436 114 255 134 0.487281
0.031662 -0.044010 0.976065 121 255 127 0.492314
0.028336 -0.043596 0.973874 111 255 137 0.480948
0.036297 -0.030785 0.971729 104 255 143 0.473921
0.032648 -0.034857 0.971358 104 255 143 0.475498
0.033104 -0.030916 0.968849 101 255 147 0.472044
0.029283 -0.035154 0.968723 104 255 143 0.473183
0.028718 -0.039031 0.971321 108 255 140 0.476595
0.032068 -0.039326 0.973787 108 255 140 0.480368
0.035745 -0.035262 0.974100 104 255 143 0.476301
0.029702 -0.031193 0.966067 98 255 150 0.467928
0.025860 -0.035135 0.965857 98 255 150 0.468625
0.026156 -0.031618 0.962991 95 255 153 0.464428
0.022452 -0.035336 0.962643 82 255 166 0.447874
0.022124 -0.038796 0.965566 98 255 150 0.468304
0.025428 -0.039053 0.968604 104 255 143 0.473081
0.068359 -0.058681 0.999457 108 255 140 0.480336
0.068868 -0.062447 1.000000 95 255 153 0.464355
0.068343 -0.042299 0.998554 121 255 127 0.493531
0.068072 -0.046448 0.999320 121 255 127 0.494566
0.065425 -0.046587 0.997825 121 255 127 0.493880
0.064638 -0.050972 0.997317 124 255 124 0.496933
0.065236 -0.055049 0.997612 137 255 111 0.515506
0.064462 -0.059370 0.997297 104 255 143 0.476213
0.064979 -0.063379 0.997742 98 255 150 0.467201
0.062307 -0.063980 0.996306 101 255 147 0.469038
0.067862 -0.054690 0.999052 108 255 140 0.477102
0.068662 -0.050553 0.999544 121 255 127 0.494789
0.078419 -0.002770 0.970386 101 255 147 0.472656
0.081791 -0.002342 0.967050 104 255 143 0.473635
0.085262 -0.002092 0.963710 104 255 143 0.473510
0.087407 -0.002346 0.958547 108 255 140 0.476951
0.082741 -0.002661 0.960506 108 255 140 0.476812
0.079369 -0.003020 0.963893 104 255 143 0.475116
0.076116 -0.003315 0.967355 95 255 153 0.461422
0.073650 -0.003977 0.964198 104 255 143 0.475082
0.088916 -0.002412 0.953054 111 255 137 0.481709
0.079737 -0.003168 0.956951 108 255 140 0.479090
0.075329 -0.003882 0.958935 108 255 140 0.477157
0.070855 -0.004607 0.960947 104 255 143 0.474907
0.084396 -0.002735 0.955077 108 255 140 0.479091
0.071221 -0.134036 0.951894 91 255 156 0.457237
0.069039 -0.133380 0.950848 62 255 185 0.422472
0.070890 -0.134414 0.948043 69 255 179 0.431648
0.068833 -0.134070 0.947212 72 255 176 0.436401
0.066923 -0.133090 0.950036 62 255 185 0.424723
0.070716 -0.135085 0.944421 88 255 160 0.456840
0.066942 -0.133913 0.946565 62 255 185 0.424728
0.068851 -0.134881 0.943756 82 255 166 0.448120
0.067046 -0.134659 0.943072 59 255 189 0.420727
0.064995 -0.132941 0.949406 62 255 185 0.424361
0.065079 -0.133714 0.945903 59 255 189 0.421707
0.063184 -0.132785 0.948794 69 255 179 0.430369
0.070717 -0.135852 0.940858 75 255 172 0.440749
0.068966 -0.135617 0.940193 104 255 143 0.474095
0.070847 -0.136566 0.937240 62 255 185 0.423105
0.072625 -0.136468 0.937626 56 255 192 0.417849
0.072576 -0.135740 0.941240 66 255 182 0.427420
0.074465 -0.136369 0.938048 43 255 205 0.398638
0.074596 -0.135801 0.941768 72 255 176 0.436813
0.072771 -0.135105 0.944931 82 255 166 0.447312
0.074879 -0.135448 0.945608 79 255 169 0.445105
0.076494 -0.136489 0.938620 88 255 160 0.454785
0.076755 -0.136170 0.942492 66 255 182 0.428018
0.078664 -0.136829 0.939364 85 255 163 0.451892
0.073043 -0.134742 0.948756 72 255 176 0.437210
0.061680 -0.131905 0.947978 59 255 189 0.418564
0.063506 -0.132913 0.945089 53 255 195 0.412049
0.062010 -0.132006 0.944177 43 255 205 0.400269
0.060108 -0.130955 0.947043 62 255 185 0.424702
0.063837 -0.133055 0.941313 40 255 208 0.398144
0.060385 -0.131025 0.943152 49 255 198 0.407476
0.062256 -0.132121 0.940287 66 255 182 0.428767
0.058492 -0.129960 0.946042 36 255 211 0.392561
0.064065 -0.133187 0.937419 62 255 185 0.423845
0.065996 -0.134190 0.934492 11 242 237 0.362368
0.065763 -0.134030 0.938410 36 255 211 0.393045
0.067721 -0.135007 0.935511 43 255 205 0.400331
0.067427 -0.134830 0.939360 53 255 195 0.413391
0.065474 -0.133858 0.942225 49 255 198 0.409579
0.069355 -0.135807 0.936445 53 255 195 0.411152
0.072568 -0.136976 0.922682 7 238 240 0.357842
0.070887 -0.136383 0.925625 17 250 231 0.371029
0.072675 -0.137056 0.926743 17 250 231 0.368394
0.074358 -0.137635 0.923823 14 246 234 0.363710
0.071004 -0.136452 0.929649 69 255 179 0.432027
0.074345 -0.137708 0.927740 40 255 208 0.395508
0.072669 -0.137112 0.930628 46 255 202 0.405659
0.074140 -0.137752 0.931514 72 255 176 0.436233
0.076011 -0.138267 0.924841 30 255 218 0.385922
0.075826 -0.138334 0.928645 56 255 192 0.415236
0.077497 -0.138899 0.925744 49 255 198 0.408445
0.070983 -0.136493 0.933508 53 255 195 0.410659
0.072458 -0.137156 0.934350 82 255 166 0.448332
0.069359 -0.135745 0.932598 72 255 176 0.435005
0.067647 -0.134928 0.931578 4 234 244 0.353525
0.069264 -0.135670 0.928608 1 230 247 0.349764
0.079178 -0.138694 0.926458 53 255 195 0.412212
0.077658 -0.138230 0.929124 82 255 166 0.449213
0.079353 -0.138060 0.929834 62 255 185 0.423964
0.080938 -0.138548 0.927224 59 255 189 0.419187
0.077766 -0.137569 0.932422 59 255 189 0.419859
0.081267 -0.138123 0.930734 75 255 172 0.440243
0.079724 -0.137643 0.933327 95 255 153 0.461053
0.081690 -0.137894 0.934280 95 255 153 0.464349
0.082809 -0.138600 0.928141 66 255 182 0.429541
0.083212 -0.138397 0.931715 79 255 169 0.443220
0.084798 -0.138881 0.929190 88 255 160 0.455867
0.078172 -0.137113 0.935879 69 255 179 0.429982
0.080174 -0.137383 0.936837 69 255 179 0.429811
0.076119 -0.136979 0.935250 46 255 202 0.403784
0.074309 -0.137079 0.934821 69 255 179 0.431874
0.075969 -0.137682 0.931994 53 255 195 0.412423
0.074357 -0.004747 0.972148 101 255 147 0.472116
0.071598 -0.006707 0.975324 85 255 163 0.449556
0.067736 -0.009185 0.976870 104 255 143 0.473049
0.064989 -0.011595 0.979704 104 255 143 0.474937
0.062564 -0.011855 0.976982 104 255 143 0.474965
0.069965 -0.008844 0.979618 104 255 143 0.472882
0.067342 -0.011476 0.982311 104 255 143 0.474568
0.073841 -0.006440 0.978176 101 255 147 0.469969
0.077793 -0.004189 0.976613 101 255 147 0.472280
0.059623 -0.015505 0.978351 104 255 143 0.474442
0.057938 -0.019146 0.980972 104 255 143 0.474602
0.054974 -0.023002 0.982226 104 255 143 0.475801
0.053482 -0.026886 0.984609 104 255 143 0.476246
0.050890 -0.026688 0.982321 104 255 143 0.475829
0.057524 -0.023112 0.984508 104 255 143 0.475802
0.056071 -0.027116 0.986721 108 255 140 0.476825
0.060350 -0.019261 0.983370 101 255 147 0.471368
0.063283 -0.015327 0.982244 104 255 143 0.475231
0.061330 -0.027770 0.990921 111 255 137 0.481259
0.064046 -0.023737 0.990089 108 255 140 0.478195
0.065448 -0.019599 0.988035 104 255 143 0.474930
0.068201 -0.015642 0.987150 104 255 143 0.473083
0.069799 -0.011629 0.984913 104 255 143 0.474279
0.065769 -0.015372 0.984655 111 255 137 0.481168
0.062902 -0.019338 0.985712 91 255 156 0.460843
0.060093 -0.023277 0.986737 104 255 143 0.476113
0.058708 -0.027422 0.988867 108 255 140 0.478015
0.072203 -0.008806 0.982307 104 255 143 0.473030
0.059390 -0.032526 0.990993 111 255 137 0.480545
0.059050 -0.037282 0.992005 111 255 137 0.482872
0.057243 -0.041927 0.992150 114 255 134 0.484418
0.056841 -0.046585 0.993024 111 255 137 0.483971
0.053979 -0.046464 0.991527 91 255 156 0.458200
0.060151 -0.041996 0.993848 114 255 134 0.487250
0.059738 -0.046655 0.994705 114 255 134 0.486511
0.061813 -0.037512 0.993733 111 255 137 0.482092
0.063612 -0.032967 0.993776 111 255 137 0.482273
0.064030 -0.028152 0.992832 127 255 121 0.501939
0.066680 -0.028546 0.994698 111 255 137 0.483483
0.053132 -0.051360 0.991167 117 255 130 0.491967
0.053891 -0.056045 0.991633 150 255 98 0.529629
0.053183 -0.060860 0.991402 124 255 124 0.496544
0.053799 -0.065519 0.991878 75 255 172 0.438841
0.050982 -0.065943 0.990464 130 255 117 0.507053
0.056041 -0.060468 0.992849 108 255 140 0.479867
0.056630 -0.065090 0.993395 95 255 153 0.463411
0.056768 -0.055887 0.993135 117 255 130 0.490303
0.057506 -0.051267 0.993461 117 255 130 0.489951
0.061809 -0.059695 0.995864 111 255 137 0.480637
0.062527 -0.055371 0.996147 108 255 140 0.478018
0.061883 -0.051022 0.995818 117 255 130 0.491863
0.062565 -0.046635 0.996218 117 255 130 0.491317
0.059716 -0.055636 0.994719 117 255 130 0.491528
0.058929 -0.060215 0.994391 91 255 156 0.458500
0.059516 -0.064536 0.994843 98 255 150 0.466675
0.065736 -0.042163 0.997026 121 255 127 0.492508
0.067457 -0.037852 0.997181 114 255 134 0.485475
0.067763 -0.033315 0.996422 111 255 137 0.483971
0.064667 -0.037680 0.995497 88 255 160 0.455719
0.062841 -0.042215 0.995383 124 255 124 0.496261
0.047532 -0.031271 0.981815 104 255 143 0.476266
0.048194 -0.026631 0.979945 104 255 143 0.476401
0.044176 -0.035813 0.981261 114 255 134 0.486272
0.044749 -0.031191 0.979408 95 255 153 0.462644
0.041521 -0.035635 0.979115 124 255 124 0.498546
0.045574 -0.026656 0.977406 111 255 137 0.484093
0.040939 -0.040288 0.980966 111 255 137 0.482608
0.037651 -0.044772 0.980561 95 255 153 0.462794
0.040560 -0.045022 0.982746 140 255 108 0.519018
0.043681 -0.040557 0.982996 121 255 127 0.493796
0.047035 -0.036025 0.983567 111 255 137 0.484277
0.043292 -0.045372 0.984663 127 255 121 0.501834
0.042074 -0.031003 0.977019 98 255 150 0.468036
0.042767 -0.026633 0.974780 104 255 143 0.474323
0.038567 -0.035311 0.976624 101 255 147 0.470327
0.039255 -0.030951 0.974440 104 255 143 0.475383
0.035134 -0.039632 0.976274 111 255 137 0.483969
0.034707 -0.044364 0.978355 114 255 134 0.487719
0.038076 -0.039995 0.978663 108 255 140 0.478456
0.032396 -0.059815 0.978938 124 255 124 0.499959
0.032130 -0.065291 0.979213 124 255 124 0.497497
0.032951 -0.054395 0.978700 124 255 124 0.499415
0.036113 -0.055112 0.980735 134 255 114 0.508824
0.035539 -0.060449 0.980802 160 255 88 0.541027
0.035074 -0.065882 0.980875 176 255 72 0.560839
0.035317 -0.049511 0.979576 124 255 124 0.499404
0.038439 -0.060693 0.982611 140 255 108 0.516821
0.037961 -0.066059 0.982609 134 255 114 0.509561
0.039001 -0.055386 0.982620 143 255 104 0.520113
0.041874 -0.055729 0.984508 140 255 108 0.517419
0.041358 -0.060991 0.984492 137 255 111 0.515411
0.040874 -0.066320 0.984443 127 255 121 0.502023
0.041186 -0.050341 0.983728 130 255 117 0.507807
0.038283 -0.050010 0.981671 130 255 117 0.506061
0.050144 -0.031515 0.983963 85 255 163 0.452650
0.049617 -0.036304 0.985465 111 255 137 0.483233
0.046466 -0.040837 0.985050 127 255 121 0.502977
0.046018 -0.045662 0.986529 147 255 101 0.526948
0.049087 -0.041149 0.986894 117 255 130 0.488416
0.048627 -0.046017 0.988242 101 255 147 0.469619
0.052278 -0.036613 0.987493 111 255 137 0.482072
0.052839 -0.031739 0.986076 108 255 140 0.477579
0.043907 -0.050586 0.985551 134 255 114 0.508407
0.044552 -0.055812 0.986251 124 255 124 0.498019
0.043963 -0.061067 0.986080 134 255 114 0.511341
0.043413 -0.066371 0.985881 124 255 124 0.497960
0.045966 -0.066354 0.987540 117 255 130 0.492069
0.046501 -0.061233 0.987617 130 255 117 0.506174
0.047132 -0.056133 0.987790 134 255 114 0.507963
0.046584 -0.050871 0.987256 127 255 121 0.503285
0.050445 -0.060968 0.989963 121 255 127 0.493777
