ply
format ascii 1.0
comment VCGLIB generated
element vertex 953
property float x
property float y
property float z
property uchar red
property uchar green
property uchar blue
property float quality
end_header
0.046482 -0.075319 0.798100 189 255 59 0.576646
0.044380 -0.078567 0.797324 114 255 134 0.485812
0.042531 -0.075686 0.795920 172 255 75 0.558091
0.042493 -0.081421 0.796668 160 255 88 0.542494
0.044569 -0.072273 0.796375 166 255 82 0.548619
0.042941 -0.069197 0.794572 153 255 95 0.533871
0.047297 -0.068668 0.796406 147 255 101 0.526083
0.048970 -0.072014 0.798560 160 255 88 0.540098
0.040542 -0.078697 0.795057 169 255 79 0.551704
0.038787 -0.081527 0.794784 166 255 82 0.548985
0.038752 -0.075956 0.793477 172 255 75 0.555055
0.037047 -0.078953 0.793097 169 255 79 0.550845
0.038757 -0.072909 0.793119 192 255 56 0.580041
0.038903 -0.069614 0.792539 160 255 88 0.540855
0.036705 -0.055830 0.789148 137 255 111 0.511844
0.038874 -0.059275 0.790601 137 255 111 0.511892
0.038827 -0.055536 0.790146 137 255 111 0.512736
0.038728 -0.062870 0.791297 140 255 108 0.516559
0.040995 -0.059022 0.791620 137 255 111 0.511904
0.040906 -0.062679 0.792297 137 255 111 0.513844
0.043115 -0.062441 0.793358 137 255 111 0.514021
0.040901 -0.055169 0.791186 137 255 111 0.512618
0.043109 -0.058700 0.792665 137 255 111 0.512115
0.043033 -0.054835 0.792297 137 255 111 0.513310
0.040791 -0.066095 0.792916 147 255 101 0.524754
0.042991 -0.065955 0.794054 143 255 104 0.521731
0.036780 -0.066578 0.791055 147 255 101 0.527284
0.045199 -0.054440 0.793334 137 255 111 0.512788
0.047459 -0.058003 0.794586 137 255 111 0.513071
0.047435 -0.054022 0.794487 140 255 108 0.516161
0.047418 -0.061827 0.795018 134 255 114 0.511536
0.049709 -0.057742 0.795800 137 255 111 0.513382
0.049653 -0.061536 0.796153 134 255 114 0.509684
0.049702 -0.053599 0.795752 169 255 79 0.554473
0.049495 -0.065278 0.796840 104 255 143 0.473040
0.052323 -0.084648 0.802821 189 255 59 0.575475
0.053998 -0.087619 0.804555 163 255 85 0.544440
0.056663 -0.084800 0.804947 156 255 92 0.535805
0.058343 -0.087878 0.806643 150 255 98 0.528584
0.055696 -0.090600 0.806043 143 255 104 0.522392
0.057321 -0.093371 0.807484 147 255 101 0.524488
0.053251 -0.093015 0.805825 130 255 117 0.507116
0.051625 -0.090201 0.804113 160 255 88 0.542609
0.049920 -0.087259 0.802472 169 255 79 0.552309
0.049087 -0.092538 0.804550 166 255 82 0.547118
0.061076 -0.084936 0.807211 140 255 108 0.519346
0.062590 -0.088204 0.808736 140 255 108 0.518291
0.065682 -0.085244 0.809177 130 255 117 0.506815
0.064170 -0.091186 0.810017 143 255 104 0.520720
0.061516 -0.093748 0.809231 140 255 108 0.518219
0.059910 -0.090845 0.808061 143 255 104 0.523416
0.058373 -0.101070 0.813358 130 255 117 0.504329
0.059342 -0.098621 0.811687 137 255 111 0.514629
0.055443 -0.098208 0.810447 147 255 101 0.524400
0.054616 -0.100766 0.812249 143 255 104 0.520958
0.058357 -0.095915 0.809675 143 255 104 0.521350
0.062587 -0.096406 0.811074 134 255 114 0.510970
0.050860 -0.100513 0.811399 147 255 101 0.525636
0.051525 -0.097903 0.809470 153 255 95 0.533904
0.047683 -0.097530 0.808589 121 255 127 0.495819
0.047167 -0.100363 0.810472 143 255 104 0.523300
0.050245 -0.095183 0.807173 163 255 85 0.543481
0.054346 -0.095607 0.808207 150 255 98 0.528160
0.026985 -0.133883 0.821839 137 255 111 0.512874
0.024841 -0.135108 0.825534 140 255 108 0.517663
0.021096 -0.136383 0.828489 143 255 104 0.522637
0.018715 -0.137423 0.832405 143 255 104 0.522820
0.014870 -0.138464 0.835481 140 255 108 0.519073
0.017693 -0.138369 0.837144 140 255 108 0.517656
0.015809 -0.137503 0.830737 147 255 101 0.525167
0.011891 -0.138403 0.833838 143 255 104 0.520589
0.018310 -0.136561 0.826786 147 255 101 0.524798
0.020804 -0.135543 0.822929 82 255 166 0.447537
0.024446 -0.134289 0.819968 104 255 143 0.475091
0.021709 -0.134676 0.818221 134 255 114 0.511592
0.015281 -0.138554 0.841076 137 255 111 0.515580
0.011425 -0.138691 0.844097 137 255 111 0.514824
0.009191 -0.138452 0.847842 137 255 111 0.513055
0.006199 -0.138658 0.846150 150 255 98 0.528353
0.008487 -0.138744 0.842439 153 255 95 0.532563
0.010942 -0.138524 0.838640 140 255 108 0.516832
-0.001317 -0.139287 0.841603 134 255 114 0.511305
0.002498 -0.139026 0.838905 134 255 114 0.511533
0.004852 -0.138776 0.835151 134 255 114 0.511526
0.008841 -0.138415 0.832172 140 255 108 0.517757
0.005784 -0.138546 0.830440 140 255 108 0.518582
0.007931 -0.138639 0.836928 137 255 111 0.514955
0.005502 -0.138823 0.840738 137 255 111 0.514128
0.003230 -0.138840 0.844394 137 255 111 0.513052
0.008329 -0.137588 0.826677 143 255 104 0.522853
0.012427 -0.136763 0.823555 150 255 98 0.528452
0.014957 -0.135996 0.819645 104 255 143 0.476209
0.018931 -0.135108 0.816464 137 255 111 0.515147
0.015974 -0.135500 0.814837 143 255 104 0.519754
0.017909 -0.135775 0.821276 140 255 108 0.517109
0.015409 -0.136654 0.825194 150 255 98 0.529486
0.012857 -0.137516 0.829117 147 255 101 0.526818
-0.004453 -0.139634 0.839670 134 255 114 0.510977
-0.002161 -0.139541 0.836039 134 255 114 0.509850
-0.005403 -0.139821 0.834172 150 255 98 0.530778
-0.007668 -0.139964 0.837750 134 255 114 0.509650
-0.001406 -0.139349 0.831474 130 255 117 0.503967
-0.000604 -0.139187 0.826941 121 255 127 0.495832
0.002591 -0.138834 0.828718 130 255 117 0.505210
0.001768 -0.139034 0.833324 130 255 117 0.507570
-0.010899 -0.140393 0.835825 114 255 134 0.487637
-0.008614 -0.140310 0.832222 130 255 117 0.504976
-0.006289 -0.139914 0.828713 124 255 124 0.496191
-0.003844 -0.139669 0.825087 114 255 134 0.487675
0.004142 -0.137410 0.813975 140 255 108 0.516193
0.006907 -0.137136 0.810175 150 255 98 0.527961
0.001429 -0.137882 0.817802 130 255 117 0.505551
0.004591 -0.137316 0.819543 137 255 111 0.515266
0.007271 -0.136826 0.815666 130 255 117 0.507540
0.009960 -0.136464 0.811736 176 255 72 0.561623
0.000356 -0.138365 0.822389 124 255 124 0.497123
-0.002902 -0.138923 0.820623 117 255 130 0.489240
0.010437 -0.136458 0.817174 147 255 101 0.527033
0.013011 -0.135984 0.813249 150 255 98 0.527358
0.007840 -0.137014 0.821117 147 255 101 0.524707
0.005169 -0.137803 0.824977 137 255 111 0.514202
0.018324 -0.110848 0.784876 134 255 114 0.511178
0.018104 -0.106332 0.783567 91 255 156 0.460648
0.018821 -0.101576 0.783545 127 255 121 0.501229
0.018451 -0.097344 0.782182 255 127 0 0.773308
0.020417 -0.096623 0.784685 137 255 111 0.512810
0.020756 -0.100711 0.785959 114 255 134 0.486308
0.020207 -0.105563 0.785906 121 255 127 0.494124
0.020411 -0.110002 0.787080 130 255 117 0.507291
0.019676 -0.114916 0.787104 140 255 108 0.516253
0.021695 -0.114042 0.789338 134 255 114 0.509497
0.016452 -0.093673 0.780184 137 255 111 0.513261
0.015422 -0.089805 0.779233 143 255 104 0.521634
0.015779 -0.086093 0.779487 143 255 104 0.521439
0.018074 -0.085709 0.781955 150 255 98 0.529255
0.017680 -0.089371 0.781802 255 101 0 0.797835
0.018513 -0.093039 0.782647 147 255 101 0.525002
0.023136 -0.084947 0.786905 143 255 104 0.520474
0.022260 -0.088367 0.786962 140 255 108 0.519014
0.022740 -0.091732 0.787932 137 255 111 0.515328
0.022440 -0.095780 0.787343 127 255 121 0.500742
0.024466 -0.094928 0.789977 134 255 114 0.510231
0.020690 -0.092439 0.785399 137 255 111 0.514039
0.019893 -0.088877 0.784395 153 255 95 0.531602
0.020558 -0.085415 0.784583 156 255 92 0.536289
0.024720 -0.098676 0.791244 124 255 124 0.498671
0.024189 -0.103582 0.791008 101 255 147 0.472394
0.024459 -0.107979 0.792031 111 255 137 0.483347
0.023750 -0.113104 0.791734 98 255 150 0.467546
0.025596 -0.111946 0.794283 121 255 127 0.493379
0.022503 -0.109029 0.789602 124 255 124 0.496651
0.022294 -0.104627 0.788392 111 255 137 0.482197
0.022784 -0.099748 0.788655 114 255 134 0.485469
0.027500 -0.134831 0.827294 140 255 108 0.517105
0.029560 -0.133445 0.823759 137 255 111 0.514482
0.025355 -0.136082 0.830931 140 255 108 0.518744
0.028018 -0.135802 0.832626 137 255 111 0.515503
0.030104 -0.134339 0.829092 137 255 111 0.514625
0.032150 -0.132873 0.825704 137 255 111 0.512678
0.024454 -0.137181 0.835561 140 255 108 0.516516
0.023593 -0.138196 0.840257 137 255 111 0.513765
0.020683 -0.138323 0.838688 140 255 108 0.515669
0.021562 -0.137344 0.834015 143 255 104 0.519620
0.032838 -0.133753 0.831001 134 255 114 0.511025
0.034868 -0.132231 0.827653 134 255 114 0.509331
0.030872 -0.135371 0.834372 137 255 111 0.512405
0.028749 -0.136747 0.838061 137 255 111 0.512516
0.026601 -0.137990 0.841764 137 255 111 0.512105
0.019952 -0.137580 0.853099 134 255 114 0.511528
0.022164 -0.137982 0.849357 134 255 114 0.511452
0.019060 -0.138409 0.847926 137 255 111 0.511929
0.016799 -0.138021 0.851668 134 255 114 0.511040
0.022839 -0.138305 0.844820 137 255 111 0.512095
0.025923 -0.137844 0.846362 134 255 114 0.510883
0.013767 -0.138297 0.850147 134 255 114 0.511286
0.016040 -0.138590 0.846350 137 255 111 0.512661
0.018327 -0.138553 0.842548 137 255 111 0.514504
0.048331 -0.084422 0.800604 163 255 85 0.546133
0.045920 -0.087074 0.800719 134 255 114 0.509776
0.047538 -0.089820 0.802580 166 255 82 0.550715
0.045172 -0.092151 0.803408 153 255 95 0.531614
0.043514 -0.089435 0.801327 166 255 82 0.548621
0.041253 -0.091850 0.802251 163 255 85 0.544715
0.041730 -0.086769 0.799230 0 202 255 0.320633
0.044122 -0.084264 0.798696 95 255 153 0.462852
0.046448 -0.094802 0.806157 166 255 82 0.548607
0.044041 -0.097520 0.807505 156 255 92 0.536758
0.043770 -0.100575 0.809215 150 255 98 0.529565
0.043662 -0.104128 0.810535 143 255 104 0.519786
0.040379 -0.104753 0.808908 150 255 98 0.529199
0.040325 -0.100909 0.807709 153 255 95 0.532173
0.040368 -0.097468 0.806286 153 255 95 0.533101
0.042607 -0.094579 0.804994 160 255 88 0.542558
0.034485 -0.106693 0.804607 140 255 108 0.518031
0.034335 -0.102432 0.803652 143 255 104 0.519840
0.035539 -0.098193 0.803650 137 255 111 0.515029
0.035529 -0.094762 0.802171 49 255 198 0.410144
0.037613 -0.091820 0.800940 150 255 98 0.531093
0.034267 -0.091947 0.799409 150 255 98 0.528020
0.038935 -0.094552 0.803777 150 255 98 0.528956
0.037284 -0.101625 0.805841 150 255 98 0.529068
0.037396 -0.105670 0.806926 179 255 69 0.566148
0.034267 -0.089099 0.798061 150 255 98 0.531160
0.036302 -0.086596 0.797137 160 255 88 0.539764
0.036618 -0.084091 0.795495 166 255 82 0.549254
0.040266 -0.084153 0.797062 163 255 85 0.544464
0.039565 -0.089100 0.800192 153 255 95 0.533435
0.026429 -0.106825 0.794698 104 255 143 0.475368
0.026133 -0.102418 0.793677 114 255 134 0.485552
0.026816 -0.097727 0.793902 134 255 114 0.511135
0.026617 -0.094094 0.792562 143 255 104 0.519853
0.028818 -0.093256 0.795013 147 255 101 0.525544
0.028905 -0.096750 0.796369 140 255 108 0.518788
0.028172 -0.101240 0.796272 130 255 117 0.506383
0.028390 -0.105465 0.797292 121 255 127 0.493238
0.027489 -0.110644 0.796943 111 255 137 0.482513
0.029570 -0.109306 0.799520 114 255 134 0.485862
0.025022 -0.091054 0.790607 140 255 108 0.518686
0.024688 -0.087796 0.789452 143 255 104 0.520595
0.025900 -0.084602 0.789236 143 255 104 0.522335
0.028676 -0.084288 0.791241 150 255 98 0.528598
0.027209 -0.087305 0.791769 147 255 101 0.524631
0.027344 -0.090347 0.792909 147 255 101 0.524737
0.033360 -0.084105 0.794032 160 255 88 0.540511
0.033013 -0.086666 0.795628 153 255 95 0.534191
0.031269 -0.089435 0.796329 150 255 98 0.529535
0.031330 -0.092511 0.797363 150 255 98 0.528280
0.029981 -0.086803 0.793874 150 255 98 0.529083
0.032572 -0.095396 0.800210 137 255 111 0.514751
0.032737 -0.099054 0.801417 59 255 189 0.418800
0.031744 -0.103571 0.801259 137 255 111 0.511956
0.031926 -0.107988 0.802124 127 255 121 0.502660
0.030300 -0.100076 0.798894 137 255 111 0.512193
0.016836 -0.134043 0.810390 137 255 111 0.512104
0.017649 -0.132630 0.806002 137 255 111 0.514957
0.013960 -0.134716 0.808791 147 255 101 0.524256
0.014898 -0.133445 0.804383 143 255 104 0.521642
0.018438 -0.131163 0.801726 137 255 111 0.513119
0.019125 -0.129379 0.797669 104 255 143 0.474019
0.021445 -0.128413 0.799488 137 255 111 0.512938
0.020858 -0.130231 0.803534 85 255 163 0.452776
0.020223 -0.131892 0.807771 98 255 150 0.466752
0.023558 -0.127369 0.801546 137 255 111 0.514442
0.011063 -0.135370 0.807241 147 255 101 0.527102
0.012286 -0.134355 0.802818 143 255 104 0.522184
0.008063 -0.136194 0.805732 147 255 101 0.525331
0.013386 -0.133115 0.798500 137 255 111 0.514784
0.016731 -0.130426 0.795934 140 255 108 0.516756
0.015920 -0.132152 0.800075 140 255 108 0.518973
0.019277 -0.119079 0.788968 143 255 104 0.520460
0.018712 -0.122998 0.791057 143 255 104 0.521881
0.020811 -0.122215 0.793076 143 255 104 0.520474
0.021327 -0.118280 0.791059 140 255 108 0.517238
0.019020 -0.126340 0.794257 143 255 104 0.519986
0.016765 -0.127419 0.792361 143 255 104 0.522152
0.023341 -0.117219 0.793424 140 255 108 0.516436
0.022873 -0.121158 0.795237 140 255 108 0.517986
0.024783 -0.120149 0.797660 137 255 111 0.515411
0.025135 -0.116084 0.795992 189 255 59 0.575864
0.023282 -0.124385 0.798285 140 255 108 0.517388
0.021174 -0.125467 0.796220 140 255 108 0.518896
0.027449 -0.131724 0.817755 137 255 111 0.512723
0.027716 -0.129670 0.813707 137 255 111 0.513894
0.024899 -0.132365 0.815774 104 255 143 0.472935
0.025243 -0.130393 0.811673 137 255 111 0.513357
0.027796 -0.127547 0.809875 137 255 111 0.512941
0.027818 -0.125337 0.806138 134 255 114 0.511431
0.029993 -0.124244 0.808633 134 255 114 0.507943
0.030070 -0.126662 0.812208 137 255 111 0.511862
0.030062 -0.128875 0.815952 137 255 111 0.513633
0.032295 -0.123064 0.811188 130 255 117 0.504800
0.022298 -0.132967 0.813814 104 255 143 0.473275
0.022793 -0.131130 0.809644 134 255 114 0.509687
0.019586 -0.133492 0.812072 43 255 205 0.401334
0.023223 -0.129280 0.805503 134 255 114 0.511150
0.025696 -0.126360 0.803737 137 255 111 0.514003
0.025512 -0.128416 0.807662 137 255 111 0.514234
0.027031 -0.114780 0.798601 124 255 124 0.497668
0.026662 -0.118865 0.800142 130 255 117 0.505224
0.028657 -0.117628 0.802836 124 255 124 0.496648
0.029116 -0.113566 0.801255 114 255 134 0.487681
0.027275 -0.122147 0.803080 134 255 114 0.509793
0.025298 -0.123330 0.800617 137 255 111 0.514264
0.031478 -0.112224 0.803850 121 255 127 0.494665
0.030941 -0.116279 0.805489 121 255 127 0.493353
0.033510 -0.115071 0.808047 124 255 124 0.497083
0.034083 -0.110870 0.806379 130 255 117 0.507510
0.031588 -0.119655 0.808401 124 255 124 0.497350
0.029309 -0.120941 0.805795 121 255 127 0.494165
0.044712 -0.107285 0.813453 130 255 117 0.506776
0.044056 -0.110874 0.815510 134 255 114 0.509579
0.041688 -0.115417 0.816439 127 255 121 0.502189
0.040848 -0.119527 0.818115 124 255 124 0.496300
0.037734 -0.120747 0.815970 124 255 124 0.497378
0.038557 -0.116652 0.814373 124 255 124 0.499309
0.040941 -0.111958 0.813743 134 255 114 0.510599
0.041657 -0.108167 0.811709 140 255 108 0.517423
0.041013 -0.122302 0.821484 121 255 127 0.495961
0.039515 -0.125576 0.823815 124 255 124 0.497300
0.036548 -0.129437 0.825023 130 255 117 0.505431
0.033699 -0.130195 0.822926 134 255 114 0.509966
0.036502 -0.126723 0.821581 130 255 117 0.504272
0.037907 -0.123443 0.819314 124 255 124 0.498235
0.029868 -0.131188 0.819871 137 255 111 0.514284
0.032537 -0.128253 0.818219 134 255 114 0.510722
0.032428 -0.125704 0.814639 137 255 111 0.514741
0.034914 -0.121924 0.813674 127 255 121 0.500382
0.035043 -0.124617 0.817034 130 255 117 0.504332
0.034220 -0.118542 0.810968 124 255 124 0.496157
0.036425 -0.113970 0.810461 127 255 121 0.503210
0.036928 -0.109662 0.808830 137 255 111 0.515375
0.030497 -0.022159 0.792941 134 255 114 0.510581
0.031113 -0.026574 0.792034 124 255 124 0.499422
0.028656 -0.027304 0.790608 124 255 124 0.497149
0.029179 -0.031787 0.789845 111 255 137 0.483581
0.031599 -0.031123 0.791215 114 255 134 0.485320
0.026695 -0.032461 0.788468 108 255 140 0.479007
0.029631 -0.036108 0.789072 101 255 147 0.469777
0.027231 -0.036660 0.787684 98 255 150 0.466882
0.027935 -0.040667 0.786846 114 255 134 0.486574
0.032007 -0.035513 0.790422 104 255 143 0.475048
0.030284 -0.040176 0.788181 156 255 92 0.538083
0.032567 -0.039724 0.789563 117 255 130 0.488536
0.024815 -0.037093 0.786321 95 255 153 0.461656
0.025566 -0.041012 0.785472 111 255 137 0.481856
0.023162 -0.041328 0.784166 108 255 140 0.479537
0.022274 -0.037404 0.784955 91 255 156 0.457051
0.024110 -0.032944 0.787030 104 255 143 0.474956
0.021514 -0.033377 0.785587 104 255 143 0.476092
0.023396 -0.028508 0.787653 121 255 127 0.495289
0.026051 -0.027928 0.789144 121 255 127 0.494988
0.025305 -0.023369 0.789941 130 255 117 0.506976
0.020766 -0.029024 0.786196 150 255 98 0.528570
0.022617 -0.024010 0.788435 130 255 117 0.504120
0.019961 -0.024680 0.786903 127 255 121 0.502905
0.027945 -0.022737 0.791452 156 255 92 0.535695
0.033016 -0.044160 0.789007 127 255 121 0.501707
0.030920 -0.044641 0.787838 124 255 124 0.498877
0.031514 -0.048840 0.787423 130 255 117 0.505307
0.033561 -0.048409 0.788594 130 255 117 0.507178
0.029471 -0.049143 0.786271 130 255 117 0.504372
0.032068 -0.052763 0.787186 134 255 114 0.508440
0.030025 -0.053019 0.786178 134 255 114 0.509029
0.034152 -0.052359 0.788204 134 255 114 0.511011
0.027872 -0.053302 0.785201 130 255 117 0.505988
0.025603 -0.053312 0.784163 127 255 121 0.502263
0.027182 -0.049395 0.785054 127 255 121 0.501877
0.024855 -0.049521 0.783942 124 255 124 0.498926
0.026325 -0.045313 0.785258 121 255 127 0.493191
0.028628 -0.045019 0.786536 124 255 124 0.496851
0.023976 -0.045538 0.783989 117 255 130 0.490297
0.016615 -0.053395 0.779560 121 255 127 0.495842
0.019014 -0.053469 0.780837 124 255 124 0.499442
0.018100 -0.049792 0.780389 117 255 130 0.489034
0.015706 -0.049758 0.779139 117 255 130 0.489199
0.020478 -0.049793 0.781703 121 255 127 0.493154
0.017051 -0.045926 0.780142 0 202 255 0.321263
0.019399 -0.045859 0.781479 82 255 166 0.446961
0.018368 -0.041783 0.781426 104 255 143 0.474455
0.014673 -0.046087 0.778792 108 255 140 0.477926
0.015957 -0.042068 0.780045 104 255 143 0.475362
0.013552 -0.042205 0.778668 114 255 134 0.485292
0.021771 -0.045810 0.782800 111 255 137 0.483397
0.020764 -0.041539 0.782794 104 255 143 0.475175
0.022683 -0.049710 0.782796 124 255 124 0.497541
0.023445 -0.053419 0.783065 127 255 121 0.500035
0.021211 -0.053485 0.781932 124 255 124 0.497762
0.012473 -0.038575 0.779162 108 255 140 0.478227
0.014988 -0.038413 0.780685 101 255 147 0.469247
0.013985 -0.034582 0.781082 108 255 140 0.478109
0.011432 -0.034804 0.779670 108 255 140 0.479097
0.016558 -0.034324 0.782593 124 255 124 0.499742
0.013020 -0.030642 0.781523 111 255 137 0.482319
0.015634 -0.030191 0.783058 114 255 134 0.487984
0.014629 -0.025994 0.783653 127 255 121 0.500837
0.010452 -0.030976 0.780071 59 255 189 0.418361
0.012039 -0.026533 0.782014 127 255 121 0.500113
0.009456 -0.026995 0.780431 124 255 124 0.497815
0.018247 -0.029703 0.784651 121 255 127 0.492792
0.017256 -0.025398 0.785279 127 255 121 0.501016
0.019034 -0.033880 0.784055 143 255 104 0.523100
0.019841 -0.037801 0.783452 91 255 156 0.458121
0.017414 -0.038151 0.782068 98 255 150 0.465091
0.049317 -0.022389 0.802143 127 255 121 0.503684
0.049762 -0.026384 0.800858 79 255 169 0.441667
0.047216 -0.026923 0.799431 124 255 124 0.497451
0.049953 -0.030686 0.799584 127 255 121 0.502095
0.047309 -0.031326 0.798193 127 255 121 0.502008
0.047343 -0.035898 0.797007 130 255 117 0.505602
0.049982 -0.035290 0.798381 134 255 114 0.509228
0.044664 -0.032022 0.796862 124 255 124 0.499974
0.044710 -0.036548 0.795702 127 255 121 0.500750
0.042145 -0.037193 0.794478 124 255 124 0.497533
0.041908 -0.032744 0.795523 124 255 124 0.496552
0.044468 -0.027505 0.797914 127 255 121 0.501140
0.041721 -0.028214 0.796519 127 255 121 0.500440
0.044065 -0.023352 0.799095 130 255 117 0.504141
0.046717 -0.022831 0.800617 127 255 121 0.503140
0.046048 -0.018913 0.801763 130 255 117 0.507346
0.041382 -0.023937 0.797635 130 255 117 0.504360
0.043422 -0.019423 0.800265 130 255 117 0.507365
0.040757 -0.019936 0.798773 130 255 117 0.507610
0.048630 -0.018434 0.803290 130 255 117 0.507639
0.049813 -0.040280 0.797756 137 255 111 0.513463
0.049674 -0.044999 0.796947 137 255 111 0.514259
0.047279 -0.045586 0.795699 134 255 114 0.511288
0.049582 -0.049490 0.796343 130 255 117 0.505142
0.047268 -0.049990 0.795070 134 255 114 0.510604
0.044970 -0.050428 0.793875 134 255 114 0.509635
0.042598 -0.050881 0.792642 134 255 114 0.510893
0.044777 -0.046146 0.794426 134 255 114 0.509953
0.042323 -0.046615 0.793165 134 255 114 0.508630
0.044680 -0.041457 0.795034 66 255 182 0.427993
0.047214 -0.040884 0.796365 127 255 121 0.503363
0.042174 -0.042039 0.793812 127 255 121 0.500402
0.036348 -0.052113 0.789320 134 255 114 0.510932
0.035811 -0.048044 0.789705 134 255 114 0.508843
0.038064 -0.047666 0.790948 130 255 117 0.507361
0.035384 -0.043663 0.790213 127 255 121 0.502584
0.037670 -0.043180 0.791426 127 255 121 0.502857
0.037391 -0.038508 0.791961 121 255 127 0.495311
0.034984 -0.039127 0.790758 117 255 130 0.490633
0.039986 -0.042592 0.792624 130 255 117 0.503988
0.039760 -0.037856 0.793198 124 255 124 0.496442
0.040231 -0.047126 0.792014 134 255 114 0.509145
0.040494 -0.051395 0.791517 134 255 114 0.511615
0.038400 -0.051791 0.790385 134 255 114 0.511036
0.034599 -0.034862 0.791695 111 255 137 0.481540
0.034214 -0.030413 0.792522 117 255 130 0.490362
0.036790 -0.029745 0.793850 121 255 127 0.494114
0.033774 -0.025886 0.793392 127 255 121 0.501043
0.036363 -0.025201 0.794778 127 255 121 0.503022
0.035719 -0.020959 0.795769 134 255 114 0.508300
0.033145 -0.021538 0.794332 134 255 114 0.508929
0.038932 -0.024587 0.796210 127 255 121 0.503768
0.038241 -0.020423 0.797243 134 255 114 0.507950
0.039256 -0.028957 0.795143 124 255 124 0.497720
0.039478 -0.033440 0.794204 121 255 127 0.492447
0.037053 -0.034156 0.792941 114 255 134 0.487567
0.027805 -0.001401 0.842580 137 255 111 0.515356
0.029126 -0.003050 0.840300 140 255 108 0.515835
0.026143 -0.003064 0.838683 137 255 111 0.515584
0.030497 -0.004547 0.837889 140 255 108 0.517331
0.027511 -0.004579 0.836254 140 255 108 0.517476
0.028946 -0.005759 0.833686 140 255 108 0.518257
0.031925 -0.005711 0.835296 140 255 108 0.518148
0.024455 -0.004621 0.834625 140 255 108 0.517568
0.025898 -0.005831 0.832047 140 255 108 0.518307
0.022789 -0.005944 0.830354 140 255 108 0.518391
0.021361 -0.004709 0.832998 140 255 108 0.517459
0.023058 -0.003081 0.837109 140 255 108 0.515849
0.019934 -0.003168 0.835513 140 255 108 0.516207
0.021664 -0.001379 0.839492 140 255 108 0.516057
0.024757 -0.001374 0.841034 137 255 111 0.515338
0.018524 -0.001448 0.837915 140 255 108 0.516657
0.033397 -0.006705 0.832598 140 255 108 0.518394
0.034925 -0.007154 0.829743 140 255 108 0.518499
0.031954 -0.007261 0.828090 140 255 108 0.518758
0.036543 -0.007053 0.826662 140 255 108 0.518383
0.033589 -0.007174 0.824973 140 255 108 0.518713
0.035330 -0.006845 0.821717 140 255 108 0.518112
0.038265 -0.006658 0.823418 140 255 108 0.517890
0.030564 -0.007382 0.823266 140 255 108 0.518932
0.032336 -0.007101 0.819992 140 255 108 0.518355
0.029264 -0.007373 0.818310 140 255 108 0.518745
0.027478 -0.007609 0.821595 140 255 108 0.519190
0.028895 -0.007412 0.826459 140 255 108 0.518957
0.025802 -0.007619 0.824743 140 255 108 0.519105
0.027351 -0.006885 0.829364 140 255 108 0.518779
0.030416 -0.006754 0.830994 140 255 108 0.518640
0.024256 -0.007070 0.827660 140 255 108 0.518912
0.018179 -0.008204 0.811702 140 255 108 0.517856
0.016424 -0.008257 0.814916 140 255 108 0.518694
0.019213 -0.008056 0.816440 140 255 108 0.519064
0.017534 -0.007959 0.819520 140 255 108 0.518901
0.014748 -0.008091 0.817935 140 255 108 0.518582
0.020319 -0.007828 0.821152 140 255 108 0.519142
0.015960 -0.007381 0.822497 140 255 108 0.518840
0.018719 -0.007279 0.824196 140 255 108 0.518872
0.017196 -0.006084 0.827023 140 255 108 0.518547
0.013183 -0.007464 0.820858 140 255 108 0.518633
0.014436 -0.006227 0.825341 140 255 108 0.518460
0.011694 -0.006318 0.823681 140 255 108 0.518396
0.021495 -0.007147 0.825860 140 255 108 0.518867
0.020003 -0.005996 0.828677 140 255 108 0.518392
0.023076 -0.007655 0.822929 140 255 108 0.519193
0.024740 -0.007741 0.819853 140 255 108 0.519284
0.021975 -0.007880 0.818106 140 255 108 0.519290
0.023722 -0.007739 0.814961 140 255 108 0.518620
0.026490 -0.007517 0.816608 140 255 108 0.518780
0.020969 -0.007968 0.813303 140 255 108 0.518312
0.010204 -0.005006 0.826497 140 255 108 0.517947
0.012958 -0.004961 0.828043 140 255 108 0.517862
0.011522 -0.003324 0.830733 140 255 108 0.517045
0.008760 -0.003414 0.829201 140 255 108 0.517647
0.014283 -0.003265 0.832236 140 255 108 0.517173
0.010148 -0.001596 0.833301 140 255 108 0.518289
0.012915 -0.001530 0.834776 140 255 108 0.517775
0.007388 -0.001716 0.831824 140 255 108 0.518881
0.015701 -0.001501 0.836290 140 255 108 0.517062
0.017111 -0.003182 0.833876 140 255 108 0.516088
0.018547 -0.004755 0.831366 140 255 108 0.517607
0.015725 -0.004850 0.829700 140 255 108 0.517908
0.026977 -0.019165 0.792962 137 255 111 0.513529
0.024357 -0.019711 0.791441 134 255 114 0.510178
0.023215 -0.016607 0.793094 137 255 111 0.512076
0.021704 -0.020346 0.789917 134 255 114 0.508641
0.020592 -0.017156 0.791570 134 255 114 0.511265
0.017933 -0.017772 0.790036 134 255 114 0.510818
0.019026 -0.020999 0.788395 134 255 114 0.510112
0.019268 -0.014526 0.793394 137 255 111 0.513479
0.016672 -0.015067 0.791831 137 255 111 0.513077
0.015261 -0.012802 0.793863 137 255 111 0.514603
0.017822 -0.012319 0.795384 137 255 111 0.515002
0.021835 -0.014049 0.794894 137 255 111 0.513568
0.020351 -0.011904 0.796948 137 255 111 0.515027
0.024376 -0.013581 0.796399 137 255 111 0.513850
0.025772 -0.016155 0.794551 137 255 111 0.512957
0.028263 -0.015712 0.796045 137 255 111 0.513777
0.022853 -0.011475 0.798500 137 255 111 0.515131
0.026871 -0.013171 0.797929 137 255 111 0.514197
0.025339 -0.011067 0.800046 137 255 111 0.515131
0.029503 -0.018715 0.794421 163 255 85 0.545740
0.016347 -0.021661 0.786882 130 255 117 0.505727
0.013698 -0.022381 0.785215 121 255 127 0.492606
0.012629 -0.019075 0.786982 143 255 104 0.521054
0.011062 -0.023034 0.783572 172 255 75 0.555482
0.009969 -0.019801 0.785333 134 255 114 0.511014
0.007395 -0.020399 0.783633 134 255 114 0.509221
0.008471 -0.023631 0.781952 130 255 117 0.507286
0.008870 -0.016825 0.787173 137 255 111 0.512001
0.006269 -0.017486 0.785473 134 255 114 0.510981
0.005066 -0.014874 0.787483 137 255 111 0.512674
0.007598 -0.014380 0.789072 137 255 111 0.513435
0.011459 -0.016238 0.788739 137 255 111 0.512635
0.010164 -0.013850 0.790667 137 255 111 0.513871
0.014072 -0.015632 0.790289 137 255 111 0.512665
0.015270 -0.018437 0.788500 134 255 114 0.510573
0.012735 -0.013327 0.792265 137 255 111 0.514177
-0.000934 -0.009832 0.799197 137 255 111 0.514557
0.001417 -0.009662 0.800776 137 255 111 0.515007
0.003086 -0.010475 0.797874 137 255 111 0.515380
0.005526 -0.010208 0.799422 140 255 108 0.515943
0.003823 -0.009474 0.802386 130 255 117 0.507060
0.007192 -0.011093 0.796514 150 255 98 0.531119
0.007960 -0.009939 0.800950 140 255 108 0.516093
0.009636 -0.010759 0.798006 140 255 108 0.516851
0.012062 -0.010422 0.799455 140 255 108 0.517531
0.006253 -0.009223 0.803939 140 255 108 0.515807
0.010350 -0.009622 0.802431 140 255 108 0.516785
0.008596 -0.009028 0.805487 140 255 108 0.516759
0.011244 -0.011825 0.795204 137 255 111 0.515554
0.013669 -0.011438 0.796629 140 255 108 0.515840
0.008744 -0.012251 0.793510 137 255 111 0.515417
0.006220 -0.012713 0.791849 137 255 111 0.514367
0.004709 -0.011433 0.794789 140 255 108 0.515768
0.002252 -0.011746 0.793048 137 255 111 0.514439
0.003715 -0.013121 0.790199 137 255 111 0.513696
0.000671 -0.010700 0.796061 137 255 111 0.514515
0.010966 -0.008779 0.806987 140 255 108 0.516930
0.012737 -0.009341 0.804075 140 255 108 0.517551
0.015188 -0.009048 0.805574 140 255 108 0.517224
0.013366 -0.008558 0.808522 140 255 108 0.516813
0.016990 -0.009709 0.802644 140 255 108 0.517822
0.017640 -0.008754 0.807079 140 255 108 0.517102
0.019462 -0.009347 0.804081 140 255 108 0.516713
0.021930 -0.009003 0.805551 140 255 108 0.516822
0.015786 -0.008377 0.810104 140 255 108 0.517390
0.020079 -0.008482 0.808609 140 255 108 0.517370
0.021188 -0.010250 0.801299 140 255 108 0.515842
0.023659 -0.009872 0.802718 140 255 108 0.515987
0.018696 -0.010629 0.799734 140 255 108 0.516241
0.016192 -0.011022 0.798185 140 255 108 0.516555
0.014506 -0.010065 0.801044 160 255 88 0.540019
-0.009489 -0.002547 0.822171 140 255 108 0.519397
-0.007089 -0.002438 0.823509 140 255 108 0.519234
-0.005670 -0.003973 0.820650 140 255 108 0.518982
-0.004691 -0.002307 0.824849 143 255 104 0.519601
-0.003267 -0.003886 0.822008 140 255 108 0.518668
-0.000808 -0.003799 0.823378 140 255 108 0.518252
-0.002246 -0.002165 0.826199 143 255 104 0.521060
-0.001802 -0.005358 0.819174 140 255 108 0.518824
0.000631 -0.005283 0.820532 140 255 108 0.518344
0.002157 -0.006490 0.817606 140 255 108 0.519284
-0.000231 -0.006568 0.816143 153 255 95 0.534006
-0.004157 -0.005437 0.817696 140 255 108 0.519154
-0.002602 -0.006645 0.814675 143 255 104 0.519881
-0.006454 -0.005531 0.816194 140 255 108 0.519010
-0.007962 -0.004086 0.819172 143 255 104 0.519648
-0.010232 -0.004190 0.817678 143 255 104 0.520853
-0.004932 -0.006684 0.813209 140 255 108 0.518894
-0.008711 -0.005594 0.814721 143 255 104 0.520317
-0.007175 -0.006721 0.811750 140 255 108 0.518905
-0.011749 -0.002693 0.820665 143 255 104 0.520683
0.000072 -0.001972 0.827725 143 255 104 0.521277
0.002497 -0.001864 0.829116 153 255 95 0.532029
0.003885 -0.003506 0.826458 140 255 108 0.518678
0.004946 -0.001775 0.830471 140 255 108 0.519126
0.006314 -0.003448 0.827831 140 255 108 0.517947
0.007746 -0.005029 0.825121 140 255 108 0.518011
0.009302 -0.006380 0.822118 140 255 108 0.518221
0.005348 -0.005127 0.823573 140 255 108 0.518015
0.006878 -0.006392 0.820597 140 255 108 0.518107
0.002996 -0.005199 0.822057 140 255 108 0.518099
0.001510 -0.003645 0.824920 140 255 108 0.518472
0.004501 -0.006422 0.819145 140 255 108 0.518197
0.014031 -0.008339 0.813460 140 255 108 0.517684
0.011621 -0.008454 0.811817 130 255 117 0.505061
0.009958 -0.008166 0.814988 140 255 108 0.517761
0.009256 -0.008624 0.810251 140 255 108 0.517245
0.007595 -0.008267 0.813349 140 255 108 0.517802
0.005248 -0.008358 0.811742 140 255 108 0.517969
0.006896 -0.008778 0.808687 140 255 108 0.517501
0.006018 -0.007552 0.816400 140 255 108 0.518054
0.003656 -0.007638 0.814704 140 255 108 0.518460
0.008400 -0.007529 0.817852 140 255 108 0.518113
0.010797 -0.007501 0.819332 140 255 108 0.518380
0.012361 -0.008127 0.816461 140 255 108 0.518267
0.004472 -0.008935 0.807348 140 255 108 0.517600
0.002101 -0.009072 0.805762 140 255 108 0.516349
0.000439 -0.008549 0.808954 140 255 108 0.517866
-0.000260 -0.009232 0.804136 140 255 108 0.516217
-0.001899 -0.008639 0.807355 140 255 108 0.517212
-0.004168 -0.008723 0.805699 140 255 108 0.517136
-0.002580 -0.009341 0.802480 150 255 98 0.530809
-0.003471 -0.007820 0.810425 140 255 108 0.518058
-0.005689 -0.007875 0.808804 140 255 108 0.518123
-0.001129 -0.007787 0.811872 140 255 108 0.518557
0.001271 -0.007712 0.813295 140 255 108 0.518928
0.002833 -0.008461 0.810372 140 255 108 0.518108
0.040070 -0.006643 0.820169 140 255 108 0.516848
0.041673 -0.006696 0.816940 134 255 114 0.510579
0.038867 -0.006935 0.815223 140 255 108 0.516389
0.043187 -0.006975 0.813839 140 255 108 0.515753
0.040364 -0.007322 0.812189 140 255 108 0.515914
0.041708 -0.008329 0.809474 137 255 111 0.514604
0.044542 -0.007942 0.811073 137 255 111 0.514890
0.037525 -0.007733 0.810573 140 255 108 0.516063
0.038891 -0.008757 0.807885 137 255 111 0.514209
0.036035 -0.009258 0.806290 137 255 111 0.515221
0.034523 -0.008196 0.808980 140 255 108 0.516304
0.035873 -0.007310 0.813612 140 255 108 0.516800
0.032864 -0.007682 0.812014 140 255 108 0.517213
0.034129 -0.007197 0.816818 140 255 108 0.517621
0.037114 -0.006896 0.818475 140 255 108 0.517216
0.031086 -0.007474 0.815152 140 255 108 0.517862
0.045793 -0.009904 0.808798 137 255 111 0.513597
0.046858 -0.012317 0.806636 137 255 111 0.512074
0.044225 -0.012829 0.805113 134 255 114 0.511507
0.047762 -0.015242 0.804913 134 255 114 0.509660
0.045170 -0.015721 0.803394 134 255 114 0.509599
0.042535 -0.016233 0.801896 134 255 114 0.509480
0.039743 -0.016703 0.800347 134 255 114 0.509759
0.041429 -0.013263 0.803582 134 255 114 0.510995
0.038612 -0.013781 0.802034 137 255 111 0.512016
0.040207 -0.010791 0.805612 124 255 124 0.497139
0.043014 -0.010328 0.807209 137 255 111 0.512831
0.037370 -0.011290 0.804036 137 255 111 0.514391
0.032203 -0.018224 0.795845 137 255 111 0.512596
0.030980 -0.015228 0.797505 137 255 111 0.513025
0.033600 -0.014756 0.798976 137 255 111 0.512763
0.029589 -0.012693 0.799367 137 255 111 0.514559
0.032230 -0.012236 0.800901 137 255 111 0.515448
0.030715 -0.010115 0.803088 140 255 108 0.515874
0.028045 -0.010571 0.801555 137 255 111 0.515390
0.034842 -0.011799 0.802421 156 255 92 0.536169
0.033406 -0.009662 0.804657 140 255 108 0.516401
0.036104 -0.014250 0.800482 137 255 111 0.513001
0.037245 -0.017190 0.798798 134 255 114 0.510213
0.034738 -0.017681 0.797291 134 255 114 0.510613
0.026428 -0.009417 0.804175 140 255 108 0.516445
0.024713 -0.008590 0.807065 140 255 108 0.517839
0.027475 -0.008251 0.808626 153 255 95 0.532513
0.022839 -0.008163 0.810178 140 255 108 0.517870
0.025612 -0.007911 0.811785 140 255 108 0.518416
0.028384 -0.007671 0.813394 140 255 108 0.518182
0.030204 -0.007931 0.810282 140 255 108 0.517974
0.031855 -0.008560 0.807362 140 255 108 0.516735
0.029128 -0.008993 0.805782 140 255 108 0.517117
0.007954 -0.031337 0.778436 117 255 130 0.489694
0.008964 -0.035059 0.778074 114 255 134 0.487977
0.006471 -0.035311 0.776488 124 255 124 0.497369
0.009985 -0.038789 0.777644 117 255 130 0.488733
0.007531 -0.038941 0.776149 124 255 124 0.499936
0.008619 -0.042375 0.775699 130 255 117 0.506769
0.011088 -0.042314 0.777182 121 255 127 0.495943
0.005050 -0.039039 0.774719 172 255 75 0.556146
0.006150 -0.042424 0.774321 134 255 114 0.511246
0.003674 -0.042412 0.773089 134 255 114 0.507841
0.002389 -0.039184 0.773348 134 255 114 0.508719
0.003789 -0.035562 0.775012 130 255 117 0.505347
0.001149 -0.035790 0.773605 182 255 66 0.567406
0.002558 -0.032045 0.775302 127 255 121 0.502144
0.005235 -0.031731 0.776854 124 255 124 0.497824
0.003929 -0.028178 0.777157 127 255 121 0.501557
-0.000093 -0.032345 0.773885 130 255 117 0.505171
0.001293 -0.028568 0.775620 127 255 121 0.503688
-0.001295 -0.028963 0.774146 130 255 117 0.504902
0.006643 -0.027634 0.778794 124 255 124 0.498818
0.012473 -0.046051 0.777508 124 255 124 0.498041
0.013495 -0.049798 0.777830 124 255 124 0.496747
0.011234 -0.049697 0.776717 130 255 117 0.506355
0.014422 -0.053280 0.778357 124 255 124 0.496868
0.012148 -0.053259 0.777133 140 255 108 0.518159
0.009894 -0.053139 0.775953 255 127 0 0.771326
0.007302 -0.053059 0.774658 147 255 101 0.527320
0.008688 -0.049667 0.775370 140 255 108 0.515865
0.006127 -0.049534 0.774180 137 255 111 0.515294
0.007466 -0.046026 0.774815 255 228 0 0.664945
0.009962 -0.046136 0.776098 137 255 111 0.513805
0.004970 -0.045973 0.773544 134 255 114 0.508756
-0.001078 -0.052860 0.769974 143 255 104 0.522454
0.001209 -0.052763 0.771331 143 255 104 0.523166
-0.000283 -0.049489 0.770842 143 255 104 0.521608
-0.002579 -0.049658 0.769641 140 255 108 0.516652
0.002032 -0.049418 0.772077 143 255 104 0.521184
-0.001701 -0.046189 0.770345 0 218 255 0.339116
0.000585 -0.046069 0.771426 124 255 124 0.498842
-0.000784 -0.042694 0.770618 134 255 114 0.508683
-0.003959 -0.046392 0.769154 134 255 114 0.509524
-0.003023 -0.042908 0.769508 137 255 111 0.512219
-0.005289 -0.043194 0.768349 140 255 108 0.517936
0.002895 -0.045964 0.772525 43 255 205 0.398760
0.001414 -0.042548 0.771803 130 255 117 0.507432
0.004077 -0.049490 0.773159 143 255 104 0.521920
0.005247 -0.052932 0.773545 143 255 104 0.520332
0.003223 -0.052865 0.772429 147 255 101 0.524875
-0.007238 -0.040009 0.768149 192 255 56 0.578342
-0.004121 -0.039829 0.769617 137 255 111 0.513863
-0.006183 -0.036590 0.769506 134 255 114 0.509737
-0.009170 -0.036819 0.767880 134 255 114 0.510657
-0.003141 -0.036416 0.771075 130 255 117 0.507003
-0.008148 -0.033361 0.769283 130 255 117 0.505632
-0.005182 -0.033077 0.770918 130 255 117 0.505438
-0.007184 -0.029851 0.770746 130 255 117 0.505717
-0.011061 -0.033679 0.767494 130 255 117 0.505709
-0.010061 -0.030214 0.768969 130 255 117 0.505623
-0.012878 -0.030578 0.767076 130 255 117 0.505154
-0.002183 -0.032744 0.772499 130 255 117 0.505753
-0.004287 -0.029462 0.772395 130 255 117 0.505760
-0.000980 -0.036089 0.772325 134 255 114 0.510385
0.000199 -0.039360 0.772084 134 255 114 0.508252
-0.001987 -0.039539 0.770918 134 255 114 0.510001
-0.012305 -0.037955 0.765631 182 255 66 0.570204
-0.010550 -0.041098 0.766152 134 255 114 0.511594
-0.008639 -0.044194 0.766296 140 255 108 0.517559
-0.011932 -0.045284 0.764012 130 255 117 0.504775
-0.013879 -0.043135 0.763529 121 255 127 0.494134
-0.014017 -0.039400 0.764341 127 255 121 0.500038
-0.015719 -0.040863 0.762901 117 255 130 0.489289
-0.015780 -0.037207 0.763524 124 255 124 0.498157
-0.014169 -0.035737 0.764957 130 255 117 0.504857
-0.015934 -0.033574 0.764148 127 255 121 0.502572
-0.017493 -0.038659 0.762105 117 255 130 0.488301
-0.017531 -0.035007 0.762636 124 255 124 0.499845
-0.019158 -0.036448 0.761157 121 255 127 0.495636
-0.014380 -0.032096 0.765659 127 255 121 0.503528
-0.005664 -0.050195 0.767637 140 255 108 0.519012
-0.004176 -0.053338 0.767913 140 255 108 0.516793
-0.007353 -0.054099 0.765618 137 255 111 0.512471
-0.008991 -0.051227 0.765169 134 255 114 0.511331
-0.008882 -0.047773 0.765914 140 255 108 0.517030
-0.012114 -0.055836 0.761598 114 255 134 0.485609
-0.012604 -0.052739 0.762221 121 255 127 0.495582
-0.014206 -0.050201 0.761513 114 255 134 0.486999
-0.014503 -0.046731 0.761810 114 255 134 0.486898
-0.016970 -0.048239 0.759463 88 255 160 0.454463
-0.011696 -0.048735 0.763747 130 255 117 0.504276
-0.009742 -0.054818 0.763724 127 255 121 0.500934
-0.018969 -0.046323 0.758929 69 255 179 0.432541
-0.019620 -0.043356 0.759476 85 255 163 0.452467
-0.021564 -0.041470 0.758640 95 255 153 0.461853
-0.021972 -0.038465 0.758847 114 255 134 0.485518
-0.024748 -0.040488 0.756184 104 255 143 0.474056
-0.016435 -0.044561 0.761336 101 255 147 0.472232
0.005626 -0.024225 0.780465 130 255 117 0.504185
0.002907 -0.024878 0.778721 130 255 117 0.504066
0.001809 -0.021703 0.780525 130 255 117 0.506350
0.000261 -0.025438 0.777079 130 255 117 0.504198
-0.000805 -0.022365 0.778753 130 255 117 0.504944
-0.003315 -0.022966 0.777111 130 255 117 0.504522
-0.002258 -0.025913 0.775462 130 255 117 0.505222
-0.001940 -0.019455 0.780692 130 255 117 0.505724
-0.004460 -0.020119 0.778900 98 255 150 0.465733
-0.005622 -0.017339 0.780923 134 255 114 0.508019
-0.003042 -0.016792 0.782554 134 255 114 0.509682
0.000728 -0.018838 0.782261 134 255 114 0.508665
-0.000436 -0.016201 0.784195 134 255 114 0.510918
0.003464 -0.018194 0.783876 134 255 114 0.509744
0.004576 -0.021049 0.782042 130 255 117 0.507452
0.002254 -0.015549 0.785826 137 255 111 0.511822
-0.005024 -0.026214 0.774472 130 255 117 0.505145
-0.007881 -0.026724 0.772682 130 255 117 0.505345
-0.008731 -0.023642 0.774889 147 255 101 0.525701
-0.010707 -0.027164 0.770832 130 255 117 0.505476
-0.011506 -0.024182 0.772930 130 255 117 0.506820
-0.014206 -0.024575 0.770947 130 255 117 0.506141
-0.013468 -0.027522 0.768880 130 255 117 0.505080
-0.012415 -0.021207 0.775358 143 255 104 0.520155
-0.015121 -0.021713 0.773230 134 255 114 0.508758
-0.016064 -0.018835 0.775817 134 255 114 0.509357
-0.013552 -0.018566 0.777105 134 255 114 0.509225
-0.009815 -0.020898 0.776539 134 255 114 0.508839
-0.010990 -0.018218 0.778361 134 255 114 0.508955
-0.007181 -0.020526 0.777691 130 255 117 0.505496
-0.006050 -0.023336 0.775960 130 255 117 0.506590
-0.008350 -0.017806 0.779624 134 255 114 0.508654
-0.021062 -0.011406 0.788277 134 255 114 0.509443
-0.018616 -0.011261 0.789533 134 255 114 0.509420
-0.017258 -0.012699 0.786329 134 255 114 0.509996
-0.014747 -0.012456 0.787541 134 255 114 0.510866
-0.016131 -0.011051 0.790754 134 255 114 0.508099
-0.013424 -0.014096 0.784436 134 255 114 0.511692
-0.012173 -0.012180 0.788746 134 255 114 0.511078
-0.010795 -0.013714 0.785590 150 255 98 0.527491
-0.008120 -0.013301 0.786737 137 255 111 0.513008
-0.013640 -0.010859 0.791992 108 255 140 0.479125
-0.009602 -0.011826 0.789931 137 255 111 0.511892
-0.011107 -0.010635 0.793236 134 255 114 0.510033
-0.009486 -0.015604 0.782626 134 255 114 0.510855
-0.006811 -0.015154 0.783713 134 255 114 0.511090
-0.012151 -0.015998 0.781248 134 255 114 0.509837
-0.014730 -0.016369 0.779884 134 255 114 0.509425
-0.015971 -0.014423 0.782997 134 255 114 0.509930
-0.018499 -0.014652 0.781519 134 255 114 0.509505
-0.017250 -0.016657 0.778493 134 255 114 0.509291
-0.019752 -0.012939 0.784833 134 255 114 0.509749
-0.008719 -0.010489 0.794655 137 255 111 0.512260
-0.007230 -0.011591 0.791745 137 255 111 0.512367
-0.004680 -0.011319 0.793131 137 255 111 0.513077
-0.006227 -0.010312 0.796113 137 255 111 0.512629
-0.003183 -0.012557 0.790267 137 255 111 0.512819
-0.002030 -0.011031 0.794558 137 255 111 0.513784
-0.000506 -0.012161 0.791642 137 255 111 0.513667
-0.003612 -0.010100 0.797628 137 255 111 0.512767
0.000912 -0.013631 0.788871 137 255 111 0.512890
-0.001745 -0.014174 0.787129 137 255 111 0.512177
-0.004307 -0.014693 0.785441 134 255 114 0.511657
-0.005704 -0.012948 0.788514 137 255 111 0.512378
-0.022528 -0.010449 0.791481 134 255 114 0.508495
-0.020112 -0.010368 0.792703 134 255 114 0.508166
-0.021609 -0.009449 0.795873 130 255 117 0.505974
-0.024038 -0.009521 0.794653 130 255 117 0.507135
-0.019196 -0.009385 0.797080 130 255 117 0.505635
-0.023091 -0.008487 0.798945 130 255 117 0.507406
-0.020633 -0.008409 0.800195 40 255 208 0.397427
-0.022089 -0.007190 0.803273 147 255 101 0.526993
-0.025515 -0.008508 0.797743 134 255 114 0.509876
-0.024530 -0.007274 0.801991 205 255 43 0.596286
-0.027021 -0.007304 0.800740 143 255 104 0.522637
-0.018201 -0.008300 0.801446 134 255 114 0.511349
-0.019635 -0.007084 0.804536 208 255 40 0.598317
-0.017181 -0.006957 0.805832 147 255 101 0.525777
-0.015734 -0.008199 0.802769 143 255 104 0.519943
-0.016742 -0.009289 0.798342 137 255 111 0.513984
-0.014245 -0.009194 0.799614 202 255 46 0.593120
-0.015199 -0.010104 0.795154 134 255 114 0.509909
-0.017671 -0.010230 0.793925 134 255 114 0.508491
-0.012701 -0.009957 0.796404 137 255 111 0.512379
-0.028590 -0.006282 0.803660 150 255 98 0.529313
-0.026104 -0.006196 0.805005 150 255 98 0.528477
-0.027705 -0.005092 0.808018 153 255 95 0.532203
-0.030196 -0.005200 0.806651 150 255 98 0.529371
-0.025263 -0.004953 0.809345 150 255 98 0.531063
-0.029317 -0.003926 0.811023 166 255 82 0.548536
-0.026840 -0.003764 0.812357 172 255 75 0.555586
-0.031852 -0.004043 0.809674 156 255 92 0.536788
-0.024352 -0.003542 0.813680 163 255 85 0.544607
-0.021825 -0.003338 0.814940 153 255 95 0.534842
-0.022754 -0.004812 0.810596 150 255 98 0.529117
-0.020266 -0.004636 0.811872 147 255 101 0.526863
-0.021182 -0.006001 0.807556 147 255 101 0.526608
-0.023654 -0.006110 0.806272 150 255 98 0.527344
-0.018709 -0.005859 0.808843 147 255 101 0.524347
-0.014311 -0.002878 0.819169 150 255 98 0.528246
-0.012797 -0.004334 0.816203 147 255 101 0.523677
-0.015332 -0.004472 0.814695 150 255 98 0.527552
-0.011290 -0.005693 0.813245 143 255 104 0.520993
-0.013842 -0.005767 0.811739 143 255 104 0.522377
-0.012336 -0.006894 0.808723 143 255 104 0.520902
-0.009764 -0.006817 0.810254 143 255 104 0.519872
-0.016287 -0.005830 0.810242 143 255 104 0.523055
-0.014798 -0.006959 0.807249 143 255 104 0.521187
-0.017851 -0.004556 0.813269 147 255 101 0.525854
-0.019378 -0.003221 0.816321 156 255 92 0.535875
-0.016892 -0.003049 0.817742 244 250 4 0.642749
-0.008229 -0.007997 0.807119 140 255 108 0.517796
-0.006751 -0.008904 0.804046 137 255 111 0.515439
-0.009295 -0.009026 0.802410 137 255 111 0.515580
-0.005238 -0.009558 0.800882 111 255 137 0.481116
-0.007798 -0.009727 0.799304 134 255 114 0.511212
-0.010264 -0.009841 0.797737 137 255 111 0.512977
-0.011807 -0.009137 0.800988 140 255 108 0.519227
-0.013309 -0.008172 0.804178 143 255 104 0.519769
-0.010831 -0.008105 0.805607 140 255 108 0.519073
-0.022525 -0.012953 0.784045 134 255 114 0.509484
-0.021243 -0.014756 0.780764 134 255 114 0.508706
-0.024000 -0.014726 0.779914 134 255 114 0.509095
-0.020024 -0.016712 0.777763 134 255 114 0.509000
-0.022764 -0.016681 0.776903 134 255 114 0.509111
-0.021630 -0.018771 0.774117 134 255 114 0.508124
-0.018847 -0.018845 0.775028 134 255 114 0.509601
-0.025635 -0.016605 0.775887 134 255 114 0.509082
-0.024511 -0.018663 0.773072 130 255 117 0.507522
-0.027546 -0.018482 0.771923 134 255 114 0.508232
-0.028484 -0.016670 0.774708 134 255 114 0.509464
-0.026636 -0.014858 0.778885 134 255 114 0.509571
-0.029496 -0.014923 0.777701 134 255 114 0.510053
-0.027703 -0.013268 0.782050 134 255 114 0.509457
-0.025074 -0.013134 0.783083 134 255 114 0.509277
-0.026169 -0.011767 0.786413 134 255 114 0.509502
-0.030501 -0.013314 0.780882 134 255 114 0.510013
-0.028793 -0.011856 0.785413 134 255 114 0.510570
-0.031554 -0.011883 0.784286 134 255 114 0.510830
-0.023600 -0.011602 0.787356 134 255 114 0.509444
-0.018447 -0.020775 0.772656 153 255 95 0.534452
-0.017579 -0.023587 0.770309 130 255 117 0.506407
-0.020975 -0.022561 0.769579 130 255 117 0.506263
-0.016836 -0.026525 0.768195 130 255 117 0.504456
-0.020171 -0.025390 0.767412 130 255 117 0.504495
-0.019499 -0.028345 0.765437 127 255 121 0.502726
-0.016183 -0.029487 0.766392 127 255 121 0.503427
-0.023641 -0.024269 0.766391 130 255 117 0.504713
-0.022931 -0.027102 0.764398 127 255 121 0.503274
-0.026513 -0.025847 0.763143 130 255 117 0.506337
-0.026683 -0.023979 0.765065 130 255 117 0.504160
-0.023860 -0.022394 0.768395 130 255 117 0.504611
-0.026926 -0.022124 0.767179 95 255 153 0.461180
-0.024167 -0.020488 0.770667 130 255 117 0.506332
-0.021267 -0.020675 0.771719 134 255 114 0.508404
-0.027218 -0.020300 0.769483 130 255 117 0.504963
-0.040562 -0.023995 0.759427 137 255 111 0.515106
-0.040661 -0.022412 0.761501 137 255 111 0.515104
-0.037031 -0.022550 0.762557 137 255 111 0.512990
-0.037156 -0.021085 0.764661 137 255 111 0.512937
-0.040849 -0.020941 0.763634 137 255 111 0.514896
-0.033644 -0.021282 0.765704 134 255 114 0.510095
-0.037273 -0.019635 0.766928 137 255 111 0.512851
-0.033812 -0.019765 0.767881 134 255 114 0.510550
-0.033954 -0.018292 0.770202 134 255 114 0.510142
-0.040961 -0.019527 0.765923 137 255 111 0.515109
-0.037442 -0.018142 0.769287 137 255 111 0.512728
-0.041182 -0.018037 0.768338 137 255 111 0.515042
-0.030489 -0.019919 0.768801 134 255 114 0.508019
-0.030674 -0.018385 0.771090 134 255 114 0.508844
-0.030228 -0.021682 0.766497 130 255 117 0.506392
-0.029945 -0.023493 0.764287 130 255 117 0.507384
-0.033438 -0.022997 0.763450 134 255 114 0.509884
-0.033237 -0.024788 0.761230 130 255 117 0.504514
-0.029765 -0.025289 0.762210 134 255 114 0.508189
-0.036820 -0.024354 0.760339 134 255 114 0.510953
-0.042006 -0.016560 0.771019 137 255 111 0.514514
-0.038522 -0.016350 0.772163 134 255 114 0.510074
