ply
format ascii 1.0
comment VCGLIB generated
element vertex 952
property float x
property float y
property float z
property uchar red
property uchar green
property uchar blue
property float quality
end_header
0.067524 -0.031809 0.997995 150 255 98 0.528183
0.063978 -0.036124 0.996720 192 255 56 0.581187
0.061678 -0.040584 0.996296 192 255 56 0.581651
0.047561 -0.030029 0.984544 127 255 121 0.500454
0.048571 -0.025575 0.983046 121 255 127 0.495929
0.043899 -0.034463 0.983844 134 255 114 0.507940
0.044812 -0.030099 0.982327 108 255 140 0.478806
0.041303 -0.034401 0.981887 130 255 117 0.504741
0.045948 -0.025753 0.980697 140 255 108 0.519217
0.040350 -0.038726 0.983389 137 255 111 0.514237
0.036781 -0.042962 0.982842 137 255 111 0.512599
0.039592 -0.043125 0.984850 140 255 108 0.517211
0.043033 -0.038920 0.985232 150 255 98 0.527794
0.046712 -0.034594 0.985925 130 255 117 0.505801
0.042244 -0.043427 0.986586 143 255 104 0.521267
0.042193 -0.029990 0.980166 124 255 124 0.498739
0.043155 -0.025793 0.978245 143 255 104 0.522909
0.038412 -0.034181 0.979592 108 255 140 0.478817
0.039407 -0.030085 0.977780 124 255 124 0.496893
0.034736 -0.038309 0.979101 88 255 160 0.455771
0.033919 -0.042676 0.980868 130 255 117 0.504667
0.037572 -0.038535 0.981239 130 255 117 0.505011
0.030513 -0.057330 0.981239 137 255 111 0.512176
0.030029 -0.062651 0.981435 189 255 59 0.574844
0.031405 -0.052117 0.981045 140 255 108 0.519060
0.034460 -0.052736 0.982741 208 255 40 0.599907
0.033565 -0.057895 0.982749 130 255 117 0.505681
0.032838 -0.063201 0.982794 137 255 111 0.514924
0.034160 -0.047485 0.981869 140 255 108 0.518777
0.036408 -0.058105 0.984323 147 255 101 0.527321
0.035609 -0.063337 0.984223 137 255 111 0.512937
0.037346 -0.052995 0.984430 160 255 88 0.539582
0.040106 -0.053321 0.986127 160 255 88 0.541077
0.039199 -0.058399 0.985965 153 255 95 0.532264
0.038384 -0.063593 0.985829 137 255 111 0.513262
0.039834 -0.048151 0.985574 150 255 98 0.530507
0.037041 -0.047873 0.983709 147 255 101 0.525978
0.050186 -0.030206 0.986509 127 255 121 0.501507
0.049239 -0.034834 0.987588 111 255 137 0.480607
0.045726 -0.039158 0.987018 140 255 108 0.518618
0.044868 -0.043709 0.988241 147 255 101 0.523475
0.048296 -0.039438 0.988680 150 255 98 0.531076
0.047405 -0.044096 0.989758 143 255 104 0.521858
0.051864 -0.035097 0.989418 130 255 117 0.506223
0.052833 -0.030363 0.988413 130 255 117 0.504040
0.042456 -0.048389 0.987222 153 255 95 0.531706
0.042646 -0.053408 0.987676 156 255 92 0.536244
0.041700 -0.058491 0.987373 150 255 98 0.529904
0.040832 -0.063664 0.987104 134 255 114 0.509924
0.043292 -0.063672 0.988614 130 255 117 0.505139
0.044144 -0.058688 0.988784 143 255 104 0.523221
0.045116 -0.053749 0.989066 153 255 95 0.535144
0.044986 -0.048697 0.988722 153 255 95 0.531779
0.047878 -0.058495 0.990891 140 255 108 0.517932
0.048954 -0.053806 0.991157 137 255 111 0.511885
0.048770 -0.049019 0.990745 150 255 98 0.527817
0.050028 -0.044327 0.991171 143 255 104 0.519627
0.045682 -0.063505 0.989902 127 255 121 0.501628
0.053573 -0.040000 0.991857 143 255 104 0.519598
0.055788 -0.035514 0.991871 88 255 160 0.453944
0.056765 -0.030707 0.991126 179 255 69 0.564282
0.050988 -0.039751 0.990292 140 255 108 0.517626
0.067559 -0.006049 0.966771 117 255 130 0.489112
0.063538 -0.008286 0.968393 114 255 134 0.484719
0.060730 -0.010068 0.971505 111 255 137 0.484367
0.056489 -0.012536 0.972858 108 255 140 0.476842
0.059226 -0.011634 0.975866 114 255 134 0.487189
0.063480 -0.009222 0.974586 114 255 134 0.486858
0.066315 -0.007416 0.971605 117 255 130 0.488983
0.070154 -0.005052 0.970078 117 255 130 0.492096
0.051798 -0.016177 0.972908 104 255 143 0.476106
0.048373 -0.019325 0.974206 111 255 137 0.481417
0.046411 -0.022494 0.976885 85 255 163 0.453101
0.049175 -0.022217 0.979498 117 255 130 0.489952
0.051162 -0.018991 0.976977 114 255 134 0.486302
0.054554 -0.015492 0.975656 111 255 137 0.483249
0.053095 -0.021794 0.983092 121 255 127 0.493722
0.056278 -0.018073 0.982028 117 255 130 0.490641
0.058325 -0.014633 0.979675 130 255 117 0.504424
0.061696 -0.010959 0.978682 117 255 130 0.490493
0.053834 -0.018444 0.979584 117 255 130 0.489605
0.066861 -0.008111 0.978887 91 255 156 0.457862
0.071063 -0.005688 0.977631 117 255 130 0.490700
0.074049 -0.003838 0.974786 121 255 127 0.493078
0.068667 -0.006480 0.974716 117 255 130 0.490979
0.071874 -0.014095 0.993115 185 255 62 0.572917
0.068899 -0.018271 0.993409 127 255 121 0.503487
0.067302 -0.022551 0.994731 127 255 121 0.503703
0.069829 -0.023049 0.996669 134 255 114 0.507989
0.044484 -0.105763 0.975392 153 255 95 0.532508
0.043673 -0.105878 0.974619 98 255 150 0.467897
0.045491 -0.109858 0.972052 88 255 160 0.455377
0.044820 -0.109987 0.971277 85 255 163 0.449360
0.042973 -0.105999 0.973841 88 255 160 0.455539
0.046695 -0.113922 0.968608 179 255 69 0.562801
0.044201 -0.110074 0.970448 82 255 166 0.449098
0.046099 -0.113989 0.967795 104 255 143 0.473000
0.045572 -0.114048 0.966895 85 255 163 0.451864
0.042308 -0.106101 0.973012 88 255 160 0.455372
0.043618 -0.110165 0.969565 85 255 163 0.451448
0.041680 -0.106200 0.972107 91 255 156 0.460746
0.048091 -0.117812 0.965005 75 255 172 0.439938
0.047546 -0.117864 0.964133 79 255 169 0.441457
0.049572 -0.121568 0.961319 95 255 153 0.462037
0.050275 -0.121647 0.962192 137 255 111 0.515547
0.048857 -0.117862 0.965836 72 255 176 0.435281
0.051007 -0.121711 0.963008 88 255 160 0.453861
0.049712 -0.117833 0.966596 66 255 182 0.429073
0.047536 -0.113900 0.969352 130 255 117 0.505178
0.048486 -0.113896 0.970097 82 255 166 0.446965
0.051863 -0.121709 0.963824 69 255 179 0.431884
0.050628 -0.117855 0.967410 66 255 182 0.428428
0.052834 -0.121773 0.964757 59 255 189 0.419165
0.046442 -0.109860 0.972798 82 255 166 0.445640
0.040980 -0.105610 0.971306 104 255 143 0.476473
0.042754 -0.109347 0.968863 85 255 163 0.450603
0.042078 -0.108767 0.967944 98 255 150 0.465062
0.040269 -0.105045 0.970398 91 255 156 0.458937
0.043851 -0.112334 0.965373 85 255 163 0.452778
0.041241 -0.108129 0.966840 198 255 49 0.586415
0.043091 -0.111673 0.964304 143 255 104 0.520670
0.039415 -0.104433 0.969318 98 255 150 0.466185
0.044994 -0.115126 0.961694 56 255 192 0.417546
0.047111 -0.118714 0.958944 59 255 189 0.418874
0.045960 -0.116066 0.962658 69 255 179 0.432063
0.048040 -0.119726 0.959881 72 255 176 0.434606
0.046781 -0.116979 0.963454 72 255 176 0.435393
0.044747 -0.113204 0.966203 82 255 166 0.445427
0.048831 -0.120665 0.960658 82 255 166 0.446918
0.053341 -0.125448 0.950206 20 254 228 0.374678
0.054469 -0.126621 0.950966 130 255 117 0.507407
0.052145 -0.124243 0.954049 36 255 211 0.392785
0.055462 -0.127789 0.951639 69 255 179 0.430308
0.053197 -0.125404 0.954698 59 255 189 0.418351
0.054203 -0.126453 0.955305 66 255 182 0.426488
0.056454 -0.128863 0.952214 69 255 179 0.431239
0.050892 -0.122978 0.957764 79 255 169 0.442786
0.051927 -0.124044 0.958349 156 255 92 0.537539
0.050124 -0.121992 0.956955 56 255 192 0.415984
0.049237 -0.120976 0.956067 40 255 208 0.394816
0.051302 -0.123214 0.953148 0 214 255 0.334348
0.057065 -0.129023 0.953110 69 255 179 0.429929
0.058661 -0.129350 0.953588 59 255 189 0.419273
0.055479 -0.126672 0.956985 40 255 208 0.396199
0.060422 -0.129790 0.954185 56 255 192 0.416206
0.057259 -0.126971 0.957480 72 255 176 0.434400
0.059146 -0.127616 0.958248 40 255 208 0.396505
0.062195 -0.130669 0.955089 108 255 140 0.479199
0.054120 -0.124236 0.960870 59 255 189 0.418711
0.056014 -0.124680 0.961502 43 255 205 0.398495
0.053279 -0.124198 0.960002 69 255 179 0.430936
0.052518 -0.124154 0.959159 91 255 156 0.459152
0.054790 -0.126605 0.956140 59 255 189 0.421604
0.037916 -0.099311 0.971151 85 255 163 0.449483
0.038841 -0.099906 0.972229 75 255 172 0.440091
0.037265 -0.094671 0.973949 85 255 163 0.449330
0.039615 -0.100483 0.973122 75 255 172 0.440717
0.038135 -0.095273 0.974820 79 255 169 0.444967
0.039009 -0.095905 0.975623 75 255 172 0.440492
0.040353 -0.101055 0.973920 79 255 169 0.442280
0.036562 -0.090044 0.976482 111 255 137 0.483366
0.037528 -0.090674 0.977241 189 255 59 0.577343
0.035929 -0.085504 0.978867 104 255 143 0.473820
0.034981 -0.085095 0.978243 104 255 143 0.475400
0.035676 -0.089635 0.975711 98 255 150 0.467529
0.033968 -0.084668 0.977508 98 255 150 0.467443
0.034666 -0.089205 0.974855 104 255 143 0.475177
0.036364 -0.094278 0.973002 88 255 160 0.453438
0.032877 -0.084221 0.976702 53 255 195 0.412894
0.041768 -0.100895 0.975550 69 255 179 0.432777
0.040486 -0.095736 0.977121 66 255 182 0.427649
0.042528 -0.100802 0.976336 56 255 192 0.415586
0.041337 -0.095687 0.977932 43 255 205 0.401627
0.042272 -0.095642 0.978832 0 186 255 0.308572
0.043371 -0.100726 0.977133 4 234 244 0.354896
0.040086 -0.090566 0.979475 72 255 176 0.436660
0.041078 -0.090544 0.980400 66 255 182 0.427471
0.039851 -0.085482 0.982002 82 255 166 0.446274
0.037831 -0.085506 0.980355 95 255 153 0.462122
0.037344 -0.068934 0.983993 124 255 124 0.496490
0.036504 -0.074384 0.982175 121 255 127 0.495117
0.034650 -0.068744 0.982500 30 255 218 0.385663
0.034139 -0.074305 0.980859 130 255 117 0.505436
0.036052 -0.079938 0.980448 111 255 137 0.483706
0.038311 -0.079980 0.982063 101 255 147 0.468847
0.039064 -0.074510 0.983907 108 255 140 0.477700
0.032004 -0.068250 0.981112 124 255 124 0.499244
0.031738 -0.073360 0.979462 134 255 114 0.508038
0.032797 -0.078992 0.978512 130 255 117 0.505057
0.033916 -0.079454 0.979158 124 255 124 0.498258
0.032916 -0.073846 0.980208 130 255 117 0.507421
0.045112 -0.099636 0.979152 85 255 163 0.452798
0.046182 -0.104451 0.977657 69 255 179 0.432835
0.044025 -0.094829 0.980563 30 255 218 0.383441
0.045897 -0.093598 0.982963 27 255 221 0.379912
0.046882 -0.098380 0.981580 40 255 208 0.394955
0.047822 -0.103198 0.980117 117 255 130 0.492057
0.043858 -0.089409 0.983060 0 202 255 0.321064
0.043815 -0.084085 0.985551 56 255 192 0.416160
0.041818 -0.084766 0.983721 66 255 182 0.427285
0.048726 -0.096951 0.983584 17 250 231 0.369667
0.049655 -0.101477 0.982457 36 255 211 0.391832
0.047819 -0.092487 0.984741 11 242 237 0.362483
0.049662 -0.090822 0.986868 14 246 234 0.364015
0.050516 -0.095249 0.985821 14 246 234 0.365136
0.051389 -0.099793 0.984743 27 255 221 0.380505
0.047830 -0.087240 0.986807 33 255 215 0.388265
0.047871 -0.082047 0.988826 49 255 198 0.406626
0.045840 -0.083041 0.987105 46 255 202 0.403579
0.045822 -0.088278 0.985043 23 255 224 0.378176
0.046846 -0.068402 0.989719 108 255 140 0.479702
0.045861 -0.073544 0.988318 137 255 111 0.513595
0.044613 -0.068617 0.988409 202 255 46 0.590354
0.043625 -0.073844 0.986998 85 255 163 0.451552
0.044793 -0.078782 0.986912 46 255 202 0.404323
0.046893 -0.077831 0.988483 43 255 205 0.400539
0.047950 -0.072688 0.989860 69 255 179 0.430245
0.042293 -0.068993 0.986907 121 255 127 0.495637
0.041338 -0.074398 0.985255 91 255 156 0.460095
0.039874 -0.069015 0.985471 124 255 124 0.497617
0.040478 -0.079917 0.983584 79 255 169 0.445134
0.042692 -0.079259 0.985368 59 255 189 0.420553
0.052563 -0.093988 0.987436 0 226 250 0.345039
0.053378 -0.098312 0.986546 20 254 228 0.372589
0.051787 -0.089759 0.988346 4 234 244 0.352651
0.053701 -0.088333 0.989970 23 255 224 0.377482
0.054466 -0.092573 0.989137 0 222 253 0.343349
0.055185 -0.096907 0.988310 0 198 255 0.317796
0.052025 -0.084846 0.990034 14 246 234 0.366440
0.052332 -0.080082 0.991753 11 242 237 0.361563
0.050154 -0.081041 0.990258 36 255 211 0.393866
0.049898 -0.085886 0.988589 23 255 224 0.376773
0.056421 -0.091485 0.990532 0 218 255 0.337758
0.057111 -0.095664 0.989722 0 162 255 0.282288
0.055841 -0.087391 0.991394 4 234 244 0.353294
0.057850 -0.086180 0.992856 20 254 228 0.374587
0.058414 -0.090290 0.992033 0 214 255 0.333068
0.058951 -0.094463 0.991182 0 206 255 0.328092
0.056311 -0.082753 0.992969 14 246 234 0.365903
0.056954 -0.078218 0.994611 40 255 208 0.396045
0.054696 -0.079133 0.993161 40 255 208 0.395259
0.054169 -0.083684 0.991570 14 246 234 0.365109
0.056754 -0.066231 0.995185 91 255 156 0.458798
0.055133 -0.070812 0.993955 17 250 231 0.369097
0.054203 -0.066742 0.993840 88 255 160 0.456442
0.052678 -0.071352 0.992605 0 174 255 0.294206
0.053674 -0.075445 0.992795 46 255 202 0.403324
0.056074 -0.074510 0.994209 108 255 140 0.478679
0.057655 -0.069896 0.995409 27 255 221 0.378951
0.051659 -0.067423 0.992441 95 255 153 0.461119
0.050307 -0.072252 0.991171 56 255 192 0.416596
0.049203 -0.067792 0.991153 182 255 66 0.566771
0.049097 -0.077127 0.989991 0 218 255 0.339053
0.051396 -0.076176 0.991404 36 255 211 0.392994
0.060373 -0.089339 0.993399 0 210 255 0.329376
0.060923 -0.093411 0.992613 0 206 255 0.328051
0.059962 -0.085346 0.994290 0 226 250 0.347417
0.062070 -0.084257 0.995710 56 255 192 0.416769
0.062397 -0.088246 0.994876 0 198 255 0.319069
0.062882 -0.092344 0.994104 0 194 255 0.315554
0.060582 -0.080873 0.995777 14 246 234 0.364405
0.061376 -0.076491 0.997315 30 255 218 0.383875
0.059084 -0.077363 0.995852 40 255 208 0.396086
0.058408 -0.081723 0.994352 17 250 231 0.367518
0.064478 -0.087355 0.996517 0 198 255 0.319008
0.064789 -0.091357 0.995675 0 194 255 0.315793
0.064138 -0.083428 0.997313 0 222 253 0.343278
0.064902 -0.079058 0.998875 1 230 247 0.349005
0.064638 -0.075232 0.999572 27 255 221 0.379302
0.062777 -0.079902 0.997275 7 238 240 0.358521
0.064510 -0.067898 0.999620 62 255 185 0.425510
0.063921 -0.064238 0.999344 91 255 156 0.460262
0.062399 -0.068470 0.998160 66 255 182 0.427674
0.062840 -0.072178 0.998430 53 255 195 0.413628
0.061598 -0.064949 0.997959 95 255 153 0.463268
0.059990 -0.069333 0.996801 62 255 185 0.424614
0.059242 -0.065524 0.996557 98 255 150 0.465511
0.058391 -0.073773 0.995637 56 255 192 0.416513
0.060649 -0.072904 0.996962 101 255 147 0.469292
0.013945 -0.061827 0.965532 104 255 143 0.473045
0.012320 -0.057527 0.964584 91 255 156 0.460364
0.012567 -0.065532 0.962466 104 255 143 0.473392
0.011030 -0.061160 0.961555 79 255 169 0.443252
0.009574 -0.064740 0.958636 82 255 166 0.446918
0.009538 -0.056940 0.960625 49 255 198 0.406307
0.011034 -0.069240 0.959494 91 255 156 0.460928
0.009604 -0.072989 0.956643 101 255 147 0.472597
0.011216 -0.073738 0.958411 104 255 143 0.473080
0.012649 -0.069919 0.961441 98 255 150 0.466483
0.012904 -0.074465 0.960342 108 255 140 0.479892
0.014337 -0.070590 0.963423 104 255 143 0.476379
0.014151 -0.066100 0.964523 104 255 143 0.475900
0.014608 -0.075205 0.962222 114 255 134 0.488088
0.008117 -0.060506 0.957814 27 255 221 0.382351
0.006813 -0.056618 0.956826 85 255 163 0.451246
0.006570 -0.064118 0.955153 95 255 153 0.461864
0.005381 -0.060165 0.954072 101 255 147 0.469474
0.003775 -0.063644 0.951672 114 255 134 0.485426
0.004147 -0.056340 0.953088 101 255 147 0.472435
0.004996 -0.067706 0.952551 111 255 137 0.480968
0.003497 -0.071378 0.950109 215 255 33 0.609059
0.006497 -0.072165 0.953321 127 255 121 0.503654
0.007987 -0.068401 0.955994 20 254 228 0.372950
0.007153 -0.083522 0.946630 124 255 124 0.498788
0.008927 -0.083937 0.947897 124 255 124 0.496332
0.007937 -0.079863 0.949675 121 255 127 0.493914
0.010699 -0.084354 0.949270 124 255 124 0.498679
0.009687 -0.080336 0.951180 114 255 134 0.487976
0.011400 -0.080861 0.952758 114 255 134 0.487579
0.012489 -0.084821 0.950744 140 255 108 0.517131
0.008712 -0.076369 0.953105 111 255 137 0.484102
0.010453 -0.076907 0.954753 108 255 140 0.477063
0.005627 -0.075523 0.949962 189 255 59 0.576576
0.004814 -0.079079 0.946892 124 255 124 0.499792
0.014239 -0.085587 0.952415 255 180 0 0.716271
0.016175 -0.086553 0.954128 143 255 104 0.523192
0.014807 -0.082406 0.956283 121 255 127 0.494905
0.018249 -0.087528 0.955865 150 255 98 0.527520
0.016823 -0.083328 0.958101 127 255 121 0.502958
0.015585 -0.079143 0.960235 150 255 98 0.530049
0.013788 -0.078429 0.958305 114 255 134 0.486929
0.012088 -0.077695 0.956491 108 255 140 0.479625
0.013079 -0.081607 0.954516 117 255 130 0.490708
0.023144 -0.032702 0.963777 114 255 134 0.485437
0.019428 -0.035764 0.963154 101 255 147 0.471212
0.019680 -0.032937 0.960501 104 255 143 0.476499
0.016139 -0.035970 0.959668 101 255 147 0.471845
0.015910 -0.038770 0.962340 30 255 218 0.386571
0.012752 -0.042188 0.961021 30 255 218 0.383475
0.015547 -0.042151 0.964829 101 255 147 0.469533
0.018887 -0.038868 0.965822 104 255 143 0.472833
0.016197 -0.032705 0.957331 111 255 137 0.483192
0.012797 -0.035745 0.956448 189 255 59 0.577603
0.012417 -0.032446 0.954319 111 255 137 0.483695
0.009332 -0.035782 0.953062 104 255 143 0.474003
0.009886 -0.039033 0.955053 101 255 147 0.471311
0.007314 -0.042529 0.953411 91 255 156 0.459724
0.009991 -0.042368 0.957224 101 255 147 0.469175
0.012869 -0.038953 0.958646 124 255 124 0.498065
0.006480 -0.052833 0.954813 85 255 163 0.451828
0.008552 -0.049201 0.956907 79 255 169 0.442767
0.009077 -0.053027 0.958667 72 255 176 0.436645
0.011182 -0.049384 0.960733 69 255 179 0.432493
0.010609 -0.045704 0.959049 82 255 166 0.445894
0.008058 -0.045942 0.955011 46 255 202 0.402957
0.006070 -0.049474 0.952905 98 255 150 0.466468
0.011768 -0.053167 0.962698 82 255 166 0.449024
0.013790 -0.049342 0.964994 95 255 153 0.463303
0.014475 -0.053638 0.966755 101 255 147 0.469738
0.016078 -0.045624 0.966898 104 255 143 0.474964
0.013236 -0.045670 0.962972 91 255 156 0.457279
0.002446 -0.059817 0.950939 172 255 75 0.558064
0.001255 -0.056304 0.950040 121 255 127 0.494157
0.000724 -0.063354 0.948824 124 255 124 0.497559
-0.000456 -0.059778 0.948013 127 255 121 0.500141
-0.002224 -0.063256 0.946175 130 255 117 0.504404
-0.001672 -0.056330 0.947282 127 255 121 0.503453
-0.000971 -0.066959 0.946909 124 255 124 0.499174
-0.002637 -0.070806 0.945328 114 255 134 0.485252
0.000435 -0.071052 0.947527 82 255 166 0.445930
0.002048 -0.067291 0.949510 121 255 127 0.495272
-0.003552 -0.059788 0.945727 134 255 114 0.510633
-0.004884 -0.056440 0.945166 137 255 111 0.514903
-0.005419 -0.063392 0.944474 137 255 111 0.514723
-0.006788 -0.059891 0.943916 192 255 56 0.579843
-0.008708 -0.063560 0.943019 143 255 104 0.522827
-0.008386 -0.056483 0.943497 143 255 104 0.521707
-0.007231 -0.067112 0.943432 143 255 104 0.519920
-0.009105 -0.071146 0.942678 143 255 104 0.520586
-0.005775 -0.070978 0.943887 176 255 72 0.559077
-0.004029 -0.066977 0.944798 134 255 114 0.509386
-0.007855 -0.088292 0.939734 134 255 114 0.510767
-0.006490 -0.083629 0.940932 134 255 114 0.509392
-0.004449 -0.087909 0.940590 134 255 114 0.510985
-0.005094 -0.079043 0.942068 130 255 117 0.505818
-0.003034 -0.083247 0.941770 130 255 117 0.507279
-0.001664 -0.078710 0.943090 127 255 121 0.502908
-0.000999 -0.087495 0.941485 134 255 114 0.509159
-0.003804 -0.074711 0.943477 130 255 117 0.506488
-0.007062 -0.074992 0.942351 134 255 114 0.511256
-0.008430 -0.079373 0.941117 121 255 127 0.493434
0.000373 -0.083031 0.942991 130 255 117 0.504039
0.002614 -0.087493 0.942753 117 255 130 0.491687
0.001537 -0.078849 0.944876 127 255 121 0.501576
0.003820 -0.083122 0.944533 127 255 121 0.501146
0.002514 -0.074953 0.947226 127 255 121 0.501589
-0.000582 -0.074687 0.945033 124 255 124 0.499722
-0.113076 -0.108772 0.884642 172 255 75 0.558103
-0.116001 -0.109186 0.882173 182 255 66 0.569960
-0.114064 -0.110749 0.880031 172 255 75 0.555436
-0.117033 -0.111336 0.877718 166 255 82 0.548334
-0.118967 -0.109735 0.879787 182 255 66 0.568016
-0.115077 -0.113035 0.875688 147 255 101 0.523686
-0.120035 -0.111982 0.875494 153 255 95 0.532850
-0.118049 -0.113739 0.873552 137 255 111 0.513113
-0.121095 -0.114509 0.871431 130 255 117 0.506929
-0.121968 -0.110322 0.877497 169 255 79 0.552765
-0.122986 -0.112716 0.873330 134 255 114 0.511386
-0.124964 -0.110998 0.875268 147 255 101 0.526081
-0.116101 -0.115478 0.871616 127 255 121 0.503477
-0.119083 -0.116221 0.869493 127 255 121 0.502124
-0.117064 -0.118041 0.867599 121 255 127 0.493974
-0.114099 -0.117568 0.869564 127 255 121 0.501107
-0.113151 -0.115032 0.873637 130 255 117 0.505287
-0.111168 -0.117064 0.871553 127 255 121 0.501047
-0.110184 -0.114613 0.875678 130 255 117 0.505383
-0.112126 -0.112634 0.877793 156 255 92 0.537425
-0.109159 -0.112287 0.879964 156 255 92 0.538216
-0.108243 -0.116618 0.873568 127 255 121 0.500156
-0.107258 -0.114232 0.877796 130 255 117 0.505648
-0.105322 -0.116267 0.875667 124 255 124 0.498720
-0.111157 -0.110467 0.882247 172 255 75 0.558419
-0.128237 -0.110855 0.873024 147 255 101 0.526219
-0.126369 -0.112605 0.871112 134 255 114 0.510974
-0.129770 -0.112572 0.868968 130 255 117 0.506495
-0.131562 -0.110822 0.870808 134 255 114 0.508576
-0.127877 -0.114366 0.867085 127 255 121 0.503335
-0.133120 -0.112578 0.866831 124 255 124 0.499481
-0.131288 -0.114361 0.865024 127 255 121 0.500344
-0.134611 -0.114296 0.862945 124 255 124 0.498573
-0.134942 -0.110809 0.868617 108 255 140 0.476886
-0.136508 -0.112549 0.864765 124 255 124 0.499104
-0.138333 -0.110829 0.866537 124 255 124 0.499098
-0.129317 -0.116112 0.863113 124 255 124 0.499393
-0.132704 -0.116046 0.861047 121 255 127 0.496055
-0.130618 -0.117787 0.859113 121 255 127 0.494216
-0.127205 -0.117946 0.861219 124 255 124 0.498985
-0.125795 -0.116159 0.865213 127 255 121 0.500810
-0.123726 -0.117985 0.863323 127 255 121 0.500033
-0.122395 -0.116176 0.867334 127 255 121 0.500657
-0.124430 -0.114404 0.869229 130 255 117 0.504420
-0.120361 -0.118002 0.865446 127 255 121 0.500043
-0.119919 -0.121968 0.849514 127 255 121 0.503023
-0.116693 -0.122344 0.851550 127 255 121 0.501296
-0.119448 -0.121890 0.854148 127 255 121 0.500948
-0.116187 -0.122131 0.856192 127 255 121 0.500354
-0.113569 -0.122705 0.853578 121 255 127 0.492752
-0.118759 -0.121121 0.858709 127 255 121 0.500237
-0.113031 -0.122344 0.858184 127 255 121 0.500125
-0.115531 -0.121260 0.860732 127 255 121 0.500443
-0.112332 -0.121342 0.862778 127 255 121 0.500029
-0.110494 -0.122919 0.855568 124 255 124 0.499854
-0.109912 -0.122500 0.860221 124 255 124 0.499649
-0.107473 -0.123204 0.857633 124 255 124 0.499715
-0.117940 -0.119757 0.863196 124 255 124 0.497654
-0.114728 -0.119819 0.865236 124 255 124 0.499986
-0.121282 -0.119692 0.861072 124 255 124 0.499837
-0.124712 -0.119571 0.858946 124 255 124 0.499184
-0.122118 -0.120943 0.856593 127 255 121 0.500197
-0.125491 -0.120659 0.854452 124 255 124 0.498552
-0.128139 -0.119356 0.856808 121 255 127 0.495242
-0.122752 -0.121519 0.852006 127 255 121 0.501506
-0.104742 -0.123062 0.859376 124 255 124 0.499159
-0.107136 -0.122104 0.862226 124 255 124 0.499420
-0.104374 -0.121934 0.864006 124 255 124 0.498735
-0.102096 -0.122988 0.861193 124 255 124 0.498040
-0.106641 -0.120433 0.866777 124 255 124 0.499434
-0.101652 -0.121838 0.865899 124 255 124 0.497879
-0.103839 -0.120256 0.868599 124 255 124 0.498317
-0.101100 -0.120220 0.870520 124 255 124 0.497558
-0.099459 -0.122955 0.863146 117 255 130 0.489356
-0.098935 -0.121874 0.867875 124 255 124 0.497074
-0.096768 -0.122968 0.865086 124 255 124 0.496948
-0.106007 -0.118397 0.871225 124 255 124 0.498600
-0.103202 -0.118267 0.873102 124 255 124 0.497655
-0.108887 -0.118827 0.869168 124 255 124 0.499698
-0.111789 -0.119347 0.867194 127 255 121 0.500553
-0.109454 -0.120841 0.864744 127 255 121 0.500062
-0.082023 -0.121722 0.876166 121 255 127 0.492629
-0.081623 -0.122784 0.871517 121 255 127 0.494320
-0.085241 -0.122021 0.873798 121 255 127 0.493501
-0.081168 -0.123356 0.866720 121 255 127 0.495094
-0.084850 -0.123116 0.869102 121 255 127 0.495206
-0.084329 -0.123593 0.864275 121 255 127 0.495871
-0.088476 -0.122402 0.871415 121 255 127 0.494784
-0.080642 -0.123391 0.861783 104 255 143 0.476373
-0.080064 -0.123249 0.856859 127 255 121 0.501474
-0.077210 -0.123413 0.858821 124 255 124 0.499334
-0.077761 -0.123466 0.863759 121 255 127 0.495342
-0.078254 -0.123402 0.868722 121 255 127 0.494882
-0.074347 -0.123461 0.860768 124 255 124 0.498991
-0.090582 -0.122474 0.869790 121 255 127 0.495516
-0.088377 -0.123196 0.866545 124 255 124 0.496327
-0.090432 -0.123226 0.864966 124 255 124 0.496951
-0.092630 -0.122616 0.868200 124 255 124 0.496131
-0.088175 -0.123406 0.861610 124 255 124 0.497883
-0.092421 -0.123275 0.863393 124 255 124 0.497428
-0.090126 -0.123329 0.860054 124 255 124 0.498974
-0.092160 -0.123330 0.858514 124 255 124 0.499593
-0.094695 -0.122774 0.866624 124 255 124 0.496983
-0.094492 -0.123443 0.861839 124 255 124 0.497760
-0.087889 -0.123074 0.856637 127 255 121 0.503062
-0.089866 -0.123034 0.855105 130 255 117 0.504108
-0.087551 -0.122618 0.851629 127 255 121 0.502796
-0.083824 -0.122937 0.854204 137 255 111 0.512152
-0.084083 -0.123262 0.859235 124 255 124 0.499383
-0.079585 -0.124562 0.837515 121 255 127 0.493187
-0.079554 -0.123230 0.841916 121 255 127 0.494223
-0.075825 -0.124599 0.839627 117 255 130 0.492173
-0.079624 -0.122667 0.846674 121 255 127 0.495495
-0.075829 -0.123325 0.844070 121 255 127 0.492748
-0.075940 -0.122973 0.849001 121 255 127 0.494217
-0.072088 -0.124786 0.841776 117 255 130 0.491048
-0.079848 -0.122799 0.851716 124 255 124 0.498082
-0.083577 -0.122517 0.849114 124 255 124 0.498439
-0.083371 -0.122639 0.844194 121 255 127 0.495997
-0.072496 -0.123473 0.846165 104 255 143 0.474293
-0.069202 -0.124871 0.843448 117 255 130 0.490469
-0.073055 -0.122941 0.850898 121 255 127 0.493532
-0.069659 -0.123554 0.847918 117 255 130 0.490926
-0.070241 -0.123077 0.852680 117 255 130 0.489977
-0.066347 -0.125018 0.845162 117 255 130 0.490597
-0.073654 -0.123014 0.855829 117 255 130 0.489964
-0.076534 -0.122991 0.853885 124 255 124 0.496916
-0.100940 -0.124764 0.826002 124 255 124 0.497103
-0.098034 -0.124550 0.827511 124 255 124 0.496265
-0.099730 -0.122753 0.830465 124 255 124 0.497403
-0.096885 -0.122756 0.831965 124 255 124 0.496580
-0.095181 -0.124397 0.828989 121 255 127 0.495332
-0.098834 -0.121718 0.835052 124 255 124 0.497452
-0.094089 -0.122760 0.833442 121 255 127 0.495811
-0.096016 -0.121862 0.836579 124 255 124 0.496873
-0.093272 -0.122074 0.838128 124 255 124 0.496463
-0.092380 -0.124341 0.830468 121 255 127 0.494510
-0.091355 -0.122917 0.834971 121 255 127 0.495222
-0.089586 -0.124411 0.832007 121 255 127 0.493021
-0.098135 -0.121524 0.839854 124 255 124 0.498405
-0.095375 -0.121852 0.841471 124 255 124 0.498074
-0.097557 -0.121974 0.844965 127 255 121 0.501928
-0.100294 -0.121616 0.843106 127 255 121 0.502194
-0.100885 -0.121293 0.838115 124 255 124 0.499151
-0.103074 -0.121352 0.841317 127 255 121 0.501871
-0.103655 -0.121117 0.836405 124 255 124 0.499517
-0.101606 -0.121662 0.833370 124 255 124 0.498660
-0.104451 -0.121666 0.831681 134 255 114 0.511176
-0.105868 -0.121054 0.839561 117 255 130 0.489064
-0.106505 -0.120981 0.834709 127 255 121 0.500331
-0.108760 -0.120896 0.837831 111 255 137 0.480656
-0.102578 -0.122917 0.828781 124 255 124 0.498625
-0.087125 -0.124359 0.833338 114 255 134 0.485870
-0.088921 -0.122822 0.836423 121 255 127 0.494663
-0.086401 -0.122879 0.837780 121 255 127 0.494600
-0.084625 -0.124330 0.834677 121 255 127 0.492731
-0.088375 -0.122175 0.841195 121 255 127 0.495949
-0.083945 -0.123073 0.839254 121 255 127 0.494568
-0.085894 -0.122364 0.842658 121 255 127 0.495864
-0.082110 -0.124379 0.836077 121 255 127 0.493362
-0.087948 -0.122205 0.846311 124 255 124 0.497937
-0.090104 -0.122421 0.849909 127 255 121 0.501850
-0.090442 -0.121979 0.844638 124 255 124 0.497840
-0.092601 -0.122258 0.848234 124 255 124 0.498905
-0.092895 -0.121908 0.843042 124 255 124 0.498158
-0.090837 -0.122041 0.839610 124 255 124 0.496154
-0.095083 -0.122047 0.846557 127 255 121 0.501448
-0.097116 -0.123276 0.860080 124 255 124 0.498229
-0.099714 -0.123107 0.858147 124 255 124 0.499319
-0.097324 -0.122904 0.855058 127 255 121 0.502030
-0.102303 -0.123080 0.856282 127 255 121 0.500112
-0.099890 -0.122766 0.853164 127 255 121 0.503345
-0.102444 -0.122826 0.851401 130 255 117 0.504217
-0.104933 -0.123111 0.854513 127 255 121 0.500766
-0.097481 -0.122381 0.849958 134 255 114 0.507822
-0.099960 -0.122396 0.848230 134 255 114 0.508657
-0.094959 -0.122537 0.851609 130 255 117 0.506759
-0.092436 -0.122731 0.853336 130 255 117 0.505598
-0.094764 -0.123079 0.856762 127 255 121 0.500996
-0.107890 -0.122875 0.852646 127 255 121 0.501402
-0.110855 -0.122532 0.850616 127 255 121 0.502294
-0.108150 -0.122125 0.847678 134 255 114 0.508204
-0.113892 -0.122263 0.848653 127 255 121 0.503300
-0.111104 -0.121775 0.845700 134 255 114 0.509893
-0.114146 -0.121497 0.843679 134 255 114 0.510908
-0.117047 -0.121909 0.846611 130 255 117 0.504323
-0.108417 -0.121339 0.842705 134 255 114 0.508242
-0.111374 -0.121039 0.840715 130 255 117 0.507713
-0.105549 -0.121729 0.844543 134 255 114 0.508974
-0.102751 -0.122026 0.846348 134 255 114 0.509439
-0.105274 -0.122499 0.849525 130 255 117 0.505673
-0.085586 -0.045454 0.947278 137 255 111 0.514250
-0.085830 -0.046415 0.945363 134 255 114 0.510168
-0.084719 -0.043388 0.943417 140 255 108 0.518214
-0.084771 -0.044310 0.941589 150 255 98 0.528310
-0.085789 -0.047325 0.943441 134 255 114 0.510020
-0.083858 -0.041059 0.939677 127 255 121 0.500947
-0.084845 -0.045186 0.939713 130 255 117 0.504070
-0.083952 -0.041929 0.937922 88 255 160 0.456757
-0.083989 -0.042744 0.936011 121 255 127 0.493162
-0.085876 -0.048206 0.941613 150 255 98 0.528555
-0.084998 -0.046010 0.937920 124 255 124 0.497257
-0.086084 -0.049188 0.939878 127 255 121 0.501023
-0.083289 -0.038578 0.936119 127 255 121 0.503314
-0.083351 -0.039195 0.934184 127 255 121 0.500161
-0.083060 -0.035668 0.932684 130 255 117 0.505033
-0.082959 -0.035184 0.934760 130 255 117 0.506765
-0.083245 -0.037931 0.938229 130 255 117 0.506968
-0.082820 -0.034715 0.936955 134 255 114 0.509513
-0.083224 -0.037424 0.940355 130 255 117 0.507387
-0.083917 -0.040547 0.941822 134 255 114 0.509749
-0.083818 -0.039899 0.943893 137 255 111 0.513646
-0.082787 -0.034246 0.939231 134 255 114 0.511352
-0.083167 -0.036846 0.942517 108 255 140 0.478532
-0.084707 -0.042816 0.945540 189 255 59 0.575760
-0.086230 -0.049904 0.938114 121 255 127 0.495146
-0.085102 -0.046539 0.936019 121 255 127 0.493649
-0.085253 -0.047183 0.934275 124 255 124 0.496348
-0.086447 -0.050709 0.936398 121 255 127 0.495745
-0.083913 -0.043692 0.932472 124 255 124 0.496428
-0.084585 -0.048087 0.933027 130 255 117 0.507168
-0.083520 -0.044288 0.931197 101 255 147 0.472499
-0.083533 -0.044924 0.929879 130 255 117 0.503951
-0.086099 -0.051730 0.934862 127 255 121 0.501477
-0.084412 -0.048801 0.931698 134 255 114 0.509603
-0.085632 -0.052661 0.933494 130 255 117 0.505714
-0.083077 -0.040450 0.929364 127 255 121 0.502866
-0.083258 -0.040921 0.928025 134 255 114 0.510292
-0.083442 -0.037078 0.926352 134 255 114 0.511643
-0.083091 -0.036859 0.927871 143 255 104 0.521125
-0.083141 -0.040133 0.930830 98 255 150 0.468556
-0.083005 -0.036596 0.929327 182 255 66 0.567354
-0.083443 -0.039754 0.932443 124 255 124 0.496758
-0.084164 -0.043111 0.934054 121 255 127 0.493261
-0.083145 -0.036228 0.930901 140 255 108 0.516441
-0.090509 -0.021989 0.923098 114 255 134 0.486418
-0.089673 -0.021507 0.925176 121 255 127 0.495539
-0.088052 -0.025210 0.924747 121 255 127 0.495910
-0.087235 -0.024929 0.926741 124 255 124 0.497735
-0.088798 -0.021050 0.927322 124 255 124 0.499006
-0.085756 -0.028779 0.926792 127 255 121 0.501481
-0.086517 -0.024493 0.928893 127 255 121 0.501406
-0.085294 -0.028382 0.928818 130 255 117 0.504871
-0.084662 -0.028015 0.931078 130 255 117 0.504822
-0.087988 -0.020535 0.929483 127 255 121 0.503580
-0.085851 -0.024078 0.931095 134 255 114 0.508220
-0.087228 -0.020110 0.931509 137 255 111 0.512106
-0.084140 -0.032331 0.929496 130 255 117 0.507360
-0.083753 -0.031958 0.931607 130 255 117 0.505427
-0.084210 -0.032565 0.927768 140 255 108 0.517147
-0.084450 -0.032910 0.926157 179 255 69 0.563421
-0.086076 -0.029064 0.924971 127 255 121 0.501518
-0.086562 -0.029385 0.923264 127 255 121 0.500211
-0.084798 -0.033189 0.924604 140 255 108 0.517557
-0.088552 -0.025725 0.922747 121 255 127 0.494776
-0.086717 -0.019710 0.933745 137 255 111 0.514126
-0.085428 -0.023388 0.933277 134 255 114 0.508896
-0.085093 -0.023177 0.935543 134 255 114 0.510225
-0.086227 -0.019440 0.936002 169 255 79 0.551023
-0.084110 -0.026958 0.935588 75 255 172 0.439375
-0.083823 -0.026632 0.937852 127 255 121 0.502967
-0.083205 -0.030308 0.938240 137 255 111 0.511947
-0.083318 -0.030835 0.935983 134 255 114 0.509829
-0.083473 -0.031392 0.933856 130 255 117 0.507624
-0.084346 -0.027370 0.933330 127 255 121 0.501985
-0.097370 -0.054295 0.956247 124 255 124 0.497710
-0.096761 -0.053095 0.958303 124 255 124 0.499885
-0.097697 -0.051951 0.961364 124 255 124 0.498564
-0.100958 -0.052021 0.963094 121 255 127 0.493746
-0.101850 -0.053245 0.960801 121 255 127 0.494577
-0.100970 -0.054440 0.957749 121 255 127 0.495623
-0.104488 -0.054481 0.959415 137 255 111 0.512440
-0.107423 -0.050807 0.966004 114 255 134 0.485129
-0.108561 -0.052016 0.963580 114 255 134 0.484756
-0.108006 -0.053662 0.960586 114 255 134 0.485566
-0.111432 -0.052853 0.961855 98 255 150 0.466882
-0.105189 -0.052888 0.962286 117 255 130 0.490751
-0.104211 -0.051680 0.964570 117 255 130 0.489783
-0.111659 -0.050780 0.964894 108 255 140 0.480284
-0.110438 -0.049513 0.967339 111 255 137 0.481284
-0.113266 -0.047839 0.968583 108 255 140 0.477901
-0.114679 -0.049199 0.965836 95 255 153 0.463500
-0.114522 -0.051237 0.962885 108 255 140 0.479134
-0.117574 -0.049827 0.963668 108 255 140 0.478066
-0.118344 -0.043976 0.970380 66 255 182 0.428569
-0.120025 -0.045550 0.967259 108 255 140 0.477632
-0.120274 -0.047950 0.964096 108 255 140 0.477991
-0.122976 -0.046203 0.964507 108 255 140 0.479938
-0.117398 -0.047467 0.966752 104 255 143 0.476286
-0.115907 -0.045994 0.969576 104 255 143 0.474607
-0.124709 -0.047707 0.961429 108 255 140 0.479201
-0.124901 -0.049918 0.958646 108 255 140 0.477964
-0.126554 -0.051351 0.955793 91 255 156 0.457555
-0.126665 -0.053536 0.953221 108 255 140 0.478216
-0.129725 -0.052115 0.952945 108 255 140 0.477686
-0.123469 -0.052891 0.956123 108 255 140 0.478694
-0.123566 -0.055104 0.953397 111 255 137 0.481141
-0.121962 -0.051542 0.958647 108 255 140 0.479231
-0.120417 -0.050206 0.961274 108 255 140 0.478906
-0.131387 -0.053718 0.950102 111 255 137 0.481563
-0.131356 -0.056018 0.947527 169 255 79 0.553700
-0.132941 -0.057691 0.944481 134 255 114 0.510119
-0.132811 -0.060112 0.941598 114 255 134 0.487273
-0.136161 -0.059323 0.940255 111 255 137 0.483100
-0.129626 -0.058885 0.945336 117 255 130 0.491893
-0.129481 -0.061241 0.942575 130 255 117 0.505257
-0.128139 -0.057286 0.948053 156 255 92 0.538068
-0.126626 -0.055734 0.950775 111 255 137 0.484320
-0.121991 -0.062793 0.943675 117 255 130 0.491891
-0.120618 -0.061397 0.946077 117 255 130 0.491696
-0.121065 -0.059491 0.948477 114 255 134 0.488022
-0.119679 -0.058116 0.950887 114 255 134 0.486586
-0.120086 -0.056222 0.953272 111 255 137 0.481123
-0.116549 -0.057577 0.953009 127 255 121 0.501030
-0.123245 -0.057063 0.950933 111 255 137 0.483437
-0.124712 -0.058423 0.948419 114 255 134 0.487408
-0.126199 -0.059882 0.945840 117 255 130 0.489616
-0.125773 -0.061866 0.943242 117 255 130 0.489889
-0.115244 -0.056284 0.955308 114 255 134 0.488183
-0.115566 -0.054428 0.957836 111 255 137 0.484226
-0.114286 -0.053255 0.960020 111 255 137 0.482621
-0.117410 -0.051837 0.960853 108 255 140 0.480387
-0.118845 -0.053038 0.958384 111 255 137 0.480950
-0.120315 -0.054325 0.955877 111 255 137 0.481139
-0.086591 -0.046070 0.950446 150 255 98 0.529861
-0.089274 -0.049135 0.953102 130 255 117 0.505747
-0.088277 -0.048747 0.949896 134 255 114 0.507813
-0.090925 -0.051665 0.952377 127 255 121 0.502357
-0.094595 -0.051393 0.959293 143 255 104 0.520660
-0.093590 -0.051942 0.956240 127 255 121 0.502436
-0.094165 -0.053144 0.954131 127 255 121 0.500403
-0.110824 -0.054428 0.959164 127 255 121 0.500272
-0.112116 -0.055550 0.957041 117 255 130 0.488789
-0.111510 -0.057152 0.954434 121 255 127 0.492308
-0.112786 -0.058233 0.952444 134 255 114 0.510747
-0.108897 -0.059092 0.951660 134 255 114 0.510533
-0.107703 -0.057999 0.953446 121 255 127 0.494850
-0.108391 -0.056422 0.955999 121 255 127 0.493263
-0.107318 -0.055315 0.957891 137 255 111 0.513174
-0.117250 -0.060333 0.948523 130 255 117 0.504049
-0.116600 -0.061887 0.946121 147 255 101 0.523818
-0.117992 -0.063115 0.943829 130 255 117 0.505464
-0.113843 -0.063661 0.943787 121 255 127 0.495601
-0.112631 -0.062356 0.946056 121 255 127 0.494854
-0.113346 -0.060840 0.948325 114 255 134 0.487534
-0.112069 -0.059752 0.950172 121 255 127 0.494005
-0.105029 -0.063463 0.942263 121 255 127 0.495371
-0.103939 -0.062348 0.944005 124 255 124 0.498114
-0.102805 -0.061299 0.945582 124 255 124 0.497843
-0.107031 -0.061384 0.946777 124 255 124 0.496930
-0.105968 -0.060239 0.948472 124 255 124 0.499751
-0.104866 -0.059130 0.950191 150 255 98 0.529371
-0.101751 -0.060157 0.947305 124 255 124 0.497949
-0.100768 -0.059012 0.948997 124 255 124 0.496729
-0.108326 -0.062445 0.944926 124 255 124 0.497392
-0.109608 -0.063496 0.943104 127 255 121 0.503767
-0.099802 -0.057873 0.950682 124 255 124 0.496624
-0.100785 -0.056775 0.953268 121 255 127 0.495870
-0.101795 -0.055648 0.955867 121 255 127 0.494876
-0.098131 -0.055527 0.954283 124 255 124 0.497008
-0.104647 -0.056855 0.954665 121 255 127 0.494648
-0.103766 -0.057999 0.952034 124 255 124 0.498722
-0.097062 -0.056073 0.951490 124 255 124 0.497248
-0.095939 -0.056618 0.948705 124 255 124 0.498042
-0.096802 -0.057732 0.947072 124 255 124 0.498439
-0.092833 -0.056270 0.945267 137 255 111 0.514542
-0.092338 -0.055065 0.947067 127 255 121 0.501010
-0.093488 -0.054703 0.949668 124 255 124 0.499823
-0.092976 -0.053601 0.951490 124 255 124 0.499997
-0.098244 -0.059954 0.943711 124 255 124 0.499767
-0.099199 -0.061138 0.942032 127 255 121 0.500866
-0.100248 -0.062296 0.940372 127 255 121 0.500525
-0.095270 -0.060849 0.938602 124 255 124 0.497972
-0.094624 -0.059567 0.940279 124 255 124 0.498405
-0.094017 -0.058428 0.941925 124 255 124 0.498771
-0.095460 -0.058119 0.944464 124 255 124 0.499279
-0.090039 -0.054794 0.939233 117 255 130 0.491659
-0.089720 -0.053897 0.940954 88 255 160 0.454691
-0.089485 -0.053007 0.942700 121 255 127 0.492710
-0.090420 -0.055966 0.937558 124 255 124 0.499236
-0.090607 -0.057326 0.935970 127 255 121 0.502367
-0.088749 -0.050736 0.946145 137 255 111 0.514564
-0.088554 -0.049750 0.948038 130 255 117 0.506409
-0.089084 -0.051845 0.944425 127 255 121 0.501416
-0.092856 -0.019005 0.924010 124 255 124 0.498013
-0.091802 -0.018605 0.926090 130 255 117 0.506167
-0.094051 -0.015632 0.927195 124 255 124 0.498069
-0.095188 -0.016150 0.925099 127 255 121 0.500977
-0.093036 -0.015148 0.929307 127 255 121 0.500136
-0.096390 -0.012855 0.928606 91 255 156 0.459156
-0.095293 -0.012262 0.930716 124 255 124 0.496803
-0.097471 -0.009626 0.932085 124 255 124 0.498020
-0.097552 -0.013396 0.926354 121 255 127 0.494560
-0.098686 -0.010280 0.929944 121 255 127 0.495923
-0.099904 -0.010958 0.927715 124 255 124 0.496317
-0.094222 -0.011810 0.932800 137 255 111 0.515436
-0.096377 -0.009039 0.934381 127 255 121 0.500739
-0.095305 -0.008499 0.936653 127 255 121 0.501702
-0.093337 -0.011184 0.935007 127 255 121 0.503769
-0.092178 -0.014644 0.931425 127 255 121 0.501577
-0.091318 -0.014092 0.933530 130 255 117 0.504236
-0.090088 -0.017562 0.930293 127 255 121 0.502291
-0.090891 -0.018079 0.928204 127 255 121 0.501175
-0.089250 -0.017039 0.932321 130 255 117 0.505602
-0.103171 -0.007678 0.931808 134 255 114 0.508155
-0.104530 -0.008471 0.929069 124 255 124 0.499380
-0.101786 -0.006901 0.934333 124 255 124 0.499468
-0.106003 -0.004613 0.935887 124 255 124 0.496380
-0.107414 -0.005395 0.933233 121 255 127 0.494304
-0.108778 -0.006342 0.930377 124 255 124 0.496874
-0.102575 -0.004940 0.937743 160 255 88 0.542143
-0.103247 -0.002972 0.941496 124 255 124 0.498217
-0.099365 -0.005531 0.939142 127 255 121 0.501097
-0.096350 -0.006375 0.940588 127 255 121 0.500787
-0.100185 -0.003447 0.943351 124 255 124 0.498667
-0.089860 -0.013344 0.938189 134 255 114 0.508006
-0.088561 -0.016672 0.934636 134 255 114 0.509253
-0.090542 -0.013654 0.935885 130 255 117 0.506378
-0.092480 -0.010750 0.937375 130 255 117 0.504216
-0.111301 -0.004765 0.934130 121 255 127 0.492191
-0.112866 -0.005714 0.931184 121 255 127 0.492919
-0.109775 -0.003915 0.937065 117 255 130 0.492096
-0.113685 -0.003136 0.937880 117 255 130 0.490256
-0.115264 -0.004109 0.934567 134 255 114 0.510211
-0.116760 -0.005192 0.931516 117 255 130 0.491170
-0.110183 -0.002585 0.940585 117 255 130 0.491081
-0.110463 -0.001228 0.944418 117 255 130 0.490726
-0.106864 -0.002069 0.943043 121 255 127 0.493999
-0.106477 -0.003337 0.939349 130 255 117 0.504569
-0.118723 -0.004852 0.935048 117 255 130 0.489291
-0.120250 -0.005877 0.931631 114 255 134 0.487749
-0.117084 -0.003753 0.938425 117 255 130 0.488585
-0.120504 -0.004240 0.938505 114 255 134 0.487599
-0.122104 -0.005408 0.935021 114 255 134 0.486827
-0.123666 -0.006506 0.931421 98 255 150 0.465507
-0.117082 -0.002970 0.942025 114 255 134 0.487467
-0.117009 -0.002137 0.945894 114 255 134 0.487362
-0.113802 -0.001746 0.945202 121 255 127 0.493617
-0.113801 -0.002450 0.941392 117 255 130 0.488892
-0.110368 -0.000377 0.948857 117 255 130 0.491450
-0.113572 -0.000723 0.949765 117 255 130 0.489687
-0.103663 -0.001613 0.945657 137 255 111 0.512730
-0.107181 -0.000605 0.947436 121 255 127 0.493922
0.051187 0.004687 0.910278 127 255 121 0.502142
0.053565 0.004913 0.907791 127 255 121 0.502858
0.050276 0.005482 0.906320 127 255 121 0.502439
0.056038 0.005090 0.905241 130 255 117 0.504166
0.052753 0.005644 0.903739 127 255 121 0.503318
0.055253 0.005717 0.901110 130 255 117 0.504748
0.058569 0.005200 0.902662 147 255 101 0.525365
0.049472 0.006079 0.902264 127 255 121 0.502737
0.051979 0.006137 0.899631 127 255 121 0.503741
0.048694 0.006411 0.898073 127 255 121 0.502930
0.046407 0.006314 0.900815 127 255 121 0.502265
0.047239 0.005828 0.904907 127 255 121 0.501935
0.044189 0.006040 0.903411 127 255 121 0.501333
0.045115 0.005479 0.907366 127 255 121 0.501041
0.048138 0.005141 0.908856 127 255 121 0.501709
0.046037 0.004658 0.911223 127 255 121 0.500768
0.042072 0.005676 0.905840 127 255 121 0.500528
0.043044 0.004909 0.909687 127 255 121 0.500202
0.040030 0.005041 0.908113 124 255 124 0.499399
0.049057 0.004253 0.912721 127 255 121 0.501411
0.060664 0.005027 0.900084 130 255 117 0.506436
0.062972 0.004757 0.897627 130 255 117 0.506909
0.059382 0.005262 0.895850 130 255 117 0.506326
0.065304 0.004455 0.895196 134 255 114 0.507874
0.061648 0.004970 0.893329 108 255 140 0.478178
0.063918 0.004570 0.890772 134 255 114 0.508084
0.067679 0.003981 0.892721 134 255 114 0.510785
0.058254 0.005346 0.891530 134 255 114 0.508169
0.060499 0.005010 0.888931 134 255 114 0.508007
0.057107 0.005337 0.887064 130 255 117 0.507537
0.055003 0.005574 0.889813 130 255 117 0.506978
0.056149 0.005584 0.894234 169 255 79 0.552502
0.052860 0.005803 0.892575 130 255 117 0.506310
0.054051 0.005847 0.896935 130 255 117 0.506509
0.057291 0.005478 0.898470 130 255 117 0.505775
0.050764 0.006122 0.895351 127 255 121 0.503806
0.043391 0.005900 0.879633 95 255 153 0.462505
0.041393 0.006087 0.882577 127 255 121 0.500614
0.044765 0.006104 0.884387 127 255 121 0.501015
0.042793 0.006342 0.887329 127 255 121 0.502386
0.039428 0.006322 0.885518 127 255 121 0.502466
0.046114 0.006292 0.889065 127 255 121 0.503498
0.040869 0.006661 0.890268 121 255 127 0.494608
0.044166 0.006601 0.892013 127 255 121 0.501710
0.042264 0.006882 0.894871 117 255 130 0.491252
0.037512 0.006647 0.888437 127 255 121 0.502346
0.038966 0.006961 0.893131 127 255 121 0.501373
0.035614 0.006947 0.891284 127 255 121 0.501688
0.047406 0.006432 0.893671 121 255 127 0.495409
0.045515 0.006702 0.896530 127 255 121 0.501676
0.049531 0.006105 0.890858 127 255 121 0.503602
0.051649 0.005814 0.888082 130 255 117 0.505379
0.048250 0.006015 0.886261 140 255 108 0.517440
0.050412 0.005769 0.883455 130 255 117 0.504804
0.053799 0.005598 0.885289 130 255 117 0.506363
0.046936 0.005872 0.881558 95 255 153 0.462715
0.033637 0.006685 0.894038 127 255 121 0.500382
0.036719 0.006757 0.895810 127 255 121 0.503029
0.034808 0.006401 0.898464 124 255 124 0.499627
0.031749 0.006303 0.896673 124 255 124 0.498977
0.037824 0.006417 0.900142 127 255 121 0.500410
0.032975 0.005790 0.900938 114 255 134 0.488266
0.035956 0.005867 0.902624 124 255 124 0.498954
0.034172 0.004988 0.904926 124 255 124 0.497295
0.029949 0.005615 0.899123 124 255 124 0.497190
0.031214 0.004812 0.903221 121 255 127 0.495576
0.028165 0.004555 0.901437 121 255 127 0.494564
0.038921 0.005870 0.904230 124 255 124 0.499908
0.037117 0.005055 0.906531 124 255 124 0.498552
0.041037 0.006270 0.901824 127 255 121 0.500968
0.043242 0.006573 0.899248 127 255 121 0.501588
0.039996 0.006721 0.897574 124 255 124 0.499353
-0.010311 -0.060008 0.942704 147 255 101 0.526262
-0.011989 -0.056486 0.942319 147 255 101 0.526511
-0.012189 -0.063853 0.942104 150 255 98 0.528250
-0.013859 -0.060124 0.941667 153 255 95 0.531598
-0.015703 -0.064025 0.941071 153 255 95 0.531379
-0.015605 -0.056491 0.941287 153 255 95 0.534834
-0.014049 -0.067800 0.941531 150 255 98 0.528563
-0.015916 -0.072116 0.941252 143 255 104 0.519703
-0.012421 -0.071639 0.941979 143 255 104 0.521423
-0.010564 -0.067421 0.942351 202 255 46 0.589891
-0.017415 -0.060319 0.940770 179 255 69 0.562621
-0.019182 -0.056575 0.940322 211 255 36 0.604400
-0.019148 -0.064371 0.940235 150 255 98 0.529874
-0.020859 -0.060531 0.939699 153 255 95 0.531647
-0.022529 -0.064619 0.939109 153 255 95 0.531919
-0.022656 -0.056674 0.939050 140 255 108 0.519178
-0.020908 -0.068610 0.939936 143 255 104 0.520903
-0.022694 -0.073167 0.939789 130 255 117 0.507093
-0.019308 -0.072696 0.940601 111 255 137 0.482273
-0.017485 -0.068193 0.940759 147 255 101 0.525914
-0.021258 -0.091332 0.937451 117 255 130 0.491194
-0.019978 -0.086399 0.938422 108 255 140 0.479730
-0.017860 -0.090613 0.938005 121 255 127 0.495093
-0.018667 -0.081521 0.939375 130 255 117 0.507171
-0.016564 -0.085568 0.938953 127 255 121 0.503328
-0.015217 -0.080625 0.939830 134 255 114 0.511140
-0.014516 -0.089639 0.938412 127 255 121 0.501064
-0.017279 -0.076704 0.940308 137 255 111 0.514784
-0.020619 -0.077319 0.939651 134 255 114 0.509559
-0.021976 -0.082102 0.938659 127 255 121 0.501574
-0.013255 -0.084781 0.939520 134 255 114 0.508622
-0.011160 -0.088947 0.939031 130 255 117 0.506250
-0.011863 -0.080020 0.940527 85 255 163 0.451937
-0.009847 -0.084139 0.940135 134 255 114 0.509428
-0.010495 -0.075436 0.941534 137 255 111 0.514063
-0.013854 -0.075989 0.940903 140 255 108 0.516157
0.017044 0.005752 0.866552 127 255 121 0.503748
0.015489 0.005936 0.869394 127 255 121 0.502479
0.018434 0.005950 0.870809 134 255 114 0.509632
0.016854 0.006197 0.873613 124 255 124 0.499544
0.013911 0.006171 0.872172 127 255 121 0.500176
0.019846 0.006219 0.875125 101 255 147 0.469520
0.015279 0.006500 0.876413 124 255 124 0.499003
0.018269 0.006492 0.877950 124 255 124 0.499333
0.016743 0.006773 0.880738 124 255 124 0.499338
0.012360 0.006465 0.874951 124 255 124 0.498272
0.013749 0.006738 0.879181 124 255 124 0.498660
0.010811 0.006649 0.877682 124 255 124 0.498418
0.021272 0.006493 0.879522 147 255 101 0.525145
0.019732 0.006777 0.882366 127 255 121 0.500826
