ply
format ascii 1.0
comment VCGLIB generated
element vertex 969
property float x
property float y
property float z
property uchar red
property uchar green
property uchar blue
property float quality
end_header
-0.041284 -0.037296 0.922586 82 255 166 0.446437
-0.037811 -0.037378 0.923907 88 255 160 0.456526
-0.046167 -0.030110 0.917651 79 255 169 0.444069
-0.046210 -0.033647 0.919104 75 255 172 0.439007
-0.048083 -0.037111 0.919899 62 255 185 0.424196
-0.044772 -0.037117 0.921258 72 255 176 0.436565
-0.048101 -0.089980 0.924392 66 255 182 0.428396
-0.050346 -0.085654 0.924927 75 255 172 0.440909
-0.050940 -0.081169 0.925819 66 255 182 0.427453
-0.052957 -0.076933 0.925856 66 255 182 0.426941
-0.049819 -0.076416 0.927022 62 255 185 0.424646
-0.054074 -0.081618 0.924627 66 255 182 0.427147
-0.056012 -0.077462 0.924630 62 255 185 0.423842
-0.053549 -0.086073 0.923700 69 255 179 0.430191
-0.052994 -0.090506 0.922453 43 255 205 0.401968
-0.049810 -0.071709 0.926491 56 255 192 0.415718
-0.051370 -0.067193 0.925257 72 255 176 0.435618
-0.051422 -0.062502 0.924672 17 250 231 0.368606
-0.054360 -0.062949 0.923372 11 242 237 0.360497
-0.054378 -0.067711 0.923997 53 255 195 0.412451
-0.054440 -0.072474 0.924676 56 255 192 0.414581
-0.060057 -0.064025 0.920929 14 246 234 0.365644
-0.060254 -0.068838 0.921687 36 255 211 0.391399
-0.058958 -0.073312 0.922956 56 255 192 0.415173
-0.059187 -0.078003 0.923566 62 255 185 0.425691
-0.057299 -0.068279 0.922806 33 255 215 0.387481
-0.057233 -0.063500 0.922101 46 255 202 0.405767
-0.060378 -0.082638 0.922333 69 255 179 0.430579
-0.059980 -0.086971 0.921279 69 255 179 0.432406
-0.057779 -0.091048 0.920486 69 255 179 0.431209
-0.056777 -0.086525 0.922493 85 255 163 0.449680
-0.057229 -0.082167 0.923447 66 255 182 0.429350
-0.034759 -0.088331 0.929612 75 255 172 0.441164
-0.037104 -0.083853 0.929970 95 255 153 0.462291
-0.037754 -0.079199 0.930710 85 255 163 0.451545
-0.040053 -0.074913 0.930801 75 255 172 0.440533
-0.036694 -0.074382 0.931871 91 255 156 0.460179
-0.041107 -0.079658 0.929504 75 255 172 0.438390
-0.043393 -0.075376 0.929532 69 255 179 0.433367
-0.040462 -0.084332 0.928736 91 255 156 0.457720
-0.039792 -0.088952 0.927731 72 255 176 0.435201
-0.036790 -0.069738 0.931386 82 255 166 0.445438
-0.038580 -0.065306 0.930236 75 255 172 0.439043
-0.038657 -0.060842 0.929679 114 255 134 0.487820
-0.042037 -0.061135 0.928461 56 255 192 0.416964
-0.041910 -0.065710 0.929044 62 255 185 0.422909
-0.041840 -0.070393 0.929666 69 255 179 0.432155
-0.048382 -0.061991 0.925943 62 255 185 0.422061
-0.048317 -0.066684 0.926567 43 255 205 0.400648
-0.046670 -0.071101 0.927764 59 255 189 0.418802
-0.046626 -0.075896 0.928310 66 255 182 0.428679
-0.045147 -0.066169 0.927816 49 255 198 0.407507
-0.045263 -0.061567 0.927251 40 255 208 0.397591
-0.047724 -0.080662 0.927050 53 255 195 0.413025
-0.047093 -0.085222 0.926162 69 255 179 0.430076
-0.044777 -0.089570 0.925740 69 255 179 0.430202
-0.043791 -0.084785 0.927448 72 255 176 0.433666
-0.044432 -0.080188 0.928289 69 255 179 0.430735
-0.024672 -0.060200 0.934707 114 255 134 0.485480
-0.026330 -0.064472 0.934319 127 255 121 0.500923
-0.028208 -0.060278 0.933379 108 255 140 0.480416
-0.029884 -0.064603 0.933067 104 255 143 0.475502
-0.028042 -0.068913 0.934088 104 255 143 0.476224
-0.029744 -0.073532 0.933885 95 255 153 0.461329
-0.026210 -0.073168 0.934895 101 255 147 0.470001
-0.024528 -0.068567 0.935094 111 255 137 0.483554
-0.031721 -0.060489 0.932186 101 255 147 0.469731
-0.033373 -0.064978 0.932035 95 255 153 0.463452
-0.035221 -0.060636 0.930939 134 255 114 0.510339
-0.033309 -0.069448 0.932520 88 255 160 0.456130
-0.033228 -0.073975 0.932939 88 255 160 0.454471
-0.031353 -0.087852 0.930760 79 255 169 0.444733
-0.031996 -0.083245 0.931647 85 255 163 0.449680
-0.028584 -0.082612 0.932553 88 255 160 0.455406
-0.027969 -0.087216 0.931716 85 255 163 0.449316
-0.030899 -0.078358 0.932814 88 255 160 0.455808
-0.034354 -0.078771 0.931821 85 255 163 0.449862
-0.024499 -0.086729 0.932696 88 255 160 0.455312
-0.025109 -0.082243 0.933591 95 255 153 0.462798
-0.023911 -0.077447 0.934721 101 255 147 0.470544
-0.027409 -0.077856 0.933782 95 255 153 0.464106
-0.017140 0.004425 0.874651 72 255 176 0.435123
-0.019792 0.004645 0.873565 79 255 169 0.441921
-0.021039 0.003524 0.876822 75 255 172 0.438641
-0.023676 0.003755 0.875686 75 255 172 0.439825
-0.022465 0.004857 0.872450 79 255 169 0.442898
-0.024903 0.002637 0.878938 72 255 176 0.436625
-0.026332 0.003969 0.874513 79 255 169 0.441525
-0.027545 0.002852 0.877731 75 255 172 0.437799
-0.030178 0.003058 0.876505 75 255 172 0.439216
-0.025146 0.005053 0.871306 79 255 169 0.443871
-0.028990 0.004145 0.873326 88 255 160 0.455834
-0.027835 0.005233 0.870151 82 255 166 0.445423
-0.028772 0.001739 0.880939 72 255 176 0.436708
-0.031383 0.001968 0.879694 75 255 172 0.437862
-0.032630 0.000947 0.882938 75 255 172 0.439607
-0.030081 0.000780 0.884057 75 255 172 0.438219
-0.026201 0.001575 0.882022 72 255 176 0.435391
-0.027536 0.000592 0.885164 72 255 176 0.437042
-0.023659 0.001407 0.883114 72 255 176 0.434278
-0.022337 0.002445 0.879972 72 255 176 0.435507
-0.019786 0.002248 0.880998 72 255 176 0.434595
-0.025002 0.000368 0.886229 72 255 176 0.435481
-0.021130 0.001185 0.884142 69 255 179 0.432862
-0.022485 0.000141 0.887256 72 255 176 0.433594
-0.018461 0.003334 0.877827 75 255 172 0.437964
-0.030663 0.005451 0.869065 91 255 156 0.460713
-0.031696 0.004349 0.872313 91 255 156 0.457352
-0.034487 0.004583 0.871173 95 255 153 0.463916
-0.033462 0.005668 0.867957 79 255 169 0.445124
-0.035533 0.003467 0.874394 75 255 172 0.440369
-0.037248 0.004789 0.870003 79 255 169 0.442031
-0.038266 0.003671 0.873209 75 255 172 0.439271
-0.040991 0.003872 0.872044 75 255 172 0.438261
-0.036244 0.005903 0.866835 79 255 169 0.442847
-0.039991 0.004989 0.868844 75 255 172 0.440029
-0.039023 0.006148 0.865709 79 255 169 0.441753
-0.039329 0.002634 0.876504 75 255 172 0.438948
-0.042049 0.002846 0.875333 66 255 182 0.426547
-0.043122 0.001895 0.878695 75 255 172 0.439132
-0.040516 0.001684 0.879764 75 255 172 0.441018
-0.036682 0.002418 0.877563 75 255 172 0.439507
-0.037894 0.001452 0.880827 79 255 169 0.441621
-0.034037 0.002197 0.878625 75 255 172 0.438998
-0.032870 0.003280 0.875477 75 255 172 0.440134
-0.035265 0.001196 0.881873 75 255 172 0.440926
-0.042977 -0.003363 0.890102 82 255 166 0.447799
-0.040661 -0.003555 0.891075 82 255 166 0.448205
-0.039625 -0.001868 0.887800 85 255 163 0.449311
-0.038313 -0.003725 0.892045 82 255 166 0.447460
-0.037274 -0.002028 0.888735 79 255 169 0.445214
-0.034874 -0.002226 0.889611 79 255 169 0.443052
-0.035984 -0.003909 0.892970 82 255 166 0.445559
-0.036163 -0.000459 0.885319 79 255 169 0.443025
-0.033723 -0.000650 0.886232 75 255 172 0.440864
-0.038741 -0.000194 0.884235 85 255 163 0.449420
-0.041356 0.000078 0.883220 79 255 169 0.443903
-0.042175 -0.001618 0.886675 82 255 166 0.446334
-0.044742 -0.001388 0.885566 79 255 169 0.444833
-0.043941 0.000283 0.882123 79 255 169 0.442259
-0.045489 -0.003130 0.888950 82 255 166 0.445621
-0.033539 -0.004130 0.894059 79 255 169 0.442670
-0.031210 -0.004207 0.894976 75 255 172 0.439997
-0.029889 -0.002646 0.891768 75 255 172 0.437932
-0.028885 -0.004331 0.895870 72 255 176 0.437477
-0.027545 -0.002766 0.892657 72 255 176 0.435355
-0.025185 -0.002906 0.893539 72 255 176 0.434985
-0.026544 -0.004435 0.896690 72 255 176 0.434751
-0.026196 -0.001265 0.889480 72 255 176 0.433861
-0.023814 -0.001395 0.890349 69 255 179 0.432381
-0.028690 -0.001056 0.888429 72 255 176 0.436132
-0.031223 -0.000845 0.887370 75 255 172 0.438471
-0.032409 -0.002425 0.890710 75 255 172 0.440702
0.001864 0.003989 0.882810 79 255 169 0.443691
0.000316 0.002632 0.885815 75 255 172 0.441361
-0.002450 0.002713 0.884621 79 255 169 0.441547
-0.000899 0.004006 0.881614 79 255 169 0.443058
-0.004019 0.001496 0.887685 79 255 169 0.443110
-0.005190 0.002780 0.883448 79 255 169 0.441525
-0.006748 0.001636 0.886529 95 255 153 0.461998
-0.009448 0.001725 0.885328 75 255 172 0.439135
-0.003652 0.004014 0.880408 79 255 169 0.442831
-0.007911 0.002838 0.882246 75 255 172 0.439978
-0.006387 0.004031 0.879188 79 255 169 0.442491
-0.008310 0.000555 0.889624 75 255 172 0.439810
-0.011015 0.000681 0.888430 72 255 176 0.436549
-0.012549 -0.000344 0.891535 72 255 176 0.435250
-0.010009 -0.000423 0.892640 56 255 192 0.417865
-0.005732 0.000447 0.890731 79 255 169 0.444800
-0.007448 -0.000526 0.893770 79 255 169 0.444346
-0.003120 0.000324 0.891822 85 255 163 0.453095
-0.001402 0.001411 0.888774 79 255 169 0.445168
-0.004842 -0.000677 0.894878 88 255 160 0.454428
-0.009070 0.004164 0.878072 79 255 169 0.442315
-0.010477 0.002946 0.881240 75 255 172 0.439375
-0.013135 0.003099 0.880139 75 255 172 0.438804
-0.011749 0.004258 0.876957 79 255 169 0.441746
-0.014526 0.001977 0.883335 72 255 176 0.435414
-0.015802 0.003230 0.879007 75 255 172 0.438283
-0.017156 0.002124 0.882207 72 255 176 0.434822
-0.014445 0.004344 0.875816 69 255 179 0.433445
-0.018522 0.001048 0.885339 69 255 179 0.433121
-0.019999 0.000045 0.888389 72 255 176 0.433797
-0.016026 0.000951 0.886406 72 255 176 0.433850
-0.017525 -0.000048 0.889439 72 255 176 0.434134
-0.013532 0.000826 0.887427 72 255 176 0.434918
-0.011994 0.001860 0.884336 72 255 176 0.436519
-0.015043 -0.000190 0.890497 72 255 176 0.434729
-0.024104 -0.004605 0.897778 72 255 176 0.436012
-0.021814 -0.004645 0.898724 108 255 140 0.477103
-0.020278 -0.003180 0.895694 72 255 176 0.436886
-0.019491 -0.004779 0.899696 66 255 182 0.429517
-0.017964 -0.003268 0.896636 66 255 182 0.427047
-0.015641 -0.003355 0.897617 66 255 182 0.426314
-0.017186 -0.004854 0.900633 62 255 185 0.423896
-0.016441 -0.001790 0.893598 66 255 182 0.428975
-0.014105 -0.001856 0.894584 69 255 179 0.429866
-0.018902 -0.001627 0.892541 69 255 179 0.430198
-0.021374 -0.001477 0.891466 69 255 179 0.432302
-0.022730 -0.003022 0.894610 95 255 153 0.464392
-0.014685 -0.004978 0.901817 66 255 182 0.426344
-0.012334 -0.005029 0.902932 66 255 182 0.429565
-0.010626 -0.003551 0.900007 69 255 179 0.432843
-0.009956 -0.005087 0.903996 69 255 179 0.432007
-0.008237 -0.003641 0.901072 75 255 172 0.438910
-0.006459 -0.002212 0.898015 82 255 166 0.447781
-0.009050 -0.002046 0.896925 75 255 172 0.438847
-0.011596 -0.001926 0.895765 69 255 179 0.433061
-0.013142 -0.003446 0.898833 66 255 182 0.428939
0.024726 0.000125 0.840944 53 255 195 0.411476
0.023445 0.001203 0.843297 66 255 182 0.429483
0.020560 0.001168 0.841783 69 255 179 0.431746
0.021844 0.000103 0.839417 56 255 192 0.414839
0.019250 0.002160 0.844177 75 255 172 0.441002
0.017671 0.001084 0.840267 69 255 179 0.433348
0.016378 0.002070 0.842664 79 255 169 0.442018
0.013477 0.001930 0.841143 79 255 169 0.443076
0.018958 0.000035 0.837902 56 255 192 0.415961
0.014773 0.000963 0.838729 72 255 176 0.434390
0.016049 -0.000084 0.836371 56 255 192 0.417248
0.015032 0.002968 0.845095 82 255 166 0.446910
0.012135 0.002806 0.843580 82 255 166 0.448667
0.010771 0.003619 0.846044 85 255 163 0.450882
0.013723 0.003772 0.847519 85 255 163 0.449543
0.017954 0.003053 0.846561 82 255 166 0.445513
0.016633 0.003873 0.848974 82 255 166 0.448037
0.020878 0.003097 0.848011 79 255 169 0.444199
0.022180 0.002195 0.845636 75 255 172 0.439226
0.019547 0.003923 0.850442 75 255 172 0.437780
0.013434 -0.000141 0.834962 59 255 189 0.420948
0.012086 0.000919 0.837396 72 255 176 0.437051
0.009471 0.000826 0.835998 75 255 172 0.438449
0.010825 -0.000230 0.833541 62 255 185 0.424079
0.008091 0.001783 0.838475 82 255 166 0.445880
0.006848 0.000689 0.834575 75 255 172 0.438667
0.005474 0.001637 0.837060 82 255 166 0.446607
0.002876 0.001476 0.835654 82 255 166 0.447137
0.008185 -0.000340 0.832106 66 255 182 0.426061
0.004235 0.000537 0.833150 75 255 172 0.439888
0.005568 -0.000473 0.830670 62 255 185 0.425659
0.004076 0.002516 0.839587 85 255 163 0.451712
0.001465 0.002337 0.838193 85 255 163 0.452548
0.000061 0.003172 0.840754 88 255 160 0.455827
0.002748 0.003320 0.842074 88 255 160 0.454474
0.006778 0.002631 0.840919 85 255 163 0.451745
0.005439 0.003444 0.843399 95 255 153 0.461465
0.009462 0.002746 0.842258 98 255 150 0.466290
0.010794 0.001878 0.839802 79 255 169 0.445080
0.008110 0.003546 0.844730 85 255 163 0.452974
-0.005646 0.005420 0.851445 88 255 160 0.453367
-0.002884 0.005483 0.852750 85 255 163 0.453008
-0.001531 0.004889 0.850165 88 255 160 0.456790
0.001225 0.004933 0.851427 88 255 160 0.456662
-0.000126 0.005519 0.854035 85 255 163 0.452924
0.002563 0.004442 0.848818 91 255 156 0.458227
0.003954 0.005011 0.852698 98 255 150 0.465527
0.005313 0.004490 0.850062 91 255 156 0.457317
0.008048 0.004514 0.851330 88 255 160 0.455754
0.002616 0.005534 0.855312 85 255 163 0.452991
0.006691 0.005014 0.853957 88 255 160 0.455265
0.005319 0.005555 0.856573 85 255 163 0.452397
0.006658 0.004024 0.847437 88 255 160 0.455075
0.009412 0.004064 0.848694 88 255 160 0.453620
0.004000 0.003934 0.846105 88 255 160 0.456419
0.001313 0.003809 0.844785 91 255 156 0.458160
-0.000110 0.004315 0.847496 91 255 156 0.460382
-0.002785 0.004209 0.846159 95 255 153 0.461511
-0.001369 0.003663 0.843468 91 255 156 0.460207
-0.004203 0.004802 0.848825 91 255 156 0.457615
0.008230 0.005648 0.858005 85 255 163 0.451855
0.009574 0.005143 0.855436 88 255 160 0.453901
0.012491 0.005229 0.856854 85 255 163 0.452941
0.011134 0.005720 0.859414 85 255 163 0.451308
0.013839 0.004757 0.854279 85 255 163 0.452880
0.015385 0.005254 0.858267 85 255 163 0.451723
0.016741 0.004795 0.855681 85 255 163 0.451809
0.014021 0.005753 0.860840 85 255 163 0.451141
0.018116 0.004364 0.853092 85 255 163 0.449788
0.015230 0.004318 0.851628 85 255 163 0.450764
0.012326 0.004217 0.850157 85 255 163 0.452051
0.010950 0.004665 0.852803 88 255 160 0.454242
-0.015783 0.004954 0.871635 79 255 169 0.443592
-0.018380 0.005151 0.870521 79 255 169 0.444121
-0.017027 0.005705 0.867614 82 255 166 0.445980
-0.014406 0.005532 0.868697 82 255 166 0.446064
-0.019656 0.005870 0.866483 82 255 166 0.446103
-0.015653 0.006207 0.864710 82 255 166 0.447351
-0.018318 0.006374 0.863605 82 255 166 0.447231
-0.016944 0.006774 0.860702 82 255 166 0.447946
-0.012996 0.006042 0.865771 82 255 166 0.447940
-0.014253 0.006626 0.861781 82 255 166 0.448157
-0.011562 0.006478 0.862839 82 255 166 0.448509
-0.020985 0.006514 0.862474 82 255 166 0.447185
-0.019630 0.006922 0.859596 82 255 166 0.447806
-0.022297 0.007067 0.858479 82 255 166 0.447739
-0.023719 0.006660 0.861371 82 255 166 0.447063
-0.022382 0.006035 0.865370 82 255 166 0.446201
-0.025107 0.006181 0.864254 82 255 166 0.446108
-0.023775 0.005523 0.868304 79 255 169 0.444871
-0.021068 0.005325 0.869424 79 255 169 0.444545
-0.026473 0.005694 0.867178 79 255 169 0.445216
-0.010070 0.006281 0.860003 82 255 166 0.448929
-0.012615 0.006363 0.858911 82 255 166 0.448650
-0.011104 0.006096 0.856065 79 255 169 0.442887
-0.008560 0.006006 0.857137 85 255 163 0.449528
-0.013674 0.006174 0.854964 85 255 163 0.451648
-0.009598 0.005790 0.853215 85 255 163 0.450923
-0.012166 0.005863 0.852104 85 255 163 0.450704
-0.010724 0.005571 0.849266 85 255 163 0.452886
-0.007076 0.005715 0.854276 85 255 163 0.451252
-0.008165 0.005501 0.850366 88 255 160 0.453231
-0.014757 0.005954 0.851015 85 255 163 0.449948
-0.013287 0.005637 0.848162 85 255 163 0.452423
-0.015862 0.005728 0.847081 85 255 163 0.451650
-0.017502 0.006111 0.849977 85 255 163 0.449696
-0.016420 0.006334 0.853914 69 255 179 0.432378
-0.019148 0.006497 0.852860 82 255 166 0.448379
-0.018044 0.006663 0.856770 82 255 166 0.447932
-0.015323 0.006508 0.857849 82 255 166 0.448407
-0.020746 0.006825 0.855689 82 255 166 0.448411
-0.026080 0.006082 0.842858 82 255 166 0.449208
-0.027906 0.006621 0.845805 82 255 166 0.448111
-0.025150 0.006388 0.846790 85 255 163 0.449442
-0.026969 0.006878 0.849687 82 255 166 0.449212
-0.029704 0.007098 0.848688 82 255 166 0.447429
-0.024220 0.006657 0.850683 98 255 150 0.467778
-0.028738 0.007262 0.852511 82 255 166 0.447551
-0.025999 0.007088 0.853552 82 255 166 0.448703
-0.027752 0.007386 0.856357 82 255 166 0.447218
-0.031463 0.007459 0.851481 82 255 166 0.446584
-0.030476 0.007544 0.855293 82 255 166 0.446492
-0.033187 0.007723 0.854238 82 255 166 0.445814
-0.023265 0.006897 0.854580 82 255 166 0.448702
-0.025031 0.007228 0.857413 82 255 166 0.447558
-0.021693 0.006568 0.851768 85 255 163 0.449978
-0.020077 0.006186 0.848918 85 255 163 0.449901
-0.022623 0.006275 0.847848 85 255 163 0.450218
-0.021005 0.005865 0.844972 85 255 163 0.450061
-0.018452 0.005789 0.846026 85 255 163 0.450788
-0.023553 0.005962 0.843922 85 255 163 0.449807
-0.034698 0.007330 0.857082 79 255 169 0.445055
-0.031854 0.007113 0.858096 82 255 166 0.445787
-0.033341 0.006678 0.860984 79 255 169 0.444871
-0.036156 0.006896 0.859928 79 255 169 0.444080
-0.030513 0.006476 0.862034 82 255 166 0.445491
-0.034819 0.006297 0.863895 79 255 169 0.443836
-0.032000 0.006052 0.864961 79 255 169 0.444711
-0.037596 0.006520 0.862799 79 255 169 0.442987
-0.029168 0.005835 0.866039 82 255 166 0.445475
-0.027810 0.006329 0.863149 82 255 166 0.445916
-0.026435 0.006802 0.860275 82 255 166 0.446805
-0.029147 0.006949 0.859179 82 255 166 0.446387
-0.013148 -0.001364 0.820167 69 255 179 0.429706
-0.014647 -0.000349 0.822987 101 255 147 0.472490
-0.012280 -0.000300 0.824172 82 255 166 0.445874
-0.013814 0.000711 0.826973 91 255 156 0.458398
-0.016187 0.000671 0.825814 91 255 156 0.457195
-0.011388 0.000767 0.828162 91 255 156 0.457623
-0.015342 0.001736 0.829811 98 255 150 0.468055
-0.012932 0.001775 0.830978 137 255 111 0.514308
-0.014473 0.002814 0.833758 95 255 153 0.463800
-0.017728 0.001711 0.828639 111 255 137 0.482293
-0.016882 0.002789 0.832599 95 255 153 0.462211
-0.019276 0.002785 0.831432 91 255 156 0.459947
-0.010511 0.001847 0.832135 95 255 153 0.463700
-0.012051 0.002879 0.834924 95 255 153 0.461648
-0.009629 0.002956 0.836099 91 255 156 0.459663
-0.008148 0.002004 0.833428 91 255 156 0.458085
-0.009043 0.000906 0.829457 88 255 160 0.453918
-0.006681 0.001069 0.830750 85 255 163 0.449868
-0.007592 -0.000037 0.826782 75 255 172 0.438579
-0.009934 -0.000184 0.825471 79 255 169 0.443892
-0.008506 -0.001158 0.822780 66 255 182 0.427573
-0.005227 0.000125 0.828080 33 255 215 0.388801
-0.006151 -0.001026 0.824091 66 255 182 0.425861
-0.003792 -0.000872 0.825419 62 255 185 0.425428
-0.010841 -0.001279 0.821479 66 255 182 0.427118
-0.020931 0.003548 0.834312 91 255 156 0.459911
-0.018410 0.003472 0.835368 95 255 153 0.462804
-0.020090 0.004259 0.838233 91 255 156 0.457413
-0.022634 0.004355 0.837185 91 255 156 0.457748
-0.017546 0.004192 0.839270 91 255 156 0.459621
-0.021807 0.005085 0.841064 85 255 163 0.452200
-0.019255 0.005003 0.842110 75 255 172 0.439816
-0.024353 0.005201 0.840035 85 255 163 0.452486
-0.016694 0.004937 0.843174 88 255 160 0.453964
-0.014260 0.004968 0.844355 88 255 160 0.455410
-0.015129 0.004216 0.840437 91 255 156 0.460848
-0.012694 0.004256 0.841638 95 255 153 0.461402
-0.013591 0.003529 0.837696 95 255 153 0.463413
-0.016002 0.003493 0.836539 95 255 153 0.463670
-0.011161 0.003583 0.838881 95 255 153 0.462874
-0.006602 0.004785 0.847649 91 255 156 0.457715
-0.005174 0.004182 0.844991 95 255 153 0.462382
-0.007582 0.004171 0.843818 95 255 153 0.462638
-0.003760 0.003615 0.842306 95 255 153 0.461540
-0.006181 0.003589 0.841143 95 255 153 0.462739
-0.004774 0.003055 0.838443 91 255 156 0.457854
-0.002346 0.003107 0.839610 88 255 160 0.456891
-0.008611 0.003563 0.839970 95 255 153 0.462995
-0.007193 0.002996 0.837269 91 255 156 0.459211
-0.010146 0.004212 0.842732 95 255 153 0.462334
-0.011702 0.004904 0.845451 88 255 160 0.456659
-0.009148 0.004844 0.846551 91 255 156 0.457373
-0.000863 0.002211 0.836911 88 255 160 0.453736
0.000531 0.001352 0.834359 79 255 169 0.443040
-0.001804 0.001233 0.833076 82 255 166 0.448764
0.001895 0.000440 0.831853 75 255 172 0.439077
-0.000446 0.000332 0.830544 75 255 172 0.440272
0.000898 -0.000652 0.828040 66 255 182 0.427292
0.003231 -0.000553 0.829362 66 255 182 0.428061
-0.002796 0.000200 0.829243 75 255 172 0.437993
-0.001461 -0.000765 0.826719 66 255 182 0.428329
-0.004250 0.001153 0.831923 82 255 166 0.449174
-0.005710 0.002074 0.834604 88 255 160 0.456746
-0.003294 0.002148 0.835766 88 255 160 0.455108
0.012601 0.005922 0.863630 85 255 163 0.450099
0.009728 0.005891 0.862202 85 255 163 0.450157
0.008317 0.006086 0.864960 82 255 166 0.449050
0.006836 0.005816 0.860775 85 255 163 0.450433
0.005437 0.006040 0.863527 85 255 163 0.449246
0.002554 0.005966 0.862086 85 255 163 0.449353
0.003935 0.005746 0.859341 85 255 163 0.450668
0.004014 0.006248 0.866267 85 255 163 0.450945
0.001107 0.006181 0.864832 82 255 166 0.448362
-0.000374 0.006335 0.867596 82 255 166 0.447707
0.002524 0.006377 0.868924 82 255 166 0.447307
0.006857 0.006289 0.867609 82 255 166 0.448188
0.005388 0.006423 0.870257 82 255 166 0.447286
0.009671 0.006309 0.868954 82 255 166 0.448221
0.011139 0.006098 0.866296 82 255 166 0.449109
0.008214 0.006463 0.871603 82 255 166 0.447475
0.001190 0.005771 0.858154 85 255 163 0.450860
-0.001546 0.005770 0.856883 85 255 163 0.451083
-0.003013 0.006045 0.859717 85 255 163 0.449705
-0.004310 0.005765 0.855605 85 255 163 0.451239
-0.005781 0.006045 0.858437 85 255 163 0.449904
-0.007282 0.006289 0.861296 85 255 163 0.449219
-0.008733 0.006461 0.864059 85 255 163 0.449313
-0.004481 0.006268 0.862484 82 255 166 0.449193
-0.005947 0.006434 0.865246 88 255 160 0.456787
-0.001679 0.006238 0.863652 82 255 166 0.446295
-0.000213 0.006015 0.860898 85 255 163 0.449481
-0.003162 0.006390 0.866422 82 255 166 0.448788
-0.013032 0.004899 0.872894 79 255 169 0.443524
-0.010310 0.004853 0.874036 79 255 169 0.443877
-0.008838 0.005434 0.871150 82 255 166 0.446525
-0.007591 0.004781 0.875150 79 255 169 0.444051
-0.006110 0.005403 0.872259 82 255 166 0.446200
-0.003382 0.005340 0.873360 82 255 166 0.446513
-0.004894 0.004687 0.876263 79 255 169 0.443665
-0.004622 0.005943 0.869394 88 255 160 0.455295
-0.001893 0.005901 0.870499 82 255 166 0.447033
-0.007385 0.005987 0.868200 91 255 156 0.457962
-0.010172 0.006022 0.866991 91 255 156 0.457321
-0.011617 0.005494 0.869919 82 255 166 0.446543
-0.002041 0.004695 0.877584 79 255 169 0.443793
0.000731 0.004738 0.878801 79 255 169 0.444138
0.002359 0.005394 0.876019 79 255 169 0.445284
0.003503 0.004751 0.880006 79 255 169 0.444452
0.005120 0.005434 0.877232 82 255 166 0.445407
0.006734 0.006020 0.874474 82 255 166 0.446511
0.003883 0.005985 0.873142 82 255 166 0.446133
0.001002 0.005939 0.871816 75 255 172 0.438697
-0.000518 0.005378 0.874692 79 255 169 0.445086
-0.042119 0.006296 0.864615 75 255 172 0.440820
-0.042886 0.005237 0.867866 75 255 172 0.439334
-0.045908 0.005395 0.866767 75 255 172 0.439043
-0.045148 0.006448 0.863576 75 255 172 0.440180
-0.046691 0.004401 0.870035 75 255 172 0.438384
-0.048853 0.005559 0.865680 75 255 172 0.438294
-0.049630 0.004561 0.868906 75 255 172 0.438242
-0.052539 0.004682 0.867812 85 255 163 0.449720
-0.048093 0.006622 0.862573 75 255 172 0.439582
-0.051768 0.005717 0.864626 75 255 172 0.437959
-0.050988 0.006815 0.861593 75 255 172 0.439103
-0.050425 0.003585 0.872233 75 255 172 0.437933
-0.053320 0.003675 0.871088 69 255 179 0.431773
-0.054114 0.002673 0.874402 72 255 176 0.436229
-0.051422 0.002558 0.875501 91 255 156 0.457349
-0.047673 0.003353 0.873282 75 255 172 0.440184
-0.048716 0.002379 0.876578 72 255 176 0.433972
-0.044898 0.003133 0.874341 75 255 172 0.437703
-0.043866 0.004154 0.871037 75 255 172 0.438282
-0.045947 0.002161 0.877681 59 255 189 0.421341
-0.054372 0.007022 0.860414 75 255 172 0.438559
-0.054316 0.005919 0.863961 72 255 176 0.437491
-0.057659 0.006084 0.862763 75 255 172 0.437548
-0.057743 0.007314 0.859279 75 255 172 0.439155
-0.057602 0.004985 0.866379 72 255 176 0.435299
-0.060934 0.006300 0.861534 85 255 163 0.452343
-0.060878 0.005052 0.865064 72 255 176 0.435260
-0.064179 0.005212 0.863776 72 255 176 0.435643
-0.061035 0.007646 0.858144 85 255 163 0.449852
-0.064276 0.006599 0.860334 75 255 172 0.438480
-0.064403 0.008064 0.857039 75 255 172 0.439017
-0.060834 0.003927 0.868671 69 255 179 0.432629
-0.064067 0.003901 0.867267 69 255 179 0.432741
-0.063950 0.002701 0.870832 79 255 169 0.443176
-0.061550 0.002750 0.871737 69 255 179 0.431608
-0.058341 0.003846 0.869485 69 255 179 0.433380
-0.059095 0.002740 0.872610 69 255 179 0.432312
-0.055862 0.003771 0.870290 72 255 176 0.434314
-0.055100 0.004848 0.867086 72 255 176 0.436501
-0.056643 0.002729 0.873504 72 255 176 0.433821
-0.061493 -0.002478 0.881344 56 255 192 0.416495
-0.059399 -0.002385 0.882361 62 255 185 0.422103
-0.059035 -0.000684 0.879116 62 255 185 0.424172
-0.057310 -0.002346 0.883448 66 255 182 0.426245
-0.056955 -0.000642 0.880135 66 255 182 0.428727
-0.054818 -0.000722 0.881066 69 255 179 0.432519
-0.055169 -0.002416 0.884455 59 255 189 0.421373
-0.056572 0.001003 0.876795 69 255 179 0.431576
-0.054438 0.000929 0.877696 72 255 176 0.434573
-0.059049 0.001011 0.875842 72 255 176 0.435814
-0.061516 0.000951 0.874850 88 255 160 0.454512
-0.061474 -0.000794 0.878076 56 255 192 0.417723
-0.063910 -0.000935 0.877001 79 255 169 0.444961
-0.063961 0.000875 0.873919 66 255 182 0.426906
-0.063928 -0.002672 0.880171 53 255 195 0.410877
-0.052568 -0.002548 0.885757 62 255 185 0.424913
-0.050229 -0.002680 0.886856 75 255 172 0.439203
-0.049532 -0.000976 0.883550 75 255 172 0.439626
-0.047874 -0.002881 0.887929 79 255 169 0.443808
-0.047129 -0.001170 0.884526 79 255 169 0.442129
-0.046386 0.000511 0.881186 75 255 172 0.440612
-0.049134 0.000742 0.880095 75 255 172 0.439377
-0.051811 0.000848 0.878883 82 255 166 0.447181
-0.052195 -0.000818 0.882327 72 255 176 0.436042
-0.067161 0.007895 0.857553 75 255 172 0.438859
-0.069123 0.006435 0.860548 75 255 172 0.438479
-0.069902 0.007715 0.857990 75 255 172 0.439283
-0.068354 0.005243 0.863192 72 255 176 0.436478
-0.071857 0.006162 0.860968 82 255 166 0.447069
-0.071043 0.004908 0.863571 72 255 176 0.437155
-0.073805 0.004627 0.863969 75 255 172 0.439427
-0.072660 0.007542 0.858429 75 255 172 0.440390
-0.074608 0.005949 0.861404 75 255 172 0.441071
-0.075502 0.007417 0.858914 79 255 169 0.441462
-0.070309 0.003793 0.866251 72 255 176 0.434848
-0.073046 0.003421 0.866597 88 255 160 0.454254
-0.072272 0.002263 0.869231 69 255 179 0.433449
-0.068129 0.002488 0.870003 69 255 179 0.430352
-0.078676 0.005643 0.861505 79 255 169 0.443069
-0.079775 0.006911 0.859150 79 255 169 0.443770
-0.077580 0.004353 0.863864 88 255 160 0.453908
-0.081825 0.003834 0.864161 82 255 166 0.445964
-0.082969 0.005207 0.861792 82 255 166 0.446306
-0.084185 0.006554 0.859410 82 255 166 0.446977
-0.078623 0.002814 0.866343 85 255 163 0.451457
-0.079712 0.001410 0.868878 75 255 172 0.440422
-0.075954 0.001722 0.869007 72 255 176 0.435818
-0.076049 -0.004196 0.876381 56 255 192 0.414925
-0.074805 -0.002051 0.874069 59 255 189 0.419627
-0.072968 -0.003681 0.877210 49 255 198 0.409174
-0.071662 -0.001659 0.874771 56 255 192 0.415279
-0.073566 0.000096 0.871672 79 255 169 0.441442
-0.077237 -0.000418 0.871423 69 255 179 0.431484
-0.078504 -0.002676 0.873750 66 255 182 0.426896
-0.069323 -0.003235 0.878185 46 255 202 0.405575
-0.067558 -0.001223 0.875800 43 255 205 0.400403
-0.067829 0.000588 0.872849 79 255 169 0.444539
-0.040498 0.006567 0.861549 79 255 169 0.441972
-0.039096 0.006951 0.858737 79 255 169 0.443489
-0.041985 0.007005 0.857572 79 255 169 0.442688
-0.037645 0.007380 0.855938 79 255 169 0.444442
-0.040541 0.007451 0.854815 79 255 169 0.443808
-0.039095 0.007874 0.852046 79 255 169 0.444358
-0.036159 0.007798 0.853132 79 255 169 0.444972
-0.043414 0.007557 0.853712 79 255 169 0.442761
-0.041967 0.007991 0.850974 79 255 169 0.443624
-0.044800 0.008132 0.849901 79 255 169 0.443145
-0.046393 0.007797 0.852821 79 255 169 0.442243
-0.044997 0.007225 0.856651 79 255 169 0.441844
-0.047929 0.007473 0.855724 75 255 172 0.441235
-0.046562 0.006917 0.859587 75 255 172 0.440845
-0.043580 0.006713 0.860530 75 255 172 0.441280
-0.049474 0.007141 0.858647 79 255 169 0.443037
-0.034164 0.007414 0.850203 82 255 166 0.446035
-0.032417 0.007062 0.847413 82 255 166 0.446747
-0.035098 0.007071 0.846156 82 255 166 0.446139
-0.030642 0.006617 0.844550 82 255 166 0.447300
-0.033342 0.006641 0.843287 82 255 166 0.446653
-0.031573 0.006137 0.840375 82 255 166 0.447499
-0.028848 0.006105 0.841618 82 255 166 0.448554
-0.036005 0.006685 0.842049 82 255 166 0.448394
-0.034235 0.006180 0.839144 82 255 166 0.446679
-0.036856 0.006255 0.837938 82 255 166 0.445432
-0.038906 0.006921 0.841053 79 255 169 0.445310
-0.038040 0.007252 0.845117 82 255 166 0.445757
-0.040931 0.007459 0.844092 85 255 163 0.452761
-0.040023 0.007681 0.848072 79 255 169 0.444786
-0.037116 0.007541 0.849132 79 255 169 0.445250
-0.042890 0.007853 0.847041 79 255 169 0.445043
-0.047049 0.006089 0.832477 75 255 172 0.439931
-0.049281 0.006891 0.835640 75 255 172 0.440367
-0.046551 0.006694 0.836944 79 255 169 0.442151
-0.048730 0.007357 0.840061 91 255 156 0.460909
-0.051430 0.007545 0.838733 75 255 172 0.441138
-0.046020 0.007251 0.841343 82 255 166 0.447434
-0.050822 0.007877 0.843073 79 255 169 0.441968
-0.048146 0.007769 0.844376 79 255 169 0.443738
-0.050191 0.008151 0.847291 79 255 169 0.442557
-0.053512 0.008069 0.841759 75 255 172 0.440013
-0.052839 0.008265 0.845991 75 255 172 0.441234
-0.055483 0.008465 0.844691 75 255 172 0.439798
-0.045439 0.007723 0.845667 88 255 160 0.456455
-0.047509 0.008110 0.848585 79 255 169 0.443092
-0.043492 0.007329 0.842714 88 255 160 0.453538
-0.041478 0.006792 0.839688 79 255 169 0.444409
-0.044029 0.006730 0.838325 79 255 169 0.443228
-0.041998 0.006080 0.835230 79 255 169 0.441768
-0.039442 0.006147 0.836582 79 255 169 0.443772
-0.044527 0.006047 0.833856 75 255 172 0.441106
-0.057766 0.008456 0.847852 79 255 169 0.442569
-0.054357 0.007904 0.848873 79 255 169 0.441843
-0.056598 0.007864 0.851995 75 255 172 0.439990
-0.059998 0.008409 0.850972 75 255 172 0.439191
-0.053241 0.007438 0.853031 79 255 169 0.441663
-0.058836 0.007789 0.855084 75 255 172 0.439558
-0.055459 0.007376 0.856167 75 255 172 0.439415
-0.062216 0.008267 0.853993 75 255 172 0.439228
-0.052102 0.007060 0.857268 75 255 172 0.439998
-0.050626 0.007416 0.854392 79 255 169 0.441481
-0.049096 0.007758 0.851486 79 255 169 0.442800
-0.051745 0.007795 0.850174 91 255 156 0.459555
-0.042797 0.005038 0.830935 79 255 169 0.442805
-0.040239 0.005080 0.832312 53 255 195 0.410945
-0.038473 0.004056 0.829354 104 255 143 0.474299
-0.037673 0.005154 0.833688 79 255 169 0.443859
-0.035900 0.004154 0.830734 82 255 166 0.448662
-0.033298 0.004269 0.832088 85 255 163 0.449504
-0.035091 0.005264 0.835032 82 255 166 0.446856
-0.034112 0.003157 0.827737 85 255 163 0.451036
-0.031504 0.003296 0.829109 88 255 160 0.454078
-0.029721 0.002370 0.826100 88 255 160 0.454470
-0.032295 0.002174 0.824736 88 255 160 0.453321
-0.036660 0.002999 0.826369 82 255 166 0.446846
-0.034845 0.002001 0.823372 85 255 163 0.452089
-0.039177 0.002890 0.824986 53 255 195 0.413732
-0.040989 0.003963 0.827969 79 255 169 0.442229
-0.043510 0.003918 0.826576 72 255 176 0.437442
-0.037384 0.001876 0.821986 82 255 166 0.445573
-0.041713 0.002829 0.823586 72 255 176 0.435550
-0.039919 0.001789 0.820569 72 255 176 0.437389
-0.045292 0.005018 0.829547 75 255 172 0.440332
-0.032529 0.005271 0.836336 82 255 166 0.448336
-0.029854 0.005223 0.837559 85 255 163 0.450285
-0.028126 0.004318 0.834716 88 255 160 0.456023
-0.027117 0.005204 0.838803 88 255 160 0.455967
-0.025403 0.004322 0.835954 124 255 124 0.496806
-0.023678 0.003488 0.833074 91 255 156 0.459527
-0.021939 0.002630 0.830082 91 255 156 0.457799
-0.026345 0.003393 0.831742 91 255 156 0.458802
-0.024576 0.002510 0.828734 88 255 160 0.455292
-0.028942 0.003320 0.830423 108 255 140 0.478122
-0.030743 0.004279 0.833393 85 255 163 0.452332
-0.027172 0.002421 0.827421 88 255 160 0.456267
-0.015770 -0.001576 0.818755 62 255 185 0.424164
-0.017279 -0.000542 0.821629 75 255 172 0.438418
-0.019885 -0.000733 0.820241 0 206 255 0.325422
-0.018363 -0.001762 0.817343 59 255 189 0.421364
-0.021442 0.000339 0.823115 79 255 169 0.442071
-0.022456 -0.000887 0.818842 59 255 189 0.418011
-0.024024 0.000196 0.821746 101 255 147 0.470593
-0.026564 0.000096 0.820377 108 255 140 0.478352
-0.020920 -0.001916 0.815939 69 255 179 0.432387
-0.024998 -0.000992 0.817475 98 255 150 0.468360
-0.023443 -0.002025 0.814570 75 255 172 0.438588
-0.025595 0.001313 0.824603 95 255 153 0.461739
-0.028142 0.001219 0.823244 95 255 153 0.463355
-0.023004 0.001413 0.825937 14 246 234 0.365317
-0.020376 0.001544 0.827278 91 255 156 0.457168
-0.018823 0.000481 0.824444 53 255 195 0.411714
-0.026032 -0.002253 0.813234 85 255 163 0.449505
-0.027553 -0.001213 0.816116 117 255 130 0.491490
-0.030121 -0.001403 0.814776 134 255 114 0.508429
-0.028594 -0.002440 0.811892 91 255 156 0.457937
-0.031655 -0.000302 0.817637 134 255 114 0.507846
-0.032703 -0.001550 0.813419 111 255 137 0.481092
-0.034240 -0.000442 0.816291 114 255 134 0.486155
-0.036843 -0.000549 0.814917 56 255 192 0.416443
-0.031171 -0.002583 0.810542 82 255 166 0.445683
-0.035297 -0.001652 0.812051 0 210 255 0.329644
-0.033749 -0.002680 0.809166 69 255 179 0.430921
-0.035782 0.000699 0.819121 91 255 156 0.459217
-0.038375 0.000610 0.817768 40 255 208 0.397543
-0.033227 0.000827 0.820501 101 255 147 0.470364
-0.030696 0.001003 0.821870 46 255 202 0.405207
-0.029119 -0.000125 0.819008 127 255 121 0.500787
-0.049408 0.005873 0.830941 75 255 172 0.437756
-0.051609 0.006755 0.833784 75 255 172 0.438086
-0.053993 0.006634 0.832211 72 255 176 0.436767
-0.051791 0.005738 0.829359 72 255 176 0.436285
-0.056118 0.007414 0.835027 72 255 176 0.436743
-0.056414 0.006570 0.830582 72 255 176 0.434852
-0.058522 0.007393 0.833386 72 255 176 0.436561
-0.061037 0.007476 0.831665 72 255 176 0.436899
-0.054216 0.005636 0.827726 72 255 176 0.435589
-0.058898 0.006609 0.828882 46 255 202 0.405537
-0.056704 0.005575 0.826043 72 255 176 0.435876
-0.060594 0.008115 0.836143 72 255 176 0.437064
-0.063123 0.008205 0.834442 75 255 172 0.438067
-0.065165 0.008819 0.837196 75 255 172 0.439400
-0.062639 0.008636 0.839163 75 255 172 0.438452
-0.058161 0.008032 0.838077 59 255 189 0.418003
-0.060184 0.008500 0.841067 75 255 172 0.437712
-0.055816 0.008004 0.839945 75 255 172 0.437744
-0.053762 0.007450 0.836915 75 255 172 0.438196
-0.057818 0.008432 0.842919 75 255 172 0.438420
-0.059140 0.005322 0.824351 75 255 172 0.437634
-0.061230 0.006356 0.826716 75 255 172 0.437786
-0.063800 0.006135 0.824921 79 255 169 0.441430
-0.061715 0.005091 0.822547 72 255 176 0.434301
-0.065825 0.007065 0.827284 79 255 169 0.441636
-0.066464 0.005860 0.823085 79 255 169 0.443807
-0.068493 0.006780 0.825457 72 255 176 0.435910
-0.071182 0.006423 0.823573 69 255 179 0.433429
-0.064371 0.004832 0.820713 79 255 169 0.443336
-0.069195 0.005496 0.821180 82 255 166 0.445706
-0.067113 0.004514 0.818798 82 255 166 0.446518
-0.070485 0.007620 0.827827 79 255 169 0.443981
-0.073209 0.007270 0.825963 82 255 166 0.447618
-0.075197 0.008050 0.828331 82 255 166 0.446178
-0.072586 0.008368 0.830641 75 255 172 0.441240
-0.067951 0.007893 0.830080 75 255 172 0.441118
-0.070017 0.008569 0.832892 69 255 179 0.433262
-0.065467 0.008058 0.832325 62 255 185 0.423721
-0.063369 0.007285 0.829523 75 255 172 0.438731
-0.067545 0.008726 0.835089 75 255 172 0.439255
-0.083734 0.009407 0.835575 82 255 166 0.448115
-0.081195 0.009707 0.838138 82 255 166 0.446423
-0.078974 0.009472 0.836089 82 255 166 0.446693
-0.076525 0.009670 0.838597 79 255 169 0.444197
-0.078714 0.009897 0.840636 79 255 169 0.444948
-0.074255 0.009349 0.836564 75 255 172 0.438698
-0.074083 0.009735 0.841093 79 255 169 0.442632
-0.071902 0.009488 0.839006 79 255 169 0.441625
-0.069580 0.009495 0.841428 75 255 172 0.441093
-0.076269 0.009974 0.843073 79 255 169 0.443733
-0.071796 0.009783 0.843442 79 255 169 0.441811
-0.073911 0.009948 0.845470 79 255 169 0.442568
-0.069666 0.009134 0.836903 66 255 182 0.429014
-0.067425 0.009201 0.839332 75 255 172 0.439937
-0.072183 0.009021 0.834735 79 255 169 0.442197
-0.074717 0.008799 0.832527 79 255 169 0.444811
-0.076888 0.009182 0.834298 82 255 166 0.445726
-0.079556 0.008885 0.832055 82 255 166 0.448153
-0.077381 0.008489 0.830213 82 255 166 0.446626
-0.081629 0.009177 0.833848 101 255 147 0.469007
-0.071350 0.009279 0.848455 75 255 172 0.441345
-0.069144 0.009467 0.845448 75 255 172 0.440850
-0.066753 0.008937 0.848342 79 255 169 0.443428
-0.068932 0.008722 0.851351 75 255 172 0.440062
-0.064515 0.009055 0.845303 75 255 172 0.439538
-0.064444 0.008556 0.851181 75 255 172 0.439404
-0.062227 0.008663 0.848159 75 255 172 0.439085
-0.066594 0.008271 0.854215 75 255 172 0.439204
-0.059957 0.008715 0.845055 69 255 179 0.433234
-0.062362 0.008790 0.843193 75 255 172 0.438513
-0.064849 0.008974 0.841320 75 255 172 0.439243
-0.066989 0.009250 0.843404 75 255 172 0.440231
-0.036198 -0.002937 0.807964 59 255 189 0.419730
-0.037716 -0.001931 0.810712 66 255 182 0.426864
-0.040195 -0.002144 0.809473 59 255 189 0.421333
-0.038685 -0.003147 0.806721 56 255 192 0.414156
-0.041707 -0.001072 0.812198 59 255 189 0.420570
-0.042729 -0.002313 0.808176 56 255 192 0.417873
-0.044235 -0.001249 0.810892 56 255 192 0.415207
-0.046794 -0.001371 0.809552 56 255 192 0.414394
-0.041218 -0.003312 0.805433 56 255 192 0.416372
-0.045315 -0.002439 0.806831 59 255 189 0.420537
-0.043814 -0.003430 0.804115 62 255 185 0.424645
-0.045696 -0.000119 0.813615 53 255 195 0.411009
-0.048259 -0.000247 0.812250 56 255 192 0.416456
-0.049694 0.000944 0.814964 59 255 189 0.420968
-0.047187 0.001087 0.816445 56 255 192 0.416838
-0.043237 0.000073 0.815045 56 255 192 0.416578
-0.044735 0.001271 0.817869 59 255 189 0.420772
-0.040800 0.000308 0.816417 66 255 182 0.427848
-0.039259 -0.000835 0.813572 69 255 179 0.433309
-0.042321 0.001499 0.819227 69 255 179 0.430228
-0.046340 -0.003717 0.802903 66 255 182 0.426473
-0.047790 -0.002763 0.805463 62 255 185 0.422244
-0.050395 -0.003020 0.804174 66 255 182 0.427097
-0.048958 -0.003971 0.801636 69 255 179 0.432190
-0.051821 -0.001996 0.806700 62 255 185 0.423845
-0.053092 -0.003272 0.802828 17 250 231 0.369173
-0.054515 -0.002257 0.805343 72 255 176 0.433851
-0.057307 -0.002516 0.803928 79 255 169 0.443041
-0.051663 -0.004221 0.800308 72 255 176 0.436798
-0.055885 -0.003517 0.801432 79 255 169 0.441542
-0.054448 -0.004460 0.798939 79 255 169 0.443902
-0.055964 -0.001161 0.807844 72 255 176 0.436945
-0.058758 -0.001418 0.806422 79 255 169 0.443849
-0.060228 -0.000240 0.808940 79 255 169 0.443857
-0.057457 0.000059 0.810526 75 255 172 0.437694
-0.053288 -0.000862 0.809387 66 255 182 0.426337
-0.054758 0.000347 0.812092 66 255 182 0.428213
-0.050713 -0.000570 0.810864 56 255 192 0.417191
-0.049254 -0.001705 0.808166 0 210 255 0.331084
-0.052167 0.000626 0.813550 59 255 189 0.420766
-0.062657 0.003608 0.818005 79 255 169 0.443474
-0.059994 0.003878 0.819844 88 255 160 0.454227
-0.058224 0.002646 0.817095 72 255 176 0.436251
-0.057436 0.004135 0.821613 72 255 176 0.436200
-0.055662 0.002934 0.818856 69 255 179 0.430908
-0.053206 0.003211 0.820536 66 255 182 0.428573
-0.054976 0.004421 0.823310 72 255 176 0.434355
-0.053896 0.001734 0.816065 62 255 185 0.425712
-0.051436 0.002040 0.817732 62 255 185 0.422853
-0.056499 0.001470 0.814589 69 255 179 0.431717
-0.059196 0.001176 0.813020 75 255 172 0.439092
-0.060928 0.002366 0.815522 75 255 172 0.441162
-0.063723 0.002090 0.813926 79 255 169 0.444996
-0.061986 0.000901 0.811432 79 255 169 0.444271
-0.065443 0.003304 0.816371 82 255 166 0.445850
-0.052458 0.004494 0.824804 69 255 179 0.433378
-0.050024 0.004608 0.826435 72 255 176 0.433627
-0.048240 0.003455 0.823457 66 255 182 0.429125
-0.047648 0.004795 0.828016 72 255 176 0.436425
-0.045868 0.003672 0.825036 69 255 179 0.432944
-0.044083 0.002555 0.822029 69 255 179 0.430553
-0.046483 0.002325 0.820656 62 255 185 0.423970
-0.048937 0.002167 0.819238 66 255 182 0.426869
-0.050689 0.003304 0.822031 66 255 182 0.426982
-0.068128 0.002793 0.814976 82 255 166 0.446582
-0.066437 0.001602 0.812529 82 255 166 0.446673
-0.069143 0.001041 0.811139 82 255 166 0.445980
-0.064682 0.000421 0.810059 82 255 166 0.446868
-0.067397 -0.000126 0.808687 82 255 166 0.447690
-0.065606 -0.001236 0.806240 82 255 166 0.448452
-0.062893 -0.000726 0.807577 82 255 166 0.446815
-0.070076 -0.000734 0.807347 82 255 166 0.447102
-0.068329 -0.001806 0.804901 82 255 166 0.447890
-0.071040 -0.002445 0.803564 82 255 166 0.446507
-0.072642 -0.001445 0.805870 82 255 166 0.446030
-0.071701 0.000315 0.809604 72 255 176 0.437394
-0.074296 -0.000385 0.808126 79 255 169 0.445279
-0.073314 0.001412 0.811873 72 255 176 0.435587
-0.070741 0.002123 0.813393 66 255 182 0.426723
-0.072306 0.003237 0.815650 82 255 166 0.446542
-0.075872 0.000647 0.810378 79 255 169 0.443574
-0.074868 0.002449 0.814088 82 255 166 0.445667
-0.077433 0.001677 0.812609 79 255 169 0.444703
-0.069748 0.003916 0.817200 91 255 156 0.457353
-0.061463 -0.001872 0.805204 82 255 166 0.447099
-0.060036 -0.002969 0.802703 82 255 166 0.447255
-0.062768 -0.003439 0.801481 82 255 166 0.448846
-0.058602 -0.003979 0.800213 82 255 166 0.447622
-0.061351 -0.004449 0.798981 88 255 160 0.455218
-0.059902 -0.005377 0.796496 82 255 166 0.449030
-0.057190 -0.004903 0.797708 82 255 166 0.447656
-0.064103 -0.004958 0.797761 82 255 166 0.448223
-0.062688 -0.005895 0.795265 82 255 166 0.447845
-0.065448 -0.006449 0.794065 79 255 169 0.445102
-0.066834 -0.005554 0.796445 82 255 166 0.445370
-0.065512 -0.003992 0.800133 82 255 166 0.447969
-0.068229 -0.004587 0.798822 82 255 166 0.445964
-0.066904 -0.002938 0.802511 82 255 166 0.447996
-0.064192 -0.002369 0.803856 82 255 166 0.448541
-0.069650 -0.003546 0.801182 82 255 166 0.446309
-0.076205 -0.009967 0.790021 0 222 253 0.342436
-0.077501 -0.009134 0.792256 59 255 189 0.419616
-0.074968 -0.008169 0.793334 66 255 182 0.426455
-0.076255 -0.007268 0.795591 69 255 179 0.430403
-0.078769 -0.008266 0.794536 66 255 182 0.426348
-0.073624 -0.006305 0.796723 49 255 198 0.408968
-0.077531 -0.006331 0.797872 69 255 179 0.430194
-0.074957 -0.005323 0.798999 72 255 176 0.436421
-0.076274 -0.004295 0.801273 75 255 172 0.437871
-0.080018 -0.007328 0.796802 59 255 189 0.421501
-0.078803 -0.005321 0.800137 66 255 182 0.427679
-0.081301 -0.006350 0.799075 0 210 255 0.330880
-0.072348 -0.004406 0.800104 79 255 169 0.442542
-0.073680 -0.003343 0.802421 79 255 169 0.443266
-0.070947 -0.005435 0.797736 75 255 172 0.440490
-0.069557 -0.006391 0.795376 75 255 172 0.439595
-0.072274 -0.007250 0.794338 69 255 179 0.430489
-0.070904 -0.008137 0.791973 17 250 231 0.368926
-0.068179 -0.007276 0.793013 75 255 172 0.437756
-0.073606 -0.009030 0.790959 27 255 221 0.381319
-0.082764 -0.005540 0.801183 56 255 192 0.416021
-0.080385 -0.004411 0.802424 59 255 189 0.420651
-0.081833 -0.003523 0.804546 69 255 179 0.429850
-0.084201 -0.004689 0.803319 62 255 185 0.424659
-0.079419 -0.002411 0.805798 72 255 176 0.437315
-0.083286 -0.002647 0.806649 36 255 211 0.393791
-0.080898 -0.001470 0.807902 72 255 176 0.436020
-0.082339 -0.000579 0.809984 72 255 176 0.434884
-0.085600 -0.003833 0.805445 62 255 185 0.424109
-0.084710 -0.001779 0.808739 62 255 185 0.425667
-0.087025 -0.003002 0.807540 62 255 185 0.422517
-0.078461 -0.000363 0.809192 79 255 169 0.441921
-0.079914 0.000573 0.811277 79 255 169 0.442153
-0.076871 -0.001376 0.806949 79 255 169 0.442904
-0.075298 -0.002367 0.804685 79 255 169 0.442856
-0.077850 -0.003368 0.803536 75 255 172 0.437807
-0.125551 -0.007607 0.927458 75 255 172 0.439484
-0.126964 -0.008688 0.923933 75 255 172 0.440215
-0.124101 -0.006523 0.930865 75 255 172 0.438276
-0.127152 -0.007837 0.930564 75 255 172 0.438468
-0.128611 -0.008846 0.927060 75 255 172 0.439565
-0.130045 -0.009883 0.923521 72 255 176 0.435834
-0.124174 -0.006141 0.934214 72 255 176 0.436557
-0.124218 -0.005768 0.937605 62 255 185 0.422500
-0.121289 -0.004509 0.937526 56 255 192 0.415592
-0.121249 -0.004844 0.934059 72 255 176 0.436749
-0.131287 -0.010680 0.926935 79 255 169 0.441723
-0.132766 -0.011749 0.923263 108 255 140 0.478307
-0.129771 -0.009671 0.930510 75 255 172 0.438941
-0.132525 -0.011456 0.930171 79 255 169 0.442152
-0.134024 -0.012430 0.926619 101 255 147 0.470976
-0.135498 -0.013430 0.922995 124 255 124 0.497103
-0.129628 -0.009569 0.933994 75 255 172 0.439087
-0.129448 -0.009415 0.937448 88 255 160 0.453974
-0.126774 -0.007627 0.937642 75 255 172 0.438373
-0.126987 -0.007754 0.934081 75 255 172 0.437790
-0.123815 -0.005446 0.945165 69 255 179 0.433517
-0.124040 -0.005649 0.941341 69 255 179 0.431798
-0.126632 -0.007436 0.941347 75 255 172 0.439330
-0.126429 -0.007154 0.945103 53 255 195 0.410835
-0.118420 -0.002829 0.941008 69 255 179 0.433303
-0.121353 -0.004097 0.941194 27 255 221 0.381760
-0.136428 -0.023552 0.952352 79 255 169 0.445224
-0.137746 -0.023795 0.948286 101 255 147 0.471039
-0.135461 -0.021174 0.951896 79 255 169 0.441601
-0.139019 -0.023962 0.944293 79 255 169 0.442829
-0.136814 -0.021377 0.947844 79 255 169 0.443370
-0.138155 -0.021470 0.943801 75 255 172 0.440110
-0.134545 -0.018644 0.951601 75 255 172 0.441132
-0.140300 -0.024001 0.940358 79 255 169 0.441490
-0.141564 -0.023969 0.936472 75 255 172 0.437814
-0.142640 -0.026609 0.936969 79 255 169 0.442811
-0.141415 -0.026641 0.940814 104 255 143 0.475068
-0.140198 -0.026574 0.944694 95 255 153 0.464020
-0.143780 -0.029282 0.937479 79 255 169 0.441620
-0.135486 -0.018758 0.947732 75 255 172 0.440233
-0.133025 -0.016086 0.951645 75 255 172 0.438454
-0.136437 -0.018788 0.943803 75 255 172 0.439224
-0.134048 -0.016195 0.947612 91 255 156 0.458666
-0.135026 -0.016214 0.943685 75 255 172 0.440285
-0.137357 -0.018740 0.939982 66 255 182 0.426774
-0.138255 -0.018606 0.936234 72 255 176 0.435955
-0.139870 -0.021332 0.936329 72 255 176 0.435969
-0.139016 -0.021441 0.940046 72 255 176 0.437404
-0.144850 -0.022495 0.922002 56 255 192 0.416426
-0.143985 -0.022921 0.925667 69 255 179 0.432612
-0.146683 -0.025305 0.922154 69 255 179 0.432864
-0.143149 -0.023328 0.929286 121 255 127 0.492774
-0.145818 -0.025658 0.925881 69 255 179 0.433525
-0.145032 -0.026084 0.929450 72 255 176 0.436926
-0.148570 -0.028124 0.922317 72 255 176 0.436070
-0.142352 -0.023693 0.932875 72 255 176 0.437276
-0.140703 -0.021004 0.932685 72 255 176 0.436771
-0.141553 -0.020645 0.929041 75 255 172 0.439222
-0.147310 -0.028416 0.926221 72 255 176 0.434094
-0.149851 -0.031005 0.922663 75 255 172 0.438074
-0.146096 -0.028753 0.929985 72 255 176 0.436102
-0.148591 -0.031304 0.926620 72 255 176 0.436702
-0.147406 -0.031610 0.930384 75 255 172 0.438385
-0.151196 -0.033959 0.922996 75 255 172 0.439212
-0.144931 -0.029029 0.933724 75 255 172 0.438758
-0.143820 -0.026359 0.933212 88 255 160 0.455610
-0.135615 -0.013396 0.919718 75 255 172 0.441207
-0.135699 -0.013432 0.916312 79 255 169 0.441506
-0.132868 -0.011638 0.920027 49 255 198 0.408022
-0.132939 -0.011661 0.916551 101 255 147 0.472613
-0.135760 -0.013549 0.912749 56 255 192 0.414358
