ply
format ascii 1.0
comment VCGLIB generated
element vertex 978
property float x
property float y
property float z
property uchar red
property uchar green
property uchar blue
property float quality
end_header
-0.096235 0.007740 0.844488 0 142 255 0.265255
-0.096087 0.007753 0.847215 0 146 255 0.266183
-0.100496 0.006154 0.842462 0 138 255 0.260200
-0.091733 0.008873 0.849207 0 138 255 0.260454
-0.091602 0.008633 0.851889 0 150 255 0.273115
-0.087129 0.009389 0.851349 0 150 255 0.272810
-0.087229 0.009655 0.848729 0 154 255 0.274226
-0.083625 0.007314 0.858644 0 146 255 0.265864
-0.083263 0.008250 0.856046 0 146 255 0.265914
-0.079158 0.007578 0.858403 0 142 255 0.264018
-0.078759 0.008528 0.855848 0 142 255 0.264040
-0.082891 0.009174 0.853494 0 146 255 0.266749
-0.087404 0.008544 0.854024 0 146 255 0.268466
-0.087658 0.007603 0.856652 0 166 255 0.285492
-0.074947 0.007906 0.857427 0 142 255 0.262442
-0.072107 0.007943 0.856986 0 134 255 0.256626
-0.074567 0.008660 0.854154 0 142 255 0.262963
-0.069355 0.008047 0.856576 0 138 255 0.261310
-0.071704 0.008580 0.853710 0 142 255 0.262377
-0.074219 0.009333 0.850830 0 142 255 0.263723
-0.076353 0.009376 0.851676 0 142 255 0.263788
-0.078499 0.009363 0.852510 0 142 255 0.264548
-0.076673 0.008621 0.854993 0 142 255 0.263507
-0.121454 -0.007452 0.865445 0 142 255 0.262815
-0.122812 -0.007574 0.863015 0 142 255 0.263245
-0.118789 -0.005222 0.863825 0 126 255 0.248637
-0.124232 -0.007653 0.860560 0 142 255 0.264072
-0.125640 -0.007757 0.858173 0 146 255 0.265905
-0.127643 -0.009147 0.859778 0 146 255 0.265823
-0.126187 -0.009109 0.862203 0 142 255 0.264889
-0.116795 -0.003701 0.862780 0 146 255 0.266486
-0.118957 -0.004513 0.860574 0 142 255 0.265291
-0.117035 -0.003184 0.859730 0 146 255 0.268422
-0.114885 -0.002316 0.861922 0 166 255 0.285230
-0.120133 -0.004767 0.857960 0 146 255 0.266160
-0.121374 -0.004996 0.855427 0 154 255 0.276257
-0.123527 -0.006321 0.856768 0 158 255 0.278575
-0.122263 -0.006178 0.859377 0 126 255 0.248318
-0.130746 -0.011339 0.847424 0 146 255 0.268568
-0.129432 -0.010390 0.850051 0 146 255 0.267526
-0.133120 -0.012421 0.849465 0 174 255 0.295770
-0.128119 -0.009557 0.852714 0 146 255 0.266529
-0.131713 -0.011617 0.852149 0 130 255 0.252671
-0.130396 -0.010751 0.854805 0 142 255 0.263787
-0.135410 -0.013548 0.851594 0 142 255 0.265196
-0.126839 -0.008632 0.855429 0 146 255 0.265952
-0.124691 -0.007336 0.853999 0 146 255 0.267048
-0.125870 -0.008342 0.851306 0 146 255 0.267289
-0.133936 -0.012736 0.853991 0 142 255 0.263276
-0.137462 -0.014388 0.854017 0 142 255 0.263393
-0.132441 -0.011999 0.856504 0 114 255 0.236084
-0.135936 -0.013634 0.856494 0 142 255 0.265035
-0.130989 -0.011254 0.858972 0 142 255 0.265013
-0.129013 -0.009955 0.857279 0 142 255 0.265268
-0.102734 0.004883 0.842622 0 142 255 0.263288
-0.100556 0.006005 0.844984 0 142 255 0.264995
-0.102776 0.004755 0.845103 0 142 255 0.264860
-0.104900 0.003559 0.842745 0 142 255 0.263687
-0.100612 0.005787 0.847496 0 146 255 0.267801
-0.104980 0.003482 0.845268 0 142 255 0.265285
-0.102823 0.004545 0.847630 0 146 255 0.266955
-0.105010 0.003279 0.847791 0 146 255 0.266640
-0.107032 0.002208 0.842891 0 142 255 0.264179
-0.107122 0.002165 0.845441 0 146 255 0.265703
-0.109159 0.000941 0.843112 0 146 255 0.266708
-0.100657 0.005481 0.850000 0 174 255 0.295040
-0.102908 0.004313 0.850128 0 146 255 0.269515
-0.100748 0.005115 0.852478 0 150 255 0.270115
-0.098493 0.006074 0.852358 0 146 255 0.268567
-0.098430 0.006452 0.849886 0 146 255 0.268852
-0.096223 0.006987 0.852197 0 146 255 0.267502
-0.096162 0.007401 0.849699 0 146 255 0.266934
-0.098381 0.006834 0.847385 0 146 255 0.266660
-0.093908 0.007833 0.852076 0 146 255 0.267401
-0.111175 -0.000426 0.843278 0 170 255 0.289601
-0.111199 -0.000361 0.845719 0 146 255 0.268032
-0.113305 -0.001725 0.843473 0 146 255 0.267528
-0.109140 0.001006 0.848028 0 154 255 0.276764
-0.113263 -0.001700 0.845910 0 146 255 0.267031
-0.111167 -0.000371 0.848183 0 146 255 0.267815
-0.115365 -0.003103 0.843591 0 146 255 0.267308
-0.117475 -0.004368 0.843837 0 146 255 0.268473
-0.109124 0.000804 0.852996 0 146 255 0.268538
-0.107090 0.002083 0.850375 0 146 255 0.268313
-0.105008 0.003071 0.852718 0 146 255 0.268519
-0.100581 0.002687 0.860012 0 150 255 0.270760
-0.100611 0.003528 0.857538 0 150 255 0.270264
-0.096531 0.004030 0.859796 0 150 255 0.270164
-0.096561 0.004883 0.857293 0 150 255 0.270077
-0.100662 0.004371 0.855015 0 146 255 0.269430
-0.104921 0.002333 0.855256 0 146 255 0.269522
-0.104838 0.001528 0.857834 0 150 255 0.270300
-0.092281 0.005352 0.859355 0 146 255 0.269159
-0.092021 0.006461 0.856880 0 146 255 0.268871
-0.087931 0.006400 0.859085 0 146 255 0.268652
-0.091783 0.007555 0.854417 0 146 255 0.267999
-0.094074 0.006786 0.854593 0 146 255 0.268190
-0.096350 0.005980 0.854769 0 146 255 0.268674
-0.094282 0.005681 0.857099 0 154 255 0.275903
-0.103676 -0.015927 0.799934 0 114 255 0.236015
-0.101811 -0.014430 0.800989 0 102 255 0.225044
-0.098683 -0.013392 0.800048 0 98 255 0.221629
-0.096842 -0.011802 0.801128 0 98 255 0.222335
-0.093728 -0.010751 0.800273 0 82 255 0.206470
-0.096246 -0.009536 0.804221 0 102 255 0.225721
-0.094353 -0.012944 0.797193 0 102 255 0.226505
-0.091200 -0.012000 0.796307 0 110 255 0.233250
-0.096333 -0.014393 0.796317 0 102 255 0.226195
-0.098285 -0.015756 0.795475 0 114 255 0.235524
-0.101395 -0.016687 0.796400 0 122 255 0.243078
-0.099143 -0.017526 0.792887 0 126 255 0.249606
-0.094164 -0.007970 0.805355 0 106 255 0.228979
-0.092836 -0.008690 0.803189 0 94 255 0.215041
-0.090687 -0.007131 0.804334 0 118 255 0.238845
-0.092078 -0.006373 0.806501 0 114 255 0.236724
-0.089327 -0.007930 0.802148 0 118 255 0.239774
-0.088503 -0.005538 0.805525 0 122 255 0.243672
-0.087135 -0.006380 0.803358 0 122 255 0.244159
-0.089886 -0.004732 0.807658 0 86 255 0.210274
-0.085709 -0.007175 0.801218 0 122 255 0.243380
-0.086722 -0.009285 0.798242 0 118 255 0.241553
-0.090282 -0.010016 0.799213 0 114 255 0.234611
-0.079412 -0.011426 0.790308 0 126 255 0.249939
-0.083079 -0.011897 0.791602 0 118 255 0.242047
-0.085500 -0.013144 0.790814 0 118 255 0.240740
-0.088948 -0.013557 0.792166 0 114 255 0.236070
-0.086656 -0.015093 0.788044 0 122 255 0.243183
-0.087765 -0.011537 0.794985 0 114 255 0.237211
-0.085492 -0.010205 0.795955 0 118 255 0.240625
-0.083115 -0.008862 0.796948 0 122 255 0.242466
-0.081866 -0.009790 0.794652 0 58 255 0.179856
-0.088829 -0.016399 0.787446 0 122 255 0.243135
-0.091952 -0.017004 0.788610 0 118 255 0.241878
-0.094035 -0.018211 0.788012 0 126 255 0.249205
-0.097145 -0.018773 0.789228 0 134 255 0.255114
-0.095126 -0.020067 0.785644 0 138 255 0.261234
-0.096058 -0.016933 0.791658 0 110 255 0.230747
-0.094063 -0.015585 0.792490 0 0 251 0.106561
-0.092054 -0.014182 0.793374 0 98 255 0.220571
-0.089247 -0.002524 0.810783 0 130 255 0.250520
-0.087170 -0.001099 0.812218 0 134 255 0.255089
-0.088744 -0.000548 0.814112 0 130 255 0.250187
-0.090851 -0.002008 0.812662 0 126 255 0.246732
-0.086642 0.000896 0.815604 0 134 255 0.256923
-0.090377 -0.000013 0.816016 0 70 255 0.194847
-0.088255 0.001467 0.817506 0 134 255 0.254973
-0.089819 0.002014 0.819426 0 134 255 0.256579
-0.092385 -0.001518 0.814581 0 86 255 0.210403
-0.091931 0.000475 0.817912 0 126 255 0.249297
-0.093968 -0.001051 0.816511 0 122 255 0.245231
-0.086043 0.002902 0.819042 0 134 255 0.254768
-0.087633 0.003480 0.820954 0 138 255 0.260552
-0.085353 0.004872 0.822546 0 142 255 0.262423
-0.083538 0.004177 0.820417 0 142 255 0.262577
-0.084229 0.002175 0.816908 0 134 255 0.255882
-0.081705 0.003414 0.818276 0 142 255 0.262723
-0.082346 0.001435 0.814806 0 138 255 0.261263
-0.084793 0.000182 0.813473 0 138 255 0.258551
-0.079825 0.002621 0.816162 0 142 255 0.263553
-0.093789 0.000660 0.819620 0 130 255 0.252344
-0.097339 -0.001030 0.819501 0 126 255 0.246320
-0.093620 0.002364 0.822771 0 134 255 0.257068
-0.097119 0.000652 0.822583 0 130 255 0.251255
-0.096872 0.002288 0.825632 0 130 255 0.253127
-0.100549 -0.001146 0.822420 0 122 255 0.245161
-0.093319 0.004005 0.825880 0 138 255 0.259926
-0.092933 0.005625 0.829056 0 142 255 0.262350
-0.091086 0.005522 0.827453 0 142 255 0.262621
-0.091455 0.003884 0.824255 0 138 255 0.260478
-0.089212 0.005368 0.825850 0 142 255 0.262919
-0.089557 0.003729 0.822641 0 138 255 0.260636
-0.091723 0.002211 0.821100 0 134 255 0.257206
-0.087326 0.005132 0.824199 0 142 255 0.262961
-0.084305 0.008715 0.833869 0 142 255 0.261945
-0.082254 0.008436 0.832082 0 142 255 0.265263
-0.084724 0.007588 0.830142 0 142 255 0.265488
-0.080118 0.008074 0.830225 0 142 255 0.265042
-0.082611 0.007263 0.828292 0 142 255 0.264843
-0.080394 0.006841 0.826410 0 142 255 0.264102
-0.077902 0.007636 0.828324 0 138 255 0.261091
-0.085073 0.006298 0.826357 0 146 255 0.267013
-0.082914 0.005895 0.824415 0 122 255 0.242991
-0.087013 0.006526 0.827957 0 142 255 0.264656
-0.088874 0.006716 0.829554 0 142 255 0.264324
-0.086587 0.007783 0.831680 0 150 255 0.270133
-0.088483 0.007914 0.833227 0 154 255 0.274655
-0.090715 0.006861 0.831169 0 142 255 0.264252
-0.086218 0.008859 0.835332 0 150 255 0.270377
-0.076118 0.006932 0.826198 0 142 255 0.264751
-0.074105 0.006066 0.823741 0 146 255 0.266166
-0.076798 0.005345 0.822102 0 142 255 0.265170
-0.072077 0.005123 0.821302 0 158 255 0.279415
-0.074736 0.004424 0.819662 0 146 255 0.266291
-0.077403 0.003572 0.818029 0 142 255 0.264462
-0.079251 0.004417 0.820165 0 138 255 0.257963
-0.081095 0.005184 0.822288 0 142 255 0.262935
-0.078605 0.006132 0.824260 0 142 255 0.264603
-0.100584 0.000131 0.824991 0 126 255 0.248209
-0.103969 -0.002368 0.824180 0 114 255 0.237829
-0.100512 0.001382 0.827520 0 134 255 0.254409
-0.103963 -0.001136 0.826692 0 66 255 0.188879
-0.103961 0.000129 0.829240 0 126 255 0.247837
-0.107353 -0.003571 0.825910 0 122 255 0.243761
-0.100463 0.002638 0.830103 0 166 255 0.287295
-0.100347 0.003869 0.832691 0 138 255 0.260629
-0.096689 0.004832 0.830898 0 138 255 0.261000
-0.096804 0.003594 0.828265 0 138 255 0.259088
-0.109370 -0.003864 0.828581 0 130 255 0.251878
-0.111002 -0.005788 0.826959 0 130 255 0.253279
-0.107733 -0.001889 0.830243 0 130 255 0.252814
-0.111374 -0.004178 0.831097 0 178 255 0.297031
-0.113026 -0.006056 0.829458 0 142 255 0.264763
-0.114690 -0.007856 0.827856 0 146 255 0.268858
-0.109677 -0.002258 0.832756 0 134 255 0.256717
-0.108005 -0.000288 0.834453 0 134 255 0.256718
-0.105989 -0.000083 0.831888 0 130 255 0.252998
-0.104233 0.001785 0.833577 0 110 255 0.232526
-0.100503 0.005665 0.840018 0 138 255 0.260164
-0.100479 0.005123 0.837569 0 110 255 0.233701
-0.096372 0.007206 0.839284 0 142 255 0.263216
-0.096365 0.006670 0.836811 0 142 255 0.262331
-0.100418 0.004534 0.835155 0 134 255 0.257737
-0.104304 0.002421 0.835964 0 134 255 0.256495
-0.104351 0.003032 0.838329 0 138 255 0.259813
-0.092347 0.008285 0.838051 0 142 255 0.264394
-0.092553 0.007511 0.835095 0 142 255 0.263942
-0.094640 0.006230 0.832971 0 142 255 0.262279
-0.133291 -0.013525 0.845582 0 146 255 0.267554
-0.137029 -0.015959 0.845117 0 142 255 0.262224
-0.139550 -0.017994 0.843339 0 122 255 0.244674
-0.143387 -0.020216 0.842965 0 130 255 0.253427
-0.140864 -0.019724 0.840377 0 134 255 0.256736
-0.141978 -0.018532 0.846054 0 122 255 0.245871
-0.145829 -0.020715 0.845609 0 82 255 0.206436
-0.139386 -0.016776 0.847528 0 138 255 0.258581
-0.136844 -0.014843 0.848985 0 142 255 0.263481
-0.143412 -0.022504 0.838803 0 130 255 0.252430
-0.144480 -0.022272 0.840808 0 130 255 0.251582
-0.147068 -0.024956 0.839164 0 126 255 0.247474
-0.145968 -0.025246 0.837219 0 126 255 0.247248
-0.148218 -0.024674 0.841115 0 118 255 0.240001
-0.149765 -0.027549 0.837561 0 126 255 0.248475
-0.150894 -0.027202 0.839465 0 130 255 0.251470
-0.153641 -0.029718 0.837770 0 130 255 0.253123
-0.148603 -0.027917 0.835692 0 122 255 0.242856
-0.152428 -0.030173 0.835950 0 126 255 0.247034
-0.151110 -0.030708 0.834177 0 114 255 0.236506
-0.152008 -0.026925 0.841377 0 130 255 0.253141
-0.154813 -0.029331 0.839685 0 134 255 0.256211
-0.155965 -0.029001 0.841583 0 134 255 0.257742
-0.150810 -0.024959 0.843625 0 130 255 0.252683
-0.147015 -0.022682 0.843309 0 126 255 0.249646
-0.155993 -0.026011 0.848144 0 134 255 0.256429
-0.152509 -0.024381 0.847356 0 134 255 0.254156
-0.151040 -0.022581 0.849726 0 130 255 0.251540
-0.147715 -0.020778 0.848830 0 130 255 0.251758
-0.149142 -0.022611 0.846527 0 130 255 0.251592
-0.154304 -0.026665 0.844364 0 134 255 0.255774
-0.157858 -0.028257 0.845094 0 138 255 0.258867
-0.145940 -0.019157 0.852056 0 130 255 0.251664
-0.142416 -0.017354 0.851854 0 134 255 0.255621
-0.140962 -0.016266 0.854142 0 138 255 0.259699
-0.138900 -0.015500 0.851673 0 138 255 0.261649
-0.144139 -0.019040 0.848725 0 130 255 0.252808
-0.116817 -0.009304 0.828205 0 166 255 0.286752
-0.118940 -0.010728 0.828515 0 174 255 0.293661
-0.115687 -0.006957 0.831613 0 158 255 0.278856
-0.117823 -0.008462 0.831945 0 218 255 0.338523
-0.119980 -0.009893 0.832199 0 174 255 0.296226
-0.121157 -0.012128 0.828843 0 182 255 0.304135
-0.123349 -0.013473 0.829155 0 194 255 0.315466
-0.116568 -0.006093 0.835397 0 150 255 0.273177
-0.114351 -0.004727 0.835128 0 142 255 0.263433
-0.112201 -0.003298 0.834915 0 82 255 0.205244
-0.125575 -0.014993 0.829393 0 210 255 0.330096
-0.127876 -0.016477 0.829712 0 218 255 0.338793
-0.124528 -0.012600 0.832706 0 174 255 0.296643
-0.126774 -0.014136 0.832920 0 178 255 0.299322
-0.129074 -0.015648 0.833160 0 178 255 0.298235
-0.130137 -0.017919 0.830042 0 198 255 0.317207
-0.132503 -0.019404 0.830307 0 102 255 0.226270
-0.125591 -0.011832 0.836180 0 130 255 0.251536
-0.123298 -0.010450 0.836017 0 162 255 0.283433
-0.121046 -0.009035 0.835831 0 162 255 0.284821
-0.122229 -0.011268 0.832413 0 174 255 0.296490
-0.118774 -0.007574 0.835624 0 158 255 0.279947
-0.117080 -0.005178 0.839559 0 150 255 0.270979
-0.114913 -0.003957 0.839341 0 146 255 0.266864
-0.112832 -0.002631 0.839153 0 142 255 0.263345
-0.119258 -0.006718 0.839702 0 154 255 0.276425
-0.121477 -0.008243 0.839893 0 158 255 0.278871
-0.108587 0.000360 0.838721 0 138 255 0.260565
-0.106486 0.001708 0.838526 0 138 255 0.260380
-0.110398 -0.001455 0.836811 0 130 255 0.252597
-0.104455 -0.014077 0.804321 0 86 255 0.207877
-0.106185 -0.015682 0.803062 0 102 255 0.224875
-0.102723 -0.012394 0.805562 0 78 255 0.202360
-0.105206 -0.012105 0.808654 0 62 255 0.187324
-0.106918 -0.013798 0.807409 0 74 255 0.196889
-0.108662 -0.015452 0.806137 0 94 255 0.217748
-0.102251 -0.010451 0.808375 0 78 255 0.200953
-0.101808 -0.008428 0.811178 0 30 255 0.155808
-0.099049 -0.008947 0.807710 0 94 255 0.216416
-0.099459 -0.010941 0.804875 0 94 255 0.215681
-0.109817 -0.014193 0.810081 0 66 255 0.188941
-0.111473 -0.015899 0.808658 0 98 255 0.220756
-0.108195 -0.012380 0.811463 0 54 255 0.178003
-0.110928 -0.012847 0.813906 0 62 255 0.185225
-0.112558 -0.014623 0.812505 0 98 255 0.220851
-0.114262 -0.016353 0.811123 0 134 255 0.254619
-0.107982 -0.010751 0.814061 0 62 255 0.185789
-0.107749 -0.009050 0.816618 0 82 255 0.203896
-0.104792 -0.008715 0.813939 0 78 255 0.199490
-0.105024 -0.010456 0.811308 0 62 255 0.185899
-0.100936 -0.003020 0.819638 0 114 255 0.236886
-0.101274 -0.004881 0.816850 0 102 255 0.226109
-0.097655 -0.002946 0.816646 0 118 255 0.238763
-0.097991 -0.004826 0.813809 0 110 255 0.230633
-0.101571 -0.006703 0.814024 0 90 255 0.214096
-0.104530 -0.006997 0.816714 0 86 255 0.210802
-0.104207 -0.005224 0.819446 0 102 255 0.224433
-0.094609 -0.003293 0.813405 0 118 255 0.239385
-0.093045 -0.003745 0.811481 0 102 255 0.226101
-0.095218 -0.005470 0.810336 0 110 255 0.232814
-0.091484 -0.004228 0.809574 0 118 255 0.241398
-0.093686 -0.005914 0.808413 0 114 255 0.234972
-0.095739 -0.007558 0.807290 0 70 255 0.191674
-0.098559 -0.006955 0.810749 0 98 255 0.219348
-0.115765 -0.015823 0.814205 0 150 255 0.272443
-0.117382 -0.017588 0.812774 1 230 247 0.347867
-0.114175 -0.013992 0.815621 0 110 255 0.233022
-0.117277 -0.015224 0.817151 0 146 255 0.269369
-0.118906 -0.017025 0.815769 0 186 255 0.306763
-0.120549 -0.018780 0.814321 0 210 255 0.330188
-0.114170 -0.012769 0.817778 0 110 255 0.233835
-0.114158 -0.011510 0.819958 0 126 255 0.247932
-0.110946 -0.010318 0.818346 0 90 255 0.212896
-0.110942 -0.011595 0.816108 0 74 255 0.199144
-0.122450 -0.018842 0.816923 0 198 255 0.319139
-0.123962 -0.020557 0.815556 0 202 255 0.323274
-0.120961 -0.017109 0.818287 0 186 255 0.306512
-0.124351 -0.018864 0.819436 0 218 255 0.338115
-0.125865 -0.020597 0.818102 20 254 228 0.373276
-0.127413 -0.022314 0.816728 0 214 255 0.332350
-0.122851 -0.017128 0.820744 0 202 255 0.321685
-0.121371 -0.015322 0.822095 0 190 255 0.311927
-0.119316 -0.015297 0.819659 0 174 255 0.296009
-0.117704 -0.013446 0.821058 0 166 255 0.286269
-0.112707 -0.007786 0.825416 0 134 255 0.255210
-0.114431 -0.009708 0.823914 0 142 255 0.262430
-0.110770 -0.007741 0.822878 0 118 255 0.239206
-0.109059 -0.005702 0.824378 0 118 255 0.241648
-0.112469 -0.009690 0.821400 0 114 255 0.236723
-0.116059 -0.011614 0.822492 0 134 255 0.255792
-0.118033 -0.011705 0.824936 0 170 255 0.292172
-0.119662 -0.013530 0.823479 0 186 255 0.305466
-0.105790 -0.004397 0.822703 0 110 255 0.233690
-0.107617 -0.006372 0.821307 0 102 255 0.226048
-0.107726 -0.007737 0.819020 0 94 255 0.215907
-0.125075 -0.124509 0.810172 0 150 255 0.273123
-0.122278 -0.124405 0.812057 0 150 255 0.272167
-0.124100 -0.122903 0.815132 0 154 255 0.276425
-0.121262 -0.122851 0.816773 0 154 255 0.275736
-0.119481 -0.124476 0.813824 0 150 255 0.270802
-0.123163 -0.121435 0.819736 0 158 255 0.278108
-0.118446 -0.122928 0.818412 0 150 255 0.273165
-0.120323 -0.121464 0.821268 0 154 255 0.274918
-0.117508 -0.121701 0.822796 0 150 255 0.273315
-0.116669 -0.124584 0.815517 0 150 255 0.270152
-0.115636 -0.123097 0.819998 0 150 255 0.271907
-0.113911 -0.124830 0.817179 0 150 255 0.269718
-0.122327 -0.120315 0.824130 0 154 255 0.276751
-0.119501 -0.120568 0.825595 0 154 255 0.274778
-0.121598 -0.119731 0.828397 0 154 255 0.276712
-0.124257 -0.119519 0.826664 0 158 255 0.278628
-0.124954 -0.120301 0.822363 0 158 255 0.279403
-0.126849 -0.119359 0.824932 0 158 255 0.280996
-0.127583 -0.120394 0.820550 0 162 255 0.284024
-0.125811 -0.121570 0.817875 0 162 255 0.282388
-0.128439 -0.121920 0.815889 0 166 255 0.287291
-0.129455 -0.119422 0.823191 0 166 255 0.286228
-0.130203 -0.120769 0.818682 0 142 255 0.264325
-0.132083 -0.119629 0.821500 0 170 255 0.290680
-0.126718 -0.123173 0.813027 0 110 255 0.233662
-0.110738 -0.124765 0.818909 0 146 255 0.268722
-0.112558 -0.122955 0.821949 0 150 255 0.269999
-0.109371 -0.122918 0.823593 0 146 255 0.267425
-0.107612 -0.124791 0.820637 0 142 255 0.262047
-0.111331 -0.121542 0.826603 0 150 255 0.269605
-0.106297 -0.123034 0.825276 0 126 255 0.248045
-0.108220 -0.121701 0.828254 0 146 255 0.267879
-0.104536 -0.124815 0.822330 0 142 255 0.264224
-0.110317 -0.120851 0.831317 0 150 255 0.270676
-0.112441 -0.120402 0.834164 0 150 255 0.273191
-0.113314 -0.120665 0.829371 0 150 255 0.271411
-0.115457 -0.120055 0.832179 0 150 255 0.272832
-0.116393 -0.120552 0.827460 0 150 255 0.272883
-0.114392 -0.121539 0.824687 0 150 255 0.271126
-0.118516 -0.119869 0.830273 0 154 255 0.274965
-0.123413 -0.120240 0.845602 0 146 255 0.269051
-0.120621 -0.120481 0.842898 0 154 255 0.274559
-0.123666 -0.119757 0.840669 0 154 255 0.274978
-0.126501 -0.119431 0.843347 0 126 255 0.246383
-0.120882 -0.119871 0.837964 0 162 255 0.283333
-0.126723 -0.119011 0.838529 0 158 255 0.277388
-0.123916 -0.119288 0.835835 0 166 255 0.286488
-0.126913 -0.118765 0.833747 0 158 255 0.280785
-0.129502 -0.118586 0.841187 0 166 255 0.286606
-0.129661 -0.118331 0.836403 0 158 255 0.278442
-0.132406 -0.117852 0.839063 0 150 255 0.272887
-0.121143 -0.119506 0.833133 0 158 255 0.277991
-0.124209 -0.119233 0.831084 0 158 255 0.279265
-0.118102 -0.119831 0.835069 0 158 255 0.277634
-0.115062 -0.120308 0.837063 0 158 255 0.278829
-0.117808 -0.120393 0.839975 0 186 255 0.305510
-0.134783 -0.117065 0.837134 0 150 255 0.273079
-0.132169 -0.117695 0.834690 0 158 255 0.279496
-0.134582 -0.117170 0.832803 0 162 255 0.281731
-0.137144 -0.116383 0.835258 0 154 255 0.276396
-0.132037 -0.117944 0.830363 0 162 255 0.283755
-0.137013 -0.116750 0.830989 0 162 255 0.284404
-0.134453 -0.117614 0.828495 0 166 255 0.286087
-0.136895 -0.117437 0.826612 0 150 255 0.273336
-0.139595 -0.115867 0.833454 0 158 255 0.279339
-0.139472 -0.116396 0.829212 0 162 255 0.285038
-0.142097 -0.115380 0.831686 0 158 255 0.280282
-0.131967 -0.118502 0.825982 0 166 255 0.287209
-0.134407 -0.118489 0.824033 0 170 255 0.290685
-0.129400 -0.118605 0.827662 0 166 255 0.285443
-0.126826 -0.118825 0.829353 0 158 255 0.280285
-0.129473 -0.118256 0.832015 0 162 255 0.281346
-0.129626 -0.022942 0.819170 255 202 0 0.693501
-0.130966 -0.024569 0.817889 1 230 247 0.349975
-0.128365 -0.021339 0.820437 20 254 228 0.371535
-0.131876 -0.023550 0.821563 0 214 255 0.334727
-0.133233 -0.025211 0.820290 0 206 255 0.325462
-0.134602 -0.026880 0.819015 127 255 121 0.501824
-0.130600 -0.021935 0.822767 0 218 255 0.339641
-0.129339 -0.020350 0.823939 1 230 247 0.351180
-0.126808 -0.019617 0.821703 11 242 237 0.359604
-0.125308 -0.017864 0.823027 7 238 240 0.356435
-0.137091 -0.027932 0.821192 0 138 255 0.258516
-0.139645 -0.028945 0.823319 0 110 255 0.233111
-0.140028 -0.030836 0.820428 0 66 255 0.190276
-0.136779 -0.026137 0.824031 0 130 255 0.252077
-0.135439 -0.024461 0.825250 0 114 255 0.237117
-0.130923 -0.019850 0.827189 0 214 255 0.333532
-0.128617 -0.018410 0.826850 240 254 7 0.640387
-0.126357 -0.016948 0.826501 20 254 228 0.374479
-0.132154 -0.021467 0.826026 0 198 255 0.316427
-0.134994 -0.022599 0.827989 0 150 255 0.269598
-0.133749 -0.020994 0.829171 0 150 255 0.273424
-0.122373 -0.014423 0.825628 0 206 255 0.325921
-0.123847 -0.016150 0.824331 0 226 250 0.346163
-0.157862 -0.026659 0.902627 0 150 255 0.270859
-0.160488 -0.028052 0.899993 0 146 255 0.268280
-0.157400 -0.027753 0.905530 0 146 255 0.267803
-0.160036 -0.029170 0.903056 0 178 255 0.298354
-0.159560 -0.030255 0.905959 0 150 255 0.269876
-0.162678 -0.030690 0.900341 0 146 255 0.267312
-0.156914 -0.028945 0.908280 0 146 255 0.267692
-0.156381 -0.030148 0.911022 0 146 255 0.267152
-0.154357 -0.027655 0.910457 0 142 255 0.264285
-0.154903 -0.026469 0.907725 0 142 255 0.265365
-0.161806 -0.031921 0.903565 0 146 255 0.268568
-0.164044 -0.033820 0.901069 0 146 255 0.267083
-0.160879 -0.033220 0.906668 0 146 255 0.268874
-0.163129 -0.035036 0.904294 0 146 255 0.267581
-0.162184 -0.036327 0.907399 0 146 255 0.268546
-0.165327 -0.037070 0.901712 0 146 255 0.266674
-0.159939 -0.034536 0.909661 0 146 255 0.269442
-0.158997 -0.035952 0.912562 0 146 255 0.267581
-0.157692 -0.032995 0.911783 0 158 255 0.281033
-0.158641 -0.031611 0.908935 0 182 255 0.302150
-0.152388 -0.033522 0.920990 0 154 255 0.274760
-0.153762 -0.032561 0.917461 0 138 255 0.261139
-0.151055 -0.030680 0.920569 0 138 255 0.260239
-0.152501 -0.029755 0.916829 0 106 255 0.229177
-0.155101 -0.031376 0.914166 0 142 255 0.263662
-0.156434 -0.034253 0.914944 0 142 255 0.265391
-0.155151 -0.035416 0.918145 0 142 255 0.263248
-0.149384 -0.027872 0.920377 0 134 255 0.256406
-0.150454 -0.027192 0.916570 0 134 255 0.257020
-0.147447 -0.024981 0.920458 0 74 255 0.198518
-0.151458 -0.026251 0.913129 0 138 255 0.260576
-0.153466 -0.028778 0.913582 0 142 255 0.261744
-0.141582 -0.109482 0.862974 0 142 255 0.262610
-0.139764 -0.111352 0.861046 0 142 255 0.264058
-0.143093 -0.110350 0.858979 0 142 255 0.264372
-0.144880 -0.108507 0.860883 0 138 255 0.259743
-0.141225 -0.112133 0.856944 0 138 255 0.261418
-0.146455 -0.109354 0.856915 0 142 255 0.263728
-0.144520 -0.111092 0.854937 0 142 255 0.263294
-0.147818 -0.110038 0.852985 0 142 255 0.265489
-0.148251 -0.107559 0.858821 0 118 255 0.238529
-0.149789 -0.108296 0.854937 0 142 255 0.264616
-0.151696 -0.106537 0.856814 0 142 255 0.263824
-0.142484 -0.112781 0.852833 0 118 255 0.241098
-0.145745 -0.111659 0.850895 0 142 255 0.264767
-0.143550 -0.113158 0.848709 0 142 255 0.264067
-0.140421 -0.114125 0.850834 0 138 255 0.260185
-0.139287 -0.113685 0.855015 0 98 255 0.220923
-0.137239 -0.115094 0.852982 0 106 255 0.228310
-0.136007 -0.114551 0.857232 0 142 255 0.262121
-0.137918 -0.112987 0.859164 0 142 255 0.263212
-0.133968 -0.116100 0.855227 0 142 255 0.263006
-0.155074 -0.104635 0.854673 0 142 255 0.262418
-0.152465 -0.107310 0.852862 0 142 255 0.264676
-0.155986 -0.105306 0.850707 0 142 255 0.264218
-0.158578 -0.102537 0.852422 0 142 255 0.262345
-0.153167 -0.107932 0.848804 0 146 255 0.265750
-0.159693 -0.103117 0.848433 0 142 255 0.263506
-0.156815 -0.105798 0.846666 0 142 255 0.265232
-0.160784 -0.103384 0.844436 0 142 255 0.264308
-0.162336 -0.100256 0.850067 0 142 255 0.262537
-0.163715 -0.100635 0.846098 0 138 255 0.259011
-0.166359 -0.097847 0.847718 0 138 255 0.261353
-0.153810 -0.108344 0.844724 0 146 255 0.267861
-0.157695 -0.106003 0.842679 0 134 255 0.253948
-0.154375 -0.108548 0.840740 0 150 255 0.270686
-0.151402 -0.109887 0.842701 0 150 255 0.270436
-0.150966 -0.109572 0.846800 0 146 255 0.267037
-0.148647 -0.111061 0.844687 0 146 255 0.267631
-0.148304 -0.110660 0.848847 0 146 255 0.266244
-0.150436 -0.109046 0.850898 0 142 255 0.265547
-0.146049 -0.112122 0.846676 0 142 255 0.265379
-0.142537 -0.114726 0.835930 0 154 255 0.274461
-0.140067 -0.115397 0.837724 0 146 255 0.268729
-0.142967 -0.114278 0.840159 0 146 255 0.268199
-0.137692 -0.116170 0.839584 0 78 255 0.201859
-0.140544 -0.115067 0.842045 0 142 255 0.264493
-0.138157 -0.115913 0.844005 0 142 255 0.263125
-0.135316 -0.116968 0.841526 0 142 255 0.264418
-0.143328 -0.113815 0.844395 0 142 255 0.264149
-0.140929 -0.114627 0.846375 0 142 255 0.262701
-0.145828 -0.112735 0.842464 0 106 255 0.228266
-0.148510 -0.111626 0.840534 0 178 255 0.300476
-0.145529 -0.113210 0.838285 0 150 255 0.272498
-0.148218 -0.112153 0.836468 0 154 255 0.276496
-0.151384 -0.110392 0.838714 0 154 255 0.274470
-0.145132 -0.113784 0.834168 0 154 255 0.277201
-0.132227 -0.118031 0.843645 0 146 255 0.268285
-0.129238 -0.118850 0.845838 0 146 255 0.267463
-0.131899 -0.118066 0.848257 0 146 255 0.265905
-0.126153 -0.119735 0.848079 0 146 255 0.267708
-0.128822 -0.118896 0.850516 0 146 255 0.266739
-0.131370 -0.117757 0.852895 0 142 255 0.265149
-0.134634 -0.116683 0.850634 0 138 255 0.261522
-0.137821 -0.115648 0.848471 0 94 255 0.216653
-0.135063 -0.116946 0.846085 0 142 255 0.263567
-0.166240 -0.090578 0.865742 0 130 255 0.252035
-0.163394 -0.093295 0.865382 20 254 228 0.371737
-0.166164 -0.092120 0.861731 0 126 255 0.249842
-0.160699 -0.096057 0.865073 0 182 255 0.304672
-0.163341 -0.094896 0.861456 0 138 255 0.259648
-0.160597 -0.097610 0.861169 0 142 255 0.262245
-0.166131 -0.093739 0.857953 0 134 255 0.256294
-0.157994 -0.098704 0.864747 0 142 255 0.264502
-0.155272 -0.101200 0.864392 0 142 255 0.264809
-0.155997 -0.099251 0.867939 0 146 255 0.266411
-0.158713 -0.096689 0.868313 0 146 255 0.266012
-0.161437 -0.094007 0.868717 0 142 255 0.264664
-0.156823 -0.097324 0.871716 0 146 255 0.266518
-0.166189 -0.094875 0.855422 0 166 255 0.288880
-0.162584 -0.097124 0.857712 0 138 255 0.259051
-0.162487 -0.098274 0.855231 0 138 255 0.261216
-0.166310 -0.095951 0.852880 0 138 255 0.261171
-0.158956 -0.100405 0.857482 0 214 255 0.334594
-0.162464 -0.099327 0.852702 0 150 255 0.272528
-0.158817 -0.101517 0.854972 0 146 255 0.266208
-0.166375 -0.096947 0.850294 0 138 255 0.260370
-0.155341 -0.103516 0.857217 0 138 255 0.258652
-0.152627 -0.105183 0.858749 0 142 255 0.262952
-0.156231 -0.102182 0.859084 0 94 255 0.216595
-0.153589 -0.103864 0.860600 0 138 255 0.261262
-0.157079 -0.100822 0.860920 0 138 255 0.259612
-0.159786 -0.099024 0.859334 0 146 255 0.266200
-0.154419 -0.102539 0.862456 0 142 255 0.262700
-0.142508 -0.108144 0.864989 0 114 255 0.235030
-0.143691 -0.106698 0.866731 0 146 255 0.269387
-0.146726 -0.105911 0.864806 0 142 255 0.263730
-0.144845 -0.105357 0.868516 0 154 255 0.275347
-0.147840 -0.104504 0.866515 0 150 255 0.269606
-0.148969 -0.103153 0.868288 0 122 255 0.244346
-0.145969 -0.104046 0.870331 0 154 255 0.276593
-0.150990 -0.103665 0.864635 0 138 255 0.260968
-0.152108 -0.102237 0.866337 0 154 255 0.276024
-0.150101 -0.104950 0.862708 0 66 255 0.189979
-0.149160 -0.106228 0.860768 0 178 255 0.298970
-0.145821 -0.107196 0.862844 0 74 255 0.198683
-0.147154 -0.102083 0.873896 0 154 255 0.276593
-0.149861 -0.101381 0.872058 0 154 255 0.273490
-0.151369 -0.099051 0.875450 0 150 255 0.272042
-0.148727 -0.099839 0.877296 0 154 255 0.274302
-0.153327 -0.099435 0.871919 0 150 255 0.269581
-0.161441 -0.030128 0.846551 0 142 255 0.262114
-0.163279 -0.032783 0.844380 0 142 255 0.262575
-0.159645 -0.030900 0.842989 0 138 255 0.260874
-0.161278 -0.033636 0.840992 0 142 255 0.262113
-0.165003 -0.035526 0.842362 0 110 255 0.232256
-0.166643 -0.038409 0.840388 0 142 255 0.265205
-0.168372 -0.037098 0.843857 0 142 255 0.263839
-0.166614 -0.034332 0.845892 0 142 255 0.263518
-0.164699 -0.031692 0.848129 0 158 255 0.280693
-0.169866 -0.035918 0.847477 0 142 255 0.263110
-0.157949 -0.032022 0.839559 0 138 255 0.259715
-0.156698 -0.032500 0.837755 0 134 255 0.256679
-0.159923 -0.035280 0.837619 0 146 255 0.266014
-0.155409 -0.033046 0.835927 0 122 255 0.245294
-0.158488 -0.035925 0.835833 0 186 255 0.304975
-0.157086 -0.036670 0.833992 0 34 255 0.156332
-0.154072 -0.033693 0.834111 0 58 255 0.180854
-0.161638 -0.038835 0.835624 0 146 255 0.267124
-0.160140 -0.039564 0.833844 0 146 255 0.266432
-0.163276 -0.042451 0.833682 0 150 255 0.272895
-0.165067 -0.040286 0.836999 0 146 255 0.267706
-0.163192 -0.036865 0.838992 0 142 255 0.264907
-0.172201 -0.053025 0.834415 0 202 255 0.320903
-0.170892 -0.049320 0.835827 0 150 255 0.272092
-0.173774 -0.051031 0.837931 0 150 255 0.270221
-0.169519 -0.045604 0.837381 0 150 255 0.270396
-0.172487 -0.047362 0.839418 0 146 255 0.268262
-0.171173 -0.043734 0.840816 0 146 255 0.267672
-0.175316 -0.049266 0.841583 0 146 255 0.266886
-0.168171 -0.041917 0.838862 0 146 255 0.267322
-0.166455 -0.044009 0.835456 0 150 255 0.272924
-0.167831 -0.047804 0.833877 0 154 255 0.274711
-0.174259 -0.045780 0.842924 0 146 255 0.266432
-0.176879 -0.047859 0.845000 0 146 255 0.266656
-0.172980 -0.042374 0.844349 0 146 255 0.265798
-0.175672 -0.044432 0.846353 0 146 255 0.266313
-0.174271 -0.041077 0.847821 0 142 255 0.263659
-0.178094 -0.046577 0.848511 0 170 255 0.291137
-0.171553 -0.039062 0.845842 0 142 255 0.263545
-0.169886 -0.040351 0.842340 0 146 255 0.266387
-0.178211 -0.071903 0.856976 0 130 255 0.253083
-0.179037 -0.068729 0.855819 0 134 255 0.255171
-0.179418 -0.066201 0.852921 0 118 255 0.239378
-0.180044 -0.062991 0.851667 0 138 255 0.258118
-0.180078 -0.060455 0.848639 0 138 255 0.260917
-0.180926 -0.059234 0.852231 0 138 255 0.261196
-0.179332 -0.064292 0.848064 0 130 255 0.251522
-0.179212 -0.061690 0.844925 0 142 255 0.263182
-0.178920 -0.067436 0.849189 0 134 255 0.257307
-0.178401 -0.070626 0.850319 0 106 255 0.228995
-0.177977 -0.073144 0.853298 0 134 255 0.255365
-0.177844 -0.074428 0.849477 0 138 255 0.259334
-0.180607 -0.055966 0.851146 0 142 255 0.262539
-0.179461 -0.053414 0.848414 0 146 255 0.268950
-0.178606 -0.050293 0.847543 0 146 255 0.266859
-0.177266 -0.051596 0.844057 0 146 255 0.266180
-0.178312 -0.054637 0.844890 0 146 255 0.266068
-0.179087 -0.057814 0.845809 0 142 255 0.264345
-0.173744 -0.055750 0.834876 0 154 255 0.274434
-0.175781 -0.057758 0.837406 0 150 255 0.269918
-0.176913 -0.060747 0.838152 0 146 255 0.267866
-0.178368 -0.063063 0.840903 0 142 255 0.262838
-0.177276 -0.064714 0.837081 0 146 255 0.267651
-0.178023 -0.059283 0.842070 0 146 255 0.267563
-0.177057 -0.056122 0.841210 0 186 255 0.306723
-0.175918 -0.053056 0.840436 0 150 255 0.269702
-0.177504 -0.067663 0.837975 0 146 255 0.267066
-0.177922 -0.070014 0.841054 0 146 255 0.266064
-0.177811 -0.073067 0.842020 0 146 255 0.265965
-0.177800 -0.075466 0.845106 0 142 255 0.264346
-0.177326 -0.076694 0.840834 0 146 255 0.267442
-0.178120 -0.071918 0.846359 0 142 255 0.262043
-0.178489 -0.068699 0.845203 0 142 255 0.262695
-0.178750 -0.065459 0.844038 0 142 255 0.263429
-0.166137 -0.028699 0.859794 0 134 255 0.255268
-0.168096 -0.030707 0.857770 0 138 255 0.259814
-0.165209 -0.028782 0.856606 0 134 255 0.257518
-0.167085 -0.030755 0.854697 0 138 255 0.260766
-0.170038 -0.032719 0.855861 0 138 255 0.261358
-0.171926 -0.034763 0.853981 0 142 255 0.262344
-0.172525 -0.034512 0.857094 0 142 255 0.263050
-0.170587 -0.032449 0.858999 0 138 255 0.261362
-0.164198 -0.029071 0.853410 0 138 255 0.260194
-0.166106 -0.031359 0.851364 0 142 255 0.262510
-0.162857 -0.029402 0.850084 0 142 255 0.261763
-0.167979 -0.033655 0.849387 0 142 255 0.263019
-0.170971 -0.035338 0.850639 0 138 255 0.261594
-0.169055 -0.033056 0.852646 0 122 255 0.242845
-0.176804 -0.043518 0.849632 0 146 255 0.265751
-0.178824 -0.045810 0.851511 0 146 255 0.266552
-0.175301 -0.040515 0.850981 0 142 255 0.263315
-0.177450 -0.042756 0.852752 0 142 255 0.264301
-0.175863 -0.039795 0.854187 0 142 255 0.263604
-0.179371 -0.045063 0.854634 0 142 255 0.264412
-0.173668 -0.037626 0.852416 0 142 255 0.262451
-0.172638 -0.038171 0.849180 0 110 255 0.231997
-0.177925 -0.042291 0.855920 0 142 255 0.263652
-0.179540 -0.044538 0.857613 0 142 255 0.264474
-0.176411 -0.039595 0.857250 0 142 255 0.263437
-0.178094 -0.041768 0.858918 0 138 255 0.259036
-0.174785 -0.036868 0.858735 0 142 255 0.264414
-0.174257 -0.037158 0.855582 0 142 255 0.263572
-0.176959 -0.075068 0.856175 0 130 255 0.252780
-0.175789 -0.078265 0.855289 0 130 255 0.253670
-0.176775 -0.076391 0.852445 0 134 255 0.257141
-0.175626 -0.079650 0.851512 0 138 255 0.258304
-0.174583 -0.081555 0.854376 0 134 255 0.254244
-0.173392 -0.084908 0.853433 0 134 255 0.257307
-0.173253 -0.083524 0.857381 0 130 255 0.250944
-0.174440 -0.080230 0.858275 0 126 255 0.246810
-0.175621 -0.077027 0.859197 0 122 255 0.244519
-0.173267 -0.082115 0.861196 0 122 255 0.245114
-0.177039 -0.077452 0.848177 0 142 255 0.262394
-0.176295 -0.080435 0.846793 0 142 255 0.264057
-0.176959 -0.078543 0.843786 0 146 255 0.266022
-0.176070 -0.081649 0.842625 0 146 255 0.267492
-0.175506 -0.083512 0.845557 0 142 255 0.265023
-0.174531 -0.086691 0.844402 0 146 255 0.266420
-0.174331 -0.086304 0.846705 0 142 255 0.264090
-0.175106 -0.083191 0.847913 0 142 255 0.262747
-0.174014 -0.085870 0.848952 0 138 255 0.261525
-0.174796 -0.082715 0.850184 0 138 255 0.260176
-0.175951 -0.080058 0.849140 0 138 255 0.261381
-0.173633 -0.085421 0.851240 0 138 255 0.259011
-0.168294 -0.094688 0.849066 0 134 255 0.255924
-0.168106 -0.093751 0.851710 0 138 255 0.258377
-0.170020 -0.091472 0.850483 0 138 255 0.259177
-0.167980 -0.092694 0.854319 0 134 255 0.256429
-0.169793 -0.090418 0.853107 0 134 255 0.255961
-0.169605 -0.089290 0.855747 0 130 255 0.251947
-0.167849 -0.091536 0.856885 0 130 255 0.251040
-0.171682 -0.088196 0.851923 0 138 255 0.259033
-0.171503 -0.087074 0.854594 0 162 255 0.281360
-0.171952 -0.088702 0.849733 0 138 255 0.260217
-0.172238 -0.089151 0.847553 0 142 255 0.262879
-0.170222 -0.091929 0.848302 0 138 255 0.260584
-0.170435 -0.092296 0.846151 0 142 255 0.262893
-0.172512 -0.089481 0.845296 0 146 255 0.265694
-0.168421 -0.095042 0.846900 0 90 255 0.212637
-0.167783 -0.089995 0.860657 0 74 255 0.199138
-0.169625 -0.087829 0.859603 0 122 255 0.243912
-0.169587 -0.086317 0.863467 0 122 255 0.243652
-0.167844 -0.088463 0.864596 0 122 255 0.245707
-0.171389 -0.084963 0.860393 0 126 255 0.247073
-0.126768 -0.037104 0.967167 0 134 255 0.256697
-0.128642 -0.038895 0.963595 0 134 255 0.256257
-0.129545 -0.041617 0.960298 0 134 255 0.256373
-0.131446 -0.039730 0.959824 0 134 255 0.256755
-0.126876 -0.040979 0.963765 0 134 255 0.254931
-0.127723 -0.043647 0.960638 0 134 255 0.255729
-0.125090 -0.039201 0.967143 0 134 255 0.255455
-0.122564 -0.044862 0.963928 0 130 255 0.252849
-0.120988 -0.043291 0.966833 0 106 255 0.226692
-0.123150 -0.041313 0.966973 0 130 255 0.252145
-0.124891 -0.042946 0.963762 0 122 255 0.243119
-0.125397 -0.045457 0.960765 0 138 255 0.258138
-0.153657 -0.062466 0.913805 0 142 255 0.263696
-0.153798 -0.060110 0.915578 0 142 255 0.263878
-0.152927 -0.059096 0.917772 0 142 255 0.263502
-0.152987 -0.056817 0.919393 0 142 255 0.263603
-0.151017 -0.059399 0.920355 0 142 255 0.262399
-0.154989 -0.056538 0.916809 0 142 255 0.263951
-0.155083 -0.054286 0.918427 0 142 255 0.264892
-0.156005 -0.057454 0.914562 0 142 255 0.264198
-0.157055 -0.058388 0.912172 0 142 255 0.264226
-0.156924 -0.060750 0.910349 0 142 255 0.263256
-0.159439 -0.057987 0.909148 0 142 255 0.262117
-0.149908 -0.058313 0.922922 0 138 255 0.259430
-0.149603 -0.056033 0.925035 0 142 255 0.261809
-0.148255 -0.054692 0.927811 0 142 255 0.263896
-0.147590 -0.051879 0.930572 0 178 255 0.299974
-0.145945 -0.054133 0.931567 0 146 255 0.268472
-0.149984 -0.052389 0.926838 0 138 255 0.260608
-0.149278 -0.049645 0.929537 0 138 255 0.261661
-0.151433 -0.053584 0.924086 0 142 255 0.264612
-0.152778 -0.054572 0.921498 0 142 255 0.264253
-0.151289 -0.044622 0.927853 0 142 255 0.262612
-0.153167 -0.045887 0.924529 0 150 255 0.272304
-0.154202 -0.048243 0.922273 0 166 255 0.287614
-0.155792 -0.049048 0.919663 0 146 255 0.267319
-0.156575 -0.051340 0.917508 0 146 255 0.266260
-0.158057 -0.048363 0.916543 0 146 255 0.267200
-0.154378 -0.052001 0.920632 0 146 255 0.265808
-0.152959 -0.050952 0.923175 0 146 255 0.267552
-0.151466 -0.049864 0.925878 0 178 255 0.298324
-0.150273 -0.047106 0.928711 0 138 255 0.260829
-0.159403 -0.049072 0.914293 0 146 255 0.268199
-0.159764 -0.051467 0.912479 0 146 255 0.267896
-0.161076 -0.052225 0.909946 0 158 255 0.281192
-0.161372 -0.054701 0.907942 0 146 255 0.268126
-0.163361 -0.051380 0.906685 0 150 255 0.270997
-0.159163 -0.055538 0.911102 0 146 255 0.265674
-0.157998 -0.054583 0.913560 0 142 255 0.265351
-0.156924 -0.053674 0.915841 0 142 255 0.265563
-0.135690 -0.031483 0.957915 0 138 255 0.259321
-0.133684 -0.029663 0.961886 0 134 255 0.255471
-0.134060 -0.026503 0.961194 0 130 255 0.253114
-0.135973 -0.029349 0.957337 0 138 255 0.260474
-0.136228 -0.027231 0.956884 0 142 255 0.262461
-0.133632 -0.021896 0.960607 0 138 255 0.260753
-0.135857 -0.024924 0.956483 0 158 255 0.277673
-0.134033 -0.024240 0.960858 0 138 255 0.259361
-0.132904 -0.031766 0.962345 0 134 255 0.256304
-0.134874 -0.033514 0.958458 0 130 255 0.253085
-0.134097 -0.035671 0.958913 0 114 255 0.237002
-0.132100 -0.033836 0.962821 0 126 255 0.249967
-0.130068 -0.031915 0.966752 0 134 255 0.257423
-0.130195 -0.036919 0.963326 0 134 255 0.256475
-0.128261 -0.035015 0.967035 0 134 255 0.257143
-0.132746 -0.037667 0.959360 0 134 255 0.255356
-0.149256 -0.042814 0.932023 0 134 255 0.254930
-0.147441 -0.039984 0.935514 0 142 255 0.261953
-0.145515 -0.038397 0.939206 0 138 255 0.261587
-0.143753 -0.035807 0.942312 0 166 255 0.286757
-0.143519 -0.038031 0.943037 0 154 255 0.276549
-0.145800 -0.036191 0.938384 0 138 255 0.261133
-0.144048 -0.033582 0.941578 0 142 255 0.264990
-0.147696 -0.037580 0.934761 0 154 255 0.276632
-0.149657 -0.039075 0.930908 0 142 255 0.261745
-0.151595 -0.042001 0.927093 0 138 255 0.261127
-0.151942 -0.039439 0.926250 0 126 255 0.249619
-0.141632 -0.036476 0.946587 0 138 255 0.260908
-0.139844 -0.033799 0.949954 0 138 255 0.260970
-0.137869 -0.032176 0.953672 0 142 255 0.265006
-0.138174 -0.030055 0.953098 0 142 255 0.265009
-0.140126 -0.031647 0.949310 0 138 255 0.261346
-0.142025 -0.033160 0.945610 0 142 255 0.263423
-0.137782 -0.025500 0.952122 0 142 255 0.262354
-0.139950 -0.028257 0.948423 0 142 255 0.262664
-0.141597 -0.028554 0.944410 0 142 255 0.262658
-0.143622 -0.031200 0.940979 0 154 255 0.275409
-0.142019 -0.030954 0.944944 0 158 255 0.277877
-0.138114 -0.027771 0.952587 0 142 255 0.261976
-0.145357 -0.031392 0.936987 0 138 255 0.260952
-0.147451 -0.033938 0.933649 0 158 255 0.277712
-0.149102 -0.033929 0.929632 0 170 255 0.289566
-0.151428 -0.036708 0.925681 0 138 255 0.259339
-0.149598 -0.036597 0.930196 0 150 255 0.273125
-0.145716 -0.033766 0.937672 0 138 255 0.261220
-0.133351 -0.041459 0.956318 0 138 255 0.257974
-0.134215 -0.043997 0.953386 0 138 255 0.258774
-0.136100 -0.045682 0.950030 0 134 255 0.257435
-0.136927 -0.048235 0.947203 0 126 255 0.246587
-0.139015 -0.046489 0.946220 0 138 255 0.258628
-0.134079 -0.047517 0.950910 0 134 255 0.255296
-0.134901 -0.050112 0.948084 0 90 255 0.212752
-0.132268 -0.045913 0.954021 0 122 255 0.243802
-0.130462 -0.044316 0.957161 0 130 255 0.252377
-0.140815 -0.048155 0.942971 0 142 255 0.263575
-0.141453 -0.050706 0.940291 0 138 255 0.260375
-0.143086 -0.052711 0.936588 0 142 255 0.262866
-0.143655 -0.055835 0.932977 0 186 255 0.306581
-0.140901 -0.054330 0.938020 0 142 255 0.262219
-0.141377 -0.057583 0.934346 0 154 255 0.273589
-0.139321 -0.052492 0.941452 0 126 255 0.247665
-0.137647 -0.050823 0.944561 0 150 255 0.272090
-0.135685 -0.057265 0.940428 0 142 255 0.262430
-0.134118 -0.055594 0.943561 0 138 255 0.259892
-0.133874 -0.053215 0.946064 0 134 255 0.256682
-0.132211 -0.051583 0.948974 0 134 255 0.254400
-0.136878 -0.054125 0.942529 0 126 255 0.249237
-0.138472 -0.055856 0.939219 0 142 255 0.262057
-0.138551 -0.058624 0.936007 0 178 255 0.299998
-0.129187 -0.050871 0.952308 0 134 255 0.256525
-0.127522 -0.049379 0.955114 0 154 255 0.275620
-0.127080 -0.047010 0.957773 0 134 255 0.256079
-0.130000 -0.047656 0.954688 0 118 255 0.238847
-0.131780 -0.049237 0.951616 0 134 255 0.255277
-0.137328 -0.034318 0.954285 0 174 255 0.296711
-0.139297 -0.035968 0.950534 0 138 255 0.260797
-0.140810 -0.038638 0.947286 0 130 255 0.253508
-0.142678 -0.040208 0.943776 0 166 255 0.286476
-0.141871 -0.042373 0.944548 0 142 255 0.263662
-0.139974 -0.040765 0.948004 0 134 255 0.255026
-0.138461 -0.038081 0.951212 0 138 255 0.260283
-0.136497 -0.036370 0.954864 0 142 255 0.264012
-0.144959 -0.040701 0.940009 0 142 255 0.261912
-0.146831 -0.042276 0.936463 0 138 255 0.260508
-0.148301 -0.045237 0.932934 0 138 255 0.260548
-0.147338 -0.047634 0.933804 0 142 255 0.261812
-0.145970 -0.044549 0.937301 0 138 255 0.260899
-0.144128 -0.042883 0.940784 0 142 255 0.262739
-0.144961 -0.050858 0.935448 0 142 255 0.262568
-0.143273 -0.048815 0.939228 0 142 255 0.261832
-0.142246 -0.046053 0.942155 0 178 255 0.297021
-0.140435 -0.044413 0.945372 0 138 255 0.260830
-0.144772 -0.046734 0.938221 0 142 255 0.261754
-0.137839 -0.043817 0.949231 0 138 255 0.258971
-0.135921 -0.042116 0.952622 0 162 255 0.283040
-0.134697 -0.039418 0.955772 0 138 255 0.259032
-0.137337 -0.040134 0.951904 0 138 255 0.261569
-0.146265 -0.056819 0.928899 0 142 255 0.263476
-0.147560 -0.058147 0.926063 0 138 255 0.258419
-0.147573 -0.060305 0.924000 0 78 255 0.199224
-0.148658 -0.061432 0.921407 0 138 255 0.259769
-0.146298 -0.063487 0.922455 0 138 255 0.260383
-0.145237 -0.062323 0.925039 0 122 255 0.244513
-0.145229 -0.060085 0.927200 0 138 255 0.259790
-0.143932 -0.058606 0.930168 0 142 255 0.264988
-0.150638 -0.061450 0.918754 0 142 255 0.264226
-0.151492 -0.062463 0.916578 0 142 255 0.264984
-0.151044 -0.064603 0.914880 0 146 255 0.265874
-0.148558 -0.066733 0.915888 0 146 255 0.266714
-0.149047 -0.064576 0.917616 0 178 255 0.299906
-0.148262 -0.063492 0.919805 0 146 255 0.265847
-0.144023 -0.069081 0.917364 0 146 255 0.265979
-0.144804 -0.067194 0.919119 0 142 255 0.263205
-0.144115 -0.066070 0.921336 0 142 255 0.263859
-0.143405 -0.064982 0.923553 0 142 255 0.262589
-0.140840 -0.064529 0.926833 0 142 255 0.263127
-0.139679 -0.063178 0.929689 0 142 255 0.265016
-0.139852 -0.060826 0.932223 0 174 255 0.296118
-0.142594 -0.061759 0.928372 0 142 255 0.262901
-0.159451 -0.073163 0.898578 4 234 244 0.354656
-0.161941 -0.072812 0.896325 0 154 255 0.277132
-0.158085 -0.075508 0.898233 0 162 255 0.281980
-0.160546 -0.075111 0.896006 0 158 255 0.277939
-0.159174 -0.077434 0.895714 0 154 255 0.276397
-0.163081 -0.074707 0.893697 0 154 255 0.274517
-0.156715 -0.077858 0.897897 0 154 255 0.276979
-0.155359 -0.080241 0.897577 0 154 255 0.275524
-0.154488 -0.078156 0.899944 0 158 255 0.280309
-0.161502 -0.077065 0.893478 0 154 255 0.275047
-0.163910 -0.076573 0.891154 0 154 255 0.273757
-0.159905 -0.079432 0.893304 0 154 255 0.275164
-0.162271 -0.078922 0.890981 0 154 255 0.275485
-0.160631 -0.081271 0.890842 0 154 255 0.275577
-0.164685 -0.078347 0.888641 0 154 255 0.273504
-0.158309 -0.081788 0.893095 0 154 255 0.275088
-0.156689 -0.084145 0.892881 0 154 255 0.273901
-0.156052 -0.082228 0.895229 0 154 255 0.274529
-0.157635 -0.079842 0.895465 0 154 255 0.275554
-0.149618 -0.085704 0.897141 0 154 255 0.273596
-0.151572 -0.083921 0.897282 0 154 255 0.274176
-0.149139 -0.083728 0.899275 0 154 255 0.274309
-0.151024 -0.081898 0.899461 0 154 255 0.276333
-0.153470 -0.082069 0.897459 0 154 255 0.275113
-0.154123 -0.084039 0.895128 0 154 255 0.274121
-0.152180 -0.085842 0.895004 0 154 255 0.273657
-0.148194 -0.080580 0.902570 0 154 255 0.274376
-0.149896 -0.078724 0.902873 0 158 255 0.277485
-0.152356 -0.078960 0.900868 0 206 255 0.326792
-0.162491 -0.048991 0.908800 0 150 255 0.269820
-0.161146 -0.048206 0.911393 0 150 255 0.270293
-0.160211 -0.045914 0.913275 0 170 255 0.289750
-0.158792 -0.045264 0.915533 0 150 255 0.271089
-0.159495 -0.042181 0.914495 0 146 255 0.268158
-0.161004 -0.042575 0.912082 0 150 255 0.269728
-0.162057 -0.044847 0.910194 0 162 255 0.282487
-0.163516 -0.045409 0.907527 0 166 255 0.288682
-0.164475 -0.047818 0.905368 0 150 255 0.272512
-0.165535 -0.044238 0.904027 0 146 255 0.268601
-0.156776 -0.046244 0.918778 0 146 255 0.267111
-0.155103 -0.045488 0.921343 0 146 255 0.267075
-0.153528 -0.043240 0.923755 0 142 255 0.264416
-0.153987 -0.040435 0.922797 0 142 255 0.262027
-0.155612 -0.042625 0.920431 0 142 255 0.265233
-0.157404 -0.043203 0.917727 0 146 255 0.266466
-0.153341 -0.036411 0.921703 0 110 255 0.232602
-0.155550 -0.038385 0.919148 0 142 255 0.263360
-0.157264 -0.037206 0.915829 0 142 255 0.265468
-0.159261 -0.039060 0.913538 0 146 255 0.267345
-0.157581 -0.040273 0.916802 0 142 255 0.262514
-0.160731 -0.037830 0.910665 0 146 255 0.267787
-0.162393 -0.039848 0.908646 0 146 255 0.269060
-0.163850 -0.038426 0.905240 0 158 255 0.279975
-0.165488 -0.040622 0.902888 0 146 255 0.267429
-0.163976 -0.041985 0.906431 0 146 255 0.269521
-0.175919 -0.039550 0.874386 0 114 255 0.237115
-0.176488 -0.041323 0.876204 0 138 255 0.261403
-0.174973 -0.039037 0.877503 0 138 255 0.261710
-0.173491 -0.036769 0.878766 0 142 255 0.262179
-0.175528 -0.040818 0.879289 0 142 255 0.263356
-0.172806 -0.035041 0.876962 0 142 255 0.262126
-0.171221 -0.032843 0.878285 0 142 255 0.262437
-0.174004 -0.038678 0.880576 0 142 255 0.262821
-0.174244 -0.040317 0.882483 0 142 255 0.263084
-0.172439 -0.036581 0.881899 0 138 255 0.261404
-0.172735 -0.038172 0.883828 0 130 255 0.251818
-0.171224 -0.036011 0.885199 0 138 255 0.260970
-0.172944 -0.039775 0.885738 0 142 255 0.262087
-0.170897 -0.034468 0.883234 0 138 255 0.261462
-0.169354 -0.032322 0.884559 0 142 255 0.261987
