ply
format ascii 1.0
comment VCGLIB generated
element vertex 973
property float x
property float y
property float z
property uchar red
property uchar green
property uchar blue
property float quality
end_header
-0.033976 -0.024183 0.760218 255 224 0 0.670220
-0.030585 -0.024621 0.761100 255 228 0 0.667376
-0.037450 -0.023787 0.759424 255 235 0 0.656950
-0.042380 -0.016114 0.770315 255 217 0 0.675939
-0.039050 -0.015901 0.771416 255 220 0 0.674196
-0.039869 -0.014544 0.774224 255 220 0 0.674810
-0.043176 -0.014770 0.773148 255 217 0 0.676342
-0.036672 -0.014347 0.775321 255 220 0 0.672720
-0.040663 -0.013270 0.777143 255 220 0 0.675057
-0.037423 -0.013102 0.778266 255 220 0 0.673304
-0.038140 -0.011937 0.781282 255 220 0 0.672981
-0.044005 -0.013452 0.776038 255 217 0 0.676698
-0.041384 -0.012067 0.780155 255 220 0 0.674991
-0.044776 -0.012213 0.778987 255 217 0 0.676485
-0.034353 -0.012920 0.779332 255 224 0 0.670895
-0.035077 -0.011821 0.782399 255 224 0 0.671027
-0.033345 -0.014411 0.776141 255 224 0 0.671312
-0.032361 -0.016045 0.773098 255 224 0 0.671125
-0.035649 -0.015975 0.772259 255 235 0 0.656403
-0.034492 -0.004148 0.807270 255 217 0 0.679190
-0.032901 -0.005265 0.804341 255 228 0 0.664492
-0.035425 -0.005399 0.803218 255 232 0 0.663096
-0.031346 -0.006296 0.801456 253 239 0 0.653976
-0.033853 -0.006438 0.800363 253 239 0 0.652587
-0.032305 -0.007390 0.797558 247 246 1 0.645392
-0.029821 -0.007258 0.798640 250 243 0 0.649025
-0.036412 -0.006517 0.799246 253 239 0 0.652624
-0.034840 -0.007474 0.796441 237 255 11 0.634411
-0.037499 -0.007525 0.795253 255 232 0 0.660992
-0.039007 -0.006610 0.797979 255 232 0 0.661732
-0.037936 -0.005545 0.801989 255 232 0 0.662737
-0.040521 -0.005646 0.800711 255 228 0 0.666086
-0.039460 -0.004504 0.804800 255 224 0 0.671366
-0.036936 -0.004350 0.806055 255 220 0 0.673727
-0.042070 -0.004616 0.803502 255 224 0 0.671615
-0.028509 -0.008317 0.795775 250 243 0 0.652317
-0.027047 -0.009372 0.792737 255 232 0 0.660760
-0.029635 -0.009453 0.791746 255 232 0 0.660295
-0.025593 -0.010352 0.789658 255 228 0 0.666294
-0.028179 -0.010491 0.788678 255 228 0 0.665772
-0.030833 -0.010531 0.787609 255 228 0 0.666582
-0.033475 -0.010637 0.786387 255 224 0 0.668384
-0.032150 -0.009586 0.790606 255 232 0 0.661143
-0.034787 -0.009645 0.789383 255 228 0 0.665231
-0.033481 -0.008569 0.793545 250 243 0 0.651250
-0.030970 -0.008471 0.794693 250 243 0 0.649727
-0.036120 -0.008624 0.792345 255 232 0 0.660875
-0.045879 -0.011233 0.781778 255 217 0 0.676383
-0.042697 -0.010978 0.783100 255 220 0 0.674806
-0.043804 -0.010035 0.785976 255 220 0 0.674358
-0.046976 -0.010253 0.784633 255 217 0 0.676195
-0.040743 -0.009858 0.787257 255 224 0 0.671539
-0.044949 -0.009064 0.788851 255 220 0 0.673516
-0.041896 -0.008895 0.790134 255 224 0 0.668465
-0.043040 -0.007906 0.792939 228 255 20 0.621331
-0.048078 -0.009263 0.787520 255 217 0 0.675998
-0.046073 -0.008078 0.791710 255 220 0 0.672155
-0.049184 -0.008243 0.790393 255 217 0 0.676019
-0.039011 -0.008708 0.791352 255 228 0 0.665597
-0.040160 -0.007727 0.794165 255 232 0 0.663647
-0.037677 -0.009766 0.788361 255 224 0 0.668158
-0.036377 -0.010800 0.785374 255 224 0 0.670121
-0.039468 -0.010878 0.784231 255 220 0 0.672630
-0.050522 -0.007376 0.793079 255 217 0 0.676532
-0.047555 -0.007142 0.794482 255 220 0 0.674513
-0.048887 -0.006248 0.797139 255 217 0 0.676094
-0.051853 -0.006471 0.795742 255 217 0 0.677041
-0.046029 -0.006012 0.798480 255 220 0 0.673662
-0.050245 -0.005288 0.799781 255 217 0 0.676851
-0.047424 -0.005055 0.801119 255 220 0 0.675154
-0.053156 -0.005525 0.798357 255 217 0 0.677397
-0.044736 -0.004814 0.802416 255 220 0 0.672724
-0.043216 -0.005840 0.799641 255 224 0 0.669651
-0.041691 -0.006807 0.796900 255 228 0 0.666244
-0.044544 -0.006979 0.795724 255 224 0 0.669959
-0.047869 -0.012641 0.778020 255 217 0 0.677457
-0.048926 -0.011715 0.780606 255 217 0 0.677439
-0.051999 -0.012162 0.779709 255 217 0 0.677594
-0.050967 -0.013099 0.777097 255 217 0 0.676113
-0.053050 -0.011212 0.782262 255 217 0 0.677522
-0.055093 -0.012660 0.778718 255 217 0 0.676922
-0.056060 -0.011705 0.781381 255 217 0 0.676604
-0.059095 -0.012227 0.780386 255 220 0 0.674784
-0.054012 -0.013649 0.776222 255 217 0 0.676749
-0.058090 -0.013216 0.777856 255 220 0 0.675190
-0.057065 -0.014214 0.775324 255 220 0 0.675705
-0.057072 -0.010710 0.783961 255 217 0 0.676166
-0.060108 -0.011240 0.783022 255 220 0 0.674735
-0.061115 -0.010229 0.785643 255 220 0 0.674136
-0.058125 -0.009639 0.786793 255 217 0 0.675787
-0.054119 -0.010180 0.785099 255 217 0 0.677232
-0.055170 -0.009127 0.787944 255 217 0 0.676801
-0.051094 -0.009696 0.786294 255 217 0 0.677039
-0.050026 -0.010706 0.783403 255 217 0 0.677278
-0.052131 -0.008659 0.789188 255 217 0 0.676901
-0.059986 -0.015083 0.774645 255 220 0 0.673058
-0.060933 -0.014136 0.776996 255 224 0 0.671036
-0.063821 -0.015039 0.776345 228 255 20 0.622721
-0.062865 -0.016020 0.774025 255 228 0 0.667919
-0.064768 -0.014068 0.778724 255 228 0 0.666417
-0.066690 -0.016006 0.775794 240 254 7 0.637327
-0.067623 -0.015002 0.778107 255 228 0 0.664600
-0.070504 -0.016002 0.777574 255 232 0 0.662055
-0.065704 -0.017004 0.773483 255 228 0 0.666297
-0.069464 -0.017004 0.775313 255 232 0 0.660950
-0.068499 -0.018036 0.773048 255 228 0 0.664800
-0.068645 -0.014012 0.780479 255 228 0 0.666692
-0.071465 -0.014962 0.779907 255 232 0 0.663157
-0.072440 -0.013948 0.782259 255 232 0 0.661156
-0.069693 -0.012931 0.783023 255 228 0 0.666272
-0.065823 -0.013039 0.781242 255 224 0 0.669429
-0.066883 -0.011994 0.783813 255 224 0 0.669221
-0.062995 -0.012116 0.782069 255 220 0 0.672140
-0.061952 -0.013130 0.779515 255 224 0 0.671538
-0.064010 -0.011096 0.784658 255 220 0 0.672207
-0.073354 -0.010325 0.790216 255 235 0 0.658183
-0.070573 -0.009339 0.791215 255 228 0 0.666353
-0.069299 -0.010270 0.788698 255 228 0 0.667136
-0.067725 -0.008428 0.792262 255 224 0 0.670103
-0.066478 -0.009340 0.789774 255 224 0 0.670655
-0.063639 -0.008478 0.790802 255 220 0 0.672941
-0.064821 -0.007569 0.793352 255 220 0 0.672991
-0.065262 -0.010240 0.787147 255 224 0 0.671292
-0.062367 -0.009361 0.788264 255 220 0 0.673543
-0.068092 -0.011125 0.786266 255 224 0 0.668694
-0.070954 -0.012074 0.785448 255 228 0 0.664947
-0.072163 -0.011189 0.787847 255 232 0 0.662210
-0.074919 -0.012170 0.787056 253 239 0 0.653219
-0.073690 -0.013045 0.784682 255 235 0 0.656576
-0.076057 -0.011244 0.789429 195 255 53 0.582425
-0.061857 -0.007014 0.794505 255 220 0 0.674255
-0.058904 -0.006479 0.795767 255 217 0 0.676238
-0.057629 -0.007415 0.793164 255 217 0 0.675955
-0.056018 -0.005970 0.797088 255 217 0 0.677311
-0.054711 -0.006924 0.794467 255 217 0 0.677066
-0.053390 -0.007823 0.791820 255 217 0 0.677026
-0.056384 -0.008276 0.790605 255 217 0 0.676430
-0.059383 -0.008797 0.789418 255 220 0 0.674595
-0.060617 -0.007924 0.791979 255 228 0 0.667904
-0.001141 -0.093191 0.700767 255 220 0 0.672136
0.002166 -0.093455 0.699928 255 224 0 0.671768
0.004267 -0.094908 0.698232 255 224 0 0.671366
0.007542 -0.095281 0.697494 255 224 0 0.670685
0.005241 -0.097705 0.695704 255 224 0 0.671074
0.001828 -0.097248 0.696480 255 220 0 0.672222
-0.000277 -0.095753 0.698122 255 220 0 0.672954
-0.003756 -0.095463 0.698814 255 220 0 0.673342
-0.005945 -0.094197 0.700540 255 220 0 0.673127
-0.008498 -0.096290 0.698850 255 220 0 0.673368
0.012050 -0.094600 0.697440 255 224 0 0.669888
0.015345 -0.095108 0.696402 255 224 0 0.669493
0.013113 -0.097626 0.694574 255 224 0 0.669907
0.009764 -0.097029 0.695564 255 224 0 0.670254
0.011452 -0.105225 0.690314 255 224 0 0.670353
0.008963 -0.103215 0.691957 255 224 0 0.670539
0.005506 -0.102645 0.692984 255 224 0 0.671060
0.003122 -0.100611 0.694559 255 224 0 0.671571
0.001024 -0.103431 0.693385 255 224 0 0.671728
0.007662 -0.099655 0.694182 255 224 0 0.670648
0.011033 -0.100270 0.693099 255 224 0 0.670199
-0.002508 -0.102865 0.694370 255 220 0 0.672506
-0.004861 -0.101034 0.695720 255 220 0 0.673390
-0.008407 -0.100617 0.696476 255 220 0 0.672591
-0.010805 -0.098920 0.697774 255 220 0 0.672705
-0.013112 -0.101523 0.696722 255 220 0 0.672556
-0.006088 -0.097986 0.697465 255 220 0 0.673649
-0.002648 -0.098336 0.696716 255 198 0 0.696427
-0.000302 -0.100131 0.695386 255 220 0 0.673506
0.011328 -0.111472 0.688251 255 224 0 0.670527
0.009893 -0.114319 0.688257 255 224 0 0.670681
0.008465 -0.117109 0.688148 255 224 0 0.671309
0.005541 -0.128130 0.689912 255 220 0 0.673205
0.001342 -0.127846 0.690940 255 220 0 0.673173
-0.002337 -0.126151 0.691687 255 220 0 0.672923
-0.006335 -0.125880 0.692604 255 220 0 0.672939
-0.009936 -0.124113 0.693262 255 220 0 0.672750
-0.010697 -0.127022 0.693726 255 220 0 0.673153
-0.005586 -0.122998 0.692139 255 220 0 0.672457
-0.009191 -0.121218 0.692783 255 220 0 0.672250
-0.001691 -0.123407 0.691158 255 220 0 0.672451
0.002225 -0.123829 0.690185 255 220 0 0.672511
0.005980 -0.125523 0.689411 255 220 0 0.672759
0.006475 -0.122865 0.688775 255 220 0 0.672355
-0.014650 -0.126615 0.694469 255 220 0 0.673255
-0.018094 -0.124617 0.695073 255 220 0 0.673529
-0.022029 -0.124125 0.695843 255 220 0 0.674281
-0.025471 -0.121969 0.696438 255 220 0 0.673985
-0.026660 -0.125073 0.696754 255 220 0 0.674387
-0.021021 -0.121016 0.695508 255 220 0 0.673576
-0.024402 -0.118920 0.696058 255 220 0 0.673714
-0.017200 -0.121592 0.694679 255 220 0 0.674008
-0.013412 -0.122148 0.693867 255 220 0 0.672827
-0.021284 -0.112688 0.695732 255 220 0 0.673411
-0.017653 -0.113333 0.694897 255 220 0 0.672627
-0.014674 -0.115472 0.694186 255 220 0 0.672952
-0.010980 -0.116086 0.693301 255 224 0 0.671744
-0.007893 -0.118166 0.692564 255 224 0 0.671721
-0.006572 -0.115032 0.692258 255 224 0 0.671562
-0.012254 -0.119146 0.693557 255 220 0 0.672556
-0.016079 -0.118559 0.694388 255 202 0 0.691419
-0.019828 -0.117973 0.695224 255 220 0 0.673661
-0.022823 -0.115802 0.695972 255 220 0 0.673482
-0.002818 -0.115582 0.691242 255 224 0 0.671389
0.000416 -0.117564 0.690388 255 224 0 0.668078
0.004175 -0.118086 0.689369 255 224 0 0.671553
0.007488 -0.120027 0.688484 255 224 0 0.671744
0.003146 -0.120984 0.689728 255 220 0 0.672011
-0.000778 -0.120552 0.690712 255 224 0 0.671805
-0.004684 -0.120132 0.691711 255 220 0 0.671960
-0.016708 -0.101048 0.697325 255 220 0 0.672766
-0.019014 -0.099383 0.698410 255 220 0 0.672851
-0.022755 -0.098993 0.699083 255 220 0 0.673021
-0.025167 -0.097421 0.700413 255 220 0 0.672907
-0.027697 -0.099648 0.699571 255 220 0 0.673629
-0.020135 -0.096580 0.700119 255 220 0 0.672789
-0.022643 -0.095086 0.701525 255 220 0 0.672700
-0.016585 -0.096947 0.699468 255 220 0 0.673148
-0.013076 -0.097251 0.698868 255 220 0 0.673375
-0.030611 -0.099138 0.700132 255 220 0 0.673535
-0.032093 -0.097643 0.701202 255 220 0 0.673310
-0.034916 -0.097337 0.701793 255 220 0 0.673586
-0.032307 -0.095317 0.703197 255 220 0 0.673357
-0.029557 -0.095519 0.702412 255 220 0 0.673102
-0.026780 -0.095911 0.701729 255 220 0 0.672885
-0.025520 -0.092800 0.704854 255 220 0 0.672709
-0.022717 -0.092970 0.703974 255 220 0 0.672571
-0.019889 -0.093173 0.703207 255 220 0 0.672591
-0.029789 -0.093597 0.704950 255 220 0 0.673212
-0.014875 -0.092265 0.703333 255 220 0 0.673197
-0.011495 -0.092581 0.702588 255 220 0 0.673974
-0.009310 -0.093947 0.701122 255 209 0 0.685099
-0.014039 -0.094588 0.700837 255 209 0 0.684569
-0.017624 -0.094324 0.701532 255 220 0 0.673081
-0.024938 -0.112017 0.696405 255 220 0 0.674135
-0.027712 -0.109852 0.697278 255 220 0 0.674362
-0.031431 -0.109059 0.697813 255 220 0 0.674755
-0.034027 -0.107057 0.698350 255 220 0 0.675373
-0.035965 -0.109619 0.698018 255 220 0 0.675486
-0.029456 -0.106398 0.697943 255 220 0 0.675113
-0.032093 -0.104421 0.698478 255 220 0 0.674710
-0.025705 -0.107182 0.697245 255 220 0 0.674537
-0.022065 -0.107850 0.696527 255 220 0 0.673602
-0.019393 -0.109861 0.695839 255 220 0 0.673075
-0.017475 -0.106949 0.695825 255 220 0 0.672824
-0.038819 -0.108928 0.698149 255 220 0 0.675413
-0.040622 -0.107036 0.698583 255 220 0 0.675383
-0.043485 -0.106370 0.698786 255 220 0 0.675680
-0.045435 -0.104467 0.699300 255 217 0 0.675810
-0.047480 -0.106932 0.698792 255 217 0 0.676307
-0.041523 -0.103953 0.699253 255 220 0 0.675231
-0.043462 -0.102102 0.699788 255 220 0 0.675354
-0.038733 -0.104546 0.699005 255 220 0 0.675292
-0.035950 -0.105143 0.698762 255 209 0 0.684097
-0.037244 -0.099380 0.700734 255 220 0 0.673528
-0.034513 -0.099878 0.700274 255 220 0 0.673714
-0.032748 -0.101510 0.699493 255 220 0 0.673979
-0.029879 -0.102086 0.699025 255 220 0 0.674522
-0.036671 -0.102160 0.699528 255 220 0 0.674734
-0.039469 -0.101594 0.699850 255 220 0 0.674619
-0.041178 -0.099982 0.700723 255 220 0 0.674573
-0.025084 -0.101434 0.698485 255 220 0 0.674142
-0.021403 -0.101979 0.697767 255 220 0 0.673119
-0.018880 -0.103796 0.696909 255 220 0 0.673037
-0.015310 -0.104296 0.696321 255 220 0 0.672631
-0.023580 -0.104538 0.697375 255 220 0 0.674100
-0.027328 -0.103899 0.698135 255 206 0 0.691185
-0.010639 -0.103367 0.695812 255 220 0 0.672307
-0.007077 -0.103858 0.694941 255 220 0 0.672175
-0.004566 -0.105801 0.693856 255 220 0 0.672003
-0.000963 -0.106223 0.692952 255 224 0 0.671752
-0.002992 -0.109108 0.692410 255 224 0 0.671668
-0.006682 -0.108626 0.693316 255 224 0 0.671787
-0.009207 -0.106672 0.694423 255 224 0 0.671853
-0.012819 -0.106171 0.695300 255 220 0 0.672304
0.003543 -0.105454 0.692229 255 224 0 0.671256
0.007032 -0.106027 0.691187 255 224 0 0.670775
0.009626 -0.108053 0.689889 255 224 0 0.670560
0.007762 -0.110878 0.689293 255 224 0 0.670745
0.005184 -0.108827 0.690602 255 224 0 0.670926
0.001567 -0.108243 0.691677 255 224 0 0.671380
0.005514 -0.115175 0.689253 255 220 0 0.673700
0.001822 -0.114640 0.690249 255 224 0 0.671181
-0.001077 -0.112687 0.691370 255 224 0 0.671391
-0.004775 -0.112128 0.692345 255 224 0 0.671535
0.003442 -0.111733 0.690359 255 224 0 0.671277
-0.009363 -0.113019 0.693238 255 224 0 0.671449
-0.013106 -0.112489 0.694114 255 224 0 0.671621
-0.015770 -0.110454 0.694991 255 220 0 0.672290
-0.011228 -0.109539 0.694205 255 224 0 0.671607
-0.072683 -0.096206 0.705015 255 213 0 0.680034
-0.075708 -0.097049 0.705470 255 217 0 0.679294
-0.075930 -0.099320 0.704613 255 217 0 0.679435
-0.078725 -0.097887 0.705835 255 217 0 0.678580
-0.079013 -0.100210 0.705019 255 217 0 0.678820
-0.082083 -0.101080 0.705286 255 217 0 0.678131
-0.079244 -0.102537 0.704243 255 217 0 0.679083
-0.081823 -0.098678 0.706081 255 217 0 0.677190
-0.084833 -0.099583 0.706333 255 217 0 0.676146
-0.081216 -0.096160 0.706875 255 217 0 0.676918
-0.078082 -0.095420 0.706637 255 217 0 0.678241
-0.075087 -0.094618 0.706252 255 217 0 0.679329
-0.077447 -0.093040 0.707565 255 217 0 0.677730
-0.082010 -0.103932 0.704994 255 217 0 0.678325
-0.081497 -0.106573 0.704648 255 217 0 0.678437
-0.084717 -0.105358 0.705736 255 217 0 0.677504
-0.084236 -0.108005 0.705426 255 217 0 0.677256
-0.086862 -0.109483 0.706207 255 220 0 0.674354
-0.083682 -0.110684 0.705199 255 217 0 0.676312
-0.087410 -0.106805 0.706469 255 217 0 0.676171
-0.090018 -0.108320 0.707209 255 220 0 0.674667
-0.087596 -0.103872 0.706609 255 217 0 0.676606
-0.084859 -0.102461 0.705990 255 217 0 0.677348
-0.095915 -0.105702 0.709536 255 220 0 0.674244
-0.094649 -0.103303 0.709337 255 220 0 0.674630
-0.091891 -0.101762 0.708583 255 220 0 0.675307
-0.090447 -0.099429 0.708431 255 220 0 0.675331
-0.087477 -0.097986 0.707719 255 220 0 0.675079
-0.090116 -0.096305 0.708999 255 220 0 0.674770
-0.087748 -0.101052 0.707129 255 217 0 0.676265
-0.090345 -0.105440 0.707521 255 220 0 0.675622
-0.093045 -0.107050 0.708414 255 220 0 0.674980
-0.088054 -0.094512 0.709435 255 220 0 0.674533
-0.084913 -0.093673 0.709086 255 220 0 0.674107
-0.082864 -0.092020 0.709524 255 220 0 0.673245
-0.079715 -0.091249 0.709141 255 228 0 0.664489
-0.081932 -0.089435 0.710653 253 239 0 0.654530
-0.080614 -0.093775 0.707978 255 217 0 0.675979
-0.084377 -0.097056 0.707338 255 235 0 0.659139
-0.079657 -0.088231 0.711483 255 228 0 0.665180
-0.076484 -0.088025 0.711495 255 220 0 0.673639
-0.074307 -0.086895 0.712304 255 235 0 0.657955
-0.071151 -0.086635 0.712199 255 217 0 0.678892
-0.073098 -0.084840 0.713941 255 217 0 0.677628
-0.072283 -0.088695 0.710546 255 217 0 0.678136
-0.069190 -0.088414 0.710401 255 213 0 0.680160
-0.073231 -0.090647 0.708956 255 220 0 0.673632
-0.076466 -0.090958 0.709079 255 217 0 0.676687
-0.070835 -0.084041 0.714997 255 213 0 0.680311
-0.067721 -0.084216 0.715141 255 213 0 0.682275
-0.065637 -0.083435 0.716205 255 209 0 0.684126
-0.063908 -0.085237 0.714300 255 213 0 0.682342
-0.065021 -0.086860 0.712383 255 213 0 0.681572
-0.068070 -0.086812 0.712384 255 213 0 0.680873
-0.060041 -0.088506 0.710988 255 224 0 0.669512
-0.060829 -0.090016 0.709213 255 213 0 0.680186
-0.063015 -0.088501 0.710858 255 213 0 0.680999
-0.063893 -0.090071 0.709058 255 213 0 0.681058
-0.067025 -0.090042 0.708913 255 213 0 0.680714
-0.064855 -0.091591 0.707411 255 213 0 0.680774
-0.066110 -0.088463 0.710651 255 213 0 0.681048
-0.062000 -0.086925 0.712618 255 213 0 0.681269
-0.068012 -0.091960 0.707590 255 213 0 0.680447
-0.068704 -0.093815 0.706177 255 213 0 0.680380
-0.071064 -0.092297 0.707584 255 217 0 0.679672
-0.071917 -0.094228 0.706282 255 213 0 0.680140
-0.074308 -0.092655 0.707595 255 217 0 0.678883
-0.070091 -0.090309 0.708941 255 213 0 0.679722
-0.050011 -0.096648 0.703185 255 217 0 0.677259
-0.049362 -0.098679 0.701673 255 217 0 0.677168
-0.052032 -0.099036 0.701503 255 217 0 0.677521
-0.052846 -0.096860 0.702956 255 217 0 0.677769
-0.055842 -0.097136 0.702773 255 217 0 0.678268
-0.044313 -0.098860 0.701460 255 220 0 0.675504
-0.046999 -0.100901 0.700382 255 217 0 0.676303
-0.050257 -0.104493 0.699580 255 217 0 0.676922
-0.053312 -0.102000 0.700529 255 217 0 0.677042
-0.053678 -0.105028 0.699526 255 217 0 0.677434
-0.049911 -0.101489 0.700499 255 217 0 0.677056
-0.057410 -0.103722 0.700169 255 217 0 0.678365
-0.055827 -0.100702 0.701214 255 232 0 0.663844
-0.058930 -0.101246 0.701201 255 209 0 0.684839
-0.062212 -0.101747 0.701184 255 228 0 0.667932
-0.069583 -0.095748 0.705055 255 213 0 0.680220
-0.065640 -0.093429 0.706142 255 213 0 0.680434
-0.061552 -0.093788 0.705472 255 220 0 0.675725
-0.062264 -0.095558 0.704312 255 213 0 0.679819
-0.065222 -0.096012 0.704431 255 213 0 0.679862
-0.065847 -0.097841 0.703373 255 220 0 0.675727
-0.068973 -0.098324 0.703444 255 213 0 0.679946
-0.061833 -0.091540 0.707662 255 213 0 0.680486
-0.057963 -0.089957 0.709359 255 213 0 0.679960
-0.054993 -0.092011 0.707295 255 217 0 0.678585
-0.057813 -0.092140 0.707102 255 213 0 0.679734
-0.058580 -0.093598 0.705592 255 217 0 0.679406
-0.052003 -0.093997 0.705498 255 217 0 0.677128
-0.054724 -0.094117 0.705229 255 224 0 0.668588
-0.058683 -0.097588 0.702829 255 217 0 0.679200
-0.061605 -0.098081 0.702862 255 213 0 0.679727
-0.064903 -0.100402 0.702068 255 217 0 0.679544
-0.068524 -0.072299 0.725712 255 213 0 0.679764
-0.065784 -0.071677 0.726697 255 213 0 0.679768
-0.063019 -0.072236 0.726823 255 206 0 0.687953
-0.060345 -0.071577 0.727743 255 217 0 0.676782
-0.057624 -0.072132 0.727818 255 220 0 0.674657
-0.057749 -0.069399 0.729171 255 220 0 0.674122
-0.060126 -0.074113 0.726202 255 217 0 0.676705
-0.057403 -0.074684 0.726209 255 220 0 0.673410
-0.062499 -0.074834 0.725190 255 217 0 0.679034
-0.064889 -0.075494 0.724115 255 213 0 0.680248
-0.067720 -0.074915 0.723950 255 213 0 0.680937
-0.066828 -0.077361 0.722009 255 213 0 0.682805
-0.055006 -0.069131 0.730259 255 224 0 0.671247
-0.052495 -0.070114 0.730689 255 224 0 0.668678
-0.049829 -0.069883 0.731695 255 228 0 0.665862
-0.050157 -0.072499 0.730498 255 228 0 0.664072
-0.052676 -0.072849 0.729445 255 224 0 0.668684
-0.055060 -0.073137 0.728250 255 224 0 0.671721
-0.052321 -0.076615 0.727178 255 224 0 0.670444
-0.054534 -0.076888 0.725960 255 224 0 0.671037
-0.056720 -0.077050 0.724620 255 232 0 0.663530
-0.050074 -0.075129 0.729081 255 228 0 0.667592
-0.058619 -0.078809 0.722623 255 220 0 0.675717
-0.060727 -0.079566 0.721576 255 217 0 0.678344
-0.063464 -0.079006 0.721344 255 213 0 0.680570
-0.065664 -0.079611 0.720226 255 209 0 0.683669
-0.061735 -0.077244 0.723407 255 217 0 0.678162
-0.059352 -0.076647 0.724494 255 217 0 0.675797
-0.067221 -0.081495 0.718201 255 209 0 0.684254
-0.069467 -0.082270 0.717143 255 213 0 0.682698
-0.072554 -0.081978 0.717086 255 217 0 0.679476
-0.074856 -0.082813 0.716039 255 217 0 0.676919
-0.076399 -0.080646 0.718029 255 220 0 0.673568
-0.073960 -0.079865 0.719017 255 224 0 0.668281
-0.070953 -0.080141 0.719117 255 213 0 0.682210
-0.068588 -0.079315 0.720113 255 187 0 0.708010
-0.076264 -0.084977 0.714218 255 220 0 0.673639
-0.078454 -0.086146 0.713383 250 243 0 0.650715
-0.081717 -0.086264 0.713540 247 246 1 0.648140
-0.083967 -0.087458 0.712722 255 224 0 0.670308
-0.085833 -0.085410 0.714739 255 224 0 0.671074
-0.083399 -0.084243 0.715615 255 220 0 0.675566
-0.080269 -0.084094 0.715424 255 224 0 0.670680
-0.077922 -0.082918 0.716269 255 228 0 0.667356
-0.089829 -0.081073 0.719581 211 255 36 0.601787
-0.087166 -0.079795 0.720327 255 232 0 0.660978
-0.083912 -0.079723 0.720028 255 228 0 0.666235
-0.081251 -0.078554 0.720786 255 228 0 0.665903
-0.077969 -0.078416 0.720351 240 254 7 0.639800
-0.079458 -0.076027 0.722501 244 250 4 0.642944
-0.079785 -0.080741 0.718511 255 228 0 0.664185
-0.082083 -0.081966 0.717704 255 224 0 0.668841
-0.085472 -0.082084 0.718099 244 250 4 0.644132
-0.087903 -0.083253 0.717147 255 228 0 0.664669
-0.076662 -0.075105 0.723311 255 224 0 0.671524
-0.073554 -0.075426 0.723220 255 217 0 0.677007
-0.070821 -0.074541 0.724054 255 217 0 0.679479
-0.069993 -0.077011 0.722177 255 213 0 0.681893
-0.072387 -0.077862 0.721221 255 217 0 0.679372
-0.075550 -0.077490 0.721276 255 220 0 0.672452
-0.031918 -0.069515 0.740611 255 224 0 0.671197
-0.036075 -0.066917 0.738041 255 224 0 0.671802
-0.033505 -0.067111 0.739768 255 220 0 0.672220
-0.029296 -0.069851 0.742083 255 220 0 0.672223
-0.041236 -0.066305 0.736257 255 224 0 0.669746
-0.043439 -0.064780 0.735642 255 220 0 0.673871
-0.045916 -0.064516 0.734576 255 194 0 0.702041
-0.038172 -0.065584 0.737654 255 224 0 0.671162
-0.043791 -0.058666 0.737228 255 224 0 0.670748
-0.041004 -0.059321 0.738365 255 224 0 0.668135
-0.038853 -0.060873 0.738817 255 224 0 0.668949
-0.036122 -0.061419 0.739750 255 228 0 0.667915
-0.034005 -0.062910 0.740038 255 228 0 0.667229
-0.044670 -0.060927 0.736106 255 220 0 0.674052
-0.030814 -0.062607 0.742562 255 235 0 0.658988
-0.029272 -0.064935 0.743258 255 235 0 0.660026
-0.027087 -0.066318 0.744214 255 235 0 0.658652
-0.024864 -0.042644 0.754319 172 255 75 0.555724
-0.022912 -0.044517 0.755220 202 255 46 0.591498
-0.022096 -0.047273 0.754871 192 255 56 0.580303
-0.020009 -0.049033 0.755426 202 255 46 0.591571
-0.022350 -0.050853 0.753251 185 255 62 0.573334
-0.024649 -0.049517 0.752617 36 255 211 0.390896
-0.025493 -0.046774 0.752944 182 255 66 0.568283
-0.027704 -0.045275 0.752028 130 255 117 0.504717
-0.028457 -0.042465 0.752186 221 255 27 0.615391
-0.031406 -0.045171 0.749920 69 255 179 0.431543
-0.017162 -0.050368 0.757410 211 255 36 0.602688
-0.015521 -0.052905 0.758083 221 255 27 0.616559
-0.014819 -0.055781 0.757667 202 255 46 0.592895
-0.012979 -0.058139 0.757981 182 255 66 0.567290
-0.014904 -0.059059 0.755965 169 255 79 0.551779
-0.016913 -0.057158 0.755595 176 255 72 0.560641
-0.017680 -0.054265 0.756119 198 255 49 0.587519
-0.019493 -0.052144 0.755375 189 255 59 0.576102
-0.020500 -0.059801 0.751690 176 255 72 0.562100
-0.021530 -0.057207 0.752049 185 255 62 0.571091
-0.023628 -0.055395 0.751150 192 255 56 0.581528
-0.024489 -0.052679 0.751169 198 255 49 0.587322
-0.026691 -0.054519 0.748972 218 255 30 0.611805
-0.021527 -0.053579 0.753362 185 255 62 0.572082
-0.019711 -0.055707 0.754117 176 255 72 0.561244
-0.018635 -0.058298 0.753771 160 255 88 0.539859
-0.016588 -0.060194 0.754123 179 255 69 0.565895
-0.029190 -0.053583 0.748329 211 255 36 0.604984
-0.030411 -0.051243 0.748626 215 255 33 0.606712
-0.032929 -0.050229 0.747784 221 255 27 0.616682
-0.034154 -0.047815 0.747879 228 255 20 0.621818
-0.036837 -0.050552 0.745762 237 255 11 0.634517
-0.030265 -0.047576 0.749852 202 255 46 0.590566
-0.028012 -0.049007 0.750720 195 255 53 0.585620
-0.026816 -0.051346 0.750472 198 255 49 0.588515
-0.038246 -0.025127 0.757584 255 220 0 0.672429
-0.034728 -0.025501 0.758521 255 224 0 0.670663
-0.035533 -0.026833 0.756767 255 224 0 0.671629
-0.031368 -0.025933 0.759441 240 254 7 0.638264
-0.032149 -0.027293 0.757771 255 228 0 0.667421
-0.028901 -0.027791 0.758730 255 228 0 0.667755
-0.028127 -0.026441 0.760283 255 224 0 0.668087
-0.032930 -0.028694 0.756109 255 224 0 0.669526
-0.029666 -0.029187 0.757163 255 224 0 0.668171
-0.030475 -0.030598 0.755606 255 228 0 0.667284
-0.036920 -0.029654 0.753782 255 224 0 0.671350
-0.039595 -0.027865 0.754441 255 220 0 0.673169
-0.042388 -0.026157 0.755292 255 220 0 0.675413
-0.043774 -0.028934 0.752359 255 220 0 0.675155
-0.025362 -0.027650 0.761147 255 228 0 0.666975
-0.021857 -0.028879 0.762310 255 228 0 0.665593
-0.023484 -0.030290 0.760467 255 228 0 0.664084
-0.018485 -0.030024 0.763275 255 217 0 0.678469
-0.020092 -0.031505 0.761670 255 232 0 0.663957
-0.021713 -0.032957 0.759988 255 232 0 0.661265
-0.022513 -0.034376 0.758640 255 235 0 0.658710
-0.024258 -0.031701 0.759125 255 232 0 0.663083
-0.025050 -0.033121 0.757673 255 232 0 0.661157
-0.026892 -0.030421 0.758130 255 228 0 0.665843
-0.026126 -0.029023 0.759655 255 228 0 0.666345
-0.027696 -0.031843 0.756671 255 228 0 0.664230
-0.028041 -0.038748 0.753489 215 255 33 0.608415
-0.029293 -0.036435 0.753819 250 243 0 0.650883
-0.031940 -0.035350 0.752712 255 235 0 0.660039
-0.033312 -0.033084 0.753009 255 228 0 0.665550
-0.036112 -0.035585 0.750360 255 228 0 0.666011
-0.025305 -0.036418 0.756073 250 243 0 0.650431
-0.039204 -0.035233 0.749620 255 224 0 0.669712
-0.041094 -0.033545 0.750054 255 224 0 0.671767
-0.044336 -0.033297 0.749390 255 220 0 0.673744
-0.046315 -0.031712 0.750012 255 220 0 0.674971
-0.048835 -0.034584 0.747792 255 220 0 0.674222
-0.041749 -0.030519 0.751673 255 220 0 0.673622
-0.035041 -0.031323 0.753283 255 224 0 0.668918
-0.049419 -0.067096 0.732813 255 224 0 0.668814
-0.052161 -0.067464 0.731901 255 224 0 0.669332
-0.054722 -0.066430 0.731573 255 220 0 0.672292
-0.057460 -0.066686 0.730490 255 220 0 0.674123
-0.057080 -0.063975 0.731737 255 220 0 0.675583
-0.054177 -0.063901 0.732705 255 217 0 0.675988
-0.051629 -0.064954 0.733057 255 224 0 0.671495
-0.048458 -0.063560 0.734326 255 220 0 0.674580
-0.060653 -0.068709 0.729238 255 217 0 0.676083
-0.063338 -0.069464 0.728408 255 217 0 0.678083
-0.066329 -0.068687 0.728416 255 220 0 0.675142
-0.069016 -0.069436 0.727480 255 217 0 0.678573
-0.069367 -0.066564 0.729088 255 217 0 0.677114
-0.066319 -0.065971 0.729846 255 224 0 0.668015
-0.063387 -0.066562 0.729808 255 220 0 0.674181
-0.060363 -0.065967 0.730508 255 217 0 0.675824
-0.068950 -0.060642 0.732443 255 220 0 0.675237
-0.065700 -0.060149 0.732965 255 217 0 0.676868
-0.062750 -0.060865 0.732774 255 217 0 0.677163
-0.059447 -0.060385 0.733259 255 220 0 0.675654
-0.056478 -0.061252 0.733061 255 217 0 0.676297
-0.055839 -0.058558 0.734398 255 217 0 0.676414
-0.060067 -0.063049 0.731861 255 217 0 0.676706
-0.063158 -0.063717 0.731230 255 217 0 0.677213
-0.066114 -0.062934 0.731476 255 217 0 0.677073
-0.069176 -0.063656 0.730835 255 217 0 0.675970
-0.052803 -0.058597 0.735223 255 220 0 0.675493
-0.050226 -0.059751 0.735380 255 220 0 0.674098
-0.047254 -0.059820 0.736075 255 220 0 0.673682
-0.050986 -0.062293 0.734158 255 220 0 0.673556
-0.053573 -0.061046 0.733939 255 220 0 0.674871
-0.047259 -0.036338 0.747331 255 220 0 0.673763
-0.044026 -0.036517 0.747814 255 220 0 0.673009
-0.045721 -0.038137 0.746908 255 228 0 0.667370
-0.040890 -0.036798 0.748586 255 224 0 0.670155
-0.042555 -0.038405 0.747599 255 213 0 0.682972
-0.039481 -0.038734 0.748342 255 228 0 0.665306
-0.037795 -0.037119 0.749330 255 228 0 0.666523
-0.044246 -0.039973 0.746555 255 224 0 0.670436
-0.041125 -0.040328 0.747301 255 232 0 0.663247
-0.042777 -0.041849 0.746186 255 228 0 0.664251
-0.045923 -0.041696 0.745553 255 224 0 0.670141
-0.047436 -0.039879 0.745961 255 220 0 0.672543
-0.049152 -0.041577 0.744998 255 220 0 0.673159
-0.050647 -0.039834 0.745481 255 220 0 0.673558
-0.048947 -0.038072 0.746397 255 220 0 0.673802
-0.052204 -0.038108 0.745999 255 232 0 0.660255
-0.052293 -0.041555 0.744545 255 220 0 0.674436
-0.053830 -0.039838 0.745107 255 220 0 0.674227
-0.055422 -0.041573 0.744085 255 220 0 0.675231
-0.050551 -0.036336 0.746903 255 220 0 0.673690
-0.034988 -0.038001 0.750416 255 235 0 0.659245
-0.032248 -0.039059 0.751499 247 246 1 0.647670
-0.031151 -0.041434 0.751391 231 255 17 0.627861
-0.034165 -0.044383 0.749106 224 255 24 0.619107
-0.035399 -0.041970 0.749281 244 250 4 0.643480
-0.036948 -0.043557 0.748205 244 250 4 0.640908
-0.038247 -0.041141 0.748334 253 239 0 0.653028
-0.036626 -0.039588 0.749407 255 235 0 0.657835
-0.039824 -0.042675 0.747209 208 255 40 0.598142
-0.039832 -0.049999 0.744970 247 246 1 0.647076
-0.041349 -0.047799 0.745135 250 243 0 0.650432
-0.044373 -0.047218 0.744175 255 232 0 0.661215
-0.045917 -0.045038 0.744307 255 228 0 0.666947
-0.048856 -0.048303 0.742226 255 224 0 0.670064
-0.036913 -0.047033 0.747045 237 255 11 0.635806
-0.052071 -0.048332 0.741698 255 220 0 0.673549
-0.050497 -0.046507 0.742608 255 220 0 0.672373
-0.053682 -0.046551 0.742109 255 224 0 0.670180
-0.055208 -0.048328 0.741082 255 220 0 0.675328
-0.052100 -0.044774 0.743042 255 220 0 0.673902
-0.056876 -0.046657 0.741587 255 217 0 0.675988
-0.055340 -0.044867 0.742576 255 220 0 0.675372
-0.058472 -0.045083 0.742175 255 217 0 0.675846
-0.058363 -0.048431 0.740651 255 217 0 0.676125
-0.060020 -0.046808 0.741169 255 220 0 0.675610
-0.061569 -0.048522 0.740133 255 220 0 0.674988
-0.057004 -0.043336 0.743202 255 220 0 0.675631
-0.089018 -0.027755 0.772642 255 209 0 0.686552
-0.087536 -0.025485 0.774555 255 220 0 0.673752
-0.090503 -0.025640 0.775916 255 217 0 0.679455
-0.086031 -0.023231 0.776477 255 232 0 0.662860
-0.089015 -0.023441 0.777892 255 224 0 0.670370
-0.087477 -0.021264 0.779900 255 235 0 0.659293
-0.091942 -0.023595 0.779239 255 220 0 0.674452
-0.084493 -0.021017 0.778419 253 239 0 0.654543
-0.082903 -0.018807 0.780416 247 246 1 0.647956
-0.081176 -0.020931 0.776413 253 239 0 0.653888
-0.082702 -0.023208 0.774550 255 235 0 0.657136
-0.084236 -0.025529 0.772688 255 232 0 0.663035
-0.079381 -0.023112 0.772537 253 239 0 0.654681
-0.090751 -0.021492 0.781566 255 228 0 0.665229
-0.093701 -0.021855 0.782740 255 224 0 0.670518
-0.089590 -0.019449 0.783905 253 239 0 0.655077
-0.092492 -0.019847 0.785143 255 235 0 0.657763
-0.087343 -0.018268 0.784243 250 243 0 0.649591
-0.085025 -0.017029 0.784574 247 246 1 0.648121
-0.077653 -0.013353 0.786485 247 246 1 0.645954
-0.080233 -0.014535 0.785946 247 246 1 0.646748
-0.076414 -0.014244 0.784135 185 255 62 0.570472
-0.079086 -0.015481 0.783621 244 250 4 0.641425
-0.077851 -0.016391 0.781306 189 255 59 0.575511
-0.075233 -0.015184 0.781766 247 246 1 0.647606
-0.081623 -0.016666 0.783145 244 250 4 0.644023
-0.080408 -0.017617 0.780867 208 255 40 0.599945
-0.083710 -0.014952 0.787340 247 246 1 0.645176
-0.073398 -0.017209 0.777360 253 239 0 0.653880
-0.076158 -0.018391 0.777186 253 239 0 0.652629
-0.072376 -0.018254 0.775115 192 255 56 0.578386
-0.075140 -0.019499 0.774964 253 239 0 0.653423
-0.074127 -0.020595 0.772790 253 239 0 0.656073
-0.071315 -0.019305 0.772932 255 235 0 0.656660
-0.077819 -0.020718 0.774812 253 239 0 0.654691
-0.076781 -0.021866 0.772664 253 239 0 0.655125
-0.065043 -0.018282 0.771070 255 224 0 0.669434
-0.062200 -0.017258 0.771537 255 224 0 0.671798
-0.061564 -0.018535 0.769097 255 220 0 0.673000
-0.059375 -0.016294 0.772137 255 220 0 0.673343
-0.058699 -0.017551 0.769604 255 220 0 0.673297
-0.055748 -0.016605 0.770194 240 254 7 0.639399
-0.056421 -0.015406 0.772728 255 220 0 0.673905
-0.058005 -0.018813 0.767162 255 220 0 0.674737
-0.055058 -0.017860 0.767713 255 220 0 0.674341
-0.054405 -0.019137 0.765277 255 217 0 0.676609
-0.057398 -0.019992 0.765007 255 220 0 0.675550
-0.060969 -0.019723 0.766947 255 220 0 0.673333
-0.060375 -0.020918 0.764831 255 220 0 0.673540
-0.063930 -0.020677 0.766807 255 224 0 0.670696
-0.064492 -0.019460 0.768942 255 224 0 0.670253
-0.067293 -0.020422 0.768851 255 228 0 0.666432
-0.063278 -0.021904 0.764746 255 224 0 0.670862
-0.066683 -0.021648 0.766776 255 228 0 0.665910
-0.066032 -0.022902 0.764714 255 228 0 0.666671
-0.067895 -0.019220 0.770945 255 228 0 0.666450
-0.053233 -0.014969 0.773313 255 220 0 0.673769
-0.050132 -0.014407 0.774180 255 217 0 0.677383
-0.049310 -0.015751 0.771310 255 217 0 0.677274
-0.047055 -0.013898 0.775079 255 217 0 0.678461
-0.046280 -0.015233 0.772200 255 217 0 0.677276
-0.045446 -0.016618 0.769392 255 217 0 0.675839
-0.044778 -0.017860 0.766971 255 235 0 0.659377
-0.048646 -0.016974 0.768788 255 217 0 0.677061
-0.047953 -0.018215 0.766343 255 217 0 0.676732
-0.051864 -0.017388 0.768226 255 217 0 0.676670
-0.052551 -0.016151 0.770736 255 220 0 0.673582
-0.051218 -0.018642 0.765782 255 217 0 0.677280
-0.044264 -0.023622 0.758152 255 217 0 0.676302
-0.044259 -0.022206 0.760033 255 217 0 0.676295
-0.047553 -0.022451 0.759647 255 217 0 0.677444
-0.047512 -0.023864 0.757745 255 217 0 0.677205
-0.047592 -0.021108 0.761618 255 217 0 0.677414
-0.050813 -0.022771 0.759331 255 217 0 0.677488
-0.050882 -0.021424 0.761304 255 217 0 0.677533
-0.054162 -0.021833 0.761081 255 217 0 0.676934
-0.050736 -0.024195 0.757449 255 217 0 0.677294
-0.054101 -0.023183 0.759143 255 217 0 0.676921
-0.053990 -0.024580 0.757249 255 217 0 0.676641
-0.051020 -0.020124 0.763348 255 217 0 0.677529
-0.054305 -0.020499 0.763145 255 217 0 0.676835
-0.047745 -0.019672 0.763901 255 217 0 0.677158
-0.044588 -0.019299 0.764511 255 217 0 0.675815
-0.044401 -0.020740 0.762217 255 217 0 0.676374
-0.057042 -0.025412 0.757336 255 220 0 0.674885
-0.060032 -0.024999 0.759109 255 220 0 0.672465
-0.062907 -0.025964 0.759366 255 224 0 0.669210
-0.065796 -0.025634 0.761301 255 228 0 0.665289
-0.065625 -0.028269 0.758021 255 228 0 0.666048
-0.063056 -0.023319 0.762682 255 224 0 0.670447
-0.060235 -0.022312 0.762775 255 220 0 0.673429
-0.057262 -0.021378 0.762905 255 220 0 0.675599
-0.057220 -0.022752 0.760866 255 220 0 0.675354
-0.063377 -0.028698 0.756439 255 224 0 0.668499
-0.060566 -0.027736 0.756173 255 224 0 0.670481
-0.058202 -0.028230 0.754639 255 220 0 0.672700
-0.055235 -0.027409 0.754449 255 220 0 0.675509
-0.056457 -0.030235 0.751862 255 220 0 0.674100
-0.059440 -0.031122 0.752178 255 224 0 0.669660
-0.061751 -0.030617 0.753710 237 255 11 0.636054
-0.064593 -0.031614 0.754103 255 228 0 0.667306
-0.066787 -0.031199 0.755727 255 198 0 0.695745
-0.067905 -0.034049 0.753394 255 232 0 0.661265
-0.048794 -0.026596 0.754488 255 217 0 0.676612
-0.045579 -0.026352 0.754854 255 217 0 0.676338
-0.046942 -0.029154 0.752081 255 217 0 0.676116
-0.050143 -0.029423 0.751883 255 217 0 0.676030
-0.052676 -0.028358 0.753113 255 217 0 0.676136
-0.050714 -0.033388 0.748633 255 224 0 0.668389
-0.053881 -0.033846 0.748726 255 232 0 0.662270
-0.057003 -0.034428 0.748841 255 220 0 0.673010
-0.058856 -0.033441 0.749943 255 224 0 0.668006
-0.061130 -0.036589 0.748048 255 224 0 0.671210
-0.054512 -0.031228 0.750724 255 220 0 0.674495
-0.063981 -0.037527 0.748465 255 224 0 0.668592
-0.066766 -0.038543 0.748949 255 228 0 0.664165
-0.064518 -0.035243 0.750590 255 235 0 0.659323
-0.067259 -0.036307 0.751153 255 232 0 0.662072
-0.069986 -0.037433 0.751750 253 239 0 0.654498
-0.069501 -0.039562 0.749432 255 235 0 0.657454
-0.072168 -0.040676 0.749893 247 246 1 0.644950
-0.061735 -0.034331 0.750251 255 224 0 0.669158
-0.072318 -0.063321 0.731252 255 228 0 0.666581
-0.075630 -0.065826 0.729952 255 220 0 0.672265
-0.072511 -0.066204 0.729573 255 220 0 0.675343
-0.075831 -0.068584 0.728193 255 220 0 0.673175
-0.078936 -0.068350 0.728711 255 224 0 0.669114
-0.082160 -0.070716 0.727162 255 232 0 0.662914
-0.082492 -0.067957 0.729534 255 232 0 0.663758
-0.079259 -0.065479 0.730929 255 228 0 0.667324
-0.075967 -0.062842 0.732109 255 224 0 0.669614
-0.082731 -0.065249 0.731958 255 232 0 0.662743
-0.071940 -0.069127 0.727708 255 217 0 0.677087
-0.074428 -0.071545 0.726047 255 220 0 0.675075
-0.071480 -0.071827 0.725849 255 217 0 0.678112
-0.077721 -0.072438 0.725443 255 224 0 0.671488
-0.080947 -0.073343 0.724821 255 228 0 0.665636
-0.088858 -0.077534 0.723167 255 235 0 0.659506
-0.091763 -0.078982 0.722752 253 239 0 0.656050
-0.085959 -0.076124 0.723666 250 243 0 0.649733
-0.087798 -0.073871 0.726601 255 224 0 0.668232
-0.090543 -0.075456 0.726259 250 243 0 0.651134
-0.093301 -0.077062 0.725921 205 255 43 0.593817
-0.084039 -0.073502 0.725489 234 255 14 0.629556
-0.082756 -0.076022 0.723029 255 232 0 0.663760
-0.094055 -0.075951 0.727868 185 255 62 0.570955
-0.091370 -0.073084 0.729481 247 246 1 0.648346
-0.094829 -0.074874 0.729808 237 255 11 0.636284
-0.087915 -0.071388 0.729224 253 239 0 0.654196
-0.092102 -0.071975 0.731354 244 250 4 0.642576
-0.088774 -0.070158 0.730944 253 239 0 0.652506
-0.089548 -0.068971 0.732756 247 246 1 0.646045
-0.095493 -0.073904 0.731846 234 255 14 0.632672
-0.092848 -0.070914 0.733319 237 255 11 0.633017
-0.096166 -0.073038 0.734044 224 255 24 0.618197
-0.085354 -0.068407 0.730649 255 235 0 0.659102
-0.086224 -0.067099 0.732318 255 235 0 0.656817
-0.085087 -0.071000 0.728172 228 255 20 0.623061
-0.069824 -0.042316 0.747110 228 255 20 0.623333
-0.067104 -0.041283 0.746750 255 232 0 0.663047
-0.064295 -0.040331 0.746411 255 224 0 0.668307
-0.067497 -0.044049 0.744485 255 228 0 0.664543
-0.070225 -0.045108 0.744906 255 235 0 0.658424
-0.072981 -0.046225 0.745297 253 239 0 0.652943
-0.072518 -0.043467 0.747609 255 232 0 0.661921
-0.075197 -0.044662 0.748149 237 255 11 0.636473
-0.075646 -0.047389 0.745737 244 250 4 0.643821
-0.078287 -0.048577 0.746238 231 255 17 0.625040
-0.056733 -0.037175 0.746843 255 220 0 0.674047
-0.058296 -0.038926 0.745949 255 220 0 0.674315
-0.059868 -0.040783 0.745139 255 220 0 0.673761
-0.061484 -0.042677 0.744236 255 220 0 0.672996
-0.064496 -0.043346 0.744348 255 224 0 0.669529
-0.064767 -0.049269 0.740159 255 220 0 0.672108
-0.067923 -0.050062 0.740180 255 228 0 0.667964
-0.064518 -0.046182 0.742123 255 224 0 0.670690
-0.067691 -0.047028 0.742349 255 228 0 0.664253
-0.070748 -0.047971 0.742511 215 255 33 0.608196
-0.071036 -0.050920 0.740293 255 228 0 0.666555
-0.074156 -0.051813 0.740407 255 235 0 0.657454
-0.076876 -0.052980 0.740877 247 246 1 0.644559
-0.079559 -0.054202 0.741368 153 255 95 0.532991
-0.076254 -0.050084 0.743208 247 246 1 0.648129
-0.078901 -0.051365 0.743815 231 255 17 0.626384
-0.081544 -0.052639 0.744413 140 255 108 0.516309
-0.082203 -0.055453 0.741902 224 255 24 0.620164
-0.084817 -0.056695 0.742443 218 255 30 0.610799
-0.073547 -0.048979 0.742838 253 239 0 0.653909
-0.086050 -0.027942 0.771013 255 217 0 0.677196
-0.083079 -0.028089 0.769348 255 232 0 0.662014
-0.081236 -0.025591 0.770927 253 239 0 0.654799
-0.078232 -0.025577 0.769095 247 246 1 0.647581
-0.080104 -0.028101 0.767560 247 246 1 0.647985
-0.077095 -0.028030 0.765745 240 254 7 0.637844
-0.082139 -0.030497 0.766445 255 235 0 0.658833
-0.085128 -0.030418 0.768150 255 209 0 0.686711
-0.088132 -0.030194 0.769690 255 198 0 0.698303
-0.087194 -0.032667 0.766856 255 187 0 0.708552
-0.076139 -0.023188 0.770674 250 243 0 0.651959
-0.073517 -0.021879 0.770722 255 235 0 0.656518
-0.072851 -0.023132 0.768740 253 239 0 0.653145
-0.070760 -0.020556 0.770808 255 232 0 0.661107
-0.070125 -0.021797 0.768786 255 235 0 0.659281
-0.069500 -0.023047 0.766758 234 255 14 0.629965
-0.071778 -0.025522 0.765209 250 243 0 0.649514
-0.075043 -0.025608 0.767226 192 255 56 0.579487
-0.068488 -0.029594 0.758551 255 235 0 0.657979
-0.071335 -0.029674 0.760481 244 250 4 0.641833
-0.074060 -0.030896 0.761000 228 255 20 0.622317
-0.076815 -0.030768 0.762901 224 255 24 0.621072
-0.076652 -0.033428 0.760089 208 255 40 0.600293
-0.074287 -0.028243 0.763824 237 255 11 0.636692
-0.068794 -0.025601 0.763263 255 235 0 0.658451
-0.079267 -0.034710 0.760700 221 255 27 0.615848
-0.081876 -0.034593 0.762407 255 228 0 0.667258
-0.084478 -0.035709 0.762822 255 194 0 0.699907
-0.087069 -0.035457 0.764393 255 168 0 0.728367
-0.087063 -0.038104 0.761863 255 165 0 0.732048
-0.084552 -0.033074 0.765288 255 202 0 0.691584
-0.079530 -0.030641 0.764710 240 254 7 0.637614
-0.084984 -0.038499 0.760456 255 183 0 0.714156
-0.082364 -0.037382 0.760092 247 12 0 0.890759
-0.080322 -0.037630 0.758562 240 254 7 0.638436
-0.077692 -0.036414 0.758012 195 255 53 0.582322
-0.078772 -0.039303 0.755819 185 255 62 0.570338
-0.081372 -0.040501 0.756437 231 255 17 0.628428
-0.083389 -0.040282 0.757953 255 224 0 0.670643
-0.086018 -0.041404 0.758392 255 206 0 0.688251
-0.088099 -0.041022 0.759804 255 172 0 0.723388
-0.089208 -0.043895 0.757633 255 176 0 0.720737
-0.074430 -0.033706 0.758378 215 255 33 0.608251
-0.071761 -0.032415 0.757882 237 255 11 0.633812
-0.069564 -0.032507 0.756206 253 239 0 0.653422
-0.070656 -0.035403 0.754037 250 243 0 0.649999
-0.072821 -0.035285 0.755691 234 255 14 0.629174
-0.075525 -0.036611 0.756340 189 255 59 0.575578
-0.074849 -0.042003 0.750460 163 255 85 0.545834
-0.077518 -0.043323 0.750993 208 255 40 0.601465
-0.075454 -0.040005 0.752843 221 255 27 0.614568
-0.078104 -0.041316 0.753456 182 255 66 0.566778
-0.080729 -0.042538 0.753987 192 255 56 0.578914
-0.080161 -0.044542 0.751588 182 255 66 0.567164
-0.082766 -0.045773 0.752035 169 255 79 0.550968
-0.072716 -0.038726 0.752316 240 254 7 0.638932
-0.085214 -0.046972 0.752561 211 255 36 0.601778
-0.087678 -0.048049 0.753064 244 250 4 0.641895
-0.085918 -0.044966 0.754947 247 246 1 0.645498
-0.088379 -0.046066 0.755373 255 209 0 0.685073
-0.090904 -0.047105 0.755767 255 187 0 0.709523
-0.090145 -0.049167 0.753495 255 224 0 0.671762
-0.092741 -0.050267 0.753890 255 198 0 0.697574
-0.083346 -0.043795 0.754508 221 255 27 0.614591
-0.123763 -0.126071 0.807892 255 220 0 0.675207
-0.120870 -0.126334 0.809572 255 220 0 0.672059
-0.119906 -0.127900 0.806663 255 228 0 0.666794
-0.122780 -0.127385 0.804883 255 224 0 0.671281
-0.117052 -0.128438 0.808314 255 232 0 0.663864
-0.119011 -0.129349 0.803712 255 232 0 0.663783
-0.116189 -0.130094 0.805462 255 232 0 0.660587
-0.115356 -0.131608 0.802632 255 209 0 0.685101
-0.121857 -0.128649 0.801859 255 220 0 0.675535
-0.118130 -0.130665 0.800798 255 232 0 0.662680
-0.120932 -0.129699 0.798868 255 206 0 0.689880
-0.113408 -0.130862 0.807131 255 235 0 0.658359
-0.112633 -0.132580 0.804405 255 235 0 0.659420
-0.109923 -0.133485 0.806084 255 235 0 0.659432
-0.110745 -0.131317 0.809031 255 235 0 0.657349
-0.114305 -0.128719 0.810162 255 232 0 0.661931
-0.111609 -0.129107 0.811992 255 232 0 0.660300
-0.115310 -0.126602 0.813276 255 224 0 0.668458
-0.118110 -0.126474 0.811474 255 224 0 0.670887
-0.112590 -0.126916 0.815033 234 255 14 0.630775
-0.120292 -0.130434 0.795449 247 246 1 0.647775
-0.117449 -0.131765 0.797310 253 239 0 0.655525
-0.116790 -0.132509 0.793998 250 243 0 0.651919
-0.119729 -0.130951 0.792000 228 255 20 0.623109
-0.113973 -0.134040 0.795756 255 232 0 0.660188
-0.116110 -0.133087 0.790623 255 198 0 0.697206
-0.113227 -0.134701 0.792381 255 206 0 0.687652
-0.112455 -0.135288 0.789042 255 235 0 0.658201
-0.119146 -0.131385 0.788545 231 255 17 0.625577
-0.115418 -0.133603 0.787204 244 250 4 0.644437
-0.118592 -0.131819 0.785097 218 255 30 0.612219
-0.110490 -0.136233 0.794016 255 228 0 0.666088
-0.109695 -0.136836 0.790662 255 180 0 0.716112
-0.107034 -0.138246 0.792143 255 224 0 0.669322
-0.107906 -0.137470 0.795715 255 228 0 0.666731
-0.111308 -0.135299 0.797551 255 202 0 0.692024
-0.108695 -0.136472 0.799260 255 228 0 0.665495
-0.112014 -0.134114 0.801049 255 232 0 0.661108
-0.114715 -0.132960 0.799220 255 235 0 0.659160
-0.109371 -0.135168 0.802733 255 232 0 0.662145
-0.098727 -0.140764 0.801400 255 224 0 0.671751
-0.099491 -0.139351 0.804943 255 224 0 0.670211
-0.102567 -0.138662 0.803037 255 224 0 0.668713
-0.100096 -0.137424 0.808273 255 228 0 0.666539
-0.103203 -0.136848 0.806453 255 228 0 0.666961
-0.103741 -0.134638 0.809711 255 232 0 0.663946
-0.100623 -0.135094 0.811456 255 228 0 0.666062
-0.106267 -0.136180 0.804588 255 228 0 0.664407
-0.106844 -0.134089 0.807913 255 232 0 0.660907
-0.105647 -0.137635 0.801154 255 228 0 0.666961
-0.104910 -0.138695 0.797599 255 224 0 0.668676
-0.101842 -0.139795 0.799510 255 224 0 0.670601
-0.101030 -0.140569 0.795924 255 220 0 0.672017
-0.104061 -0.139448 0.794025 255 224 0 0.669788
-0.097877 -0.141572 0.797825 255 220 0 0.673225
-0.101322 -0.132631 0.814210 255 228 0 0.664817
-0.102199 -0.129855 0.817198 255 168 0 0.730283
-0.105231 -0.129766 0.815363 255 228 0 0.666979
-0.103160 -0.127114 0.820206 255 224 0 0.668988
-0.106218 -0.127118 0.818471 255 220 0 0.673907
-0.109300 -0.127102 0.816644 255 224 0 0.669995
-0.108423 -0.129458 0.813677 255 232 0 0.661201
-0.107607 -0.131828 0.810800 255 235 0 0.658279
-0.104499 -0.132326 0.812548 255 232 0 0.660772
-0.090157 -0.051785 0.751190 247 246 1 0.646275
-0.087722 -0.050638 0.750740 221 255 27 0.617121
-0.085254 -0.049499 0.750276 182 255 66 0.566794
-0.087773 -0.053186 0.748354 202 255 46 0.593643
-0.089941 -0.054231 0.748893 228 255 20 0.621982
-0.092193 -0.055265 0.749440 247 246 1 0.646810
-0.092439 -0.052809 0.751712 255 220 0 0.673123
-0.094868 -0.053857 0.752187 255 198 0 0.697371
-0.094609 -0.056344 0.749983 247 246 1 0.644778
-0.097218 -0.057508 0.750500 255 206 0 0.689737
-0.080525 -0.047193 0.749163 179 255 69 0.563147
-0.077876 -0.045960 0.748676 221 255 27 0.615259
-0.080724 -0.049723 0.746810 202 255 46 0.590048
-0.083061 -0.050907 0.747343 172 255 75 0.556840
-0.082892 -0.048376 0.749724 0 194 255 0.314591
-0.085418 -0.052060 0.747874 182 255 66 0.568067
-0.086897 -0.057740 0.743035 198 255 49 0.586853
-0.088924 -0.058782 0.743653 189 255 59 0.576886
-0.086281 -0.054969 0.745384 182 255 66 0.569469
-0.088307 -0.056005 0.745987 185 255 62 0.571208
-0.090435 -0.057066 0.746617 130 255 117 0.505263
-0.091017 -0.059853 0.744254 195 255 53 0.584153
-0.093208 -0.060914 0.744902 179 255 69 0.565682
-0.083902 -0.053802 0.744909 189 255 59 0.577087
-0.096262 -0.061026 0.747077 247 246 1 0.645973
-0.099810 -0.061170 0.749100 255 232 0 0.660759
-0.099972 -0.063809 0.747124 255 228 0 0.664143
-0.092673 -0.058140 0.747175 228 255 20 0.621212
-0.045300 -0.109071 0.698504 255 217 0 0.676112
-0.042415 -0.109682 0.698353 255 220 0 0.675577
-0.040448 -0.111856 0.698243 255 220 0 0.675715
-0.037618 -0.112524 0.698088 255 217 0 0.675997
-0.039313 -0.115495 0.697948 255 217 0 0.676265
-0.042145 -0.114806 0.698040 255 217 0 0.676092
-0.044129 -0.112629 0.698266 255 217 0 0.675867
-0.047025 -0.111895 0.698371 255 217 0 0.676381
-0.049212 -0.109731 0.698660 255 217 0 0.676847
-0.051037 -0.112606 0.698550 255 217 0 0.677364
-0.033223 -0.111827 0.697817 255 220 0 0.675339
