ply
format ascii 1.0
comment VCGLIB generated
element vertex 956
property float x
property float y
property float z
property uchar red
property uchar green
property uchar blue
property float quality
end_header
-0.034331 -0.007713 0.797720 62 255 185 0.425326
-0.036976 -0.007739 0.796560 62 255 185 0.425368
-0.038550 -0.006793 0.799347 66 255 182 0.427388
-0.037582 -0.005709 0.803427 69 255 179 0.430271
-0.040154 -0.005794 0.802181 66 255 182 0.426596
-0.039230 -0.004619 0.806375 66 255 182 0.428649
-0.036699 -0.004471 0.807608 91 255 156 0.457980
-0.041844 -0.004723 0.805096 62 255 185 0.424714
-0.027988 -0.008637 0.796944 69 255 179 0.432867
-0.026482 -0.009689 0.793823 62 255 185 0.425489
-0.029037 -0.009751 0.792863 59 255 189 0.420351
-0.024982 -0.010671 0.790635 62 255 185 0.422504
-0.027520 -0.010799 0.789713 59 255 189 0.421182
-0.030136 -0.010822 0.788688 59 255 189 0.420961
-0.032745 -0.010920 0.787473 59 255 189 0.421715
-0.031506 -0.009856 0.791764 56 255 192 0.416479
-0.034117 -0.009898 0.790560 59 255 189 0.419703
-0.032908 -0.008836 0.794765 0 194 255 0.314069
-0.030428 -0.008765 0.795873 59 255 189 0.419528
-0.035514 -0.008866 0.793595 56 255 192 0.416188
-0.045684 -0.011491 0.782699 66 255 182 0.425959
-0.042291 -0.011237 0.784066 62 255 185 0.425289
-0.043434 -0.010256 0.787036 66 255 182 0.425823
-0.046795 -0.010465 0.785638 66 255 182 0.426355
-0.040212 -0.010090 0.788369 62 255 185 0.424364
-0.044626 -0.009253 0.790011 66 255 182 0.426284
-0.041428 -0.009097 0.791350 62 255 185 0.425006
-0.042619 -0.008076 0.794232 66 255 182 0.425870
-0.047938 -0.009444 0.788616 66 255 182 0.427031
-0.045772 -0.008232 0.792966 66 255 182 0.426567
-0.049065 -0.008389 0.791603 66 255 182 0.426591
-0.038442 -0.008920 0.792615 62 255 185 0.423203
-0.039653 -0.007913 0.795493 62 255 185 0.425640
-0.037036 -0.010008 0.789524 62 255 185 0.422632
-0.035691 -0.011061 0.786439 62 255 185 0.422675
-0.038882 -0.011132 0.785248 62 255 185 0.424030
-0.050432 -0.007481 0.794413 66 255 182 0.426586
-0.047321 -0.007261 0.795827 66 255 182 0.426708
-0.048704 -0.006339 0.798599 66 255 182 0.426665
-0.051818 -0.006556 0.797159 66 255 182 0.426481
-0.045745 -0.006113 0.799972 66 255 182 0.426528
-0.050126 -0.005352 0.801366 66 255 182 0.426582
-0.047224 -0.005128 0.802730 66 255 182 0.426221
-0.053156 -0.005583 0.799906 66 255 182 0.426487
-0.044508 -0.004897 0.804044 62 255 185 0.424845
-0.042882 -0.005961 0.801139 62 255 185 0.425564
-0.041256 -0.006958 0.798301 66 255 182 0.426200
-0.044193 -0.007115 0.797103 66 255 182 0.426387
-0.047817 -0.012942 0.778856 66 255 182 0.426118
-0.048933 -0.011973 0.781499 66 255 182 0.426047
-0.052157 -0.012430 0.780608 62 255 185 0.424054
-0.051092 -0.013400 0.777959 62 255 185 0.425076
-0.053252 -0.011454 0.783195 62 255 185 0.424945
-0.055406 -0.012965 0.779599 30 255 218 0.384985
-0.056371 -0.011975 0.782305 62 255 185 0.421953
-0.059540 -0.012547 0.781283 59 255 189 0.421838
-0.054280 -0.013982 0.777075 62 255 185 0.421953
-0.058535 -0.013566 0.778734 59 255 189 0.421250
-0.057480 -0.014589 0.776178 59 255 189 0.420983
-0.057417 -0.010954 0.784922 62 255 185 0.423840
-0.060587 -0.011528 0.783966 62 255 185 0.422201
-0.061624 -0.010488 0.786656 62 255 185 0.422042
-0.058481 -0.009842 0.787848 62 255 185 0.423914
-0.054333 -0.010389 0.786081 66 255 182 0.425786
-0.055382 -0.009299 0.789026 62 255 185 0.425367
-0.051130 -0.009877 0.787340 75 255 172 0.439186
-0.050061 -0.010932 0.784341 66 255 182 0.426756
-0.052163 -0.008797 0.790353 66 255 182 0.426637
-0.060512 -0.015511 0.775514 62 255 185 0.422017
-0.061476 -0.014543 0.777873 59 255 189 0.420882
-0.064456 -0.015510 0.777236 59 255 189 0.418061
-0.063484 -0.016515 0.774914 59 255 189 0.421082
-0.065445 -0.014517 0.779628 27 255 221 0.381927
-0.067423 -0.016550 0.776722 59 255 189 0.418489
-0.068374 -0.015516 0.779050 56 255 192 0.416052
-0.071350 -0.016587 0.778566 56 255 192 0.415274
-0.066400 -0.017580 0.774395 59 255 189 0.420323
-0.070260 -0.017620 0.776279 56 255 192 0.417000
-0.069242 -0.018682 0.774004 59 255 189 0.418624
-0.069452 -0.014492 0.781476 56 255 192 0.414888
-0.072355 -0.015520 0.780927 53 255 195 0.414046
-0.073385 -0.014461 0.783368 53 255 195 0.413256
-0.070545 -0.013361 0.784103 33 255 215 0.389035
-0.066522 -0.013448 0.782194 56 255 192 0.416107
-0.067626 -0.012369 0.784833 56 255 192 0.415815
-0.063592 -0.012469 0.782995 59 255 189 0.419697
-0.062516 -0.013509 0.780409 59 255 189 0.419158
-0.064656 -0.011418 0.785655 59 255 189 0.419616
-0.074394 -0.010733 0.791514 20 254 228 0.373287
-0.071476 -0.009670 0.792511 53 255 195 0.411941
-0.070146 -0.010612 0.789891 56 255 192 0.414599
-0.068513 -0.008697 0.793541 53 255 195 0.413071
-0.067210 -0.009603 0.790990 56 255 192 0.417742
-0.064271 -0.008698 0.792018 59 255 189 0.420619
-0.065468 -0.007773 0.794661 59 255 189 0.419136
-0.065963 -0.010533 0.788241 59 255 189 0.418569
-0.062933 -0.009591 0.789387 59 255 189 0.421506
-0.068882 -0.011468 0.787383 46 255 202 0.404361
-0.071866 -0.012486 0.786600 53 255 195 0.413408
-0.073137 -0.011597 0.789069 53 255 195 0.411989
-0.075988 -0.012642 0.788334 53 255 195 0.412077
-0.074698 -0.013527 0.785875 53 255 195 0.413287
-0.077151 -0.011706 0.790768 49 255 198 0.409434
-0.062336 -0.007165 0.795837 62 255 185 0.422428
-0.059202 -0.006589 0.797152 62 255 185 0.424608
-0.057915 -0.007538 0.794468 62 255 185 0.424705
-0.056170 -0.006045 0.798567 66 255 182 0.426045
-0.054828 -0.007021 0.795836 66 255 182 0.425881
-0.053464 -0.007936 0.793094 66 255 182 0.425944
-0.056642 -0.008419 0.791805 62 255 185 0.424848
-0.059790 -0.008972 0.790577 62 255 185 0.423454
-0.061054 -0.008084 0.793228 62 255 185 0.422867
-0.000352 -0.093091 0.702545 59 255 189 0.420663
0.002847 -0.093347 0.701755 59 255 189 0.420339
0.004815 -0.094774 0.700149 59 255 189 0.419991
0.007962 -0.095102 0.699488 59 255 189 0.419673
0.005762 -0.097647 0.697636 59 255 189 0.419938
0.002450 -0.097226 0.698341 59 255 189 0.420463
0.000434 -0.095714 0.699933 59 255 189 0.420729
-0.002939 -0.095471 0.700543 59 255 189 0.420980
-0.005007 -0.094226 0.702140 59 255 189 0.420931
-0.007543 -0.096394 0.700464 59 255 189 0.421072
0.012307 -0.094320 0.699504 59 255 189 0.419652
0.015514 -0.094796 0.698450 59 255 189 0.420355
0.013381 -0.097450 0.696485 79 255 169 0.443589
0.010109 -0.096878 0.697504 59 255 189 0.420865
0.011981 -0.105324 0.691861 59 255 189 0.418790
0.009446 -0.103276 0.693657 59 255 189 0.419195
0.006062 -0.102785 0.694730 59 255 189 0.419743
0.003727 -0.100668 0.696419 59 255 189 0.420203
0.001716 -0.103648 0.695158 59 255 189 0.420297
0.008121 -0.099639 0.696048 59 255 189 0.419915
0.011425 -0.100209 0.694898 59 255 189 0.420817
-0.001724 -0.103110 0.696177 59 255 189 0.420764
-0.004027 -0.101252 0.697550 59 255 189 0.421225
-0.007508 -0.100849 0.698269 59 255 189 0.421122
-0.009830 -0.099100 0.699472 59 255 189 0.421168
-0.012105 -0.101791 0.698443 59 255 189 0.421235
-0.005227 -0.098133 0.699192 59 255 189 0.421236
-0.001867 -0.098451 0.698518 66 255 182 0.428287
0.000402 -0.100241 0.697214 59 255 189 0.420955
0.012093 -0.111722 0.689507 59 255 189 0.418063
0.010790 -0.114661 0.689409 59 255 189 0.417997
0.009514 -0.117540 0.689234 59 255 189 0.418608
0.006969 -0.128605 0.690846 59 255 189 0.420308
0.002694 -0.128390 0.691979 59 255 189 0.420662
-0.001005 -0.126766 0.692849 59 255 189 0.420717
-0.004950 -0.126541 0.693829 59 255 189 0.420800
-0.008540 -0.124814 0.694562 59 255 189 0.420382
-0.009217 -0.127703 0.695014 59 255 189 0.420689
-0.004278 -0.123689 0.693431 62 255 185 0.423849
-0.007876 -0.121935 0.694185 59 255 189 0.419916
-0.000409 -0.124055 0.692362 59 255 189 0.420697
0.003493 -0.124425 0.691291 62 255 185 0.422092
0.007339 -0.126022 0.690340 59 255 189 0.420543
0.007763 -0.123399 0.689778 59 255 189 0.420882
-0.013124 -0.127328 0.695798 59 255 189 0.420824
-0.016578 -0.125321 0.696499 59 255 189 0.420892
-0.020508 -0.124821 0.697327 59 255 189 0.421684
-0.023994 -0.122583 0.698039 62 255 185 0.422323
-0.025173 -0.125759 0.698226 62 255 185 0.422978
-0.019580 -0.121678 0.697106 59 255 189 0.420903
-0.023003 -0.119498 0.697769 59 255 189 0.421480
-0.015759 -0.122274 0.696199 59 255 189 0.420170
-0.012013 -0.122872 0.695280 59 255 189 0.419956
-0.020029 -0.113148 0.697546 59 255 189 0.419889
-0.016419 -0.113876 0.696639 59 255 189 0.419160
-0.013438 -0.116106 0.695827 59 255 189 0.418899
-0.009778 -0.116771 0.694836 59 255 189 0.418925
-0.006671 -0.118859 0.693996 59 255 189 0.419538
-0.005444 -0.115681 0.693721 59 255 189 0.419388
-0.010944 -0.119857 0.695041 59 255 189 0.419267
-0.014739 -0.119226 0.695973 59 255 189 0.419395
-0.018468 -0.118595 0.696889 59 255 189 0.419969
-0.021493 -0.116314 0.697749 59 255 189 0.420756
-0.001729 -0.116201 0.692632 59 255 189 0.419406
0.001557 -0.118177 0.691651 59 255 189 0.420351
0.005301 -0.118643 0.690525 59 255 189 0.421190
0.008676 -0.120529 0.689518 59 255 189 0.420075
0.004366 -0.121585 0.690865 79 255 169 0.443440
0.000439 -0.121206 0.691942 59 255 189 0.420706
-0.003452 -0.120819 0.693021 59 255 189 0.418729
-0.015651 -0.101277 0.699015 59 255 189 0.421547
-0.017919 -0.099527 0.699966 59 255 189 0.421764
-0.021621 -0.099046 0.700516 62 255 185 0.422108
-0.023939 -0.097336 0.701711 62 255 185 0.422396
-0.026406 -0.099578 0.700997 62 255 185 0.423029
-0.019018 -0.096585 0.701508 62 255 185 0.421970
-0.021446 -0.094978 0.702766 62 255 185 0.422219
-0.015518 -0.097048 0.700939 59 255 189 0.421796
-0.012038 -0.097389 0.700461 59 255 189 0.421457
-0.029245 -0.098992 0.701511 62 255 185 0.424135
-0.030691 -0.097456 0.702418 62 255 185 0.423863
-0.033512 -0.097158 0.702940 62 255 185 0.424998
-0.030907 -0.095086 0.704311 62 255 185 0.423515
-0.028194 -0.095261 0.703535 62 255 185 0.422970
-0.025471 -0.095720 0.702923 62 255 185 0.422529
-0.024212 -0.092526 0.705947 62 255 185 0.423297
-0.021508 -0.092780 0.705128 62 255 185 0.423202
-0.018752 -0.093041 0.704428 62 255 185 0.422722
-0.028400 -0.093314 0.706039 62 255 185 0.422996
-0.013815 -0.092181 0.704702 82 255 166 0.447583
-0.010471 -0.092554 0.703991 62 255 185 0.422677
-0.008316 -0.093978 0.702627 59 255 189 0.421351
-0.012989 -0.094608 0.702280 62 255 185 0.422776
-0.016540 -0.094286 0.702881 62 255 185 0.422781
-0.023661 -0.112386 0.698276 62 255 185 0.421876
-0.026389 -0.110071 0.699188 62 255 185 0.422519
-0.030098 -0.109194 0.699673 53 255 195 0.412251
-0.032660 -0.107136 0.700150 62 255 185 0.424457
-0.034641 -0.109777 0.699860 62 255 185 0.424675
-0.028092 -0.106482 0.699731 62 255 185 0.423585
-0.030712 -0.104432 0.700127 75 255 172 0.440764
-0.024443 -0.107412 0.699133 62 255 185 0.422465
-0.020906 -0.108193 0.698351 59 255 189 0.420628
-0.018231 -0.110281 0.697660 46 255 202 0.405093
-0.016392 -0.107319 0.697643 59 255 189 0.420375
-0.037490 -0.109098 0.699921 62 255 185 0.425058
-0.039230 -0.107182 0.700228 62 255 185 0.425159
-0.042084 -0.106542 0.700371 62 255 185 0.425638
-0.044044 -0.104644 0.700779 66 255 182 0.426048
-0.046088 -0.107203 0.700349 66 255 182 0.426537
-0.040123 -0.104080 0.700799 62 255 185 0.425372
-0.042058 -0.102222 0.701151 66 255 182 0.425789
-0.037331 -0.104637 0.700586 62 255 185 0.425021
-0.034566 -0.105206 0.700461 62 255 185 0.425051
-0.035847 -0.099284 0.702023 66 255 182 0.427049
-0.033116 -0.099780 0.701635 66 255 182 0.425884
-0.031348 -0.101415 0.700967 79 255 169 0.441541
-0.028515 -0.102046 0.700586 62 255 185 0.424998
-0.035257 -0.102137 0.700989 62 255 185 0.425335
-0.038062 -0.101625 0.701242 62 255 185 0.425665
-0.039788 -0.100017 0.701994 66 255 182 0.426563
-0.023876 -0.101498 0.700053 62 255 185 0.422519
-0.020301 -0.102183 0.699426 62 255 185 0.421969
-0.017778 -0.104089 0.698671 59 255 189 0.421646
-0.014273 -0.104626 0.698119 59 255 189 0.421231
-0.022400 -0.104757 0.699120 62 255 185 0.422208
-0.026022 -0.103965 0.699828 62 255 185 0.423188
-0.009674 -0.103675 0.697611 59 255 189 0.420986
-0.006165 -0.104158 0.696761 59 255 189 0.420810
-0.003683 -0.106165 0.695630 59 255 189 0.420582
-0.000158 -0.106537 0.694661 59 255 189 0.420314
-0.002070 -0.109538 0.694025 59 255 189 0.419964
-0.005698 -0.109082 0.695019 59 255 189 0.420023
-0.008239 -0.107061 0.696212 59 255 189 0.420436
-0.011787 -0.106560 0.697086 59 255 189 0.420776
0.004242 -0.105680 0.693899 59 255 189 0.419706
0.007679 -0.106210 0.692771 59 255 189 0.419032
0.010302 -0.108229 0.691350 59 255 189 0.418368
0.008569 -0.111194 0.690635 59 255 189 0.418467
0.005965 -0.109117 0.692090 59 255 189 0.418975
0.002375 -0.108567 0.693270 59 255 189 0.419688
0.006527 -0.115652 0.690455 59 255 189 0.419111
0.002839 -0.115156 0.691552 59 255 189 0.419429
-0.000067 -0.113240 0.692816 59 255 189 0.419302
-0.003741 -0.112692 0.693872 59 255 189 0.419570
0.004362 -0.112171 0.691763 59 255 189 0.418959
-0.008247 -0.113618 0.694819 59 255 189 0.418983
-0.011965 -0.113053 0.695785 59 255 189 0.418811
-0.014635 -0.110948 0.696763 59 255 189 0.419344
-0.010176 -0.110020 0.695928 59 255 189 0.419542
-0.073318 -0.096359 0.706545 66 255 182 0.426298
-0.076608 -0.097164 0.707128 66 255 182 0.426527
-0.076819 -0.099416 0.706294 56 255 192 0.417859
-0.079860 -0.097991 0.707617 66 255 182 0.426209
-0.080128 -0.100289 0.706824 66 255 182 0.426103
-0.083446 -0.101177 0.707217 62 255 185 0.424478
-0.080347 -0.102631 0.706054 66 255 182 0.426713
-0.083144 -0.098767 0.707995 62 255 185 0.424066
-0.086369 -0.099644 0.708371 40 255 208 0.394623
-0.082568 -0.096236 0.708790 62 255 185 0.424945
-0.079200 -0.095527 0.708393 66 255 182 0.426432
-0.075996 -0.094735 0.707882 66 255 182 0.426893
-0.078558 -0.093147 0.709312 66 255 182 0.426789
-0.083321 -0.104016 0.706926 62 255 185 0.425315
-0.082717 -0.106664 0.706541 62 255 185 0.425694
-0.086163 -0.105410 0.707766 62 255 185 0.423972
-0.085622 -0.108044 0.707419 62 255 185 0.424071
-0.088431 -0.109496 0.708292 59 255 189 0.421790
-0.085036 -0.110741 0.707146 62 255 185 0.422519
-0.088998 -0.106828 0.708603 62 255 185 0.423056
-0.091712 -0.108300 0.709414 62 255 185 0.422049
-0.089232 -0.103926 0.708753 62 255 185 0.422609
-0.086356 -0.102544 0.708021 62 255 185 0.422336
-0.097801 -0.105550 0.711996 59 255 189 0.419680
-0.096548 -0.103211 0.711768 59 255 189 0.418719
-0.093756 -0.101740 0.710917 59 255 189 0.420596
-0.092310 -0.099456 0.710729 59 255 189 0.420948
-0.089186 -0.098032 0.709879 59 255 189 0.421268
-0.091994 -0.096336 0.711298 59 255 189 0.419670
-0.089428 -0.101093 0.709289 59 255 189 0.421490
-0.092096 -0.105419 0.709771 59 255 189 0.421763
-0.094867 -0.106978 0.710749 59 255 189 0.421270
-0.089830 -0.094560 0.711642 59 255 189 0.419103
-0.086497 -0.093719 0.711155 59 255 189 0.421275
-0.084379 -0.092102 0.711525 62 255 185 0.422205
-0.081066 -0.091351 0.711020 62 255 185 0.425048
-0.083442 -0.089524 0.712633 59 255 189 0.421405
-0.081957 -0.093858 0.709877 62 255 185 0.425035
-0.085885 -0.097117 0.709357 59 255 189 0.421257
-0.081029 -0.088333 0.713391 62 255 185 0.422220
-0.077642 -0.088133 0.713273 62 255 185 0.425660
-0.075311 -0.087004 0.714031 66 255 182 0.426872
-0.071915 -0.086760 0.713807 66 255 182 0.428362
-0.074049 -0.084960 0.715660 66 255 182 0.427456
-0.073083 -0.088825 0.712147 66 255 182 0.427985
-0.069752 -0.088567 0.711898 66 255 182 0.428966
-0.074062 -0.090782 0.710549 66 255 182 0.427540
-0.077577 -0.091062 0.710809 66 255 182 0.426586
-0.071662 -0.084161 0.716665 66 255 182 0.428596
-0.068283 -0.084351 0.716728 66 255 182 0.429266
-0.066043 -0.083593 0.717761 66 255 182 0.428963
-0.064165 -0.085410 0.715784 66 255 182 0.429150
-0.065306 -0.087022 0.713816 66 255 182 0.429388
-0.068604 -0.086952 0.713912 66 255 182 0.429086
-0.059898 -0.088686 0.712263 66 255 182 0.429453
-0.060704 -0.090188 0.710456 66 255 182 0.429540
-0.063088 -0.088670 0.712185 66 255 182 0.429599
-0.064019 -0.090234 0.710359 66 255 182 0.429625
-0.067378 -0.090195 0.710294 66 255 182 0.429290
-0.064987 -0.091753 0.708699 66 255 182 0.429487
-0.066421 -0.088619 0.712063 66 255 182 0.429390
-0.062063 -0.087102 0.713979 66 255 182 0.429397
-0.068431 -0.092111 0.708997 66 255 182 0.428843
-0.069103 -0.093983 0.707567 66 255 182 0.428098
-0.071708 -0.092437 0.709087 66 255 182 0.426606
-0.072539 -0.094380 0.707770 46 255 202 0.402971
-0.075178 -0.092778 0.709208 66 255 182 0.426831
-0.070662 -0.090451 0.710413 66 255 182 0.428580
-0.048870 -0.096817 0.704245 66 255 182 0.428753
-0.048134 -0.098863 0.702822 66 255 182 0.427692
-0.050913 -0.099244 0.702668 66 255 182 0.429044
-0.051844 -0.097072 0.704060 79 255 169 0.442914
-0.055011 -0.097362 0.703910 66 255 182 0.429538
-0.042964 -0.098936 0.702632 66 255 182 0.426406
-0.045650 -0.101062 0.701633 66 255 182 0.426626
-0.048937 -0.104758 0.700979 66 255 182 0.427132
-0.052163 -0.102278 0.701826 66 255 182 0.428214
-0.052472 -0.105313 0.700917 66 255 182 0.427858
-0.048627 -0.101692 0.701768 66 255 182 0.427282
-0.056455 -0.104037 0.701464 66 255 182 0.428470
-0.054843 -0.100962 0.702440 66 255 182 0.428546
-0.058153 -0.101519 0.702444 66 255 182 0.428794
-0.061688 -0.101986 0.702446 66 255 182 0.429028
-0.069963 -0.095902 0.706465 66 255 182 0.427858
-0.065786 -0.093602 0.707444 66 255 182 0.429134
-0.061322 -0.093955 0.706654 66 255 182 0.429383
-0.062004 -0.095727 0.705507 66 255 182 0.429088
-0.065202 -0.096178 0.705721 66 255 182 0.426832
-0.065799 -0.098014 0.704685 49 255 198 0.407665
-0.069234 -0.098497 0.704838 69 255 179 0.430009
-0.061727 -0.091688 0.708886 66 255 182 0.429543
-0.057626 -0.090127 0.710527 66 255 182 0.429229
-0.054369 -0.092168 0.708379 66 255 182 0.428736
-0.057350 -0.092310 0.708207 66 255 182 0.429181
-0.058110 -0.093775 0.706723 66 255 182 0.429156
-0.051120 -0.094175 0.706534 66 255 182 0.428569
-0.053959 -0.094289 0.706315 62 255 185 0.425435
-0.058045 -0.097801 0.703998 66 255 182 0.429171
-0.061176 -0.098269 0.704068 66 255 182 0.428952
-0.064663 -0.100635 0.703359 66 255 182 0.428376
-0.069316 -0.072324 0.727367 66 255 182 0.427071
-0.066334 -0.071736 0.728289 66 255 182 0.428609
-0.063340 -0.072306 0.728443 69 255 179 0.430288
-0.060463 -0.071711 0.729366 91 255 156 0.459241
-0.057522 -0.072398 0.729477 62 255 185 0.424975
-0.057695 -0.069593 0.730747 59 255 189 0.419741
-0.060191 -0.074310 0.727883 91 255 156 0.457940
-0.057284 -0.074978 0.727979 62 255 185 0.425489
-0.062735 -0.074951 0.726825 69 255 179 0.430110
-0.065293 -0.075583 0.725803 66 255 182 0.428934
-0.068364 -0.074958 0.725659 66 255 182 0.428630
-0.067410 -0.077431 0.723714 66 255 182 0.428939
-0.054738 -0.069425 0.731858 0 218 255 0.338632
-0.052040 -0.070503 0.732402 46 255 202 0.406249
-0.049201 -0.070395 0.733455 49 255 198 0.409440
-0.049567 -0.073084 0.732394 56 255 192 0.415765
-0.052225 -0.073331 0.731310 56 255 192 0.415851
-0.054756 -0.073515 0.730021 59 255 189 0.418781
-0.051882 -0.077180 0.729154 23 255 224 0.376882
-0.054215 -0.077330 0.727865 59 255 189 0.418668
-0.056538 -0.077402 0.726439 62 255 185 0.423707
-0.049538 -0.075782 0.731146 56 255 192 0.417333
-0.058538 -0.079094 0.724387 62 255 185 0.425101
-0.060780 -0.079785 0.723284 62 255 185 0.424331
-0.063728 -0.079143 0.723016 66 255 182 0.425975
-0.066138 -0.079732 0.721919 66 255 182 0.427902
-0.061890 -0.077381 0.725115 66 255 182 0.427294
-0.059340 -0.076879 0.726241 66 255 182 0.427171
-0.067811 -0.081618 0.719870 66 255 182 0.429050
-0.070212 -0.082392 0.718800 66 255 182 0.429240
-0.073552 -0.082088 0.718849 66 255 182 0.427663
-0.075995 -0.082930 0.717873 66 255 182 0.425859
-0.077701 -0.080749 0.719978 62 255 185 0.424566
-0.075138 -0.079959 0.720879 66 255 182 0.426474
-0.071845 -0.080243 0.720841 66 255 182 0.428868
-0.069301 -0.079401 0.721841 66 255 182 0.429139
-0.077442 -0.085093 0.716058 62 255 185 0.424570
-0.079792 -0.086261 0.715298 59 255 189 0.421459
-0.083256 -0.086367 0.715577 20 254 228 0.373660
-0.085640 -0.087571 0.714828 56 255 192 0.414840
-0.087642 -0.085537 0.716953 53 255 195 0.413238
-0.085096 -0.084376 0.717755 1 230 247 0.350180
-0.081743 -0.084227 0.717418 56 255 192 0.415881
-0.079262 -0.083035 0.718210 62 255 185 0.422056
-0.091744 -0.081293 0.721941 53 255 195 0.412223
-0.089035 -0.079994 0.722637 53 255 195 0.412218
-0.085702 -0.079895 0.722244 56 255 192 0.415431
-0.082865 -0.078723 0.722875 56 255 192 0.417941
-0.079395 -0.078558 0.722316 62 255 185 0.422463
-0.081027 -0.076192 0.724515 59 255 189 0.420009
-0.081306 -0.080869 0.720567 59 255 189 0.420260
-0.083736 -0.082099 0.719831 56 255 192 0.415475
-0.087302 -0.082239 0.720346 56 255 192 0.415004
-0.089792 -0.083417 0.719438 56 255 192 0.416115
-0.078054 -0.075231 0.725202 62 255 185 0.422927
-0.074690 -0.075515 0.725023 66 255 182 0.425880
-0.071754 -0.074608 0.725780 66 255 182 0.426841
-0.070853 -0.077090 0.723935 66 255 182 0.428506
-0.073465 -0.077945 0.723046 66 255 182 0.427252
-0.076821 -0.077619 0.723154 62 255 185 0.424838
-0.030489 -0.070430 0.742564 59 255 189 0.419957
-0.034762 -0.067771 0.739855 59 255 189 0.421111
-0.032107 -0.067991 0.741621 59 255 189 0.420438
-0.027859 -0.070755 0.744061 56 255 192 0.417340
-0.040070 -0.067043 0.737931 59 255 189 0.420189
-0.042452 -0.065420 0.737256 59 255 189 0.420828
-0.045085 -0.065071 0.736177 59 255 189 0.419623
-0.036912 -0.066409 0.739354 59 255 189 0.421262
-0.043018 -0.059266 0.738736 59 255 189 0.420190
-0.040046 -0.060020 0.739972 56 255 192 0.416055
-0.037731 -0.061624 0.740449 56 255 192 0.417025
-0.034876 -0.062235 0.741437 59 255 189 0.418161
-0.032650 -0.063748 0.741771 59 255 189 0.418922
-0.043861 -0.061514 0.737637 59 255 189 0.421463
-0.029436 -0.063472 0.744373 56 255 192 0.414656
-0.027873 -0.065809 0.745177 53 255 195 0.412878
-0.025691 -0.067200 0.746163 53 255 195 0.410366
-0.023987 -0.043656 0.756645 27 255 221 0.380185
-0.022037 -0.045598 0.757601 17 250 231 0.369186
-0.021227 -0.048421 0.757299 14 246 234 0.365323
-0.019135 -0.050224 0.757936 20 254 228 0.372541
-0.021428 -0.051998 0.755703 0 118 255 0.240966
-0.023731 -0.050627 0.755020 0 226 250 0.345570
-0.024621 -0.047823 0.755326 11 242 237 0.362536
-0.026839 -0.046263 0.754290 20 254 228 0.372785
-0.027598 -0.043370 0.754372 33 255 215 0.389446
-0.030563 -0.046049 0.752031 36 255 211 0.391628
-0.016279 -0.051613 0.759917 40 255 208 0.395307
-0.014629 -0.054153 0.760617 46 255 202 0.405458
-0.013935 -0.056958 0.760289 49 255 198 0.407131
-0.012069 -0.059256 0.760575 49 255 198 0.406584
-0.013934 -0.060110 0.758551 192 255 56 0.579255
-0.015944 -0.058230 0.758189 36 255 211 0.392302
-0.016758 -0.055415 0.758713 36 255 211 0.394257
-0.018613 -0.053331 0.757918 27 255 221 0.379272
-0.019361 -0.060769 0.754068 0 222 253 0.341371
-0.020478 -0.058241 0.754476 1 230 247 0.348749
-0.022599 -0.056427 0.753542 1 230 247 0.349879
-0.023509 -0.053725 0.753587 0 214 255 0.335445
-0.025649 -0.055507 0.751237 11 242 237 0.362498
-0.020582 -0.054678 0.755867 4 234 244 0.355214
-0.018744 -0.056773 0.756668 20 254 228 0.373096
-0.017577 -0.059323 0.756284 4 234 244 0.351981
-0.015515 -0.061156 0.756632 11 242 237 0.360157
-0.028172 -0.054545 0.750512 14 246 234 0.364171
-0.029457 -0.052179 0.750782 17 250 231 0.369521
-0.032027 -0.051101 0.749835 30 255 218 0.385320
-0.033355 -0.048636 0.749894 36 255 211 0.394248
-0.036045 -0.051312 0.747673 40 255 208 0.395362
-0.029391 -0.048521 0.752012 23 255 224 0.377232
-0.027095 -0.050052 0.752989 0 222 253 0.343454
-0.025852 -0.052375 0.752786 0 0 178 0.044307
-0.037481 -0.025798 0.758620 62 255 185 0.424673
-0.033796 -0.026238 0.759713 62 255 185 0.423889
-0.034666 -0.027519 0.757971 66 255 182 0.428792
-0.030346 -0.026742 0.760753 62 255 185 0.422094
-0.031140 -0.028066 0.759126 62 255 185 0.422707
-0.027829 -0.028668 0.760217 59 255 189 0.420825
-0.027040 -0.027360 0.761708 59 255 189 0.420512
-0.031934 -0.029439 0.757486 62 255 185 0.422812
-0.028584 -0.030014 0.758715 59 255 189 0.421234
-0.029433 -0.031360 0.757183 59 255 189 0.420300
-0.036140 -0.030294 0.755027 62 255 185 0.423848
-0.038917 -0.028507 0.755522 62 255 185 0.424652
-0.041851 -0.026786 0.756230 62 255 185 0.424648
-0.043329 -0.029498 0.753407 62 255 185 0.425316
-0.024258 -0.028640 0.762704 56 255 192 0.417831
-0.020765 -0.029952 0.763988 53 255 195 0.413814
-0.022376 -0.031303 0.762205 56 255 192 0.414740
-0.017443 -0.031187 0.765012 53 255 195 0.413212
-0.019034 -0.032601 0.763487 53 255 195 0.411982
-0.020659 -0.034010 0.761882 27 255 221 0.379391
-0.021467 -0.035369 0.760650 49 255 198 0.408342
-0.023167 -0.032679 0.760938 53 255 195 0.414039
-0.023995 -0.034058 0.759558 56 255 192 0.414137
-0.025808 -0.031303 0.759837 59 255 189 0.418011
-0.025028 -0.029978 0.761286 56 255 192 0.417954
-0.026642 -0.032679 0.758423 56 255 192 0.417553
-0.027122 -0.039599 0.755559 46 255 202 0.405703
-0.028347 -0.037238 0.755741 53 255 195 0.411815
-0.031051 -0.036065 0.754511 56 255 192 0.416365
-0.032405 -0.033764 0.754589 59 255 189 0.419977
-0.035394 -0.036203 0.751987 59 255 189 0.420623
-0.024310 -0.037312 0.758168 49 255 198 0.408920
-0.038612 -0.035759 0.751089 62 255 185 0.422913
-0.040579 -0.034064 0.751409 62 255 185 0.424148
-0.043959 -0.033795 0.750655 62 255 185 0.424779
-0.046030 -0.032222 0.751180 62 255 185 0.424786
-0.048723 -0.035071 0.749095 62 255 185 0.422533
-0.041231 -0.031074 0.752828 62 255 185 0.424944
-0.034180 -0.032001 0.754705 62 255 185 0.422095
-0.048749 -0.067576 0.734471 14 246 234 0.365864
-0.051677 -0.067839 0.733514 0 182 255 0.304349
-0.054402 -0.066676 0.733123 49 255 198 0.408538
-0.057381 -0.066833 0.731989 59 255 189 0.419342
-0.056947 -0.064110 0.733169 62 255 185 0.422136
-0.053830 -0.064124 0.734179 53 255 195 0.413625
-0.051113 -0.065274 0.734579 49 255 198 0.409389
-0.047770 -0.064013 0.735850 59 255 189 0.418177
-0.060786 -0.068815 0.730756 66 255 182 0.426133
-0.063694 -0.069508 0.729934 66 255 182 0.427978
-0.066953 -0.068707 0.729926 66 255 182 0.426481
-0.069914 -0.069466 0.729049 66 255 182 0.426404
-0.070281 -0.066583 0.730586 62 255 185 0.424834
-0.066946 -0.065994 0.731288 49 255 198 0.409532
-0.063773 -0.066587 0.731260 66 255 182 0.425859
-0.060510 -0.066016 0.731990 62 255 185 0.424886
-0.069799 -0.060677 0.733805 59 255 189 0.419466
-0.066296 -0.060168 0.734310 43 255 205 0.402263
-0.063093 -0.060886 0.734135 62 255 185 0.424427
-0.059520 -0.060438 0.734645 79 255 169 0.441892
-0.056335 -0.061375 0.734479 62 255 185 0.423387
-0.055716 -0.058679 0.735823 59 255 189 0.420949
-0.060160 -0.063109 0.733262 62 255 185 0.425587
-0.063526 -0.063737 0.732623 62 255 185 0.425241
-0.066750 -0.062941 0.732865 62 255 185 0.423385
-0.070046 -0.063680 0.732245 62 255 185 0.423252
-0.052479 -0.058839 0.736681 69 255 179 0.430867
-0.049739 -0.060090 0.736853 59 255 189 0.420474
-0.046621 -0.060281 0.737564 66 255 182 0.427438
-0.050470 -0.062597 0.735661 59 255 189 0.419567
-0.053253 -0.061239 0.735394 62 255 185 0.422017
-0.047091 -0.036810 0.748695 62 255 185 0.424389
-0.043690 -0.037016 0.749224 62 255 185 0.423803
-0.045496 -0.038624 0.748352 62 255 185 0.423563
-0.040419 -0.037333 0.750103 62 255 185 0.422663
-0.042181 -0.038945 0.749107 62 255 185 0.422323
-0.038981 -0.039292 0.749978 62 255 185 0.423555
-0.037173 -0.037708 0.750965 59 255 189 0.421477
-0.043983 -0.040462 0.748088 59 255 189 0.421653
-0.040703 -0.040890 0.748930 59 255 189 0.421472
-0.042426 -0.042373 0.747822 59 255 189 0.419754
-0.045747 -0.042153 0.747118 59 255 189 0.421745
-0.047306 -0.040354 0.747447 62 255 185 0.423298
-0.049128 -0.042018 0.746519 62 255 185 0.423450
-0.050648 -0.040262 0.746951 62 255 185 0.424530
-0.048875 -0.038553 0.747809 62 255 185 0.424348
-0.052243 -0.038575 0.747400 62 255 185 0.424794
-0.052364 -0.041963 0.746047 62 255 185 0.424736
-0.053907 -0.040274 0.746564 62 255 185 0.425071
-0.055548 -0.041966 0.745572 62 255 185 0.425131
-0.050521 -0.036818 0.748252 62 255 185 0.423787
-0.034255 -0.038668 0.752216 56 255 192 0.416354
-0.031446 -0.039804 0.753461 49 255 198 0.407881
-0.030323 -0.042258 0.753436 40 255 208 0.398432
-0.033424 -0.045177 0.751115 95 255 153 0.463434
-0.034707 -0.042670 0.751187 53 255 195 0.412801
-0.036317 -0.044261 0.750089 53 255 195 0.412605
-0.037686 -0.041772 0.750101 111 255 137 0.484058
-0.035995 -0.040235 0.751199 59 255 189 0.419768
-0.039335 -0.043278 0.748948 59 255 189 0.419434
-0.039178 -0.050668 0.746808 46 255 202 0.403546
-0.040850 -0.048415 0.746894 49 255 198 0.407418
-0.044065 -0.047735 0.745847 53 255 195 0.414033
-0.045737 -0.045510 0.745920 59 255 189 0.418436
-0.048699 -0.048705 0.743763 59 255 189 0.419358
-0.036221 -0.047774 0.748974 43 255 205 0.401620
-0.052036 -0.048647 0.743221 62 255 185 0.422038
-0.050456 -0.046881 0.744155 62 255 185 0.422098
-0.053724 -0.046858 0.743637 62 255 185 0.423471
-0.055279 -0.048582 0.742582 62 255 185 0.422696
-0.052125 -0.045143 0.744570 62 255 185 0.423762
-0.057042 -0.046927 0.743086 49 255 198 0.409076
-0.055461 -0.045181 0.744104 62 255 185 0.423785
-0.058681 -0.045356 0.743688 62 255 185 0.422745
-0.058545 -0.048631 0.742138 62 255 185 0.422134
-0.060246 -0.047030 0.742669 49 255 198 0.408364
-0.061883 -0.048696 0.741596 62 255 185 0.423298
-0.057178 -0.043651 0.744721 62 255 185 0.424667
-0.089905 -0.028525 0.774027 66 255 182 0.427398
-0.088488 -0.026245 0.775928 59 255 189 0.420338
-0.091441 -0.026376 0.777319 62 255 185 0.423173
-0.087035 -0.023991 0.777826 56 255 192 0.414293
-0.090017 -0.024198 0.779275 59 255 189 0.418229
-0.088523 -0.022013 0.781268 53 255 195 0.411105
-0.092924 -0.024333 0.780652 59 255 189 0.421181
-0.085557 -0.021785 0.779719 53 255 195 0.410521
-0.083973 -0.019504 0.781730 56 255 192 0.415887
-0.082187 -0.021683 0.777642 49 255 198 0.409355
-0.083682 -0.023989 0.775828 53 255 195 0.411952
-0.085172 -0.026319 0.774029 56 255 192 0.416106
-0.080331 -0.023917 0.773765 53 255 195 0.411828
-0.091752 -0.022228 0.782975 56 255 192 0.414370
-0.094644 -0.022588 0.784164 59 255 189 0.419094
-0.090621 -0.020180 0.785301 49 255 198 0.406492
-0.093434 -0.020564 0.786574 49 255 198 0.408662
-0.088424 -0.018983 0.785633 46 255 202 0.403688
-0.086122 -0.017715 0.785935 46 255 202 0.404972
-0.078768 -0.013894 0.787786 49 255 198 0.409265
-0.081348 -0.015116 0.787296 49 255 198 0.406669
-0.077455 -0.014787 0.785369 53 255 195 0.410609
-0.080161 -0.016081 0.784890 49 255 198 0.408319
-0.078862 -0.017007 0.782499 49 255 198 0.407419
-0.076245 -0.015768 0.782904 53 255 195 0.410743
-0.082717 -0.017323 0.784441 49 255 198 0.407107
-0.081451 -0.018263 0.782146 49 255 198 0.408258
-0.084822 -0.015576 0.788726 43 255 205 0.402030
-0.074328 -0.017849 0.778424 46 255 202 0.405390
-0.077122 -0.019056 0.778328 0 150 255 0.272534
-0.073247 -0.018913 0.776171 53 255 195 0.412591
-0.076051 -0.020193 0.776094 46 255 202 0.402626
-0.074985 -0.021320 0.773912 53 255 195 0.412386
-0.072101 -0.019973 0.773987 56 255 192 0.415589
-0.078785 -0.021462 0.775990 46 255 202 0.406124
-0.077693 -0.022627 0.773856 53 255 195 0.411412
-0.065680 -0.018894 0.771993 59 255 189 0.421093
-0.062773 -0.017793 0.772415 62 255 185 0.422401
-0.062093 -0.019128 0.769967 62 255 185 0.423164
-0.059871 -0.016759 0.773003 59 255 189 0.421755
-0.059129 -0.018076 0.770437 62 255 185 0.423457
-0.056083 -0.017085 0.771006 62 255 185 0.422939
-0.056799 -0.015836 0.773543 30 255 218 0.384170
-0.058379 -0.019400 0.767979 59 255 189 0.419921
-0.055340 -0.018393 0.768504 62 255 185 0.425611
-0.054623 -0.019722 0.766059 66 255 182 0.426388
-0.057740 -0.020634 0.765812 62 255 185 0.425522
-0.061446 -0.020362 0.767818 62 255 185 0.423603
-0.060814 -0.021600 0.765705 62 255 185 0.424194
-0.064514 -0.021375 0.767741 62 255 185 0.422433
-0.065123 -0.020118 0.769865 62 255 185 0.422002
-0.067958 -0.021127 0.769836 59 255 189 0.420312
-0.063798 -0.022651 0.765677 62 255 185 0.422676
-0.067303 -0.022388 0.767778 59 255 189 0.420792
-0.066587 -0.023666 0.765730 59 255 189 0.421051
-0.068613 -0.019891 0.771925 59 255 189 0.419728
-0.053470 -0.015361 0.774113 62 255 185 0.423657
-0.050213 -0.014764 0.774982 66 255 182 0.426000
-0.049298 -0.016188 0.772074 66 255 182 0.426520
-0.046929 -0.014259 0.775869 66 255 182 0.426302
-0.046109 -0.015677 0.772948 66 255 182 0.426349
-0.045182 -0.017144 0.770141 66 255 182 0.426243
-0.044464 -0.018444 0.767728 66 255 182 0.426110
-0.048545 -0.017486 0.769529 66 255 182 0.426752
-0.047791 -0.018777 0.767094 66 255 182 0.426706
-0.051985 -0.017896 0.768990 66 255 182 0.426534
-0.052731 -0.016595 0.771524 62 255 185 0.425517
-0.051270 -0.019213 0.766526 66 255 182 0.426789
-0.043825 -0.024245 0.758999 43 255 205 0.400905
-0.043810 -0.022819 0.760867 46 255 202 0.402513
-0.047309 -0.023061 0.760438 62 255 185 0.425025
-0.047265 -0.024478 0.758561 62 255 185 0.424782
-0.047383 -0.021712 0.762390 62 255 185 0.425743
-0.050767 -0.023386 0.760130 66 255 182 0.426468
-0.050842 -0.022022 0.762086 66 255 182 0.426702
-0.054314 -0.022457 0.761907 66 255 182 0.426608
-0.050667 -0.024814 0.758283 66 255 182 0.426043
-0.054211 -0.023827 0.759992 66 255 182 0.426298
-0.054054 -0.025214 0.758130 62 255 185 0.425577
-0.051034 -0.020730 0.764109 66 255 182 0.426801
-0.054482 -0.021122 0.763936 66 255 182 0.426579
-0.047545 -0.020265 0.764664 66 255 182 0.426392
-0.044203 -0.019915 0.765296 62 255 185 0.425611
-0.044000 -0.021357 0.763020 62 255 185 0.423864
-0.057249 -0.026098 0.758266 62 255 185 0.423904
-0.060333 -0.025710 0.760070 62 255 185 0.423930
-0.063276 -0.026721 0.760399 62 255 185 0.422742
-0.066264 -0.026433 0.762373 59 255 189 0.420731
-0.066020 -0.029054 0.759153 59 255 189 0.421522
-0.063499 -0.024082 0.763634 62 255 185 0.422455
-0.060632 -0.023023 0.763682 62 255 185 0.424368
-0.057592 -0.022052 0.763738 66 255 182 0.425857
-0.057503 -0.023431 0.761730 62 255 185 0.425599
-0.063717 -0.029445 0.757571 62 255 185 0.422456
-0.060818 -0.028435 0.757246 59 255 189 0.421438
-0.058365 -0.028890 0.755705 36 255 211 0.391999
-0.055335 -0.028057 0.755434 62 255 185 0.422152
-0.056560 -0.030855 0.752978 46 255 202 0.405848
-0.059620 -0.031759 0.753365 59 255 189 0.421350
-0.062000 -0.031312 0.754895 62 255 185 0.422390
-0.064914 -0.032336 0.755349 62 255 185 0.422052
-0.067182 -0.031973 0.756975 59 255 189 0.421089
-0.068317 -0.034792 0.754751 59 255 189 0.421252
-0.048614 -0.027189 0.755395 62 255 185 0.425495
-0.045238 -0.026957 0.755765 62 255 185 0.424989
-0.046662 -0.029696 0.753113 62 255 185 0.425401
-0.050029 -0.029960 0.752936 62 255 185 0.424243
-0.052675 -0.028955 0.754112 62 255 185 0.423741
-0.050687 -0.033891 0.749853 40 255 208 0.397427
-0.053945 -0.034355 0.749987 59 255 189 0.420397
-0.057152 -0.034984 0.750136 36 255 211 0.394265
-0.059049 -0.034036 0.751211 59 255 189 0.420210
-0.061369 -0.037135 0.749438 62 255 185 0.423177
-0.054561 -0.031800 0.751874 46 255 202 0.404922
-0.064283 -0.038072 0.749897 59 255 189 0.421440
-0.067142 -0.039117 0.750425 33 255 215 0.388982
-0.064821 -0.035879 0.751956 62 255 185 0.422088
-0.067640 -0.036985 0.752556 59 255 189 0.420277
-0.070430 -0.038137 0.753209 62 255 185 0.422544
-0.069949 -0.040171 0.750930 59 255 189 0.420718
-0.072692 -0.041326 0.751438 59 255 189 0.421781
-0.061978 -0.034944 0.751562 62 255 185 0.422785
-0.073420 -0.063400 0.732697 59 255 189 0.421470
-0.076980 -0.065957 0.731540 59 255 189 0.421248
-0.073637 -0.066279 0.731088 62 255 185 0.423592
-0.077217 -0.068700 0.729876 59 255 189 0.421602
-0.080489 -0.068552 0.730452 59 255 189 0.418041
-0.083832 -0.070996 0.729094 56 255 192 0.414698
-0.084141 -0.068274 0.731354 53 255 195 0.412802
-0.080764 -0.065726 0.732573 56 255 192 0.416156
-0.077273 -0.063006 0.733582 59 255 189 0.419841
-0.084292 -0.065633 0.733652 46 255 202 0.403748
-0.073048 -0.069185 0.729315 62 255 185 0.424352
-0.075701 -0.071640 0.727787 62 255 185 0.422640
-0.072512 -0.071876 0.727535 49 255 198 0.409024
-0.079212 -0.072599 0.727293 59 255 189 0.421012
-0.082608 -0.073555 0.726814 56 255 192 0.417037
-0.090686 -0.077820 0.725442 43 255 205 0.400335
-0.093584 -0.079271 0.725123 0 210 255 0.330351
-0.087750 -0.076394 0.725865 11 242 237 0.361553
-0.089542 -0.074261 0.728743 0 162 255 0.283009
-0.092248 -0.075855 0.728518 7 238 240 0.357952
-0.094982 -0.077506 0.728246 43 255 205 0.400979
-0.085779 -0.073784 0.727565 49 255 198 0.407923
-0.084481 -0.076231 0.725148 53 255 195 0.413046
-0.095605 -0.076489 0.730119 43 255 205 0.401155
-0.092932 -0.073611 0.731597 75 255 172 0.440818
-0.096244 -0.075484 0.731962 40 255 208 0.396371
-0.089554 -0.071842 0.731257 46 255 202 0.402634
-0.093511 -0.072575 0.733402 43 255 205 0.399109
-0.090311 -0.070669 0.732904 46 255 202 0.403022
-0.091008 -0.069594 0.734657 40 255 208 0.395043
-0.096772 -0.074604 0.733988 20 254 228 0.374248
-0.094158 -0.071617 0.735287 30 255 218 0.386503
-0.097327 -0.073838 0.736134 0 86 255 0.207459
-0.086993 -0.068835 0.732495 49 255 198 0.407639
-0.087791 -0.067609 0.734132 43 255 205 0.401826
-0.086784 -0.071357 0.730164 49 255 198 0.407898
-0.070355 -0.042831 0.748674 59 255 189 0.421267
-0.067536 -0.041766 0.748278 59 255 189 0.421393
-0.064626 -0.040779 0.747890 62 255 185 0.422591
-0.067984 -0.044422 0.746020 62 255 185 0.422371
-0.070821 -0.045529 0.746458 59 255 189 0.419956
-0.073682 -0.046702 0.746858 53 255 195 0.413718
-0.073131 -0.044034 0.749195 59 255 189 0.418137
-0.075888 -0.045316 0.749740 49 255 198 0.406390
-0.076418 -0.047971 0.747293 46 255 202 0.405779
-0.079112 -0.049249 0.747809 40 255 208 0.397498
-0.056904 -0.037627 0.748244 62 255 185 0.423064
-0.058485 -0.039357 0.747408 62 255 185 0.424424
-0.060080 -0.041178 0.746635 62 255 185 0.424622
-0.061735 -0.043032 0.745743 62 255 185 0.424317
-0.064851 -0.043695 0.745867 62 255 185 0.423615
-0.065181 -0.049434 0.741613 62 255 185 0.424247
-0.068522 -0.050264 0.741611 62 255 185 0.422750
-0.064902 -0.046454 0.743619 62 255 185 0.423614
-0.068213 -0.047328 0.743831 62 255 185 0.421996
-0.071425 -0.048330 0.744002 56 255 192 0.415056
-0.071804 -0.051189 0.741735 59 255 189 0.418095
-0.075061 -0.052139 0.741859 53 255 195 0.413683
-0.077879 -0.053407 0.742351 53 255 195 0.411781
-0.080618 -0.054725 0.742875 46 255 202 0.403654
-0.077129 -0.050568 0.744738 49 255 198 0.407315
-0.079832 -0.051953 0.745354 46 255 202 0.404420
-0.082495 -0.053311 0.745988 33 255 215 0.389607
-0.083282 -0.056072 0.743447 40 255 208 0.394743
-0.085910 -0.057419 0.744022 30 255 218 0.383414
-0.074344 -0.049365 0.744341 0 206 255 0.327603
-0.086928 -0.028751 0.772372 62 255 185 0.423679
-0.083959 -0.028930 0.770713 56 255 192 0.417708
-0.082157 -0.026414 0.772228 53 255 195 0.412961
-0.079086 -0.026422 0.770356 53 255 195 0.411929
-0.080925 -0.028974 0.768874 53 255 195 0.412351
-0.077865 -0.028923 0.767034 49 255 198 0.409774
-0.082970 -0.031402 0.767820 62 255 185 0.424930
-0.085983 -0.031274 0.769550 69 255 179 0.433241
-0.088987 -0.031015 0.771074 72 255 176 0.433923
-0.088014 -0.033549 0.768253 82 255 166 0.446566
-0.077006 -0.023995 0.771856 53 255 195 0.412042
-0.074350 -0.022640 0.771856 56 255 192 0.414305
-0.073625 -0.023915 0.769897 56 255 192 0.414640
-0.071537 -0.021278 0.771868 56 255 192 0.417034
-0.070853 -0.022545 0.769865 56 255 192 0.417510
-0.070183 -0.023844 0.767821 59 255 189 0.418183
-0.072466 -0.026387 0.766355 56 255 192 0.414817
-0.075847 -0.026468 0.768447 53 255 195 0.411940
-0.068973 -0.030433 0.759763 59 255 189 0.418379
-0.071914 -0.030567 0.761718 53 255 195 0.411798
-0.074687 -0.031807 0.762309 46 255 202 0.402886
-0.077521 -0.031697 0.764234 46 255 202 0.404404
-0.077334 -0.034376 0.761485 43 255 205 0.401917
-0.074988 -0.029148 0.765067 49 255 198 0.409796
-0.069384 -0.026438 0.764377 56 255 192 0.417666
-0.080010 -0.035674 0.762140 49 255 198 0.409906
-0.082654 -0.035571 0.763828 62 255 185 0.424822
-0.085263 -0.036683 0.764253 72 255 176 0.435117
-0.087864 -0.036404 0.765805 82 255 166 0.445625
-0.087850 -0.039105 0.763319 72 255 176 0.435238
-0.085352 -0.033991 0.766702 208 255 40 0.598089
-0.080313 -0.031572 0.766065 53 255 195 0.411808
-0.085782 -0.039504 0.761944 62 255 185 0.425521
-0.083138 -0.038368 0.761575 59 255 189 0.420552
-0.081076 -0.038591 0.760074 53 255 195 0.413382
-0.078384 -0.037365 0.759474 46 255 202 0.405265
-0.079460 -0.040232 0.757338 43 255 205 0.401123
-0.082116 -0.041468 0.757986 49 255 198 0.408292
-0.084150 -0.041288 0.759467 56 255 192 0.415529
-0.086795 -0.042434 0.759902 56 255 192 0.417771
-0.088880 -0.042064 0.761297 66 255 182 0.428788
-0.089959 -0.044975 0.759129 59 255 189 0.420701
-0.075028 -0.034620 0.759741 46 255 202 0.405282
-0.072304 -0.033278 0.759203 53 255 195 0.410910
-0.070018 -0.033303 0.757526 56 255 192 0.417542
-0.071119 -0.036180 0.755438 59 255 189 0.420109
-0.073375 -0.036139 0.757095 56 255 192 0.414266
-0.076145 -0.037506 0.757789 43 255 205 0.402295
-0.075474 -0.042733 0.752034 53 255 195 0.413884
-0.078231 -0.044146 0.752581 40 255 208 0.398324
-0.076065 -0.040812 0.754389 56 255 192 0.414498
-0.078810 -0.042210 0.755018 40 255 208 0.397797
-0.081465 -0.043485 0.755545 40 255 208 0.396530
-0.080914 -0.045436 0.753175 30 255 218 0.383921
-0.083539 -0.046725 0.753631 27 255 221 0.381199
-0.073240 -0.039477 0.753825 91 255 156 0.457187
-0.085979 -0.047973 0.754132 30 255 218 0.384411
-0.088455 -0.049098 0.754630 36 255 211 0.392515
-0.086697 -0.046015 0.756491 0 150 255 0.272419
-0.089122 -0.047153 0.756903 46 255 202 0.403060
-0.091594 -0.048207 0.757249 59 255 189 0.419521
-0.090857 -0.050257 0.755019 46 255 202 0.406031
-0.093419 -0.051374 0.755387 56 255 192 0.417009
-0.084107 -0.044799 0.756066 36 255 211 0.390856
-0.122881 -0.126762 0.809714 59 255 189 0.421638
-0.120040 -0.126927 0.811555 59 255 189 0.421417
-0.119167 -0.128643 0.808632 59 255 189 0.419067
-0.122014 -0.128161 0.806701 59 255 189 0.419323
-0.116333 -0.129169 0.810472 59 255 189 0.419790
-0.118400 -0.130168 0.805695 59 255 189 0.418511
-0.115598 -0.130932 0.807647 85 255 163 0.450854
-0.114942 -0.132462 0.804802 59 255 189 0.418051
-0.121209 -0.129435 0.803669 56 255 192 0.417600
-0.117657 -0.131447 0.802798 56 255 192 0.415976
-0.120402 -0.130410 0.800694 56 255 192 0.415470
-0.112863 -0.131692 0.809454 59 255 189 0.418671
-0.112260 -0.133452 0.806769 59 255 189 0.418619
-0.109591 -0.134355 0.808599 59 255 189 0.420623
-0.110223 -0.132056 0.811492 56 255 192 0.417626
-0.113583 -0.129353 0.812432 59 255 189 0.418041
-0.110893 -0.129652 0.814379 59 255 189 0.418151
-0.114458 -0.127040 0.815578 59 255 189 0.421630
-0.117282 -0.127011 0.813639 59 255 189 0.421226
-0.111744 -0.127262 0.817432 62 255 185 0.422527
-0.119893 -0.131012 0.797277 53 255 195 0.411993
-0.117123 -0.132433 0.799327 53 255 195 0.413464
-0.116575 -0.133031 0.795983 49 255 198 0.409706
-0.119457 -0.131366 0.793821 46 255 202 0.406218
-0.113819 -0.134681 0.797932 53 255 195 0.413545
-0.115972 -0.133493 0.792633 46 255 202 0.404462
-0.113140 -0.135200 0.794543 53 255 195 0.410790
-0.112418 -0.135688 0.791186 49 255 198 0.409618
-0.118986 -0.131652 0.790341 36 255 211 0.394242
-0.115355 -0.133908 0.789206 43 255 205 0.399956
-0.118560 -0.131967 0.786871 23 255 224 0.378177
-0.110457 -0.136823 0.796290 33 255 215 0.388359
-0.109724 -0.137295 0.792885 56 255 192 0.414489
-0.107155 -0.138728 0.794429 59 255 189 0.419209
-0.107953 -0.138108 0.798065 59 255 189 0.418429
-0.111213 -0.136040 0.799884 56 255 192 0.416366
-0.108655 -0.137264 0.801728 59 255 189 0.420281
-0.111814 -0.134951 0.803412 59 255 189 0.418125
-0.114448 -0.133734 0.801410 56 255 192 0.415871
-0.109220 -0.136044 0.805263 62 255 185 0.422139
-0.098883 -0.141578 0.804341 62 255 185 0.424471
-0.099500 -0.140238 0.807976 59 255 189 0.420123
-0.102627 -0.139548 0.805904 66 255 182 0.428713
-0.099947 -0.138224 0.811304 62 255 185 0.423939
-0.103112 -0.137715 0.809332 66 255 182 0.426267
-0.103437 -0.135413 0.812546 62 255 185 0.422811
-0.100255 -0.135750 0.814394 62 255 185 0.422693
-0.106166 -0.137067 0.807316 108 255 140 0.480294
-0.106549 -0.134902 0.810612 62 255 185 0.423222
-0.105684 -0.138484 0.803820 62 255 185 0.425504
-0.105055 -0.139404 0.800137 62 255 185 0.422948
-0.102019 -0.140567 0.802265 62 255 185 0.424257
-0.101285 -0.141182 0.798535 62 255 185 0.424373
-0.104283 -0.139983 0.796449 69 255 179 0.430529
-0.098113 -0.142251 0.800662 62 255 185 0.424673
-0.100747 -0.133066 0.817001 62 255 185 0.421912
-0.101449 -0.130049 0.819871 62 255 185 0.425094
-0.104506 -0.130086 0.817990 59 255 189 0.421428
-0.102245 -0.127066 0.822765 62 255 185 0.425393
-0.105342 -0.127206 0.821018 62 255 185 0.424454
-0.108454 -0.127325 0.819137 62 255 185 0.423268
-0.107742 -0.129912 0.816193 59 255 189 0.418946
-0.107110 -0.132487 0.813431 59 255 189 0.418815
-0.103975 -0.132882 0.815287 59 255 189 0.420544
-0.090892 -0.052828 0.752750 33 255 215 0.387615
-0.088520 -0.051648 0.752309 0 138 255 0.258196
-0.086071 -0.050449 0.751862 23 255 224 0.375873
-0.088617 -0.054133 0.749943 20 254 228 0.372742
-0.090735 -0.055231 0.750472 23 255 224 0.375778
-0.092931 -0.056306 0.751001 0 110 255 0.232930
-0.093127 -0.053897 0.753239 43 255 205 0.402330
-0.095549 -0.054994 0.753692 56 255 192 0.414587
-0.095336 -0.057442 0.751526 43 255 205 0.399139
-0.097997 -0.058707 0.751989 59 255 189 0.421568
-0.081316 -0.048008 0.750771 23 255 224 0.375848
-0.078648 -0.046709 0.750271 0 158 255 0.279657
-0.081593 -0.050449 0.748405 33 255 215 0.386945
-0.083935 -0.051721 0.748941 17 250 231 0.370824
-0.083703 -0.049264 0.751323 20 254 228 0.374691
-0.086298 -0.052960 0.749477 17 250 231 0.369596
-0.087963 -0.058544 0.744637 17 250 231 0.367310
-0.089891 -0.059653 0.745253 4 234 244 0.355348
-0.087240 -0.055815 0.746984 11 242 237 0.361996
-0.089195 -0.056906 0.747575 14 246 234 0.367067
-0.091289 -0.058038 0.748205 23 255 224 0.377436
-0.091909 -0.060808 0.745853 0 114 255 0.237916
-0.094058 -0.061940 0.746503 23 255 224 0.375975
-0.084867 -0.054570 0.746499 20 254 228 0.373076
-0.097090 -0.062170 0.748662 49 255 198 0.407846
-0.100732 -0.062471 0.750565 66 255 182 0.426498
-0.100964 -0.065104 0.748713 59 255 189 0.419711
-0.093461 -0.059159 0.748749 30 255 218 0.386283
-0.043907 -0.109318 0.700132 66 255 182 0.426219
-0.041055 -0.109891 0.700080 62 255 185 0.425564
-0.039123 -0.112090 0.700024 62 255 185 0.425743
-0.036332 -0.112751 0.699974 62 255 185 0.425626
-0.038076 -0.115808 0.699759 66 255 182 0.426362
-0.040885 -0.115142 0.699791 66 255 182 0.426547
-0.042795 -0.112926 0.699959 66 255 182 0.426240
-0.045667 -0.112221 0.699959 66 255 182 0.426779
-0.047859 -0.110047 0.700207 66 255 182 0.426480
-0.049766 -0.112989 0.700080 66 255 182 0.427448
-0.031885 -0.112011 0.699753 62 255 185 0.423806
-0.028216 -0.112865 0.699223 62 255 185 0.423149
-0.025166 -0.115459 0.698547 62 255 185 0.422191
-0.026874 -0.118465 0.698543 62 255 185 0.422971
-0.029957 -0.115893 0.699317 62 255 185 0.424208
-0.033688 -0.115031 0.699701 62 255 185 0.425172
-0.029346 -0.124781 0.698943 62 255 185 0.424102
-0.032763 -0.122226 0.699456 62 255 185 0.425063
-0.036474 -0.121475 0.699748 66 255 182 0.425976
-0.039319 -0.119059 0.699944 66 255 182 0.426638
-0.040557 -0.122363 0.699973 66 255 182 0.426679
