ply
format ascii 1.0
comment VCGLIB generated
element vertex 960
property float x
property float y
property float z
property uchar red
property uchar green
property uchar blue
property float quality
end_header
0.044093 -0.034927 0.793872 147 255 101 0.526532
0.041566 -0.035478 0.792668 143 255 104 0.522240
0.041252 -0.031257 0.793639 147 255 101 0.526086
0.043592 -0.026439 0.796017 153 255 95 0.533754
0.040918 -0.027019 0.794656 153 255 95 0.531887
0.043083 -0.022399 0.797222 163 255 85 0.543789
0.045691 -0.021933 0.798683 156 255 92 0.537477
0.044941 -0.018124 0.799994 160 255 88 0.539551
0.040445 -0.022920 0.795811 156 255 92 0.536139
0.042358 -0.018583 0.798532 160 255 88 0.539400
0.039725 -0.019054 0.797093 156 255 92 0.539028
0.047511 -0.017699 0.801487 160 255 88 0.539729
0.049188 -0.038633 0.795903 150 255 98 0.527656
0.049130 -0.043118 0.795183 153 255 95 0.534537
0.046766 -0.043602 0.793976 150 255 98 0.529902
0.049083 -0.047443 0.794599 228 255 20 0.623787
0.046762 -0.047862 0.793388 160 255 88 0.540895
0.044471 -0.048242 0.792219 153 255 95 0.534842
0.042062 -0.048622 0.791008 153 255 95 0.534875
0.044282 -0.044058 0.792731 150 255 98 0.528985
0.041825 -0.044454 0.791495 150 255 98 0.528620
0.044145 -0.039586 0.793280 143 255 104 0.522507
0.046645 -0.039122 0.794560 134 255 114 0.508148
0.041656 -0.040077 0.792093 143 255 104 0.521771
0.035668 -0.049747 0.787653 156 255 92 0.537810
0.035214 -0.045717 0.788038 153 255 95 0.532112
0.037520 -0.045371 0.789282 150 255 98 0.530208
0.034793 -0.041491 0.788504 172 255 75 0.555676
0.037136 -0.041037 0.789710 147 255 101 0.524773
0.036820 -0.036588 0.790168 140 255 108 0.517923
0.034408 -0.037128 0.788973 137 255 111 0.513507
0.039467 -0.040549 0.790905 143 255 104 0.523100
0.039188 -0.036043 0.791405 143 255 104 0.520800
0.039693 -0.044902 0.790360 150 255 98 0.530078
0.039918 -0.049066 0.789867 156 255 92 0.535630
0.037787 -0.049413 0.788728 156 255 92 0.536664
0.034006 -0.033055 0.789862 137 255 111 0.515441
0.033530 -0.028829 0.790698 147 255 101 0.524888
0.036075 -0.028289 0.792030 147 255 101 0.527299
0.032941 -0.024589 0.791674 153 255 95 0.532166
0.035503 -0.024020 0.793035 153 255 95 0.533396
0.034725 -0.019981 0.794161 156 255 92 0.537794
0.032180 -0.020503 0.792760 156 255 92 0.536936
0.038034 -0.023494 0.794434 153 255 95 0.534527
0.037234 -0.019491 0.795599 156 255 92 0.538715
0.038508 -0.027631 0.793308 150 255 98 0.529888
0.038860 -0.031836 0.792333 147 255 101 0.524142
0.036448 -0.032451 0.791080 143 255 104 0.521085
0.026621 -0.001340 0.840651 147 255 101 0.524613
0.027920 -0.002797 0.838380 150 255 98 0.531183
0.025029 -0.002836 0.836768 150 255 98 0.527569
0.029256 -0.004077 0.835997 156 255 92 0.538188
0.026365 -0.004127 0.834387 156 255 92 0.537060
0.027753 -0.005145 0.831878 160 255 88 0.540325
0.030646 -0.005076 0.833471 160 255 88 0.541287
0.023411 -0.004206 0.832792 156 255 92 0.536481
0.024815 -0.005257 0.830278 147 255 101 0.526741
0.021838 -0.005400 0.828657 160 255 88 0.539988
0.020446 -0.004318 0.831230 156 255 92 0.536820
0.022055 -0.002879 0.835236 150 255 98 0.529687
0.019072 -0.002981 0.833698 150 255 98 0.530270
0.020720 -0.001392 0.837593 143 255 104 0.521208
0.023691 -0.001363 0.839110 91 255 156 0.458801
0.017729 -0.001472 0.836051 137 255 111 0.512422
0.032095 -0.006050 0.830857 163 255 85 0.543158
0.033589 -0.006581 0.828118 163 255 85 0.544129
0.030719 -0.006706 0.826482 163 255 85 0.543911
0.035161 -0.006674 0.825199 163 255 85 0.545103
0.032294 -0.006825 0.823552 163 255 85 0.544793
0.033936 -0.006674 0.820497 163 255 85 0.544859
0.036797 -0.006491 0.822153 163 255 85 0.545542
0.029384 -0.007044 0.821900 163 255 85 0.544270
0.031036 -0.006926 0.818850 150 255 98 0.529355
0.028096 -0.007187 0.817214 163 255 85 0.543511
0.026412 -0.007255 0.820299 163 255 85 0.545106
0.027778 -0.006871 0.824891 163 255 85 0.543756
0.024802 -0.007099 0.823268 163 255 85 0.544851
0.026255 -0.006277 0.827673 160 255 88 0.541811
0.029205 -0.006132 0.829270 160 255 88 0.542606
0.023284 -0.006466 0.826049 160 255 88 0.542758
0.017334 -0.007970 0.810773 163 255 85 0.545638
0.015671 -0.007931 0.813841 163 255 85 0.545252
0.018395 -0.007750 0.815337 163 255 85 0.545553
0.016777 -0.007495 0.818304 163 255 85 0.544303
0.014066 -0.007650 0.816767 163 255 85 0.544119
0.019481 -0.007345 0.819861 163 255 85 0.545086
0.015253 -0.006835 0.821164 163 255 85 0.542985
0.017935 -0.006699 0.822761 163 255 85 0.543285
0.016458 -0.005568 0.825488 160 255 88 0.540850
0.012550 -0.006958 0.819581 163 255 85 0.543020
0.013770 -0.005718 0.823886 160 255 88 0.540978
0.011105 -0.005848 0.822278 160 255 88 0.541169
0.020621 -0.006561 0.824343 163 255 85 0.543566
0.019167 -0.005463 0.827067 160 255 88 0.540644
0.022166 -0.007163 0.821548 176 255 72 0.560636
0.023763 -0.007401 0.818635 163 255 85 0.546134
0.021089 -0.007570 0.816962 163 255 85 0.545880
0.022752 -0.007535 0.813975 163 255 85 0.546377
0.025434 -0.007339 0.815578 163 255 85 0.546133
0.020064 -0.007753 0.812359 163 255 85 0.546257
0.009677 -0.004684 0.824991 156 255 92 0.538142
0.012353 -0.004606 0.826493 156 255 92 0.537970
0.010981 -0.003178 0.829086 153 255 95 0.532675
0.008307 -0.003294 0.827597 153 255 95 0.532897
0.013678 -0.003107 0.830550 153 255 95 0.531948
0.009676 -0.001666 0.831577 150 255 98 0.529420
0.012360 -0.001580 0.833025 147 255 101 0.527147
0.007007 -0.001797 0.830116 150 255 98 0.530832
0.015047 -0.001538 0.834491 147 255 101 0.525388
0.016384 -0.003015 0.832131 150 255 98 0.530812
0.017756 -0.004374 0.829668 156 255 92 0.537253
0.015042 -0.004474 0.828081 156 255 92 0.537826
0.026001 -0.018242 0.791623 156 255 92 0.538607
0.023439 -0.018744 0.790130 156 255 92 0.538440
0.022221 -0.015867 0.791980 160 255 88 0.540562
0.020840 -0.019309 0.788641 156 255 92 0.538099
0.019652 -0.016370 0.790477 160 255 88 0.540363
0.017050 -0.016914 0.788962 160 255 88 0.540188
0.018217 -0.019886 0.787158 156 255 92 0.537629
0.018289 -0.013911 0.792494 160 255 88 0.542199
0.015740 -0.014399 0.790941 160 255 88 0.542002
0.014311 -0.012296 0.793141 163 255 85 0.544102
0.016818 -0.011863 0.794653 163 255 85 0.543197
0.020810 -0.013480 0.793977 160 255 88 0.542299
0.019304 -0.011472 0.796189 163 255 85 0.543135
0.023308 -0.013044 0.795457 160 255 88 0.542203
0.024729 -0.015441 0.793423 160 255 88 0.540811
0.027189 -0.015033 0.794886 163 255 85 0.544221
0.021779 -0.011085 0.797708 163 255 85 0.543222
0.025758 -0.012666 0.796964 160 255 88 0.542058
0.024229 -0.010708 0.799229 163 255 85 0.543169
0.028475 -0.017839 0.793046 156 255 92 0.538642
0.015601 -0.020459 0.785680 156 255 92 0.537158
0.012982 -0.021095 0.784046 156 255 92 0.536889
0.011855 -0.018055 0.785969 160 255 88 0.539650
0.010381 -0.021698 0.782425 156 255 92 0.537159
0.009246 -0.018707 0.784321 160 255 88 0.539635
0.006711 -0.019242 0.782616 160 255 88 0.541536
0.007811 -0.022256 0.780827 166 255 82 0.550102
0.008084 -0.015968 0.786323 160 255 88 0.541456
0.005533 -0.016546 0.784618 160 255 88 0.541587
0.004291 -0.014151 0.786755 166 255 82 0.548932
0.006776 -0.013704 0.788349 160 255 88 0.542606
0.010633 -0.015452 0.787878 160 255 88 0.541513
0.009296 -0.013227 0.789954 160 255 88 0.542421
0.013192 -0.014923 0.789412 160 255 88 0.541730
0.014446 -0.017491 0.787460 160 255 88 0.539888
0.011812 -0.012769 0.791545 160 255 88 0.542675
-0.001483 -0.009481 0.798478 160 255 88 0.541788
0.000835 -0.009311 0.800021 160 255 88 0.542667
0.002400 -0.010116 0.797191 160 255 88 0.542877
0.004791 -0.009871 0.798709 163 255 85 0.543553
0.003185 -0.009130 0.801580 163 255 85 0.543599
0.006380 -0.010712 0.795847 163 255 85 0.543245
0.007186 -0.009624 0.800209 163 255 85 0.544071
0.008792 -0.010410 0.797315 163 255 85 0.543724
0.011188 -0.010092 0.798755 163 255 85 0.544024
0.005568 -0.008904 0.803099 163 255 85 0.544278
0.009549 -0.009339 0.801685 163 255 85 0.544376
0.007896 -0.008732 0.804637 163 255 85 0.544582
0.010350 -0.011411 0.794520 163 255 85 0.543258
0.012753 -0.011048 0.795921 163 255 85 0.543512
0.007881 -0.011789 0.792839 163 255 85 0.543003
0.005398 -0.012205 0.791186 160 255 88 0.542585
0.003929 -0.011035 0.794129 160 255 88 0.542583
0.001521 -0.011338 0.792404 156 255 92 0.538786
0.002936 -0.012584 0.789530 160 255 88 0.542287
0.000018 -0.010350 0.795408 160 255 88 0.542062
0.010245 -0.008500 0.806131 163 255 85 0.544852
0.011930 -0.009080 0.803324 163 255 85 0.544653
0.014335 -0.008817 0.804808 163 255 85 0.544784
0.012611 -0.008298 0.807649 163 255 85 0.544862
0.016050 -0.009451 0.801936 163 255 85 0.544357
0.016731 -0.008568 0.806308 163 255 85 0.544751
0.018476 -0.009130 0.803382 163 255 85 0.544409
0.020889 -0.008815 0.804829 163 255 85 0.544541
0.014983 -0.008135 0.809214 156 255 92 0.538804
0.019119 -0.008323 0.807815 163 255 85 0.545112
0.020163 -0.009959 0.800562 163 255 85 0.543889
0.022579 -0.009621 0.801978 163 255 85 0.543932
0.017699 -0.010315 0.799013 163 255 85 0.543506
0.015234 -0.010670 0.797463 163 255 85 0.543658
0.013611 -0.009764 0.800339 163 255 85 0.544214
-0.009534 -0.002574 0.820596 153 255 95 0.533109
-0.007168 -0.002481 0.821909 150 255 98 0.531004
-0.005801 -0.003879 0.819184 150 255 98 0.530936
-0.004800 -0.002359 0.823232 150 255 98 0.530605
-0.003439 -0.003797 0.820520 150 255 98 0.531223
-0.001034 -0.003705 0.821866 153 255 95 0.531485
-0.002404 -0.002215 0.824568 153 255 95 0.532066
-0.002045 -0.005115 0.817803 156 255 92 0.536735
0.000345 -0.005048 0.819131 156 255 92 0.537355
0.001796 -0.006136 0.816318 160 255 88 0.539694
-0.000544 -0.006224 0.814875 160 255 88 0.539395
-0.004352 -0.005202 0.816349 156 255 92 0.536218
-0.002872 -0.006303 0.813441 156 255 92 0.538673
-0.006629 -0.005288 0.814889 153 255 95 0.534985
-0.008081 -0.003984 0.817744 150 255 98 0.530020
-0.010330 -0.004073 0.816292 150 255 98 0.530209
-0.005166 -0.006352 0.812002 156 255 92 0.537087
-0.008869 -0.005347 0.813438 153 255 95 0.533367
-0.007404 -0.006387 0.810563 153 255 95 0.533928
-0.011775 -0.002706 0.819135 189 255 59 0.576976
-0.000111 -0.002039 0.826067 153 255 95 0.534949
0.002257 -0.001941 0.827432 153 255 95 0.533503
0.003566 -0.003412 0.824894 153 255 95 0.533529
0.004644 -0.001852 0.828781 153 255 95 0.532079
0.005937 -0.003347 0.826250 153 255 95 0.532280
0.007294 -0.004737 0.823654 156 255 92 0.538250
0.008771 -0.005941 0.820767 160 255 88 0.541112
0.004965 -0.004851 0.822135 156 255 92 0.538168
0.006420 -0.005994 0.819270 160 255 88 0.540858
0.002665 -0.004943 0.820634 156 255 92 0.538091
0.001253 -0.003555 0.823377 153 255 95 0.533002
0.004098 -0.006062 0.817818 160 255 88 0.540198
0.013317 -0.008022 0.812430 163 255 85 0.544929
0.010953 -0.008150 0.810829 163 255 85 0.544421
0.009364 -0.007773 0.813878 163 255 85 0.543635
0.008613 -0.008297 0.809265 156 255 92 0.537768
0.007038 -0.007873 0.812258 160 255 88 0.542874
0.004732 -0.007967 0.810653 160 255 88 0.542519
0.006288 -0.008439 0.807710 163 255 85 0.543649
0.005535 -0.007142 0.815186 160 255 88 0.542230
0.003226 -0.007227 0.813528 160 255 88 0.541485
0.007868 -0.007085 0.816636 166 255 82 0.548727
0.010207 -0.007022 0.818104 163 255 85 0.543124
0.011718 -0.007707 0.815327 163 255 85 0.543936
0.003907 -0.008592 0.806372 163 255 85 0.543557
0.001574 -0.008719 0.804815 160 255 88 0.542806
0.000007 -0.008176 0.807905 160 255 88 0.541433
-0.000742 -0.008859 0.803242 160 255 88 0.542017
-0.002291 -0.008260 0.806336 160 255 88 0.540553
-0.004527 -0.008340 0.804727 160 255 88 0.539539
-0.003023 -0.008966 0.801637 160 255 88 0.540649
-0.003779 -0.007441 0.809311 160 255 88 0.539437
-0.005986 -0.007502 0.807711 156 255 92 0.537504
-0.001469 -0.007403 0.810728 160 255 88 0.540374
0.000887 -0.007317 0.812126 160 255 88 0.541074
0.002370 -0.008077 0.809286 160 255 88 0.542035
0.038497 -0.006626 0.819083 163 255 85 0.544510
0.040060 -0.006779 0.815993 163 255 85 0.544881
0.037321 -0.006990 0.814320 163 255 85 0.545150
0.041588 -0.007127 0.812942 163 255 85 0.545119
0.038840 -0.007407 0.811319 169 255 79 0.553372
0.040271 -0.008279 0.808506 163 255 85 0.544536
0.043026 -0.007972 0.810086 163 255 85 0.544464
0.036082 -0.007742 0.809728 163 255 85 0.544807
0.037520 -0.008651 0.806941 163 255 85 0.544010
0.034731 -0.009088 0.805391 163 255 85 0.543630
0.033174 -0.008143 0.808175 163 255 85 0.544206
0.034430 -0.007313 0.812743 163 255 85 0.544868
0.031523 -0.007638 0.811172 163 255 85 0.544739
0.032736 -0.007129 0.815838 163 255 85 0.544511
0.035618 -0.006867 0.817460 163 255 85 0.544966
0.029817 -0.007373 0.814218 163 255 85 0.545035
0.044388 -0.009771 0.807642 163 255 85 0.544568
0.045548 -0.011981 0.805322 176 255 72 0.560652
0.042963 -0.012410 0.803815 163 255 85 0.544192
0.046575 -0.014683 0.803313 160 255 88 0.542318
0.044011 -0.015096 0.801817 160 255 88 0.541625
0.041409 -0.015539 0.800343 160 255 88 0.541289
0.038647 -0.015974 0.798852 160 255 88 0.541639
0.040213 -0.012780 0.802303 166 255 82 0.550244
0.037445 -0.013244 0.800780 160 255 88 0.542484
0.038911 -0.010509 0.804507 163 255 85 0.543621
0.041661 -0.010116 0.806066 163 255 85 0.544042
0.036132 -0.010951 0.802972 163 255 85 0.543056
0.031155 -0.017378 0.794440 156 255 92 0.538327
0.029878 -0.014567 0.796312 140 255 108 0.517495
0.032493 -0.014132 0.797759 160 255 88 0.540091
0.028441 -0.012214 0.798402 160 255 88 0.541434
0.031067 -0.011793 0.799892 160 255 88 0.542151
0.029533 -0.009830 0.802248 163 255 85 0.543278
0.026896 -0.010252 0.800726 163 255 85 0.543200
0.033654 -0.011386 0.801389 160 255 88 0.542669
0.032157 -0.009431 0.803793 163 255 85 0.543487
0.034976 -0.013670 0.799252 160 255 88 0.541952
0.036176 -0.016423 0.797338 172 255 75 0.555485
0.033683 -0.016876 0.795867 160 255 88 0.540021
0.025304 -0.009208 0.803423 163 255 85 0.543914
0.023615 -0.008450 0.806328 163 255 85 0.544595
0.026302 -0.008153 0.807872 163 255 85 0.544650
0.021834 -0.008020 0.809363 163 255 85 0.545285
0.024539 -0.007780 0.810933 163 255 85 0.545283
0.027210 -0.007548 0.812506 163 255 85 0.545275
0.028946 -0.007853 0.809485 163 255 85 0.544696
0.030583 -0.008449 0.806574 163 255 85 0.544062
0.027944 -0.008826 0.805016 163 255 85 0.543960
0.007325 -0.029648 0.777052 153 255 95 0.533137
0.008310 -0.033299 0.776582 150 255 98 0.530855
0.005797 -0.033614 0.775009 124 255 124 0.497897
0.009284 -0.036907 0.776105 147 255 101 0.526538
0.006790 -0.037169 0.774610 153 255 95 0.533457
0.007800 -0.040561 0.774120 156 255 92 0.538976
0.010302 -0.040405 0.775599 156 255 92 0.535938
0.004290 -0.037369 0.773173 160 255 88 0.539101
0.005299 -0.040709 0.772721 163 255 85 0.543209
0.002797 -0.040833 0.771451 166 255 82 0.549456
0.001594 -0.037636 0.771774 185 255 62 0.572954
0.003082 -0.033943 0.773545 153 255 95 0.534527
0.000409 -0.034266 0.772108 156 255 92 0.538861
0.001882 -0.030512 0.773907 156 255 92 0.535973
0.004586 -0.030115 0.775465 153 255 95 0.533452
0.003294 -0.026650 0.775929 153 255 95 0.533489
-0.000791 -0.030883 0.772468 169 255 79 0.552786
0.000631 -0.027119 0.774365 156 255 92 0.537547
-0.001981 -0.027584 0.772856 156 255 92 0.537785
0.006013 -0.026063 0.777555 160 255 88 0.540076
0.011601 -0.044086 0.775862 130 255 117 0.507255
0.012580 -0.047809 0.776060 169 255 79 0.551315
0.010323 -0.047807 0.774909 169 255 79 0.554493
0.013495 -0.051289 0.776419 179 255 69 0.564343
0.011245 -0.051335 0.775177 189 255 59 0.576426
0.009002 -0.051295 0.773975 202 255 46 0.590388
0.006426 -0.051318 0.772651 255 235 0 0.660027
0.007789 -0.047878 0.773518 182 255 66 0.567821
0.005221 -0.047874 0.772295 189 255 59 0.577220
0.006550 -0.044296 0.773134 169 255 79 0.551474
0.009088 -0.044277 0.774437 163 255 85 0.544778
0.004035 -0.044358 0.771816 172 255 75 0.557870
-0.001915 -0.051505 0.767870 179 255 69 0.564528
0.000348 -0.051355 0.769247 182 255 66 0.569066
-0.001146 -0.048116 0.768835 185 255 62 0.572550
-0.003435 -0.048345 0.767587 176 255 72 0.560464
0.001139 -0.047961 0.770104 192 255 56 0.578848
-0.002603 -0.044882 0.768411 147 255 101 0.525263
-0.000312 -0.044651 0.769571 182 255 66 0.567031
-0.001684 -0.041332 0.768842 215 255 33 0.607928
-0.004837 -0.045139 0.767125 176 255 72 0.560142
-0.003921 -0.041633 0.767648 172 255 75 0.558529
-0.006154 -0.041968 0.766420 211 255 36 0.601967
0.001989 -0.044448 0.770752 179 255 69 0.564469
0.000533 -0.041090 0.770130 169 255 79 0.554229
0.003176 -0.047916 0.771224 192 255 56 0.580485
0.004385 -0.051310 0.771511 198 255 49 0.586938
0.002363 -0.051326 0.770353 156 255 92 0.535827
-0.008096 -0.038837 0.766277 160 255 88 0.541670
-0.004992 -0.038537 0.767860 163 255 85 0.545294
-0.007007 -0.035356 0.767831 156 255 92 0.538160
-0.010016 -0.035679 0.766105 156 255 92 0.536762
-0.003943 -0.035060 0.769456 140 255 108 0.518450
-0.008964 -0.032179 0.767662 185 255 62 0.570341
-0.005959 -0.031783 0.769379 156 255 92 0.537853
-0.007952 -0.028613 0.769327 156 255 92 0.537949
-0.011891 -0.032567 0.765798 156 255 92 0.536146
-0.010865 -0.029061 0.767466 156 255 92 0.537627
-0.013727 -0.029483 0.765488 153 255 95 0.535052
-0.002921 -0.031357 0.771037 156 255 92 0.538315
-0.005020 -0.028142 0.771054 156 255 92 0.537444
-0.001768 -0.034667 0.770748 156 255 92 0.537839
-0.000630 -0.037909 0.770457 163 255 85 0.545879
-0.002837 -0.038193 0.769215 163 255 85 0.545132
-0.013153 -0.036895 0.763714 202 255 46 0.593551
-0.011371 -0.040002 0.764108 150 255 98 0.530852
-0.009445 -0.043046 0.764196 153 255 95 0.534736
-0.012691 -0.044181 0.761775 137 255 111 0.512517
-0.014632 -0.042076 0.761333 127 255 121 0.501851
-0.014829 -0.038393 0.762280 147 255 101 0.523827
-0.016493 -0.039889 0.760749 130 255 117 0.505183
-0.016616 -0.036236 0.761533 147 255 101 0.524379
-0.015033 -0.034729 0.763099 153 255 95 0.532872
-0.016815 -0.032573 0.762354 153 255 95 0.531506
-0.018294 -0.037722 0.760023 137 255 111 0.515151
-0.018416 -0.034057 0.760746 150 255 98 0.528244
-0.020028 -0.035533 0.759167 147 255 101 0.524762
-0.015250 -0.031044 0.763966 153 255 95 0.533190
-0.006461 -0.048971 0.765478 166 255 82 0.550271
-0.004971 -0.052053 0.765745 127 255 121 0.502279
-0.008106 -0.052864 0.763348 160 255 88 0.542316
-0.009748 -0.050012 0.762941 153 255 95 0.533361
-0.009672 -0.046590 0.763725 79 255 169 0.445198
-0.012848 -0.054739 0.759214 127 255 121 0.502115
-0.013336 -0.051599 0.759865 127 255 121 0.501336
-0.014943 -0.049063 0.759180 108 255 140 0.480249
-0.015233 -0.045663 0.759512 104 255 143 0.475732
-0.017690 -0.047183 0.757156 95 255 153 0.461997
-0.012454 -0.047583 0.761476 140 255 108 0.515694
-0.010470 -0.053652 0.761377 147 255 101 0.527149
-0.019705 -0.045332 0.756624 85 255 163 0.449450
-0.020386 -0.042443 0.757230 101 255 147 0.471443
-0.022335 -0.040566 0.756457 124 255 124 0.496134
-0.022818 -0.037620 0.756768 169 255 79 0.554210
-0.025555 -0.039696 0.754093 134 255 114 0.510298
-0.017171 -0.043537 0.759069 0 198 255 0.316505
0.004976 -0.022844 0.779368 160 255 88 0.541139
0.002261 -0.023493 0.777623 182 255 66 0.567278
0.001162 -0.020501 0.779552 160 255 88 0.541796
-0.000386 -0.024077 0.775973 160 255 88 0.539385
-0.001451 -0.021138 0.777778 160 255 88 0.542625
-0.003984 -0.021756 0.776107 156 255 92 0.537877
-0.002937 -0.024603 0.774317 156 255 92 0.537661
-0.002600 -0.018395 0.779836 160 255 88 0.539423
-0.005125 -0.019028 0.778023 156 255 92 0.537292
-0.006297 -0.016435 0.780153 156 255 92 0.538584
-0.003726 -0.015922 0.781794 160 255 88 0.539815
0.000053 -0.017816 0.781403 160 255 88 0.540724
-0.001135 -0.015370 0.783438 160 255 88 0.540655
0.002770 -0.017202 0.783014 160 255 88 0.541820
0.003908 -0.019855 0.781056 182 255 66 0.568186
0.001524 -0.014770 0.785084 160 255 88 0.541625
-0.005728 -0.024950 0.773314 156 255 92 0.537111
-0.008645 -0.025514 0.771431 156 255 92 0.536694
-0.009462 -0.022501 0.773811 160 255 88 0.541235
-0.011496 -0.026016 0.769488 160 255 88 0.540946
-0.012275 -0.023063 0.771760 156 255 92 0.537006
-0.015031 -0.023503 0.769694 163 255 85 0.544257
-0.014304 -0.026427 0.767463 156 255 92 0.535789
-0.013161 -0.020186 0.774344 156 255 92 0.537040
-0.015903 -0.020684 0.772144 156 255 92 0.537137
-0.016844 -0.017929 0.774851 156 255 92 0.537777
-0.014293 -0.017651 0.776190 156 255 92 0.537583
-0.010543 -0.019846 0.775569 156 255 92 0.536300
-0.011691 -0.017298 0.777516 156 255 92 0.537495
-0.007874 -0.019449 0.776783 143 255 104 0.519810
-0.006761 -0.022152 0.774923 156 255 92 0.536738
-0.009020 -0.016893 0.778827 156 255 92 0.537430
-0.021646 -0.011089 0.787383 156 255 92 0.537005
-0.019166 -0.010959 0.788694 156 255 92 0.537064
-0.017861 -0.012326 0.785546 156 255 92 0.537838
-0.015326 -0.012087 0.786793 156 255 92 0.538096
-0.016662 -0.010757 0.789944 156 255 92 0.537246
-0.014037 -0.013582 0.783713 156 255 92 0.538228
-0.012751 -0.011815 0.788032 156 255 92 0.538445
-0.011431 -0.013220 0.784904 156 255 92 0.538480
-0.008759 -0.012824 0.786061 153 255 95 0.533308
-0.014136 -0.010557 0.791217 156 255 92 0.537688
-0.010158 -0.011486 0.789249 156 255 92 0.539022
-0.011578 -0.010321 0.792490 156 255 92 0.538366
-0.010150 -0.014906 0.781905 156 255 92 0.538544
-0.007479 -0.014469 0.783022 160 255 88 0.539104
-0.012819 -0.015286 0.780502 156 255 92 0.538185
-0.015431 -0.015634 0.779086 156 255 92 0.537870
-0.016625 -0.013874 0.782230 156 255 92 0.537905
-0.019177 -0.014101 0.780733 156 255 92 0.537872
-0.017989 -0.015906 0.777639 156 255 92 0.537836
-0.020398 -0.012536 0.784012 156 255 92 0.537781
-0.009167 -0.010167 0.793945 156 255 92 0.538911
-0.007767 -0.011245 0.791062 160 255 88 0.539732
-0.005234 -0.010972 0.792472 160 255 88 0.540633
-0.006678 -0.009974 0.795406 160 255 88 0.539755
-0.003811 -0.012112 0.789612 160 255 88 0.540749
-0.002622 -0.010675 0.793917 160 255 88 0.541332
-0.001176 -0.011743 0.790994 160 255 88 0.541332
-0.004108 -0.009749 0.796931 160 255 88 0.540744
0.000198 -0.013061 0.788187 160 255 88 0.541596
-0.002436 -0.013560 0.786449 160 255 88 0.541928
-0.004976 -0.014043 0.784742 160 255 88 0.539925
-0.006330 -0.012494 0.787850 160 255 88 0.539780
-0.023064 -0.010154 0.790487 153 255 95 0.534699
-0.020617 -0.010070 0.791750 153 255 95 0.534620
-0.022046 -0.009142 0.794818 150 255 98 0.529266
-0.024519 -0.009224 0.793566 150 255 98 0.530398
-0.019585 -0.009067 0.796081 150 255 98 0.529815
-0.023485 -0.008170 0.797838 147 255 101 0.524517
-0.020995 -0.008089 0.799123 147 255 101 0.525887
-0.022404 -0.006921 0.802126 143 255 104 0.523013
-0.025951 -0.008201 0.796592 163 255 85 0.546774
-0.024895 -0.007009 0.800827 147 255 101 0.526709
-0.027412 -0.007047 0.799543 127 255 121 0.502111
-0.018505 -0.007964 0.800406 147 255 101 0.526941
-0.019905 -0.006809 0.803412 147 255 101 0.524110
-0.017404 -0.006670 0.804725 147 255 101 0.526719
-0.015995 -0.007850 0.801756 150 255 98 0.530544
-0.017091 -0.008952 0.797380 150 255 98 0.530148
-0.014567 -0.008843 0.798702 153 255 95 0.531575
-0.015619 -0.009800 0.794309 153 255 95 0.535093
-0.018121 -0.009935 0.793031 153 255 95 0.534721
-0.013092 -0.009625 0.795593 156 255 92 0.535698
-0.028921 -0.006086 0.802388 143 255 104 0.520005
-0.026405 -0.006004 0.803742 143 255 104 0.521669
-0.027931 -0.004967 0.806637 147 255 101 0.526708
-0.030461 -0.005060 0.805271 117 255 130 0.489673
-0.025443 -0.004836 0.807981 150 255 98 0.530318
-0.029486 -0.003851 0.809527 163 255 85 0.542977
-0.026961 -0.003710 0.810867 163 255 85 0.543444
-0.032039 -0.003950 0.808164 160 255 88 0.542883
-0.024443 -0.003506 0.812207 156 255 92 0.538454
-0.021891 -0.003318 0.813468 153 255 95 0.533771
-0.022923 -0.004702 0.809271 150 255 98 0.529675
-0.020398 -0.004531 0.810559 147 255 101 0.526090
-0.021410 -0.005807 0.806344 147 255 101 0.525458
-0.023914 -0.005917 0.805037 147 255 101 0.524783
-0.018892 -0.005661 0.807639 147 255 101 0.525980
-0.014321 -0.002896 0.817677 153 255 95 0.533415
-0.012884 -0.004227 0.814838 150 255 98 0.529112
-0.015415 -0.004369 0.813355 150 255 98 0.528417
-0.011438 -0.005462 0.811981 150 255 98 0.530943
-0.013982 -0.005550 0.810505 150 255 98 0.530402
-0.012522 -0.006585 0.807602 150 255 98 0.530515
-0.009970 -0.006494 0.809092 124 255 124 0.496957
-0.016437 -0.005616 0.809037 150 255 98 0.528350
-0.014990 -0.006652 0.806146 150 255 98 0.530260
-0.017937 -0.004461 0.811945 147 255 101 0.526803
-0.019417 -0.003216 0.814853 153 255 95 0.533236
-0.016902 -0.003062 0.816262 179 255 69 0.564220
-0.008507 -0.007624 0.806081 156 255 92 0.535413
-0.007079 -0.008514 0.803126 156 255 92 0.537969
-0.009590 -0.008642 0.801522 156 255 92 0.535675
-0.005626 -0.009182 0.800079 160 255 88 0.539233
-0.008159 -0.009365 0.798515 156 255 92 0.537965
-0.010626 -0.009497 0.796948 156 255 92 0.536701
-0.012102 -0.008760 0.800100 153 255 95 0.533724
-0.013549 -0.007819 0.803170 153 255 95 0.533462
-0.011069 -0.007739 0.804605 153 255 95 0.534888
-0.023182 -0.012592 0.783173 156 255 92 0.537645
-0.021958 -0.014206 0.779906 156 255 92 0.537819
-0.024751 -0.014205 0.779024 156 255 92 0.538381
-0.020776 -0.015992 0.776868 156 255 92 0.537814
-0.023568 -0.015995 0.775969 156 255 92 0.537839
-0.022462 -0.017960 0.773115 156 255 92 0.537412
-0.019644 -0.017984 0.774048 156 255 92 0.537686
-0.026464 -0.015946 0.774954 156 255 92 0.537676
-0.025358 -0.017891 0.772068 137 255 111 0.512254
-0.028393 -0.017761 0.770913 156 255 92 0.537201
-0.029305 -0.016036 0.773768 156 255 92 0.539060
-0.027436 -0.014333 0.777962 156 255 92 0.538924
-0.030276 -0.014417 0.776767 160 255 88 0.539980
-0.028460 -0.012878 0.781110 156 255 92 0.538728
-0.025792 -0.012760 0.782168 156 255 92 0.537798
-0.026827 -0.011456 0.785436 156 255 92 0.536137
-0.031248 -0.012939 0.779930 160 255 88 0.540151
-0.029489 -0.011550 0.784393 156 255 92 0.537473
-0.032254 -0.011594 0.783254 160 255 88 0.539947
-0.024216 -0.011293 0.786431 156 255 92 0.536419
-0.019285 -0.019841 0.771588 156 255 92 0.538516
-0.018438 -0.022591 0.769083 156 255 92 0.536568
-0.021880 -0.021625 0.768380 156 255 92 0.537714
-0.017705 -0.025490 0.766820 153 255 95 0.534755
-0.021090 -0.024438 0.766040 153 255 95 0.534113
-0.020422 -0.027373 0.763912 153 255 95 0.532802
-0.017063 -0.028452 0.764836 153 255 95 0.533280
-0.024585 -0.023371 0.765083 137 255 111 0.512861
-0.023884 -0.026209 0.762920 153 255 95 0.533309
-0.027449 -0.025046 0.761779 153 255 95 0.534349
-0.027613 -0.023152 0.763801 127 255 121 0.502244
-0.024782 -0.021502 0.767218 153 255 95 0.534955
-0.027834 -0.021305 0.766014 153 255 95 0.534445
-0.025065 -0.019652 0.769576 156 255 92 0.536963
-0.022142 -0.019780 0.770627 176 255 72 0.562295
-0.028101 -0.019510 0.768404 156 255 92 0.537149
-0.041110 -0.023423 0.758473 153 255 95 0.534581
-0.041191 -0.021850 0.760573 160 255 88 0.542014
-0.037728 -0.021949 0.761535 160 255 88 0.541639
-0.037841 -0.020457 0.763687 160 255 88 0.540564
-0.041345 -0.020370 0.762733 160 255 88 0.542010
-0.034432 -0.020595 0.764655 156 255 92 0.538847
-0.037938 -0.019006 0.765986 147 255 101 0.526083
-0.034580 -0.019087 0.766888 150 255 98 0.531133
-0.034706 -0.017651 0.769265 160 255 88 0.539920
-0.041473 -0.018947 0.765045 160 255 88 0.542081
-0.038083 -0.017559 0.768382 160 255 88 0.540728
-0.041640 -0.017489 0.767490 153 255 95 0.534866
-0.031333 -0.019194 0.767770 156 255 92 0.538101
-0.031492 -0.017709 0.770111 160 255 88 0.539183
-0.031095 -0.020945 0.765376 153 255 95 0.531268
-0.030832 -0.022743 0.763085 156 255 92 0.536517
-0.034238 -0.022325 0.762343 160 255 88 0.539985
-0.034050 -0.024129 0.760067 160 255 88 0.540286
-0.030668 -0.024561 0.760940 156 255 92 0.538028
-0.037513 -0.023737 0.759283 160 255 88 0.541983
-0.042419 -0.016070 0.770194 160 255 88 0.541695
-0.039105 -0.015856 0.771289 160 255 88 0.542357
-0.039918 -0.014506 0.774096 163 255 85 0.543398
-0.043208 -0.014732 0.773026 147 255 101 0.525527
-0.036735 -0.014307 0.775189 160 255 88 0.542536
-0.040707 -0.013239 0.777013 172 255 75 0.558204
-0.037482 -0.013068 0.778132 163 255 85 0.543394
-0.038196 -0.011909 0.781144 163 255 85 0.543231
-0.044031 -0.013421 0.775912 163 255 85 0.544723
-0.041425 -0.012040 0.780020 163 255 85 0.544891
-0.044798 -0.012186 0.778856 163 255 85 0.545426
-0.034421 -0.012886 0.779196 160 255 88 0.541536
-0.035144 -0.011792 0.782256 160 255 88 0.541922
-0.033416 -0.014368 0.776010 160 255 88 0.541062
-0.032436 -0.015992 0.772966 160 255 88 0.540233
-0.035717 -0.015926 0.772130 160 255 88 0.541627
-0.034518 -0.004140 0.807074 156 255 92 0.539053
-0.032933 -0.005252 0.804159 147 255 101 0.524386
-0.035461 -0.005386 0.803034 147 255 101 0.523737
-0.031384 -0.006278 0.801285 140 255 108 0.518043
-0.033896 -0.006420 0.800190 140 255 108 0.519455
-0.032351 -0.007368 0.797391 140 255 108 0.518052
-0.029864 -0.007234 0.798477 137 255 111 0.515035
-0.036458 -0.006501 0.799071 143 255 104 0.522689
-0.034890 -0.007454 0.796270 192 255 56 0.579888
-0.037550 -0.007507 0.795079 176 255 72 0.558695
-0.039053 -0.006595 0.797799 153 255 95 0.532345
-0.037976 -0.005533 0.801804 143 255 104 0.521070
-0.040560 -0.005635 0.800524 150 255 98 0.529481
-0.039491 -0.004496 0.804599 11 242 237 0.361973
-0.036966 -0.004342 0.805858 147 255 101 0.525804
-0.042101 -0.004608 0.803303 147 255 101 0.526354
-0.028556 -0.008289 0.795617 143 255 104 0.521417
-0.027097 -0.009342 0.792585 150 255 98 0.528925
-0.029691 -0.009424 0.791591 150 255 98 0.528695
-0.025647 -0.010320 0.789516 153 255 95 0.532593
-0.028239 -0.010460 0.788531 130 255 117 0.505755
-0.030897 -0.010503 0.787460 153 255 95 0.534251
-0.033540 -0.010610 0.786235 156 255 92 0.539024
-0.032209 -0.009560 0.790448 153 255 95 0.531846
-0.034850 -0.009620 0.789224 156 255 92 0.538642
-0.033535 -0.008545 0.793380 150 255 98 0.528262
-0.031021 -0.008444 0.794532 143 255 104 0.520387
-0.036177 -0.008602 0.792179 202 255 46 0.593616
-0.045896 -0.011209 0.781643 163 255 85 0.545123
-0.042733 -0.010955 0.782957 163 255 85 0.544361
-0.043839 -0.010016 0.785827 163 255 85 0.543960
-0.046992 -0.010233 0.784492 163 255 85 0.544755
-0.040792 -0.009836 0.787104 160 255 88 0.542346
-0.044981 -0.009047 0.788692 163 255 85 0.543984
-0.041941 -0.008877 0.789970 160 255 88 0.541902
-0.043082 -0.007892 0.792769 160 255 88 0.541790
-0.048091 -0.009247 0.787368 163 255 85 0.544865
-0.046103 -0.008064 0.791544 163 255 85 0.544043
-0.049196 -0.008230 0.790234 163 255 85 0.545096
-0.039065 -0.008689 0.791185 160 255 88 0.541706
-0.040210 -0.007712 0.793992 160 255 88 0.539322
-0.037736 -0.009743 0.788203 160 255 88 0.540777
-0.036440 -0.010774 0.785223 172 255 75 0.555122
-0.039521 -0.010854 0.784087 163 255 85 0.543158
-0.050531 -0.007367 0.792909 163 255 85 0.545230
-0.047579 -0.007132 0.794309 166 255 82 0.547433
-0.048908 -0.006240 0.796956 163 255 85 0.543427
-0.051858 -0.006463 0.795564 163 255 85 0.544931
-0.046060 -0.006004 0.798294 160 255 88 0.541129
-0.050259 -0.005282 0.799589 147 255 101 0.527028
-0.047449 -0.005049 0.800921 160 255 88 0.541038
-0.053157 -0.005519 0.798169 163 255 85 0.544539
-0.044765 -0.004808 0.802214 156 255 92 0.537569
-0.043253 -0.005831 0.799452 156 255 92 0.536180
-0.041735 -0.006794 0.796721 156 255 92 0.536551
-0.044580 -0.006968 0.795546 160 255 88 0.541117
-0.047874 -0.012614 0.777894 163 255 85 0.545882
-0.048925 -0.011691 0.780475 163 255 85 0.545422
-0.051983 -0.012137 0.779579 163 255 85 0.545555
-0.050955 -0.013072 0.776970 163 255 85 0.545827
-0.053030 -0.011190 0.782130 163 255 85 0.545094
-0.055061 -0.012632 0.778591 163 255 85 0.544604
-0.056027 -0.011681 0.781251 163 255 85 0.544438
-0.059050 -0.012200 0.780257 160 255 88 0.540367
-0.053985 -0.013619 0.776096 163 255 85 0.544708
-0.058046 -0.013186 0.777729 160 255 88 0.541913
-0.057024 -0.014181 0.775200 153 255 95 0.534734
-0.057036 -0.010689 0.783826 163 255 85 0.544050
-0.060058 -0.011215 0.782889 160 255 88 0.541615
-0.061062 -0.010206 0.785504 160 255 88 0.542249
-0.058089 -0.009622 0.786648 163 255 85 0.543839
-0.054098 -0.010161 0.784960 163 255 85 0.545183
-0.055147 -0.009112 0.787796 163 255 85 0.545160
-0.051090 -0.009679 0.786148 163 255 85 0.545284
-0.050024 -0.010685 0.783267 153 255 95 0.533165
-0.052127 -0.008646 0.789033 163 255 85 0.545498
-0.059935 -0.015046 0.774522 160 255 88 0.541660
-0.060879 -0.014101 0.776870 156 255 92 0.538704
-0.063759 -0.014999 0.776218 156 255 92 0.537106
-0.062804 -0.015978 0.773900 156 255 92 0.538954
-0.064702 -0.014030 0.778596 156 255 92 0.535484
-0.066619 -0.015960 0.775663 137 255 111 0.513992
-0.067548 -0.014959 0.777976 153 255 95 0.534292
-0.070419 -0.015951 0.777440 153 255 95 0.532811
-0.065635 -0.016956 0.773356 153 255 95 0.533930
-0.069384 -0.016952 0.775180 150 255 98 0.530493
-0.068423 -0.017982 0.772915 117 255 130 0.489040
-0.068564 -0.013971 0.780344 153 255 95 0.534218
-0.071379 -0.014915 0.779769 150 255 98 0.528897
-0.072347 -0.013903 0.782115 91 255 156 0.459203
-0.069608 -0.012894 0.782882 153 255 95 0.531497
-0.065752 -0.013003 0.781110 156 255 92 0.536875
-0.066807 -0.011962 0.783673 156 255 92 0.536910
-0.062935 -0.012087 0.781938 156 255 92 0.537421
-0.061895 -0.013098 0.779387 117 255 130 0.489422
-0.063945 -0.011068 0.784521 160 255 88 0.539869
-0.073256 -0.010289 0.790055 147 255 101 0.524563
-0.070485 -0.009310 0.791052 153 255 95 0.532144
-0.069215 -0.010241 0.788543 153 255 95 0.534935
-0.067649 -0.008406 0.792099 156 255 92 0.537351
-0.066406 -0.009317 0.789617 156 255 92 0.538511
-0.063579 -0.008459 0.790644 160 255 88 0.541241
-0.064759 -0.007551 0.793185 160 255 88 0.540801
-0.065192 -0.010215 0.787003 160 255 88 0.539267
-0.062310 -0.009341 0.788115 160 255 88 0.541823
-0.068013 -0.011095 0.786120 156 255 92 0.536593
-0.070863 -0.012038 0.785299 153 255 95 0.532385
-0.072069 -0.011154 0.787692 153 255 95 0.531716
-0.074817 -0.012128 0.786897 150 255 98 0.529067
-0.073593 -0.013003 0.784529 147 255 101 0.527222
-0.075953 -0.011203 0.789265 147 255 101 0.524107
-0.061810 -0.007001 0.794336 160 255 88 0.542469
-0.058876 -0.006469 0.795592 163 255 85 0.544009
-0.057602 -0.007404 0.792996 163 255 85 0.544435
-0.056006 -0.005964 0.796906 163 255 85 0.544945
-0.054700 -0.006916 0.794294 163 255 85 0.545086
-0.053382 -0.007813 0.791656 163 255 85 0.545292
-0.056359 -0.008264 0.790447 163 255 85 0.544870
-0.059343 -0.008781 0.789264 163 255 85 0.543423
-0.060574 -0.007910 0.791818 163 255 85 0.543045
-0.001230 -0.093199 0.700588 166 255 82 0.548146
0.002081 -0.093465 0.699744 160 255 88 0.542886
0.004189 -0.094919 0.698045 179 255 69 0.564865
0.007470 -0.095297 0.697303 160 255 88 0.541157
0.005165 -0.097709 0.695512 160 255 88 0.540908
0.001747 -0.097249 0.696292 160 255 88 0.541455
-0.000363 -0.095756 0.697939 160 255 88 0.541512
-0.003846 -0.095461 0.698637 160 255 88 0.541059
-0.006041 -0.094193 0.700369 160 255 88 0.540861
-0.008593 -0.096279 0.698675 160 255 88 0.540118
0.011989 -0.094623 0.697248 156 255 92 0.538541
0.015289 -0.095134 0.696213 156 255 92 0.538004
0.013050 -0.097640 0.694388 156 255 92 0.538655
0.009697 -0.097040 0.695376 160 255 88 0.539321
0.011366 -0.105215 0.690146 160 255 88 0.539662
0.008884 -0.103208 0.691777 160 255 88 0.539468
0.005424 -0.102632 0.692801 160 255 88 0.539860
0.003040 -0.100605 0.694368 160 255 88 0.540194
0.000937 -0.103412 0.693199 160 255 88 0.540118
0.007588 -0.099656 0.693994 160 255 88 0.539604
0.010962 -0.100273 0.692915 160 255 88 0.539067
-0.002599 -0.102843 0.694177 160 255 88 0.540437
-0.004954 -0.101013 0.695527 160 255 88 0.540696
-0.008502 -0.100594 0.696286 160 255 88 0.541707
-0.010902 -0.098902 0.697591 172 255 75 0.556792
-0.013211 -0.101496 0.696534 160 255 88 0.541646
-0.006180 -0.097971 0.697282 160 255 88 0.540995
-0.002737 -0.098325 0.696529 160 255 88 0.540803
-0.000390 -0.100120 0.695198 160 255 88 0.540573
0.011221 -0.111451 0.688101 160 255 88 0.541521
0.009775 -0.114292 0.688111 160 255 88 0.541044
0.008334 -0.117075 0.688007 160 255 88 0.540584
0.005379 -0.128095 0.689786 166 255 82 0.549247
0.001190 -0.127806 0.690803 160 255 88 0.542289
-0.002481 -0.126103 0.691539 160 255 88 0.541760
-0.006476 -0.125826 0.692450 160 255 88 0.541589
-0.010071 -0.124056 0.693100 160 255 88 0.541264
-0.010839 -0.126965 0.693566 160 255 88 0.541709
-0.005721 -0.122943 0.691976 160 255 88 0.541131
-0.009322 -0.121160 0.692612 160 255 88 0.540832
-0.001830 -0.123356 0.691004 160 255 88 0.541538
0.002081 -0.123782 0.690038 160 255 88 0.542009
0.005823 -0.125485 0.689283 160 255 88 0.542622
0.006325 -0.122825 0.688640 160 255 88 0.541746
-0.014790 -0.126555 0.694305 160 255 88 0.541938
-0.018229 -0.124557 0.694900 169 255 79 0.552092
-0.022160 -0.124063 0.695664 160 255 88 0.542125
-0.025596 -0.121913 0.696249 156 255 92 0.535434
-0.026784 -0.125011 0.696576 160 255 88 0.542341
-0.021147 -0.120958 0.695318 160 255 88 0.541758
-0.024523 -0.118866 0.695860 160 255 88 0.541686
-0.017330 -0.121534 0.694497 160 255 88 0.541882
-0.013544 -0.122088 0.693694 160 255 88 0.540973
-0.021397 -0.112643 0.695529 163 255 85 0.546544
-0.017765 -0.113283 0.694699 160 255 88 0.540976
-0.014791 -0.115418 0.693996 160 255 88 0.540615
-0.011098 -0.116030 0.693118 166 255 82 0.549366
-0.008016 -0.118110 0.692392 160 255 88 0.540227
-0.006688 -0.114980 0.692083 153 255 95 0.534355
-0.012379 -0.119087 0.693378 160 255 88 0.540871
-0.016202 -0.118503 0.694202 160 255 88 0.540792
-0.019950 -0.117919 0.695029 163 255 85 0.543247
-0.022942 -0.115754 0.695768 160 255 88 0.542100
-0.002936 -0.115532 0.691073 156 255 92 0.538308
0.000289 -0.117516 0.690232 153 255 95 0.534858
0.004044 -0.118044 0.689222 160 255 88 0.540677
0.007347 -0.119989 0.688345 160 255 88 0.541000
0.003007 -0.120938 0.689581 163 255 85 0.546521
-0.000911 -0.120501 0.690557 163 255 85 0.544641
-0.004813 -0.120077 0.691547 160 255 88 0.540540
-0.016807 -0.101023 0.697142 160 255 88 0.541213
-0.019116 -0.099364 0.698238 160 255 88 0.541115
-0.022855 -0.098981 0.698919 160 255 88 0.541244
-0.025272 -0.097419 0.700262 160 255 88 0.541200
-0.027806 -0.099644 0.699411 160 255 88 0.541361
-0.020235 -0.096572 0.699961 160 255 88 0.541328
-0.022745 -0.095086 0.701377 160 255 88 0.541520
-0.016685 -0.096934 0.699304 160 255 88 0.541171
-0.013175 -0.097236 0.698698 160 255 88 0.542115
-0.030722 -0.099140 0.699976 160 255 88 0.541556
-0.032205 -0.097647 0.701063 160 255 88 0.541574
-0.035029 -0.097341 0.701661 160 255 88 0.541964
-0.032417 -0.095324 0.703066 160 255 88 0.541688
-0.029666 -0.095528 0.702273 160 255 88 0.541455
-0.026887 -0.095916 0.701585 160 255 88 0.541294
-0.025624 -0.092811 0.704718 160 255 88 0.541418
-0.022820 -0.092977 0.703834 160 255 88 0.541833
-0.019988 -0.093178 0.703060 169 255 79 0.551083
-0.029897 -0.093607 0.704816 160 255 88 0.541712
-0.014971 -0.092268 0.703178 160 255 88 0.541219
-0.011592 -0.092582 0.702431 160 255 88 0.540991
-0.009408 -0.093943 0.700956 160 255 88 0.540895
-0.014137 -0.094583 0.700675 160 255 88 0.541191
-0.017723 -0.094322 0.701377 160 255 88 0.541723
-0.025051 -0.111977 0.696198 160 255 88 0.542643
-0.027825 -0.109823 0.697067 160 255 88 0.542271
-0.031542 -0.109036 0.697610 156 255 92 0.537434
-0.034139 -0.107039 0.698157 160 255 88 0.542300
-0.036075 -0.109594 0.697822 163 255 85 0.543399
-0.029569 -0.106380 0.697747 160 255 88 0.541930
-0.032207 -0.104408 0.698297 160 255 88 0.541975
-0.025815 -0.107152 0.697041 160 255 88 0.541950
-0.022171 -0.107813 0.696325 160 255 88 0.541782
-0.019500 -0.109819 0.695637 160 255 88 0.541636
-0.017578 -0.106913 0.695627 160 255 88 0.541173
-0.038931 -0.108903 0.697962 163 255 85 0.543462
-0.040737 -0.107013 0.698408 163 255 85 0.543355
-0.043600 -0.106344 0.698619 163 255 85 0.543833
-0.045549 -0.104442 0.699142 163 255 85 0.544012
-0.047594 -0.106902 0.698628 163 255 85 0.544508
-0.041638 -0.103932 0.699091 160 255 88 0.542851
-0.043575 -0.102083 0.699642 163 255 85 0.543254
-0.038848 -0.104527 0.698837 160 255 88 0.542304
-0.036064 -0.105126 0.698581 160 255 88 0.542425
-0.037357 -0.099378 0.700592 160 255 88 0.541907
-0.034626 -0.099876 0.700124 160 255 88 0.541785
-0.032861 -0.101506 0.699330 160 255 88 0.541779
-0.029991 -0.102078 0.698853 160 255 88 0.541587
-0.036785 -0.102149 0.699369 160 255 88 0.541777
-0.039583 -0.101581 0.699700 153 255 95 0.532217
-0.041291 -0.099970 0.700584 160 255 88 0.542215
-0.025189 -0.101419 0.698310 160 255 88 0.541371
-0.021505 -0.101955 0.697584 160 255 88 0.541234
-0.018982 -0.103766 0.696718 160 255 88 0.541319
-0.015411 -0.104263 0.696126 160 255 88 0.541117
-0.023685 -0.104510 0.697185 160 255 88 0.541602
-0.027440 -0.103882 0.697951 160 255 88 0.541731
-0.010738 -0.103337 0.695617 160 255 88 0.541015
-0.007175 -0.103831 0.694745 160 255 88 0.540531
-0.004665 -0.105769 0.693663 160 255 88 0.540259
-0.001058 -0.106196 0.692767 160 255 88 0.540036
-0.003097 -0.109071 0.692229 160 255 88 0.539220
-0.006786 -0.108586 0.693126 160 255 88 0.539964
-0.009309 -0.106636 0.694228 160 255 88 0.540289
-0.012921 -0.106134 0.695104 160 255 88 0.540783
0.003453 -0.105434 0.692044 160 255 88 0.539968
0.006941 -0.106011 0.691011 160 255 88 0.540039
0.009530 -0.108037 0.689723 160 255 88 0.541396
0.007657 -0.110852 0.689132 179 255 69 0.563927
0.005085 -0.108802 0.690434 160 255 88 0.540985
0.001468 -0.108216 0.691499 160 255 88 0.539675
0.005392 -0.115138 0.689101 160 255 88 0.540585
0.001703 -0.114598 0.690090 156 255 92 0.538707
-0.001190 -0.112642 0.691198 143 255 104 0.519623
-0.004886 -0.112082 0.692166 156 255 92 0.538654
0.003332 -0.111698 0.690191 160 255 88 0.540082
-0.009475 -0.112970 0.693054 160 255 88 0.539970
-0.013216 -0.112440 0.693922 160 255 88 0.540187
-0.015878 -0.110408 0.694792 160 255 88 0.540671
-0.011333 -0.109496 0.694010 160 255 88 0.540053
-0.072611 -0.096195 0.704830 163 255 85 0.545460
-0.075614 -0.097040 0.705273 163 255 85 0.545811
-0.075835 -0.099311 0.704413 163 255 85 0.544037
-0.078611 -0.097878 0.705626 163 255 85 0.544790
-0.078901 -0.100202 0.704809 163 255 85 0.544056
-0.081952 -0.101075 0.705067 163 255 85 0.543166
-0.079135 -0.102529 0.704032 163 255 85 0.543035
-0.081690 -0.098672 0.705862 147 255 101 0.525513
-0.084686 -0.099579 0.706105 160 255 88 0.541550
-0.081082 -0.096155 0.706657 163 255 85 0.543160
-0.077969 -0.095412 0.706431 163 255 85 0.545621
-0.074992 -0.094609 0.706056 166 255 82 0.546929
-0.077332 -0.093032 0.707357 163 255 85 0.546364
-0.081883 -0.103926 0.704774 163 255 85 0.543591
-0.081379 -0.106565 0.704432 163 255 85 0.543289
-0.084574 -0.105355 0.705510 160 255 88 0.541889
-0.084100 -0.108001 0.705204 150 255 98 0.528536
-0.086715 -0.109482 0.705981 160 255 88 0.541093
-0.083551 -0.110679 0.704979 163 255 85 0.543314
-0.087257 -0.106804 0.706238 140 255 108 0.515834
-0.089853 -0.108323 0.706972 160 255 88 0.540883
-0.087439 -0.103871 0.706377 160 255 88 0.540917
-0.084713 -0.102456 0.705763 163 255 85 0.543006
-0.095734 -0.105717 0.709288 156 255 92 0.537608
-0.094465 -0.103313 0.709086 134 255 114 0.509021
-0.091711 -0.101768 0.708338 156 255 92 0.537149
-0.090268 -0.099430 0.708186 137 255 111 0.514955
-0.087313 -0.097984 0.707483 143 255 104 0.522820
-0.089934 -0.096306 0.708752 156 255 92 0.539056
-0.087585 -0.101052 0.706892 160 255 88 0.540231
-0.090176 -0.105444 0.707281 160 255 88 0.540329
-0.092866 -0.107058 0.708169 160 255 88 0.540252
-0.087882 -0.094510 0.709194 160 255 88 0.541205
-0.084758 -0.093670 0.708856 160 255 88 0.542516
-0.082714 -0.092015 0.709296 163 255 85 0.543896
-0.079582 -0.091242 0.708924 163 255 85 0.545247
-0.081782 -0.089427 0.710426 163 255 85 0.544484
-0.080481 -0.093770 0.707759 156 255 92 0.537960
-0.084226 -0.097053 0.707109 153 255 95 0.532898
-0.079521 -0.088223 0.711263 163 255 85 0.545336
-0.076367 -0.088015 0.711286 163 255 85 0.546449
-0.074203 -0.086884 0.712101 166 255 82 0.547180
-0.071066 -0.086625 0.712004 163 255 85 0.544777
-0.072997 -0.084830 0.713736 166 255 82 0.547988
-0.072199 -0.088684 0.710354 166 255 82 0.548029
-0.069124 -0.088403 0.710219 166 255 82 0.548957
-0.073143 -0.090636 0.708764 166 255 82 0.547852
-0.076355 -0.090950 0.708875 163 255 85 0.546736
-0.070745 -0.084030 0.714797 166 255 82 0.549095
-0.067655 -0.084204 0.714951 166 255 82 0.550704
-0.065586 -0.083420 0.716016 169 255 79 0.551416
-0.063874 -0.085220 0.714123 166 255 82 0.550744
-0.064981 -0.086846 0.712210 166 255 82 0.550224
-0.068007 -0.086801 0.712199 166 255 82 0.549608
-0.060042 -0.088491 0.710832 160 255 88 0.540425
-0.060831 -0.090002 0.709062 166 255 82 0.548904
-0.062996 -0.088487 0.710695 166 255 82 0.549607
-0.063872 -0.090059 0.708899 166 255 82 0.549569
-0.066979 -0.090032 0.708744 166 255 82 0.549270
-0.064831 -0.091578 0.707252 166 255 82 0.549264
-0.066067 -0.088452 0.710480 166 255 82 0.549739
-0.061982 -0.086909 0.712452 166 255 82 0.549446
-0.067960 -0.091950 0.707418 166 255 82 0.548606
-0.068654 -0.093803 0.706006 166 255 82 0.546957
-0.070993 -0.092287 0.707402 166 255 82 0.548041
-0.071847 -0.094216 0.706100 166 255 82 0.547155
-0.074215 -0.092646 0.707402 166 255 82 0.547454
-0.070026 -0.090299 0.708760 166 255 82 0.548562
-0.050101 -0.096631 0.703064 153 255 95 0.533882
-0.049457 -0.098660 0.701548 163 255 85 0.544556
-0.052117 -0.099016 0.701373 163 255 85 0.545955
-0.052923 -0.096842 0.702833 166 255 82 0.547278
-0.055904 -0.097118 0.702643 166 255 82 0.547593
-0.044422 -0.098847 0.701330 163 255 85 0.543686
-0.047108 -0.100882 0.700247 163 255 85 0.544352
-0.050365 -0.104465 0.699429 160 255 88 0.539972
-0.053402 -0.101975 0.700387 163 255 85 0.546307
-0.053774 -0.105000 0.699376 163 255 85 0.546021
-0.050013 -0.101467 0.700361 163 255 85 0.545102
-0.057484 -0.103693 0.700023 166 255 82 0.547376
-0.055900 -0.100680 0.701075 166 255 82 0.547240
-0.058986 -0.101223 0.701059 166 255 82 0.547991
-0.062245 -0.101725 0.701034 166 255 82 0.548405
-0.069533 -0.095736 0.704883 150 255 98 0.528023
-0.065615 -0.093417 0.705982 166 255 82 0.548633
-0.061563 -0.093775 0.705328 166 255 82 0.548852
-0.062275 -0.095545 0.704168 166 255 82 0.548776
-0.065211 -0.096000 0.704276 166 255 82 0.548312
-0.065843 -0.097827 0.703216 166 255 82 0.548168
-0.068940 -0.098311 0.703275 163 255 85 0.545346
-0.061833 -0.091529 0.707514 166 255 82 0.549298
-0.057982 -0.089943 0.709216 166 255 82 0.548615
-0.055038 -0.091998 0.707165 166 255 82 0.548069
-0.057841 -0.092127 0.706965 166 255 82 0.548639
-0.058608 -0.093585 0.705456 166 255 82 0.548591
-0.052070 -0.093981 0.705377 163 255 85 0.546368
-0.054781 -0.094103 0.705103 166 255 82 0.547608
-0.058726 -0.097569 0.702692 166 255 82 0.548117
-0.061631 -0.098064 0.702718 166 255 82 0.548522
-0.064911 -0.100383 0.701912 166 255 82 0.548514
-0.068438 -0.072298 0.725515 163 255 85 0.546193
-0.065720 -0.071674 0.726504 163 255 85 0.546576
-0.062973 -0.072229 0.726627 163 255 85 0.545785
-0.060318 -0.071564 0.727547 163 255 85 0.543517
-0.057614 -0.072108 0.727617 160 255 88 0.541517
-0.057737 -0.069382 0.728980 153 255 95 0.534269
-0.060101 -0.074094 0.726001 163 255 85 0.544076
-0.057393 -0.074655 0.726001 160 255 88 0.541157
-0.062459 -0.074821 0.724992 163 255 85 0.545738
-0.064834 -0.075484 0.723913 160 255 88 0.539899
-0.067647 -0.074909 0.723749 166 255 82 0.547750
-0.066760 -0.077353 0.721808 166 255 82 0.549343
-0.055012 -0.069107 0.730066 156 255 92 0.537348
-0.052517 -0.070079 0.730484 156 255 92 0.535698
