ply
format ascii 1.0
comment VCGLIB generated
element vertex 963
property float x
property float y
property float z
property uchar red
property uchar green
property uchar blue
property float quality
end_header
-0.063143 -0.046405 0.737708 4 234 244 0.352136
-0.066121 -0.047211 0.737929 11 242 237 0.360987
-0.069056 -0.048006 0.738061 11 242 237 0.360359
-0.069150 -0.051080 0.735921 17 250 231 0.367688
-0.072090 -0.051854 0.736023 14 246 234 0.363906
-0.074776 -0.052813 0.736432 7 238 240 0.357796
-0.077443 -0.053813 0.736854 11 242 237 0.359747
-0.074388 -0.049789 0.738670 4 234 244 0.353282
-0.077054 -0.050830 0.739174 0 222 253 0.343209
-0.079732 -0.051876 0.739709 0 218 255 0.338759
-0.080116 -0.054826 0.737319 4 234 244 0.354418
-0.082793 -0.055848 0.737807 0 222 253 0.342424
-0.071733 -0.048892 0.738373 7 238 240 0.358387
-0.084470 -0.026939 0.766710 14 246 234 0.365306
-0.081488 -0.026922 0.765032 11 242 237 0.361613
-0.079470 -0.024466 0.766840 1 230 247 0.351437
-0.076495 -0.024380 0.765081 0 218 255 0.339277
-0.078513 -0.026838 0.763308 0 222 253 0.341203
-0.075528 -0.026734 0.761548 0 210 255 0.331474
-0.080721 -0.029167 0.761982 1 230 247 0.350580
-0.083692 -0.029218 0.763675 33 255 215 0.388945
-0.086699 -0.029200 0.765294 49 255 198 0.409418
-0.085923 -0.031491 0.762279 53 255 195 0.412591
-0.074286 -0.022106 0.766899 0 174 255 0.295888
-0.071642 -0.020888 0.767147 0 222 253 0.341992
-0.071103 -0.022105 0.765096 0 218 255 0.339798
-0.068956 -0.019675 0.767426 0 226 250 0.346806
-0.068423 -0.020880 0.765354 0 218 255 0.336646
-0.067892 -0.022093 0.763294 0 222 253 0.343692
-0.070184 -0.024407 0.761478 0 218 255 0.336912
-0.073353 -0.024415 0.763306 0 214 255 0.333781
-0.067253 -0.028586 0.754693 0 222 253 0.341204
-0.070018 -0.028462 0.756467 0 206 255 0.327502
-0.072754 -0.029575 0.756741 0 194 255 0.316348
-0.075468 -0.029375 0.758524 0 194 255 0.315323
-0.075440 -0.032013 0.755529 0 166 255 0.287466
-0.072787 -0.026947 0.759762 0 206 255 0.327423
-0.067369 -0.024578 0.759693 0 222 253 0.341523
-0.078081 -0.033220 0.755954 0 126 255 0.248937
-0.080687 -0.033108 0.757657 0 206 255 0.325421
-0.083340 -0.034243 0.758012 14 246 234 0.366834
-0.085948 -0.034100 0.759658 66 255 182 0.428478
-0.086033 -0.036626 0.756995 101 255 147 0.472613
-0.083274 -0.031710 0.760637 27 255 221 0.381557
-0.078113 -0.029268 0.760264 0 210 255 0.328400
-0.083934 -0.036970 0.755505 17 250 231 0.370508
-0.081286 -0.035841 0.755162 0 194 255 0.312777
-0.079213 -0.036129 0.753623 0 174 255 0.294454
-0.076564 -0.034949 0.753224 0 186 255 0.306827
-0.077696 -0.037856 0.750880 0 178 255 0.299567
-0.080336 -0.038984 0.751395 0 178 255 0.297125
-0.082398 -0.038709 0.752921 4 234 244 0.353908
-0.085047 -0.039811 0.753374 7 238 240 0.358126
-0.087139 -0.039461 0.754875 59 255 189 0.419195
-0.088285 -0.042263 0.752683 56 255 192 0.416279
-0.073251 -0.032367 0.753915 0 190 255 0.312461
-0.070553 -0.031214 0.753645 0 206 255 0.324431
-0.068373 -0.031516 0.752069 0 218 255 0.337509
-0.069515 -0.034440 0.749663 0 214 255 0.334232
-0.071674 -0.034129 0.751216 0 202 255 0.322859
-0.074397 -0.035277 0.751643 0 186 255 0.307170
-0.073610 -0.041101 0.745655 0 170 255 0.289336
-0.076295 -0.042194 0.746095 0 190 255 0.311771
-0.074306 -0.038924 0.748017 0 194 255 0.315059
-0.076969 -0.040040 0.748511 0 174 255 0.294648
-0.079648 -0.041118 0.748964 0 214 255 0.333604
-0.078965 -0.043269 0.746567 0 182 255 0.302617
-0.081627 -0.044350 0.746990 0 210 255 0.328549
-0.071567 -0.037803 0.747657 0 210 255 0.330507
-0.084141 -0.045410 0.747513 0 162 255 0.283667
-0.086657 -0.046437 0.748040 0 214 255 0.332769
-0.084923 -0.043359 0.749867 0 186 255 0.306375
-0.087448 -0.044390 0.750379 88 255 160 0.456334
-0.090006 -0.045410 0.750876 117 255 130 0.491591
-0.089198 -0.047476 0.748537 0 210 255 0.331589
-0.091781 -0.048522 0.749027 20 254 228 0.374670
-0.082289 -0.042251 0.749433 0 166 255 0.285577
-0.124903 -0.124655 0.802606 98 255 150 0.466514
-0.121970 -0.125290 0.804154 101 255 147 0.472043
-0.120843 -0.126496 0.801268 72 255 176 0.435653
-0.123752 -0.125774 0.799701 75 255 172 0.438448
-0.117956 -0.127255 0.802761 72 255 176 0.434212
-0.119729 -0.127686 0.798357 46 255 202 0.402854
-0.116854 -0.128500 0.799895 43 255 205 0.400035
-0.115753 -0.129731 0.797041 23 255 224 0.378278
-0.122638 -0.126891 0.796752 46 255 202 0.405108
-0.118622 -0.128845 0.795467 40 255 208 0.394750
-0.121512 -0.127949 0.793834 30 255 218 0.385374
-0.114009 -0.129352 0.801394 40 255 208 0.394556
-0.112925 -0.130665 0.798563 43 255 205 0.398881
-0.110127 -0.131602 0.800062 20 254 228 0.372108
-0.111305 -0.130015 0.803152 40 255 208 0.394691
-0.115213 -0.127818 0.804524 75 255 172 0.439022
-0.112517 -0.128478 0.806271 82 255 166 0.445687
-0.116455 -0.126285 0.807662 114 255 134 0.485663
-0.119212 -0.125782 0.805931 121 255 127 0.494021
-0.113748 -0.126918 0.809395 117 255 130 0.489372
-0.120678 -0.128784 0.790519 20 254 228 0.371724
-0.117704 -0.129944 0.792034 17 250 231 0.368099
-0.116851 -0.130777 0.788763 7 238 240 0.357617
-0.119863 -0.129527 0.787178 11 242 237 0.362238
-0.113914 -0.132034 0.790208 7 238 240 0.357627
-0.116015 -0.131530 0.785450 7 238 240 0.355511
-0.113038 -0.132834 0.786928 30 255 218 0.385428
-0.112137 -0.133568 0.783653 33 255 215 0.387419
-0.119057 -0.130228 0.783838 7 238 240 0.358581
-0.115146 -0.132242 0.782139 4 234 244 0.353938
-0.118233 -0.130903 0.780509 7 238 240 0.357791
-0.110133 -0.134103 0.788338 7 238 240 0.356537
-0.109213 -0.134856 0.785064 7 238 240 0.358236
-0.106362 -0.136101 0.786424 14 246 234 0.364272
-0.107358 -0.135158 0.789870 23 255 224 0.376005
-0.111103 -0.133068 0.791768 7 238 240 0.355732
-0.108320 -0.134101 0.793293 11 242 237 0.359832
-0.112030 -0.131936 0.795196 11 242 237 0.361204
-0.114855 -0.130933 0.793634 33 255 215 0.388994
-0.109246 -0.132922 0.796695 11 242 237 0.361405
-0.097693 -0.138116 0.794794 17 250 231 0.367892
-0.098723 -0.136818 0.798250 14 246 234 0.367020
-0.101866 -0.136071 0.796565 14 246 234 0.364294
-0.099705 -0.135357 0.801656 27 255 221 0.380956
-0.102843 -0.134613 0.799985 14 246 234 0.366571
-0.103804 -0.133035 0.803383 20 254 228 0.374389
-0.100658 -0.133729 0.805037 20 254 228 0.373156
-0.105984 -0.133880 0.798319 30 255 218 0.385578
-0.106954 -0.132312 0.801722 17 250 231 0.370607
-0.105086 -0.135110 0.794930 11 242 237 0.361558
-0.104136 -0.136186 0.791515 14 246 234 0.363815
-0.100914 -0.137166 0.793165 17 250 231 0.368654
-0.099932 -0.138113 0.789731 17 250 231 0.369209
-0.103144 -0.137129 0.788080 27 255 221 0.379985
-0.096705 -0.139060 0.791366 17 250 231 0.370972
-0.101794 -0.132067 0.808081 40 255 208 0.394600
-0.103095 -0.130209 0.811376 69 255 179 0.430347
-0.106113 -0.129743 0.809534 75 255 172 0.440515
-0.104431 -0.128374 0.814666 40 255 208 0.397281
-0.107458 -0.127949 0.812850 85 255 163 0.449448
-0.110500 -0.127480 0.811011 98 255 150 0.467356
-0.109301 -0.129087 0.807903 75 255 172 0.440134
-0.108119 -0.130710 0.804814 36 255 211 0.393120
-0.104962 -0.131432 0.806459 40 255 208 0.397394
-0.089069 -0.050163 0.746253 0 206 255 0.328020
-0.086535 -0.049112 0.745765 0 158 255 0.278819
-0.084029 -0.048078 0.745270 0 138 255 0.258907
-0.086444 -0.051750 0.743455 0 122 255 0.242638
-0.088697 -0.052657 0.744022 0 110 255 0.234047
-0.090982 -0.053561 0.744596 0 198 255 0.317677
-0.091367 -0.051069 0.746834 0 154 255 0.276884
-0.093731 -0.052006 0.747411 0 118 255 0.238715
-0.093350 -0.054485 0.745174 0 154 255 0.274625
-0.095773 -0.055451 0.745763 0 194 255 0.315837
-0.079150 -0.046088 0.744226 0 182 255 0.301254
-0.076479 -0.045032 0.743813 0 198 255 0.319594
-0.079127 -0.048819 0.741986 0 198 255 0.316655
-0.081548 -0.049799 0.742468 0 178 255 0.299549
-0.081582 -0.047091 0.744743 0 158 255 0.279553
-0.083991 -0.050779 0.742968 0 194 255 0.313127
-0.084985 -0.056687 0.738353 0 202 255 0.322666
-0.087166 -0.057544 0.738926 0 194 255 0.314385
-0.084606 -0.053806 0.740609 43 255 205 0.402330
-0.086783 -0.054676 0.741190 0 158 255 0.278352
-0.089017 -0.055550 0.741813 0 134 255 0.256454
-0.089411 -0.058402 0.739515 72 255 176 0.434106
-0.091667 -0.059270 0.740121 56 255 192 0.415002
-0.082158 -0.052840 0.740159 82 255 166 0.446205
-0.094739 -0.059067 0.742254 0 102 255 0.225957
-0.097964 -0.058897 0.744359 0 198 255 0.316715
-0.097991 -0.061503 0.742230 0 194 255 0.313167
-0.091320 -0.056448 0.742381 0 130 255 0.253622
-0.047589 -0.108246 0.694407 4 234 244 0.354294
-0.044675 -0.108892 0.694038 7 238 240 0.358318
-0.042624 -0.111084 0.693654 7 238 240 0.356871
-0.039734 -0.111757 0.693298 7 238 240 0.355587
-0.041386 -0.114717 0.693197 7 238 240 0.357091
-0.044296 -0.113993 0.693501 7 238 240 0.356065
-0.046348 -0.111818 0.693897 7 238 240 0.357017
-0.049282 -0.111047 0.694217 7 238 240 0.356831
-0.051427 -0.108879 0.694659 4 234 244 0.353150
-0.053161 -0.111723 0.694452 7 238 240 0.357614
-0.035396 -0.111059 0.692826 7 238 240 0.355511
-0.031867 -0.111793 0.692227 7 238 240 0.356910
-0.029039 -0.114061 0.691607 7 238 240 0.357670
-0.030730 -0.117080 0.691681 7 238 240 0.358157
-0.033525 -0.114771 0.692281 4 234 244 0.354474
-0.037077 -0.113995 0.692791 7 238 240 0.357133
-0.032998 -0.123173 0.692687 7 238 240 0.357931
-0.036055 -0.120832 0.692964 4 234 244 0.352074
-0.039587 -0.120100 0.693417 7 238 240 0.357262
-0.042490 -0.117806 0.693629 4 234 244 0.354119
-0.043602 -0.120915 0.694006 7 238 240 0.357051
-0.038464 -0.116983 0.692998 7 238 240 0.357338
-0.034929 -0.117776 0.692518 7 238 240 0.356237
-0.031845 -0.120101 0.692226 11 242 237 0.361211
-0.046476 -0.120218 0.694297 4 234 244 0.354870
-0.048852 -0.117888 0.694412 7 238 240 0.357185
-0.051798 -0.117183 0.694719 11 242 237 0.359742
-0.054261 -0.114860 0.694847 4 234 244 0.354200
-0.055358 -0.118052 0.695255 4 234 244 0.354408
-0.050704 -0.113985 0.694319 4 234 244 0.353060
-0.047753 -0.114776 0.694021 7 238 240 0.357084
-0.045400 -0.117065 0.693910 7 238 240 0.357049
-0.090020 -0.141826 0.768522 62 255 185 0.422600
-0.090983 -0.141514 0.771521 66 255 182 0.425909
-0.094235 -0.140494 0.769714 69 255 179 0.429993
-0.091945 -0.141251 0.774547 59 255 189 0.421115
-0.095192 -0.140204 0.772718 66 255 182 0.429342
-0.096158 -0.139938 0.775738 79 255 169 0.441604
-0.092910 -0.140990 0.777582 49 255 198 0.409430
-0.098445 -0.139206 0.770865 56 255 192 0.417256
-0.099397 -0.138895 0.773884 59 255 189 0.420985
-0.102681 -0.137824 0.771996 40 255 208 0.396920
-0.101619 -0.138098 0.768768 46 255 202 0.405762
-0.097364 -0.139415 0.767660 95 255 153 0.462406
-0.100555 -0.138387 0.765562 49 255 198 0.408775
-0.096282 -0.139641 0.764497 66 255 182 0.428102
-0.093128 -0.140723 0.766501 62 255 185 0.423650
-0.092037 -0.140921 0.763343 66 255 182 0.429057
-0.099475 -0.138581 0.762409 53 255 195 0.413556
-0.095187 -0.139856 0.761335 62 255 185 0.422211
-0.098381 -0.138783 0.759251 53 255 195 0.410646
-0.088929 -0.142057 0.765332 59 255 189 0.419001
-0.093898 -0.140771 0.781219 36 255 211 0.392739
-0.094873 -0.140309 0.784614 27 255 221 0.382139
-0.098108 -0.139364 0.782984 30 255 218 0.383628
-0.095806 -0.139758 0.787991 23 255 224 0.375232
-0.099046 -0.138805 0.786359 20 254 228 0.374583
-0.102255 -0.137836 0.784720 20 254 228 0.372310
-0.105480 -0.136631 0.782816 20 254 228 0.374457
-0.101329 -0.138248 0.781101 49 255 198 0.409174
-0.104575 -0.137075 0.779208 53 255 195 0.411991
-0.100379 -0.138580 0.777497 40 255 208 0.396599
-0.097147 -0.139662 0.779365 56 255 192 0.415512
-0.103634 -0.137456 0.775610 59 255 189 0.418921
-0.117504 -0.131201 0.776723 11 242 237 0.360290
-0.114337 -0.132807 0.778496 17 250 231 0.367543
-0.113555 -0.133082 0.774727 14 246 234 0.367068
-0.116785 -0.131500 0.772972 43 255 205 0.402313
-0.110445 -0.134635 0.776377 14 246 234 0.366191
-0.112752 -0.133340 0.771015 56 255 192 0.414381
-0.109581 -0.134867 0.772665 23 255 224 0.378479
-0.108712 -0.135051 0.768982 46 255 202 0.404905
-0.116048 -0.131789 0.769238 33 255 215 0.389060
-0.111957 -0.133577 0.767289 36 255 211 0.394122
-0.115280 -0.132067 0.765571 30 255 218 0.386612
-0.106564 -0.136324 0.774217 27 255 221 0.381914
-0.105624 -0.136469 0.770537 43 255 205 0.400479
-0.107465 -0.135903 0.777822 20 254 228 0.371371
-0.108340 -0.135431 0.781446 11 242 237 0.361874
-0.111282 -0.134132 0.780019 14 246 234 0.364065
-0.114530 -0.132043 0.761460 53 255 195 0.412870
-0.110957 -0.134004 0.764110 33 255 215 0.387503
-0.110128 -0.133883 0.760033 27 255 221 0.380679
-0.113693 -0.131955 0.757415 40 255 208 0.397867
-0.106670 -0.135776 0.762564 40 255 208 0.398186
-0.109168 -0.133722 0.756015 43 255 205 0.399575
-0.105727 -0.135567 0.758535 72 255 176 0.433983
-0.104758 -0.135310 0.754507 56 255 192 0.414552
-0.112804 -0.131840 0.753304 33 255 215 0.389868
-0.108186 -0.133510 0.751925 43 255 205 0.401164
-0.111758 -0.131641 0.749253 33 255 215 0.386982
-0.102482 -0.137391 0.760930 49 255 198 0.406801
-0.101486 -0.137071 0.756938 88 255 160 0.455535
-0.103547 -0.137107 0.764110 46 255 202 0.403903
-0.104583 -0.136805 0.767317 43 255 205 0.400076
-0.107697 -0.135447 0.765752 40 255 208 0.395471
-0.094347 -0.137919 0.735725 14 246 234 0.365871
-0.092423 -0.139085 0.737620 33 255 215 0.387953
-0.091956 -0.139747 0.741190 14 246 234 0.366002
-0.090085 -0.140968 0.743025 11 242 237 0.361506
-0.089645 -0.141682 0.746564 4 234 244 0.352202
-0.086814 -0.142801 0.743096 27 255 221 0.379786
-0.092950 -0.139948 0.746456 23 255 224 0.376762
-0.092508 -0.140654 0.749960 23 255 224 0.377680
-0.094657 -0.139251 0.747922 30 255 218 0.386253
-0.095113 -0.138542 0.744385 53 255 195 0.411369
-0.096841 -0.137883 0.745847 53 255 195 0.412939
-0.097338 -0.137196 0.742254 30 255 218 0.383381
-0.095594 -0.137876 0.740793 30 255 218 0.383846
-0.097847 -0.136565 0.738618 27 255 221 0.381519
-0.099095 -0.136510 0.743694 36 255 211 0.391434
-0.099648 -0.135888 0.740023 33 255 215 0.389592
-0.101444 -0.135248 0.741440 27 255 221 0.381915
-0.096100 -0.137204 0.737178 20 254 228 0.371146
-0.084348 -0.143652 0.744800 14 246 234 0.365061
-0.082987 -0.144149 0.748448 7 238 240 0.356997
-0.080547 -0.144978 0.750097 0 218 255 0.338574
-0.082738 -0.144254 0.753968 14 246 234 0.366478
-0.085488 -0.143219 0.752111 17 250 231 0.368928
-0.088260 -0.142178 0.750215 17 250 231 0.368680
-0.087478 -0.142544 0.763009 49 255 198 0.407580
-0.090590 -0.141419 0.761025 56 255 192 0.415499
-0.089145 -0.141918 0.758714 46 255 202 0.403166
-0.093720 -0.140340 0.758997 53 255 195 0.411523
-0.092261 -0.140832 0.756695 43 255 205 0.399887
-0.095444 -0.139708 0.754594 40 255 208 0.395843
-0.096917 -0.139251 0.756923 59 255 189 0.418367
-0.090825 -0.141312 0.754367 30 255 218 0.386006
-0.093974 -0.140157 0.752277 23 255 224 0.378591
-0.088023 -0.142255 0.756284 36 255 211 0.391031
-0.085254 -0.143234 0.758140 33 255 215 0.388190
-0.086373 -0.142866 0.760563 43 255 205 0.398818
-0.099122 -0.137869 0.754912 69 255 179 0.432811
-0.102287 -0.136147 0.752511 79 255 169 0.442848
-0.099865 -0.136978 0.750496 56 255 192 0.416563
-0.105611 -0.134409 0.749978 66 255 182 0.427749
-0.103113 -0.135282 0.747984 46 255 202 0.403639
-0.106494 -0.133586 0.745370 33 255 215 0.387023
-0.109145 -0.132666 0.747289 33 255 215 0.387689
-0.100646 -0.136096 0.745986 75 255 172 0.438201
-0.103958 -0.134446 0.743405 40 255 208 0.396624
-0.098359 -0.137431 0.748168 72 255 176 0.434395
-0.096135 -0.138771 0.750247 56 255 192 0.414251
-0.097622 -0.138354 0.752576 66 255 182 0.427437
-0.087648 -0.082984 0.713758 30 255 218 0.382995
-0.091074 -0.084220 0.715004 30 255 218 0.383398
-0.093229 -0.086470 0.714637 27 255 221 0.382365
-0.096560 -0.087909 0.716036 27 255 221 0.379241
-0.094083 -0.089616 0.712557 27 255 221 0.379689
-0.095629 -0.084750 0.718110 27 255 221 0.382232
-0.098855 -0.086302 0.719749 30 255 218 0.384568
-0.093294 -0.082321 0.718429 30 255 218 0.383602
-0.090949 -0.079942 0.718785 30 255 218 0.383830
-0.095807 -0.092335 0.712485 27 255 221 0.379419
-0.098754 -0.094400 0.714197 23 255 224 0.378278
-0.100294 -0.097246 0.714343 23 255 224 0.377398
-0.103089 -0.099475 0.716297 23 255 224 0.375986
-0.100441 -0.100876 0.712869 23 255 224 0.376943
-0.102822 -0.095874 0.717929 36 255 211 0.393557
-0.105550 -0.098124 0.720053 30 255 218 0.385581
-0.101194 -0.092897 0.717812 23 255 224 0.377937
-0.099483 -0.089966 0.717792 23 255 224 0.378416
-0.110958 -0.095698 0.728214 14 246 234 0.365853
-0.109309 -0.092736 0.728127 14 246 234 0.367175
-0.108011 -0.093299 0.726033 17 250 231 0.368411
-0.106333 -0.090389 0.725981 20 254 228 0.373040
-0.107627 -0.089823 0.728062 17 250 231 0.368721
-0.105005 -0.090933 0.723859 23 255 224 0.375438
-0.104604 -0.087499 0.725952 43 255 205 0.399008
-0.103237 -0.088037 0.723822 23 255 224 0.375298
-0.101427 -0.085183 0.723777 20 254 228 0.374459
-0.105909 -0.086966 0.728014 17 250 231 0.369761
-0.102752 -0.084656 0.725900 7 238 240 0.358028
-0.104091 -0.084117 0.727977 14 246 234 0.367162
-0.101934 -0.088590 0.721701 30 255 218 0.384069
-0.100125 -0.085716 0.721715 43 255 205 0.398901
-0.105339 -0.094469 0.721905 27 255 221 0.380848
-0.108271 -0.096866 0.724175 17 250 231 0.369264
-0.101490 -0.081059 0.728277 4 234 244 0.352724
-0.100379 -0.082090 0.725912 20 254 228 0.371711
-0.097767 -0.079015 0.726218 27 255 221 0.379672
-0.098840 -0.077974 0.728589 30 255 218 0.383194
-0.096770 -0.080078 0.723926 20 254 228 0.374434
-0.095182 -0.075976 0.726549 20 254 228 0.374690
-0.094170 -0.077098 0.724413 23 255 224 0.375041
-0.096246 -0.074908 0.728823 59 255 189 0.418963
-0.093169 -0.078246 0.722304 33 255 215 0.387988
-0.095525 -0.080683 0.722052 27 255 221 0.381596
-0.097833 -0.083184 0.721863 56 255 192 0.417868
-0.099113 -0.082618 0.723858 27 255 221 0.379237
-0.102287 -0.124137 0.722545 20 254 228 0.374972
-0.103937 -0.120861 0.722688 23 255 224 0.377809
-0.105400 -0.122702 0.725605 36 255 211 0.393496
-0.105595 -0.117495 0.722841 27 255 221 0.379175
-0.107093 -0.119343 0.725769 27 255 221 0.379509
-0.108789 -0.115871 0.725974 27 255 221 0.379384
-0.108616 -0.121207 0.728710 23 255 224 0.378731
-0.107237 -0.114010 0.723005 23 255 224 0.376942
-0.108814 -0.110405 0.723268 20 254 228 0.374219
-0.105981 -0.111912 0.719792 20 254 228 0.374630
-0.104422 -0.115402 0.719610 23 255 224 0.376747
-0.102787 -0.118801 0.719508 23 255 224 0.376213
-0.103137 -0.113314 0.716529 36 255 211 0.391073
-0.110460 -0.120280 0.730303 20 254 228 0.372402
-0.110340 -0.117813 0.729118 27 255 221 0.380368
-0.112242 -0.116815 0.730724 30 255 218 0.383740
-0.112352 -0.119307 0.731889 27 255 221 0.382146
-0.112070 -0.114330 0.729574 27 255 221 0.381962
-0.114013 -0.115871 0.732394 30 255 218 0.385761
-0.113810 -0.113389 0.731265 30 255 218 0.383068
-0.115521 -0.112414 0.732960 33 255 215 0.386719
-0.114142 -0.118365 0.733519 30 255 218 0.384260
-0.115740 -0.114927 0.734058 27 255 221 0.381197
-0.115877 -0.117449 0.735209 30 255 218 0.385672
-0.113595 -0.110842 0.730134 23 255 224 0.378588
-0.115285 -0.109878 0.731830 23 255 224 0.378410
-0.114963 -0.107279 0.730729 20 254 228 0.374797
-0.113432 -0.108042 0.728889 20 254 228 0.374469
-0.112033 -0.111571 0.728282 23 255 224 0.378508
-0.111919 -0.108789 0.727019 20 254 228 0.374750
-0.110424 -0.112361 0.726431 23 255 224 0.377026
-0.110399 -0.115114 0.727783 27 255 221 0.380902
-0.110367 -0.109582 0.725144 20 254 228 0.374050
-0.110699 -0.099289 0.726829 17 250 231 0.368760
-0.110249 -0.102912 0.725492 27 255 221 0.379590
-0.107928 -0.100502 0.722809 17 250 231 0.370533
-0.108831 -0.103547 0.723473 20 254 228 0.371861
-0.107446 -0.104217 0.721457 20 254 228 0.372486
-0.109661 -0.106630 0.724297 20 254 228 0.373002
-0.111146 -0.105845 0.726219 20 254 228 0.373126
-0.112622 -0.105093 0.728119 20 254 228 0.372291
-0.111685 -0.102161 0.727412 17 250 231 0.370773
-0.113122 -0.101361 0.729337 17 250 231 0.370108
-0.114103 -0.104331 0.730000 20 254 228 0.371482
-0.112065 -0.098525 0.728735 17 250 231 0.367717
-0.105225 -0.101885 0.718915 20 254 228 0.374895
-0.104730 -0.105727 0.717921 30 255 218 0.384777
-0.102664 -0.103291 0.715301 33 255 215 0.388470
-0.102066 -0.107099 0.714431 23 255 224 0.376916
-0.104077 -0.109528 0.717084 23 255 224 0.376008
-0.106806 -0.108059 0.720525 20 254 228 0.373995
-0.081234 -0.090096 0.705905 27 255 221 0.381473
-0.083046 -0.091899 0.705572 23 255 224 0.377298
-0.085910 -0.092905 0.706134 17 250 231 0.368526
-0.087745 -0.094804 0.705839 4 234 244 0.355308
-0.089769 -0.093081 0.707600 23 255 224 0.377083
-0.087781 -0.091020 0.708001 23 255 224 0.378704
-0.084949 -0.090055 0.707444 20 254 228 0.371111
-0.082938 -0.088106 0.707889 17 250 231 0.370772
-0.088275 -0.098144 0.704959 23 255 224 0.375767
-0.089680 -0.100546 0.705152 14 246 234 0.366695
-0.092160 -0.102355 0.706244 14 246 234 0.364550
-0.093467 -0.104829 0.706518 23 255 224 0.375762
-0.095766 -0.103543 0.708158 17 250 231 0.367590
-0.094363 -0.100845 0.707905 23 255 224 0.377049
-0.091853 -0.099036 0.706864 14 246 234 0.365834
-0.090349 -0.096452 0.706736 23 255 224 0.376918
-0.097919 -0.098783 0.711377 23 255 224 0.378011
-0.096391 -0.095960 0.711250 27 255 221 0.379002
-0.093659 -0.094045 0.710003 27 255 221 0.379790
-0.091995 -0.091340 0.710036 23 255 224 0.378228
-0.094097 -0.097504 0.708871 23 255 224 0.378855
-0.098184 -0.102210 0.710455 23 255 224 0.376669
-0.091054 -0.088378 0.711653 27 255 221 0.381825
-0.088919 -0.086174 0.712054 30 255 218 0.383100
-0.085831 -0.085089 0.711241 27 255 221 0.382685
-0.086916 -0.088094 0.709564 27 255 221 0.381545
-0.101514 -0.126103 0.724194 23 255 224 0.375851
-0.103318 -0.125358 0.725532 27 255 221 0.382324
-0.102554 -0.127331 0.727169 23 255 224 0.377213
-0.100795 -0.128077 0.725789 23 255 224 0.375518
-0.104348 -0.126582 0.728519 23 255 224 0.378155
-0.101825 -0.129305 0.728746 11 242 237 0.361722
-0.103636 -0.128594 0.730097 23 255 224 0.377509
-0.102878 -0.130572 0.731711 33 255 215 0.390388
-0.100095 -0.130031 0.727352 20 254 228 0.371876
-0.101127 -0.131266 0.730314 20 254 228 0.372748
-0.099379 -0.132002 0.728920 17 250 231 0.369148
-0.105389 -0.127854 0.731530 27 255 221 0.379466
-0.104669 -0.129875 0.733099 23 255 224 0.377732
-0.106479 -0.129160 0.734493 27 255 221 0.379126
-0.107573 -0.125205 0.731586 30 255 218 0.385207
-0.106442 -0.123935 0.728618 27 255 221 0.380076
-0.098063 -0.133440 0.730678 17 250 231 0.369266
-0.099882 -0.132757 0.732054 20 254 228 0.372434
-0.098564 -0.134212 0.733819 20 254 228 0.372945
-0.096792 -0.134900 0.732394 17 250 231 0.367412
-0.100368 -0.133530 0.735217 23 255 224 0.377469
-0.097316 -0.135700 0.735502 30 255 218 0.384473
-0.099075 -0.135011 0.736944 27 255 221 0.382544
-0.095543 -0.136394 0.734085 17 250 231 0.367586
-0.100876 -0.134360 0.738359 14 246 234 0.365398
-0.102666 -0.133722 0.739737 27 255 221 0.380815
-0.102096 -0.132839 0.736653 27 255 221 0.381836
-0.103884 -0.132163 0.738042 30 255 218 0.383573
-0.103350 -0.131354 0.734902 27 255 221 0.380599
-0.101594 -0.132041 0.733487 23 255 224 0.377128
-0.105195 -0.130659 0.736258 36 255 211 0.391920
-0.112577 -0.130016 0.746988 33 255 215 0.389096
-0.110454 -0.131054 0.745579 36 255 211 0.390893
-0.111243 -0.129436 0.743314 30 255 218 0.386690
-0.113306 -0.128418 0.744765 33 255 215 0.389720
-0.109121 -0.130435 0.741877 17 250 231 0.370389
-0.112007 -0.127842 0.741028 30 255 218 0.384495
-0.109908 -0.128819 0.739603 27 255 221 0.382325
-0.110671 -0.127250 0.737317 27 255 221 0.380929
-0.114123 -0.126787 0.742497 33 255 215 0.388738
-0.112834 -0.126200 0.738743 23 255 224 0.375545
-0.114848 -0.125199 0.740242 30 255 218 0.383589
-0.107798 -0.129768 0.738198 27 255 221 0.379440
-0.108538 -0.128227 0.735924 27 255 221 0.379714
-0.106500 -0.131336 0.739929 30 255 218 0.383430
-0.105170 -0.132896 0.741711 30 255 218 0.386577
-0.107772 -0.132004 0.743658 30 255 218 0.385156
-0.113632 -0.122224 0.736086 30 255 218 0.386607
-0.115386 -0.121327 0.737719 33 255 215 0.388233
-0.111813 -0.123147 0.734456 30 255 218 0.384965
-0.109625 -0.124196 0.733047 30 255 218 0.384141
0.011051 -0.145356 0.707915 7 238 240 0.357441
0.013736 -0.145104 0.705668 7 238 240 0.357631
0.009086 -0.144762 0.705182 11 242 237 0.361084
0.011755 -0.144522 0.702963 11 242 237 0.361748
0.007330 -0.143973 0.702587 7 238 240 0.355896
0.010290 -0.143576 0.700516 4 234 244 0.353926
0.005818 -0.142976 0.700110 7 238 240 0.356546
0.008795 -0.142594 0.698032 11 242 237 0.362282
-0.047485 -0.140047 0.709507 7 238 240 0.355674
-0.050969 -0.138786 0.708730 4 234 244 0.354613
-0.045574 -0.139200 0.707544 7 238 240 0.356041
-0.049046 -0.137967 0.706732 11 242 237 0.360980
-0.047125 -0.137098 0.704785 7 238 240 0.355960
-0.052556 -0.136700 0.705990 4 234 244 0.354914
-0.043678 -0.138306 0.705609 7 238 240 0.355976
-0.041767 -0.137379 0.703689 1 230 247 0.349319
-0.040383 -0.139257 0.706195 7 238 240 0.356544
-0.042284 -0.140203 0.708121 7 238 240 0.356579
-0.044178 -0.141096 0.710064 7 238 240 0.356287
-0.039004 -0.141170 0.708704 7 238 240 0.357366
-0.050281 -0.135735 0.704246 4 234 244 0.352754
-0.053627 -0.134022 0.703540 11 242 237 0.362706
-0.048032 -0.134720 0.702550 11 242 237 0.359874
-0.051335 -0.133012 0.701793 7 238 240 0.356190
-0.049064 -0.131991 0.700100 7 238 240 0.356399
-0.054698 -0.131311 0.701069 7 238 240 0.356323
-0.045788 -0.133661 0.700890 7 238 240 0.356326
-0.043539 -0.132585 0.699252 7 238 240 0.356629
-0.042662 -0.134987 0.701472 1 230 247 0.350692
-0.044902 -0.136067 0.703108 4 234 244 0.353422
-0.029594 -0.134043 0.697006 11 242 237 0.359870
-0.032734 -0.134874 0.698670 7 238 240 0.359002
-0.028875 -0.136083 0.698931 11 242 237 0.360197
-0.035843 -0.135715 0.700351 7 238 240 0.357603
-0.032029 -0.136937 0.700608 7 238 240 0.359135
-0.035141 -0.137763 0.702309 4 234 244 0.351582
-0.028156 -0.138151 0.700867 11 242 237 0.360285
-0.038860 -0.136551 0.702029 7 238 240 0.356564
-0.039746 -0.134164 0.699830 7 238 240 0.356905
-0.036750 -0.133305 0.698159 4 234 244 0.353283
-0.030962 -0.138898 0.702819 11 242 237 0.359483
-0.026872 -0.139784 0.703089 11 242 237 0.360561
-0.033735 -0.139651 0.704791 7 238 240 0.358300
-0.029698 -0.140540 0.705053 11 242 237 0.359842
-0.032504 -0.141320 0.707043 4 234 244 0.354180
-0.025573 -0.141448 0.705325 11 242 237 0.360727
-0.036437 -0.140430 0.706750 7 238 240 0.357795
-0.037819 -0.138519 0.704252 4 234 244 0.351745
0.001387 -0.136446 0.691052 11 242 237 0.361827
0.001023 -0.134470 0.689673 11 242 237 0.361796
0.000638 -0.132513 0.688292 11 242 237 0.361590
0.000690 -0.130190 0.687317 11 242 237 0.361328
0.004467 -0.141786 0.697803 11 242 237 0.362373
0.007672 -0.141302 0.695913 11 242 237 0.362127
0.003334 -0.140428 0.695673 11 242 237 0.362322
0.006550 -0.139971 0.693791 4 234 244 0.353530
0.002407 -0.138925 0.693733 11 242 237 0.362123
-0.025852 -0.133329 0.695584 11 242 237 0.360227
-0.029820 -0.131692 0.695566 11 242 237 0.359615
-0.022141 -0.132596 0.694196 7 238 240 0.356098
-0.026098 -0.130990 0.694148 11 242 237 0.359964
-0.022366 -0.130267 0.692738 11 242 237 0.359863
-0.030062 -0.129318 0.694101 7 238 240 0.359278
-0.018443 -0.131846 0.692828 11 242 237 0.360506
-0.014781 -0.131086 0.691447 11 242 237 0.360150
-0.014515 -0.133189 0.692854 11 242 237 0.361056
-0.018180 -0.133967 0.694230 11 242 237 0.361069
-0.021884 -0.134721 0.695597 11 242 237 0.360502
-0.014246 -0.135311 0.694250 11 242 237 0.361447
-0.026096 -0.128556 0.692950 11 242 237 0.359669
-0.029691 -0.126618 0.693144 7 238 240 0.358506
-0.022148 -0.127758 0.691808 11 242 237 0.359796
-0.025722 -0.125865 0.691984 7 238 240 0.359266
-0.018337 -0.128184 0.691135 7 238 240 0.357525
-0.014538 -0.128599 0.690475 4 234 244 0.353433
-0.003174 -0.129818 0.688123 11 242 237 0.360867
-0.007034 -0.129460 0.688920 11 242 237 0.360524
-0.007102 -0.131789 0.689897 11 242 237 0.360809
-0.003254 -0.132150 0.689106 11 242 237 0.360988
-0.010918 -0.130260 0.690197 11 242 237 0.360390
-0.010676 -0.127797 0.689206 11 242 237 0.359881
-0.002917 -0.134177 0.690499 11 242 237 0.360705
-0.006831 -0.133879 0.691305 11 242 237 0.361093
-0.006463 -0.135862 0.692678 11 242 237 0.360959
-0.002550 -0.136153 0.691875 4 234 244 0.354960
-0.010529 -0.134585 0.692777 11 242 237 0.361335
-0.010823 -0.132487 0.691395 11 242 237 0.360929
0.001987 -0.142906 0.700927 11 242 237 0.362289
-0.001027 -0.143301 0.702955 11 242 237 0.361992
0.003549 -0.143908 0.703411 11 242 237 0.361633
0.000529 -0.144324 0.705458 11 242 237 0.361659
-0.004047 -0.143720 0.704987 4 234 244 0.355272
-0.007011 -0.144141 0.707008 11 242 237 0.361669
-0.008806 -0.142989 0.704584 11 242 237 0.362172
-0.005811 -0.142578 0.702564 11 242 237 0.362061
-0.002782 -0.142174 0.700543 11 242 237 0.362275
-0.010577 -0.141890 0.702159 11 242 237 0.362067
0.005476 -0.144770 0.705984 4 234 244 0.354529
0.002808 -0.144993 0.708119 11 242 237 0.360936
0.007440 -0.145334 0.708728 1 230 247 0.351528
0.000158 -0.145241 0.710271 4 234 244 0.355112
-0.004765 -0.144789 0.709703 11 242 237 0.361050
-0.002096 -0.144562 0.707573 7 238 240 0.358581
-0.014283 -0.145012 0.713237 11 242 237 0.361637
-0.019228 -0.144544 0.712707 11 242 237 0.360931
-0.011868 -0.144720 0.711164 11 242 237 0.360101
-0.016813 -0.144291 0.710618 14 246 234 0.363765
-0.014373 -0.144011 0.708549 11 242 237 0.361985
-0.021714 -0.143868 0.710093 11 242 237 0.360450
-0.009451 -0.144440 0.709097 11 242 237 0.361818
-0.007157 -0.145103 0.711779 7 238 240 0.356697
-0.018905 -0.143387 0.708085 4 234 244 0.355124
-0.023659 -0.142645 0.707711 11 242 237 0.360854
-0.016136 -0.142888 0.706107 11 242 237 0.361541
-0.020846 -0.142153 0.705708 11 242 237 0.361107
-0.018083 -0.141684 0.703729 11 242 237 0.359402
-0.013342 -0.142401 0.704133 11 242 237 0.361738
-0.011584 -0.143508 0.706564 11 242 237 0.362235
-0.001872 -0.137883 0.693670 11 242 237 0.361295
-0.005819 -0.137668 0.694486 7 238 240 0.356764
-0.005094 -0.139348 0.696265 11 242 237 0.361688
-0.001154 -0.139567 0.695447 11 242 237 0.362071
-0.009365 -0.138303 0.696178 14 246 234 0.363294
-0.012893 -0.138928 0.697848 11 242 237 0.361650
-0.013574 -0.137115 0.696052 11 242 237 0.361678
-0.010018 -0.136484 0.694360 11 242 237 0.361658
-0.000014 -0.140972 0.697582 11 242 237 0.362349
-0.003901 -0.140826 0.698390 11 242 237 0.362245
-0.007214 -0.141362 0.700271 11 242 237 0.362335
-0.011718 -0.140397 0.700001 11 242 237 0.361860
-0.008401 -0.139875 0.698132 14 246 234 0.363778
-0.022386 -0.140836 0.703431 11 242 237 0.361223
-0.019238 -0.140197 0.701567 11 242 237 0.361126
-0.023667 -0.139184 0.701199 11 242 237 0.361638
-0.020465 -0.138559 0.699322 11 242 237 0.361293
-0.016065 -0.139568 0.699711 4 234 244 0.354423
-0.014902 -0.141045 0.701865 4 234 244 0.354926
-0.024642 -0.137451 0.699168 11 242 237 0.360942
-0.021154 -0.136742 0.697508 11 242 237 0.361175
-0.025339 -0.135419 0.697240 11 242 237 0.360634
-0.017693 -0.136026 0.695870 11 242 237 0.361332
-0.017024 -0.137835 0.697686 11 242 237 0.361114
-0.028066 -0.142031 0.707410 11 242 237 0.360134
-0.030584 -0.142606 0.709507 11 242 237 0.359377
-0.026107 -0.143249 0.709758 11 242 237 0.360245
-0.028677 -0.143816 0.711896 11 242 237 0.359668
-0.032989 -0.143183 0.711612 7 238 240 0.358653
-0.035306 -0.143747 0.713689 7 238 240 0.357991
-0.037145 -0.142448 0.711209 7 238 240 0.357738
-0.034872 -0.141894 0.709130 7 238 240 0.358180
-0.023835 -0.144210 0.712237 4 234 244 0.355269
-0.026183 -0.144507 0.714507 11 242 237 0.359467
-0.021356 -0.144910 0.714865 7 238 240 0.356004
-0.028412 -0.144806 0.716751 7 238 240 0.358980
-0.032936 -0.144397 0.716335 4 234 244 0.353891
-0.030870 -0.144115 0.714124 7 238 240 0.358749
-0.040635 -0.144470 0.718795 1 230 247 0.351358
-0.038075 -0.144462 0.718010 7 238 240 0.356837
-0.040447 -0.143787 0.715252 7 238 240 0.356884
-0.043000 -0.143791 0.716045 7 238 240 0.356609
-0.036702 -0.144109 0.715863 7 238 240 0.357450
-0.034343 -0.144777 0.718512 7 238 240 0.357302
-0.044868 -0.142422 0.713443 7 238 240 0.356579
-0.042254 -0.142470 0.712768 7 238 240 0.356743
-0.040641 -0.141838 0.710723 7 238 240 0.357080
-0.038797 -0.143126 0.713231 7 238 240 0.357334
-0.063570 -0.141535 0.717675 7 238 240 0.356342
-0.063600 -0.142551 0.719927 11 242 237 0.362310
-0.061099 -0.144398 0.723106 7 238 240 0.357746
-0.063647 -0.143567 0.722176 14 246 234 0.365637
-0.063688 -0.144605 0.724433 7 238 240 0.357439
-0.066294 -0.142664 0.721098 7 238 240 0.357116
-0.066265 -0.141647 0.718846 7 238 240 0.356601
-0.066231 -0.140673 0.716565 7 238 240 0.356681
-0.068923 -0.140800 0.717732 7 238 240 0.356640
-0.056616 -0.145378 0.725587 7 238 240 0.357869
-0.056286 -0.146031 0.727880 7 238 240 0.357974
-0.058780 -0.146287 0.729264 7 238 240 0.357991
-0.059122 -0.145625 0.726982 14 246 234 0.363836
-0.060762 -0.145067 0.725375 7 238 240 0.357573
-0.063468 -0.146675 0.732241 7 238 240 0.357792
-0.063951 -0.146020 0.729871 7 238 240 0.357057
-0.065649 -0.145446 0.728253 7 238 240 0.356795
-0.066132 -0.144771 0.725922 7 238 240 0.356851
-0.068574 -0.144950 0.727370 7 238 240 0.356848
-0.063215 -0.145264 0.726790 1 230 247 0.351547
-0.061570 -0.145833 0.728402 4 234 244 0.351824
-0.061107 -0.146488 0.730757 7 238 240 0.357290
-0.068651 -0.143871 0.724975 7 238 240 0.356667
-0.071220 -0.142927 0.723979 7 238 240 0.356638
-0.068727 -0.142821 0.722566 17 250 231 0.368436
-0.071330 -0.141897 0.721561 7 238 240 0.356602
-0.071430 -0.140894 0.719131 7 238 240 0.355608
-0.073950 -0.141001 0.720503 7 238 240 0.357563
-0.068834 -0.141787 0.720159 1 230 247 0.348740
-0.066199 -0.143699 0.723515 7 238 240 0.357277
-0.052045 -0.130259 0.699734 7 238 240 0.356546
-0.055222 -0.128060 0.699255 14 246 234 0.364121
-0.049437 -0.129202 0.698444 7 238 240 0.356650
-0.052553 -0.127014 0.697947 7 238 240 0.357018
-0.049916 -0.125947 0.696692 7 238 240 0.358962
-0.055748 -0.124839 0.697457 1 230 247 0.351242
-0.046831 -0.128094 0.697212 7 238 240 0.356809
-0.044236 -0.126988 0.696010 7 238 240 0.356872
-0.043894 -0.129790 0.697641 7 238 240 0.356830
-0.046478 -0.130894 0.698850 7 238 240 0.356612
-0.052667 -0.123889 0.696535 7 238 240 0.357957
-0.055561 -0.121444 0.696350 11 242 237 0.359640
-0.049621 -0.122906 0.695652 1 230 247 0.350295
-0.052450 -0.120480 0.695447 7 238 240 0.357222
-0.046750 -0.123415 0.695314 7 238 240 0.356571
-0.043914 -0.123945 0.695011 7 238 240 0.357020
-0.033352 -0.126016 0.693641 4 234 244 0.353217
-0.036950 -0.125436 0.694152 7 238 240 0.357025
-0.037325 -0.128143 0.695111 1 230 247 0.350641
-0.033734 -0.128719 0.694610 7 238 240 0.358086
-0.040635 -0.126205 0.695087 4 234 244 0.352650
-0.040309 -0.123165 0.694090 7 238 240 0.357187
-0.033429 -0.131297 0.696116 7 238 240 0.358683
-0.036982 -0.130929 0.696689 7 238 240 0.357345
-0.040310 -0.131758 0.697980 7 238 240 0.357177
-0.040642 -0.128958 0.696364 7 238 240 0.356844
-0.078543 -0.109107 0.699523 14 246 234 0.365272
-0.076440 -0.107619 0.698904 17 250 231 0.369225
-0.076570 -0.104983 0.699058 17 250 231 0.368003
-0.074392 -0.103587 0.698507 11 242 237 0.359489
-0.074326 -0.106177 0.698287 14 246 234 0.364346
-0.072216 -0.104767 0.697651 14 246 234 0.366194
-0.073874 -0.108583 0.698083 17 250 231 0.367553
-0.075962 -0.110053 0.698748 14 246 234 0.366076
-0.078072 -0.111544 0.699392 17 250 231 0.368478
-0.075447 -0.112489 0.698605 17 250 231 0.367701
-0.074238 -0.101383 0.699090 14 246 234 0.364075
-0.071373 -0.098065 0.699537 17 250 231 0.367722
-0.068349 -0.100051 0.698273 14 246 234 0.365195
-0.070725 -0.100999 0.698477 14 246 234 0.367027
-0.065062 -0.101993 0.697324 7 238 240 0.357430
-0.067442 -0.102900 0.697454 7 238 240 0.358874
-0.069751 -0.105888 0.697083 14 246 234 0.364740
-0.066152 -0.105517 0.696638 11 242 237 0.360846
-0.067978 -0.108804 0.696679 7 238 240 0.359048
-0.070038 -0.110154 0.697224 4 234 244 0.355430
-0.072096 -0.111522 0.697772 14 246 234 0.365748
-0.069992 -0.114237 0.697401 14 246 234 0.364434
-0.071840 -0.107241 0.697582 14 246 234 0.366181
-0.056152 -0.132564 0.702762 4 234 244 0.355318
-0.057619 -0.133794 0.704446 1 230 247 0.348638
-0.055064 -0.135229 0.705228 4 234 244 0.354692
-0.056528 -0.136450 0.706909 4 234 244 0.354589
-0.059098 -0.135005 0.706134 7 238 240 0.359145
-0.060576 -0.136198 0.707828 4 234 244 0.355371
-0.061618 -0.133383 0.705317 7 238 240 0.356059
-0.060123 -0.132173 0.703601 7 238 240 0.357629
-0.058641 -0.130940 0.701916 7 238 240 0.356517
-0.062667 -0.130588 0.702744 7 238 240 0.357598
-0.053730 -0.137650 0.707901 4 234 244 0.354131
-0.054938 -0.138628 0.709781 4 234 244 0.353607
-0.052157 -0.139774 0.710624 4 234 244 0.352371
-0.058960 -0.138381 0.710690 4 234 244 0.354218
-0.057737 -0.137402 0.708804 4 234 244 0.354121
-0.063600 -0.138297 0.712036 7 238 240 0.355692
-0.063669 -0.136113 0.708672 7 238 240 0.356319
-0.065957 -0.137153 0.710972 4 234 244 0.353352
-0.061241 -0.139469 0.713037 4 234 244 0.354972
-0.067274 -0.134570 0.708208 7 238 240 0.357901
-0.066234 -0.133218 0.706538 7 238 240 0.357912
-0.065204 -0.131840 0.704851 7 238 240 0.358137
-0.068231 -0.131669 0.705632 11 242 237 0.359818
-0.067223 -0.130336 0.703930 11 242 237 0.359488
-0.062642 -0.134747 0.706994 7 238 240 0.356010
-0.094003 -0.135793 0.730109 0 226 250 0.345054
-0.095263 -0.134342 0.728415 11 242 237 0.362297
-0.096562 -0.132901 0.726676 14 246 234 0.365135
-0.093727 -0.133825 0.724439 11 242 237 0.362256
-0.091255 -0.136625 0.727824 0 222 253 0.341447
-0.091440 -0.137667 0.730602 7 238 240 0.356803
-0.091635 -0.138742 0.733389 7 238 240 0.358780
-0.088932 -0.139584 0.731042 7 238 240 0.355628
-0.098142 -0.129031 0.723460 30 255 218 0.386600
-0.098892 -0.127096 0.721857 20 254 228 0.373425
-0.099651 -0.125142 0.720225 20 254 228 0.372575
-0.096971 -0.126148 0.717947 17 250 231 0.368166
-0.096115 -0.128060 0.719636 17 250 231 0.369503
-0.095255 -0.129962 0.721306 7 238 240 0.358278
-0.095896 -0.131414 0.724000 14 246 234 0.366369
-0.091854 -0.127525 0.714276 4 234 244 0.353797
-0.090944 -0.129351 0.715976 17 250 231 0.368170
-0.091452 -0.130912 0.718483 17 250 231 0.367687
-0.090669 -0.132758 0.720067 14 246 234 0.364933
-0.091189 -0.134355 0.722557 1 230 247 0.350933
-0.088638 -0.134908 0.720626 11 242 237 0.362140
-0.093232 -0.132214 0.721947 14 246 234 0.363983
-0.093560 -0.128731 0.717805 17 250 231 0.369350
-0.094411 -0.126835 0.716123 17 250 231 0.369555
-0.088702 -0.136030 0.723257 11 242 237 0.359994
-0.086267 -0.137614 0.723971 7 238 240 0.358352
-0.088748 -0.137184 0.725884 7 238 240 0.357629
-0.086356 -0.138805 0.726552 7 238 240 0.355721
-0.086474 -0.140030 0.729122 4 234 244 0.354646
-0.084019 -0.140465 0.727178 4 234 244 0.355419
-0.088816 -0.138369 0.728475 7 238 240 0.355764
-0.091222 -0.135483 0.725202 7 238 240 0.359256
-0.080460 -0.129312 0.708295 14 246 234 0.365751
-0.080800 -0.127108 0.707065 17 250 231 0.368879
-0.079690 -0.125142 0.705416 20 254 228 0.372277
-0.080033 -0.122900 0.704166 17 250 231 0.369572
-0.078889 -0.120937 0.702497 0 226 250 0.346896
-0.081754 -0.120351 0.703380 17 250 231 0.369351
-0.077177 -0.123451 0.703273 17 250 231 0.367918
-0.076057 -0.121505 0.701588 14 246 234 0.366412
-0.076786 -0.125527 0.704436 17 250 231 0.368556
-0.076482 -0.127612 0.705566 14 246 234 0.366020
-0.077537 -0.129545 0.707238 7 238 240 0.355865
-0.074653 -0.129825 0.706128 14 246 234 0.363981
-0.081523 -0.117927 0.702521 11 242 237 0.360530
-0.079932 -0.115954 0.701340 17 250 231 0.368975
-0.079665 -0.113514 0.700535 20 254 228 0.371304
-0.077107 -0.114431 0.699752 14 246 234 0.363287
-0.077238 -0.116701 0.700510 17 250 231 0.369416
-0.077388 -0.118971 0.701259 17 250 231 0.368165
-0.071561 -0.116032 0.698429 11 242 237 0.361222
-0.070138 -0.118383 0.698743 14 246 234 0.364355
-0.073081 -0.117852 0.699461 14 246 234 0.366978
-0.071629 -0.120199 0.699822 14 246 234 0.364762
-0.073117 -0.122013 0.700896 4 234 244 0.355456
-0.070208 -0.122517 0.700147 11 242 237 0.360511
-0.074570 -0.119671 0.700534 7 238 240 0.359345
-0.074300 -0.115172 0.699022 17 250 231 0.367319
-0.071351 -0.124359 0.701635 14 246 234 0.363790
-0.069467 -0.126390 0.702248 7 238 240 0.357994
-0.072484 -0.126186 0.703127 14 246 234 0.364069
-0.070592 -0.128211 0.703745 11 242 237 0.362372
-0.071689 -0.130023 0.705244 11 242 237 0.362953
-0.073595 -0.128007 0.704621 14 246 234 0.364385
-0.074224 -0.123847 0.702395 14 246 234 0.365908
-0.061061 -0.103759 0.696477 11 242 237 0.360635
-0.059439 -0.106372 0.695797 4 234 244 0.354777
-0.061416 -0.109239 0.695523 4 234 244 0.355439
-0.063174 -0.106650 0.696162 14 246 234 0.364580
-0.054418 -0.106255 0.695365 4 234 244 0.352795
-0.054211 -0.109661 0.694853 7 238 240 0.358072
-0.057238 -0.110503 0.695012 11 242 237 0.363105
-0.058339 -0.108437 0.695398 14 246 234 0.363947
-0.056832 -0.115840 0.695334 1 230 247 0.351224
-0.059505 -0.117012 0.695844 7 238 240 0.358690
-0.058334 -0.113636 0.695407 4 234 244 0.355419
-0.061048 -0.114804 0.695899 7 238 240 0.356448
-0.062609 -0.112568 0.695932 7 238 240 0.358171
-0.063793 -0.115956 0.696376 11 242 237 0.360660
-0.059878 -0.111444 0.695462 11 242 237 0.362896
-0.055740 -0.112687 0.694938 7 238 240 0.357731
-0.066208 -0.113288 0.696664 7 238 240 0.356924
-0.067140 -0.111051 0.696670 11 242 237 0.360403
-0.064931 -0.109830 0.696224 17 250 231 0.367702
-0.057495 -0.119395 0.696122 7 238 240 0.357999
-0.059642 -0.120758 0.697019 7 238 240 0.358646
-0.057679 -0.122798 0.697240 4 234 244 0.352348
-0.059813 -0.124147 0.698171 4 234 244 0.354615
-0.061825 -0.122128 0.697925 17 250 231 0.367282
-0.064003 -0.123480 0.698847 7 238 240 0.358254
-0.063880 -0.119704 0.697592 4 234 244 0.352832
-0.061683 -0.118366 0.696715 11 242 237 0.361347
-0.057478 -0.126295 0.698757 4 234 244 0.351873
-0.059202 -0.127735 0.700084 11 242 237 0.361991
-0.056915 -0.129510 0.700578 7 238 240 0.356842
-0.060941 -0.129172 0.701406 7 238 240 0.357492
-0.063332 -0.127032 0.700805 7 238 240 0.356686
-0.061569 -0.125596 0.699478 7 238 240 0.358133
-0.066400 -0.126866 0.701574 11 242 237 0.360448
-0.068284 -0.124694 0.700882 11 242 237 0.361690
-0.067086 -0.122996 0.699526 11 242 237 0.361818
-0.065205 -0.125177 0.700212 14 246 234 0.364834
-0.064508 -0.128719 0.702170 7 238 240 0.358453
-0.068611 -0.120877 0.699185 11 242 237 0.362957
-0.066988 -0.119223 0.698235 11 242 237 0.362070
-0.068519 -0.116737 0.697827 14 246 234 0.363752
-0.065418 -0.117573 0.697306 7 238 240 0.356357
-0.065488 -0.121360 0.698551 11 242 237 0.360664
-0.078401 -0.130960 0.709198 4 234 244 0.353716
-0.076334 -0.132609 0.710046 20 254 228 0.371710
-0.075527 -0.131200 0.708074 14 246 234 0.363971
-0.073512 -0.132881 0.708881 11 242 237 0.362678
-0.074339 -0.134299 0.710825 11 242 237 0.362197
-0.072381 -0.136030 0.711567 11 242 237 0.360082
-0.075082 -0.135963 0.712851 11 242 237 0.361272
-0.077058 -0.134254 0.712098 11 242 237 0.363157
-0.079119 -0.132605 0.711238 14 246 234 0.364466
-0.077799 -0.135937 0.714108 11 242 237 0.362056
-0.072658 -0.131336 0.707010 17 250 231 0.368601
-0.070658 -0.132869 0.707886 11 242 237 0.361212
-0.068172 -0.136033 0.710015 4 234 244 0.352660
-0.071517 -0.134446 0.709735 11 242 237 0.360373
-0.065703 -0.139375 0.714473 7 238 240 0.356085
-0.067909 -0.138215 0.713548 7 238 240 0.357092
-0.068409 -0.139481 0.715636 7 238 240 0.356852
-0.070612 -0.138339 0.714676 7 238 240 0.357530
-0.070120 -0.137107 0.712572 7 238 240 0.358313
-0.071085 -0.139523 0.716878 1 230 247 0.349557
-0.073286 -0.138278 0.715994 7 238 240 0.358321
-0.073621 -0.139620 0.718260 7 238 240 0.357556
-0.075842 -0.138390 0.717346 7 238 240 0.359332
-0.075531 -0.137082 0.715070 11 242 237 0.360332
-0.072822 -0.137136 0.713773 11 242 237 0.359682
-0.092148 -0.125019 0.712898 20 254 228 0.372180
-0.091194 -0.122872 0.710644 23 255 224 0.375113
-0.091469 -0.120348 0.709239 14 246 234 0.363494
-0.090333 -0.118165 0.707130 20 254 228 0.373923
-0.093139 -0.117360 0.708525 20 254 228 0.374285
-0.088696 -0.121116 0.707796 14 246 234 0.365501
-0.087510 -0.118976 0.705708 1 230 247 0.350373
-0.088417 -0.123527 0.709123 20 254 228 0.374332
-0.088017 -0.125920 0.710518 20 254 228 0.372349
-0.089090 -0.128036 0.712647 17 250 231 0.368373
-0.086282 -0.128563 0.711031 7 238 240 0.357583
-0.092740 -0.114568 0.707528 23 255 224 0.377243
-0.090975 -0.112307 0.705933 23 255 224 0.377477
-0.090436 -0.109496 0.705052 23 255 224 0.376457
-0.087851 -0.110646 0.703737 14 246 234 0.365017
-0.088251 -0.113284 0.704603 14 246 234 0.363597
-0.088629 -0.115931 0.705477 20 254 228 0.374996
-0.082470 -0.112659 0.701478 20 254 228 0.373681
-0.082738 -0.115114 0.702270 20 254 228 0.373676
-0.084455 -0.117202 0.703663 20 254 228 0.373924
-0.084619 -0.119654 0.704555 20 254 228 0.371768
-0.085558 -0.114227 0.703320 14 246 234 0.364841
-0.085093 -0.111602 0.702526 20 254 228 0.374856
-0.082997 -0.122407 0.705211 11 242 237 0.361191
-0.082617 -0.124671 0.706496 14 246 234 0.365856
-0.083727 -0.126694 0.708438 17 250 231 0.370426
-0.083379 -0.128927 0.709675 17 250 231 0.367732
-0.085539 -0.124128 0.707767 20 254 228 0.373122
-0.085798 -0.121726 0.706439 17 250 231 0.369865
-0.073830 -0.141978 0.723018 7 238 240 0.356625
-0.073713 -0.142956 0.725521 7 238 240 0.356750
-0.071139 -0.143939 0.726453 7 238 240 0.356249
-0.071040 -0.144956 0.728940 7 238 240 0.356905
-0.073607 -0.143954 0.728007 7 238 240 0.356306
-0.073488 -0.144956 0.730508 7 238 240 0.357242
-0.076200 -0.142894 0.727121 17 250 231 0.369521
-0.076339 -0.141926 0.724610 7 238 240 0.357712
-0.076470 -0.140965 0.722096 7 238 240 0.357606
-0.078963 -0.140935 0.723659 11 242 237 0.359961
-0.068028 -0.145570 0.729751 7 238 240 0.356934
-0.066313 -0.146136 0.731384 7 238 240 0.357515
-0.065766 -0.146745 0.733778 14 246 234 0.364657
-0.068145 -0.146769 0.735340 7 238 240 0.356418
-0.068691 -0.146173 0.732934 7 238 240 0.356908
-0.070474 -0.145574 0.731327 11 242 237 0.360943
-0.072429 -0.146620 0.738758 4 234 244 0.355127
-0.073160 -0.146074 0.736299 4 234 244 0.355422
-0.075087 -0.145410 0.734710 4 234 244 0.355416
-0.075821 -0.144835 0.732243 7 238 240 0.355682
-0.078166 -0.144683 0.733996 4 234 244 0.354171
-0.072745 -0.145563 0.732956 7 238 240 0.359342
-0.070955 -0.146173 0.734555 4 234 244 0.355432
-0.070226 -0.146744 0.737018 0 222 253 0.343704
-0.079606 -0.143590 0.732331 4 234 244 0.353763
-0.079804 -0.142647 0.729737 4 234 244 0.354479
-0.081274 -0.141598 0.728031 4 234 244 0.354895
-0.081505 -0.140704 0.725426 7 238 240 0.356806
-0.078752 -0.141846 0.726263 17 250 231 0.369033
-0.076004 -0.143859 0.729677 7 238 240 0.356327
-0.081170 -0.130849 0.710515 14 246 234 0.366323
-0.081888 -0.132401 0.712715 14 246 234 0.366452
-0.079809 -0.134139 0.713475 14 246 234 0.364288
-0.080535 -0.135752 0.715648 11 242 237 0.362884
-0.082583 -0.133986 0.714937 14 246 234 0.364873
-0.083261 -0.135602 0.717140 11 242 237 0.362771
-0.084715 -0.132036 0.714152 14 246 234 0.366784
-0.084056 -0.130482 0.711900 17 250 231 0.367479
-0.078094 -0.137125 0.716520 11 242 237 0.361177
-0.078387 -0.138365 0.718920 7 238 240 0.359358
-0.076164 -0.139666 0.719727 7 238 240 0.358333
-0.078670 -0.139640 0.721303 7 238 240 0.358228
-0.081063 -0.138197 0.720480 7 238 240 0.359301
-0.080805 -0.136963 0.718060 11 242 237 0.361389
