ply
format ascii 1.0
comment VCGLIB generated
element vertex 967
property float x
property float y
property float z
property uchar red
property uchar green
property uchar blue
property float quality
end_header
-0.078758 -0.143929 0.773154 36 255 211 0.394182
-0.083278 -0.143192 0.774028 46 255 202 0.404237
-0.082193 -0.143526 0.771758 46 255 202 0.403387
-0.085593 -0.143271 0.770419 46 255 202 0.402852
-0.086649 -0.142913 0.772658 0 218 255 0.336193
-0.081087 -0.144021 0.769508 43 255 205 0.400528
-0.084507 -0.143702 0.768182 53 255 195 0.411047
-0.077777 -0.144295 0.770742 0 190 255 0.312399
-0.074381 -0.144732 0.771984 33 255 215 0.390534
-0.075340 -0.144335 0.774415 69 255 179 0.432737
-0.005439 -0.088846 0.754262 36 255 211 0.390969
-0.008563 -0.086469 0.752515 36 255 211 0.392688
-0.011714 -0.084321 0.750965 53 255 195 0.412301
-0.006831 -0.090481 0.752690 36 255 211 0.393036
-0.010079 -0.088345 0.750801 49 255 198 0.406447
-0.014694 -0.082275 0.749598 36 255 211 0.391650
-0.017599 -0.080273 0.748243 36 255 211 0.390895
-0.015957 -0.077865 0.749987 30 255 218 0.386167
-0.013133 -0.080072 0.751293 33 255 215 0.387393
-0.013606 -0.087048 0.748933 40 255 208 0.394968
-0.027430 -0.073295 0.743131 36 255 211 0.391886
-0.025223 -0.075038 0.744913 33 255 215 0.389189
-0.023205 -0.077564 0.745869 33 255 215 0.389828
-0.025951 -0.070522 0.744580 79 255 169 0.442184
-0.020562 -0.078979 0.747121 33 255 215 0.390350
-0.023752 -0.072500 0.746528 27 255 221 0.379491
-0.021188 -0.074210 0.748012 7 238 240 0.356555
-0.024179 -0.068058 0.746222 23 255 224 0.378420
-0.021906 -0.070051 0.748112 0 226 250 0.346859
-0.018465 -0.075683 0.749383 27 255 221 0.380513
-0.019996 -0.124824 0.866441 36 255 211 0.391050
-0.019539 -0.127147 0.862366 33 255 215 0.390386
-0.023055 -0.124952 0.864829 36 255 211 0.392883
-0.022671 -0.127386 0.860728 36 255 211 0.392497
-0.019170 -0.130053 0.858457 30 255 218 0.385551
-0.018799 -0.133048 0.854603 36 255 211 0.392920
-0.015683 -0.132569 0.856338 36 255 211 0.391896
-0.016080 -0.129593 0.860152 27 255 221 0.382499
-0.016530 -0.126855 0.864108 33 255 215 0.387988
-0.012612 -0.132157 0.857998 53 255 195 0.412750
-0.026147 -0.125238 0.863073 40 255 208 0.395231
-0.025778 -0.127824 0.858947 36 255 211 0.394107
-0.029291 -0.125480 0.861378 53 255 195 0.413956
-0.028922 -0.128127 0.857274 40 255 208 0.394901
-0.025434 -0.130830 0.855016 36 255 211 0.393312
-0.025133 -0.133965 0.851057 40 255 208 0.395476
-0.021944 -0.133586 0.852860 40 255 208 0.394649
-0.022309 -0.130337 0.856766 36 255 211 0.391613
-0.016628 -0.140436 0.836971 40 255 208 0.395649
-0.017195 -0.139172 0.841469 40 255 208 0.396015
-0.013435 -0.140117 0.838863 40 255 208 0.395609
-0.017739 -0.137514 0.846013 40 255 208 0.396079
-0.013991 -0.138810 0.843423 40 255 208 0.395789
-0.014550 -0.137069 0.847967 40 255 208 0.395537
-0.010195 -0.139749 0.840796 40 255 208 0.395491
-0.018255 -0.135531 0.850405 40 255 208 0.395306
-0.021477 -0.135851 0.848593 40 255 208 0.396041
-0.020963 -0.137855 0.844175 40 255 208 0.396437
-0.010783 -0.138434 0.845326 40 255 208 0.395407
-0.007016 -0.139421 0.842757 40 255 208 0.395199
-0.011374 -0.136822 0.849770 40 255 208 0.394700
-0.007621 -0.138076 0.847267 40 255 208 0.394824
-0.008286 -0.136446 0.851651 36 255 211 0.393762
-0.003855 -0.139059 0.844638 40 255 208 0.394809
-0.011981 -0.134705 0.853994 36 255 211 0.393583
-0.015090 -0.135093 0.852264 36 255 211 0.394442
-0.032488 -0.125813 0.859624 40 255 208 0.396649
-0.032200 -0.128525 0.855446 40 255 208 0.394807
-0.035762 -0.126047 0.857869 40 255 208 0.395633
-0.035501 -0.128874 0.853758 36 255 211 0.393793
-0.031948 -0.131594 0.851437 46 255 202 0.405587
-0.031717 -0.134364 0.847274 36 255 211 0.394434
-0.028427 -0.134141 0.849163 40 255 208 0.395698
-0.028658 -0.131148 0.853250 40 255 208 0.394552
-0.038997 -0.126369 0.856138 40 255 208 0.395593
-0.038654 -0.129139 0.851982 36 255 211 0.391550
-0.042210 -0.126597 0.854450 36 255 211 0.393837
-0.041878 -0.129274 0.850279 33 255 215 0.389467
-0.038367 -0.131970 0.847880 33 255 215 0.386729
-0.038112 -0.134679 0.843726 33 255 215 0.389070
-0.034926 -0.134500 0.845479 36 255 211 0.392206
-0.035199 -0.131730 0.849648 33 255 215 0.389186
-0.029532 -0.141485 0.829905 40 255 208 0.395766
-0.030141 -0.140278 0.834228 40 255 208 0.395801
-0.026377 -0.141228 0.831563 40 255 208 0.395676
-0.030718 -0.138569 0.838580 40 255 208 0.395617
-0.027010 -0.139964 0.835959 40 255 208 0.395995
-0.027575 -0.138295 0.840385 40 255 208 0.396390
-0.023239 -0.141038 0.833263 40 255 208 0.395583
-0.031248 -0.136555 0.842928 40 255 208 0.395349
-0.034462 -0.136755 0.841184 36 255 211 0.393172
-0.033949 -0.138716 0.836925 40 255 208 0.394995
-0.023781 -0.139776 0.837681 40 255 208 0.396138
-0.019966 -0.140749 0.835073 40 255 208 0.395824
-0.024268 -0.138141 0.842173 40 255 208 0.396750
-0.020474 -0.139439 0.839580 40 255 208 0.396172
-0.024704 -0.136202 0.846674 40 255 208 0.396863
-0.028030 -0.136364 0.844785 49 255 198 0.408757
-0.045201 -0.126811 0.852802 36 255 211 0.392948
-0.044675 -0.129438 0.848695 33 255 215 0.387895
-0.048010 -0.126828 0.851242 36 255 211 0.392153
-0.047511 -0.129460 0.847164 33 255 215 0.387581
-0.044177 -0.132112 0.844638 27 255 221 0.381531
-0.043698 -0.134737 0.840594 30 255 218 0.385041
-0.040892 -0.134739 0.842168 33 255 215 0.387100
-0.041397 -0.132008 0.846219 11 242 237 0.362900
-0.050711 -0.127033 0.849763 36 255 211 0.391455
-0.050084 -0.129543 0.845710 30 255 218 0.386681
-0.053273 -0.127090 0.848353 36 255 211 0.391535
-0.052643 -0.129489 0.844315 30 255 218 0.384865
-0.049433 -0.132236 0.841793 17 250 231 0.370836
-0.048800 -0.134989 0.837951 30 255 218 0.384068
-0.046229 -0.134848 0.839266 30 255 218 0.384340
-0.046866 -0.132124 0.843144 17 250 231 0.368281
-0.040130 -0.142031 0.824525 40 255 208 0.395423
-0.041085 -0.140810 0.828654 40 255 208 0.395624
-0.037566 -0.141945 0.825812 40 255 208 0.395587
-0.041987 -0.139048 0.832646 36 255 211 0.394102
-0.038543 -0.140654 0.829938 40 255 208 0.395515
-0.039507 -0.138909 0.833946 36 255 211 0.394250
-0.035027 -0.141797 0.827081 40 255 208 0.395826
-0.042860 -0.137026 0.836591 36 255 211 0.391719
-0.045425 -0.137057 0.835276 36 255 211 0.390855
-0.044565 -0.139196 0.831395 36 255 211 0.394009
-0.035902 -0.140564 0.831213 40 255 208 0.395543
-0.032296 -0.141626 0.828467 40 255 208 0.395871
-0.036682 -0.138919 0.835407 40 255 208 0.394627
-0.033142 -0.140394 0.832690 40 255 208 0.395690
-0.037440 -0.136897 0.839545 36 255 211 0.392987
-0.040240 -0.136884 0.838012 36 255 211 0.391937
-0.049519 -0.148905 0.769336 43 255 205 0.399715
-0.046639 -0.148961 0.771914 43 255 205 0.399516
-0.042783 -0.148959 0.770792 43 255 205 0.399471
-0.039695 -0.149398 0.773464 43 255 205 0.399714
-0.043588 -0.149252 0.774628 43 255 205 0.399758
-0.040466 -0.149624 0.777270 43 255 205 0.399895
-0.047924 -0.148631 0.775952 43 255 205 0.399532
-0.050818 -0.148546 0.773374 43 255 205 0.399088
-0.035883 -0.148454 0.771532 43 255 205 0.400133
-0.032677 -0.147406 0.771773 43 255 205 0.398458
-0.029390 -0.146492 0.771928 40 255 208 0.397400
-0.026034 -0.146348 0.773799 43 255 205 0.400244
-0.029278 -0.147938 0.775297 30 255 218 0.384247
-0.025809 -0.147882 0.777085 43 255 205 0.399870
-0.032892 -0.148583 0.775324 43 255 205 0.398851
-0.036477 -0.149151 0.775429 43 255 205 0.399733
-0.027401 -0.148162 0.787747 43 255 205 0.398904
-0.031600 -0.147893 0.787760 43 255 205 0.399631
-0.030571 -0.148761 0.785200 43 255 205 0.400729
-0.034759 -0.148457 0.785172 43 255 205 0.400167
-0.035816 -0.147543 0.787718 43 255 205 0.400075
-0.033853 -0.149101 0.782547 43 255 205 0.400415
-0.038926 -0.148138 0.785102 43 255 205 0.400163
-0.038049 -0.148859 0.782520 43 255 205 0.400221
-0.042192 -0.148588 0.782460 43 255 205 0.400053
-0.039948 -0.147288 0.787657 43 255 205 0.400098
-0.043117 -0.147905 0.785061 43 255 205 0.399922
-0.044084 -0.147145 0.787635 43 255 205 0.399851
-0.037184 -0.149411 0.779859 43 255 205 0.400069
-0.041295 -0.149176 0.779890 43 255 205 0.400032
-0.033465 -0.149195 0.779913 43 255 205 0.400003
-0.029752 -0.148768 0.779900 43 255 205 0.400641
-0.030098 -0.148865 0.782549 53 255 195 0.413816
-0.026360 -0.148563 0.782489 43 255 205 0.399918
-0.026000 -0.148342 0.779793 43 255 205 0.399788
-0.026799 -0.148511 0.785148 43 255 205 0.400041
-0.047813 -0.146733 0.787026 43 255 205 0.399417
-0.046848 -0.147570 0.784344 43 255 205 0.399433
-0.050586 -0.147020 0.783724 43 255 205 0.398518
-0.051540 -0.146311 0.786370 43 255 205 0.398612
-0.049683 -0.147743 0.781106 43 255 205 0.399006
-0.054309 -0.146542 0.783143 40 255 208 0.396117
-0.053382 -0.147235 0.780525 43 255 205 0.399685
-0.055223 -0.146077 0.785794 40 255 208 0.397793
-0.052432 -0.147952 0.777945 40 255 208 0.398393
-0.048738 -0.148287 0.778551 43 255 205 0.399347
-0.045012 -0.148711 0.779183 43 255 205 0.399780
-0.045896 -0.148148 0.781749 43 255 205 0.399690
0.012086 -0.082518 0.774640 7 238 240 0.358873
0.010660 -0.079174 0.773980 14 246 234 0.366229
0.010682 -0.075962 0.774804 23 255 224 0.375000
0.009316 -0.072705 0.774013 23 255 224 0.376762
0.009752 -0.069357 0.774278 20 254 228 0.374859
0.006382 -0.069183 0.771810 23 255 224 0.375674
0.012520 -0.072904 0.776537 27 255 221 0.379068
0.013088 -0.069530 0.776615 66 255 182 0.426297
0.013636 -0.075998 0.777281 23 255 224 0.376745
0.014781 -0.079045 0.777961 23 255 224 0.377721
0.014611 -0.082262 0.777296 23 255 224 0.375452
0.017152 -0.082017 0.779793 27 255 221 0.380974
0.004650 -0.066001 0.771401 30 255 218 0.384797
0.006551 -0.066163 0.772763 30 255 218 0.382954
0.004962 -0.062750 0.772150 36 255 211 0.391705
0.003037 -0.062649 0.770887 36 255 211 0.391151
0.006937 -0.062876 0.773413 33 255 215 0.390494
0.003540 -0.059258 0.771450 40 255 208 0.397861
0.005506 -0.059347 0.772690 40 255 208 0.398052
0.004225 -0.055597 0.771885 49 255 198 0.406489
0.001543 -0.059177 0.770236 40 255 208 0.396444
0.002211 -0.055553 0.770669 49 255 198 0.408118
0.000186 -0.055546 0.769512 46 255 202 0.404922
0.007498 -0.059431 0.773903 40 255 208 0.398157
0.006225 -0.055678 0.773071 46 255 202 0.404344
0.008212 -0.055785 0.774295 46 255 202 0.404594
0.010537 -0.062874 0.775572 30 255 218 0.386151
0.010031 -0.066249 0.775039 0 142 255 0.263658
0.017149 -0.056110 0.779249 40 255 208 0.396822
0.017789 -0.059780 0.780026 40 255 208 0.396558
0.016653 -0.063221 0.779467 0 138 255 0.260266
0.017565 -0.066595 0.779843 33 255 215 0.389072
0.016748 -0.069704 0.778990 30 255 218 0.383420
0.020348 -0.069814 0.781281 36 255 211 0.391917
0.013842 -0.066502 0.777571 33 255 215 0.387396
0.012628 -0.063046 0.776984 33 255 215 0.389571
0.011454 -0.059503 0.776350 40 255 208 0.397512
0.013659 -0.059638 0.777668 40 255 208 0.395888
0.012695 -0.055970 0.776802 43 255 205 0.401979
0.010456 -0.055882 0.775547 49 255 198 0.406870
0.014885 -0.056059 0.778067 43 255 205 0.398791
0.020953 -0.072998 0.782080 0 218 255 0.336571
0.019989 -0.075978 0.782034 0 178 255 0.296915
0.020681 -0.078750 0.782750 27 255 221 0.379153
0.019923 -0.081757 0.782256 30 255 218 0.383501
0.022716 -0.081514 0.784518 33 255 215 0.389409
0.017694 -0.079017 0.780549 27 255 221 0.380702
0.016793 -0.075988 0.779643 20 254 228 0.373935
0.015832 -0.072882 0.778779 0 130 255 0.253347
0.003722 -0.083290 0.765089 1 230 247 0.350576
0.001920 -0.079755 0.764359 0 222 253 0.341656
0.001051 -0.076403 0.765054 0 206 255 0.326168
-0.000774 -0.073108 0.764587 0 202 255 0.320363
-0.001369 -0.069583 0.765118 0 214 255 0.335504
-0.003597 -0.069963 0.762990 0 194 255 0.315027
0.001337 -0.072802 0.766792 0 222 253 0.341332
0.000833 -0.069305 0.767156 4 234 244 0.354895
0.003123 -0.076124 0.767273 53 255 195 0.411756
0.004905 -0.079473 0.767753 0 222 253 0.340844
0.005643 -0.083064 0.767293 0 226 250 0.346406
0.007527 -0.082868 0.769533 0 226 250 0.346860
-0.005525 -0.066952 0.762778 0 218 255 0.338280
-0.006262 -0.063595 0.763555 17 250 231 0.367543
-0.007987 -0.060552 0.763026 20 254 228 0.374461
-0.008288 -0.057055 0.763250 27 255 221 0.380893
-0.010589 -0.057735 0.761230 14 246 234 0.364896
-0.005688 -0.059920 0.765161 30 255 218 0.384923
-0.005935 -0.056329 0.765187 36 255 211 0.391540
-0.003994 -0.063171 0.765624 23 255 224 0.378413
-0.002196 -0.066363 0.765963 14 246 234 0.366624
0.000069 -0.062829 0.768939 33 255 215 0.388015
0.001822 -0.066098 0.769226 23 255 224 0.378863
0.003575 -0.069255 0.769563 17 250 231 0.370579
-0.003015 -0.059539 0.767092 33 255 215 0.390259
-0.002918 -0.055885 0.767440 43 255 205 0.400843
0.006405 -0.072618 0.771609 20 254 228 0.371695
0.007942 -0.075928 0.772224 14 246 234 0.366847
0.008297 -0.079294 0.771586 7 238 240 0.356692
0.009892 -0.082713 0.772142 4 234 244 0.351706
0.005399 -0.076004 0.769726 7 238 240 0.358197
0.003730 -0.072657 0.769061 11 242 237 0.362153
-0.010135 -0.082327 0.752746 33 255 215 0.388577
-0.014056 -0.075729 0.751827 17 250 231 0.368021
-0.011136 -0.078002 0.753260 23 255 224 0.378764
-0.008259 -0.080394 0.754575 27 255 221 0.380816
-0.006399 -0.083908 0.754841 30 255 218 0.386056
-0.003857 -0.087048 0.755950 33 255 215 0.386949
-0.019240 -0.071898 0.749794 0 222 253 0.342633
-0.022211 -0.065769 0.748256 7 238 240 0.357645
-0.019784 -0.067869 0.750285 0 14 255 0.137003
-0.017187 -0.069704 0.751811 0 190 255 0.310578
-0.015708 -0.072757 0.751768 0 222 253 0.343326
-0.017787 -0.061820 0.753513 0 198 255 0.320008
-0.015995 -0.064558 0.754398 0 166 255 0.288064
-0.014864 -0.067818 0.754375 0 154 255 0.274455
-0.012735 -0.070293 0.754818 0 202 255 0.321380
-0.011127 -0.073187 0.754474 7 238 240 0.359169
-0.018320 -0.066444 0.751829 0 178 255 0.299626
-0.019252 -0.063001 0.751589 0 218 255 0.338732
-0.007691 -0.075228 0.756658 7 238 240 0.356352
-0.006064 -0.078796 0.756609 17 250 231 0.369860
-0.003837 -0.081880 0.757420 23 255 224 0.375257
-0.002109 -0.085501 0.757860 27 255 221 0.381744
-0.008389 -0.142461 0.800314 36 255 211 0.392406
-0.006478 -0.141519 0.796568 40 255 208 0.394559
-0.010563 -0.143352 0.798840 36 255 211 0.392436
-0.004549 -0.140487 0.792746 43 255 205 0.398857
-0.008780 -0.142461 0.795122 40 255 208 0.394947
-0.006865 -0.141349 0.791345 66 255 182 0.429638
-0.012839 -0.144095 0.797318 33 255 215 0.389736
-0.002713 -0.138967 0.788961 43 255 205 0.398574
-0.001083 -0.137068 0.785091 62 255 185 0.422999
0.000943 -0.136245 0.786198 46 255 202 0.402401
-0.000787 -0.138177 0.790064 43 255 205 0.398697
-0.002690 -0.139604 0.793914 40 255 208 0.396951
0.002881 -0.135483 0.787288 43 255 205 0.401069
-0.010646 -0.143238 0.793846 40 255 208 0.395398
-0.014760 -0.144847 0.795996 7 238 240 0.357483
-0.012680 -0.143908 0.792648 43 255 205 0.398811
-0.009419 -0.142397 0.789768 43 255 205 0.398671
-0.016863 -0.145327 0.794713 36 255 211 0.392479
-0.006263 -0.140421 0.786754 36 255 211 0.391850
-0.004458 -0.138328 0.783278 43 255 205 0.400132
0.004010 -0.120402 0.774339 43 255 205 0.401120
0.002748 -0.124995 0.776883 46 255 202 0.402347
0.001541 -0.129420 0.779463 46 255 202 0.402769
0.006417 -0.119505 0.775718 43 255 205 0.402084
0.000372 -0.133463 0.782269 43 255 205 0.400974
-0.002294 -0.134416 0.780948 75 255 172 0.438728
0.005698 -0.123968 0.778417 46 255 202 0.403891
0.004996 -0.128146 0.781230 30 255 218 0.384785
0.008579 -0.118754 0.777045 43 255 205 0.402037
0.007991 -0.123114 0.779787 46 255 202 0.405144
0.004106 -0.132035 0.784151 43 255 205 0.402271
-0.011280 -0.142217 0.803825 33 255 215 0.389148
-0.015348 -0.142336 0.806628 30 255 218 0.385662
-0.018102 -0.142487 0.810280 30 255 218 0.386027
-0.022013 -0.143041 0.813150 33 255 215 0.389681
-0.019449 -0.142751 0.814714 33 255 215 0.387847
-0.020637 -0.142847 0.808697 33 255 215 0.389228
-0.024611 -0.143261 0.811610 36 255 211 0.390878
-0.017745 -0.142827 0.805080 33 255 215 0.389512
-0.014687 -0.143356 0.801548 36 255 211 0.391369
-0.022042 -0.142436 0.818604 33 255 215 0.390468
-0.025959 -0.142146 0.821734 36 255 211 0.394228
-0.028490 -0.141908 0.825500 40 255 208 0.395453
-0.031262 -0.142096 0.824078 40 255 208 0.395658
-0.028649 -0.142424 0.820236 40 255 208 0.394703
-0.025999 -0.142719 0.816354 36 255 211 0.392012
-0.037564 -0.142535 0.820738 20 254 228 0.374473
-0.033728 -0.142666 0.817512 40 255 208 0.395396
-0.030925 -0.142942 0.813570 36 255 211 0.393773
-0.026959 -0.143372 0.810237 36 255 211 0.392488
-0.029346 -0.143475 0.808828 36 255 211 0.394473
-0.028569 -0.142840 0.814929 36 255 211 0.392853
-0.031248 -0.142565 0.818834 40 255 208 0.395171
-0.033836 -0.142263 0.822687 40 255 208 0.395014
-0.026293 -0.143450 0.805123 40 255 208 0.394979
-0.022125 -0.143662 0.802228 36 255 211 0.394022
-0.018950 -0.144403 0.798833 36 255 211 0.393942
-0.016893 -0.143937 0.800116 36 255 211 0.392741
-0.019983 -0.143277 0.803603 36 255 211 0.391740
-0.022903 -0.143098 0.807235 36 255 211 0.390782
-0.051239 -0.143460 0.814936 40 255 208 0.397287
-0.051252 -0.143827 0.810467 43 255 205 0.398463
-0.055196 -0.143683 0.813569 33 255 215 0.388247
-0.055239 -0.144048 0.809091 43 255 205 0.398556
-0.051293 -0.144002 0.805938 43 255 205 0.400391
-0.051242 -0.144193 0.801274 43 255 205 0.401647
-0.046058 -0.143844 0.802307 43 255 205 0.399683
-0.046209 -0.143497 0.806984 43 255 205 0.398474
-0.046276 -0.143315 0.811527 33 255 215 0.387923
-0.040949 -0.143770 0.803365 40 255 208 0.398343
-0.060216 -0.144099 0.812222 40 255 208 0.397112
-0.062703 -0.144124 0.811370 40 255 208 0.396772
-0.061435 -0.144497 0.807755 20 254 228 0.372190
-0.065219 -0.144242 0.810512 40 255 208 0.396558
-0.063926 -0.144594 0.806901 36 255 211 0.392126
-0.062568 -0.144701 0.803199 23 255 224 0.376968
-0.060555 -0.144517 0.799283 46 255 202 0.403463
-0.059504 -0.144413 0.803854 43 255 205 0.398453
-0.057489 -0.144336 0.799977 46 255 202 0.403194
-0.056402 -0.144199 0.804501 43 255 205 0.400509
-0.058331 -0.144220 0.808435 40 255 208 0.396819
-0.054400 -0.144228 0.800598 46 255 202 0.402456
-0.056940 -0.145302 0.789169 43 255 205 0.401548
-0.053305 -0.145364 0.789763 43 255 205 0.401061
-0.055051 -0.144825 0.793214 46 255 202 0.402733
-0.049603 -0.145601 0.790337 43 255 205 0.400934
-0.051419 -0.144780 0.793728 43 255 205 0.402255
-0.047704 -0.144933 0.794292 43 255 205 0.401769
-0.045870 -0.145931 0.790938 43 255 205 0.400239
-0.053173 -0.144428 0.797249 46 255 202 0.402613
-0.049517 -0.144354 0.797741 43 255 205 0.401664
-0.056280 -0.144446 0.796579 46 255 202 0.403190
-0.059349 -0.144544 0.795916 46 255 202 0.403788
-0.058162 -0.144797 0.792555 46 255 202 0.402950
-0.039073 -0.146135 0.791474 43 255 205 0.400005
-0.042458 -0.145106 0.795337 43 255 205 0.399650
-0.034948 -0.146311 0.791509 43 255 205 0.400067
-0.038332 -0.145038 0.795311 43 255 205 0.399332
-0.034181 -0.145065 0.795249 43 255 205 0.399794
-0.030833 -0.146499 0.791538 43 255 205 0.398705
-0.041677 -0.144304 0.799302 40 255 208 0.397289
-0.037627 -0.144038 0.799192 43 255 205 0.398579
0.003487 -0.138150 0.807724 46 255 202 0.405445
0.000687 -0.138407 0.811516 46 255 202 0.404697
-0.003697 -0.139188 0.814348 30 255 218 0.385759
-0.006334 -0.139848 0.817952 27 255 221 0.380444
-0.010389 -0.140999 0.820519 27 255 221 0.381236
-0.007204 -0.140399 0.822487 27 255 221 0.381616
-0.009527 -0.140637 0.815970 23 255 224 0.377970
-0.013556 -0.141623 0.818517 30 255 218 0.382987
-0.006853 -0.140082 0.812344 30 255 218 0.382831
-0.004115 -0.139766 0.808624 36 255 211 0.391287
0.000295 -0.139110 0.805877 40 255 208 0.396548
-0.002848 -0.140122 0.803954 36 255 211 0.393123
-0.009671 -0.140403 0.826179 30 255 218 0.385957
-0.013695 -0.140702 0.828901 36 255 211 0.391441
-0.016030 -0.140712 0.832453 40 255 208 0.394764
-0.019291 -0.141037 0.830685 40 255 208 0.394874
-0.016902 -0.141131 0.827019 36 255 211 0.391686
-0.014478 -0.141227 0.823269 33 255 215 0.386858
-0.025576 -0.141623 0.827171 40 255 208 0.395250
-0.023059 -0.141848 0.823423 36 255 211 0.393656
-0.019025 -0.141899 0.820513 33 255 215 0.388604
-0.016487 -0.142209 0.816617 30 255 218 0.385487
-0.020001 -0.141510 0.825214 36 255 211 0.392504
-0.022433 -0.141371 0.828833 40 255 208 0.394966
-0.015436 -0.141985 0.812073 30 255 218 0.383006
-0.012734 -0.141627 0.808425 4 234 244 0.354545
-0.008596 -0.141114 0.805764 33 255 215 0.388473
-0.005616 -0.141301 0.802146 36 255 211 0.392530
-0.009883 -0.140894 0.810346 27 255 221 0.380860
-0.012473 -0.141404 0.813951 27 255 221 0.380219
0.013065 -0.085962 0.775659 14 246 234 0.365283
0.012985 -0.089877 0.775575 4 234 244 0.354847
0.014105 -0.093762 0.776526 7 238 240 0.356273
0.014114 -0.098233 0.776298 17 250 231 0.369238
0.016046 -0.097637 0.778628 14 246 234 0.366292
0.012121 -0.094257 0.774167 7 238 240 0.359263
0.012149 -0.098687 0.774009 27 255 221 0.381561
0.010998 -0.090233 0.773025 1 230 247 0.351495
0.009881 -0.086400 0.771902 1 230 247 0.349456
0.016284 -0.101841 0.780088 17 250 231 0.371069
0.015662 -0.106712 0.780343 30 255 218 0.386279
0.015946 -0.111281 0.781683 36 255 211 0.394240
0.015250 -0.116224 0.782051 43 255 205 0.401166
0.017240 -0.115382 0.784029 43 255 205 0.401721
0.013960 -0.112127 0.779730 40 255 208 0.396508
0.013072 -0.117026 0.780288 43 255 205 0.401591
0.013713 -0.107425 0.778221 33 255 215 0.387994
0.013488 -0.102837 0.776679 23 255 224 0.376922
0.009441 -0.113590 0.775811 40 255 208 0.397989
0.010304 -0.108502 0.774737 33 255 215 0.389433
0.010160 -0.103664 0.772909 0 214 255 0.335888
0.010533 -0.099014 0.772159 17 250 231 0.371073
0.009022 -0.099217 0.770203 23 255 224 0.375122
0.011675 -0.103362 0.774690 20 254 228 0.372508
0.011874 -0.108045 0.776404 33 255 215 0.388034
0.012069 -0.112752 0.778005 40 255 208 0.397120
0.011232 -0.117774 0.778879 43 255 205 0.401909
0.007876 -0.094799 0.768781 14 246 234 0.367051
0.007487 -0.090684 0.768516 0 210 255 0.329027
0.006108 -0.086808 0.767305 4 234 244 0.352093
0.007918 -0.086669 0.769575 0 226 250 0.347178
0.009152 -0.090500 0.770683 1 230 247 0.349320
0.010279 -0.094540 0.771842 7 238 240 0.358166
-0.005604 -0.094185 0.753356 36 255 211 0.394393
-0.003774 -0.097212 0.755327 33 255 215 0.389201
-0.002246 -0.100772 0.757675 36 255 211 0.391346
-0.000898 -0.104430 0.760496 36 255 211 0.393388
-0.004208 -0.092868 0.754893 30 255 218 0.383900
-0.002409 -0.096175 0.757005 14 246 234 0.364021
-0.000376 -0.099550 0.759810 33 255 215 0.390512
0.001225 -0.103340 0.762700 36 255 211 0.392601
-0.001187 -0.121995 0.771073 43 255 205 0.399456
-0.000885 -0.117376 0.768708 43 255 205 0.399032
-0.000754 -0.112889 0.766192 40 255 208 0.397875
-0.003090 -0.121914 0.768952 43 255 205 0.399164
-0.002758 -0.117331 0.766576 43 255 205 0.398859
-0.000715 -0.108484 0.763380 40 255 208 0.395796
0.000920 -0.107679 0.765079 40 255 208 0.395392
-0.004757 -0.121509 0.766746 43 255 205 0.399122
-0.002841 -0.113142 0.763677 40 255 208 0.397529
0.001005 -0.111987 0.767678 40 255 208 0.397761
0.002650 -0.106651 0.766341 36 255 211 0.394396
0.002860 -0.102231 0.764033 36 255 211 0.391484
0.002796 -0.111256 0.769006 40 255 208 0.398418
0.001583 -0.116467 0.770658 43 255 205 0.399129
0.000783 -0.121529 0.772501 43 255 205 0.399910
-0.001086 -0.094710 0.758549 30 255 218 0.386559
-0.002948 -0.091342 0.756468 33 255 215 0.388361
-0.001330 -0.089789 0.758199 30 255 218 0.385735
0.000465 -0.093428 0.760114 30 255 218 0.386522
0.001600 -0.097853 0.761788 33 255 215 0.388862
0.000791 -0.088109 0.760503 23 255 224 0.378765
0.001949 -0.092213 0.761678 30 255 218 0.383346
0.003579 -0.096363 0.763544 30 255 218 0.386177
0.004414 -0.101174 0.765196 33 255 215 0.389996
0.005377 -0.105258 0.768254 36 255 211 0.391020
0.004542 -0.110333 0.770023 46 255 202 0.405040
0.004068 -0.115431 0.772061 43 255 205 0.400080
-0.003900 -0.126629 0.772995 43 255 205 0.398878
-0.006938 -0.130734 0.773569 40 255 208 0.397444
-0.009563 -0.135060 0.775357 40 255 208 0.394797
-0.012482 -0.138824 0.775902 36 255 211 0.394300
-0.011353 -0.139623 0.778338 40 255 208 0.397129
-0.010574 -0.134182 0.772926 40 255 208 0.394639
-0.013614 -0.137790 0.773407 27 255 221 0.380017
-0.008726 -0.130157 0.770803 40 255 208 0.396531
-0.005579 -0.126240 0.770325 40 255 208 0.398208
-0.014866 -0.142933 0.780672 43 255 205 0.399404
-0.014868 -0.142001 0.778098 43 255 205 0.399092
-0.018552 -0.144874 0.780482 43 255 205 0.401222
-0.018794 -0.145339 0.783141 43 255 205 0.399106
-0.018495 -0.144138 0.777837 56 255 192 0.417828
-0.022501 -0.147153 0.782833 43 255 205 0.399216
-0.022334 -0.146568 0.780214 43 255 205 0.400203
-0.023002 -0.147081 0.785498 40 255 208 0.398242
-0.022124 -0.146074 0.777492 46 255 202 0.402831
-0.019715 -0.143306 0.775270 46 255 202 0.402390
-0.016119 -0.141148 0.775611 40 255 208 0.397746
-0.019974 -0.141451 0.771957 40 255 208 0.396148
-0.017041 -0.139267 0.771458 36 255 211 0.393443
-0.014094 -0.136757 0.770919 36 255 211 0.392230
-0.022857 -0.144844 0.774584 72 255 176 0.436738
-0.009222 -0.128905 0.768527 40 255 208 0.396728
-0.011670 -0.132990 0.769730 36 255 211 0.394124
0.010302 -0.122162 0.781090 46 255 202 0.404726
0.009140 -0.126512 0.783414 46 255 202 0.402436
0.011236 -0.125724 0.784686 33 255 215 0.388339
0.012255 -0.121383 0.782424 46 255 202 0.404789
0.008775 -0.130193 0.786641 46 255 202 0.403366
0.008136 -0.133457 0.790058 43 255 205 0.399749
0.005517 -0.134491 0.788705 43 255 205 0.401624
0.006190 -0.131230 0.785249 46 255 202 0.403052
0.014569 -0.120425 0.784201 46 255 202 0.405114
0.013843 -0.124641 0.786439 46 255 202 0.404653
0.015960 -0.123739 0.788184 49 255 198 0.406260
0.016687 -0.119638 0.786018 49 255 198 0.407506
0.013907 -0.128205 0.789791 46 255 202 0.404552
0.013687 -0.131317 0.793297 43 255 205 0.401959
0.010975 -0.132425 0.791628 4 234 244 0.353990
0.011277 -0.129283 0.788051 46 255 202 0.403183
0.004745 -0.137277 0.803259 43 255 205 0.402143
0.006029 -0.136346 0.798872 46 255 202 0.404096
0.001586 -0.138304 0.801524 0 226 250 0.343879
0.002810 -0.137423 0.797170 43 255 205 0.399445
0.007133 -0.135158 0.794407 46 255 202 0.402886
0.010059 -0.134151 0.795998 46 255 202 0.404207
0.008877 -0.135396 0.800471 49 255 198 0.407487
-0.001249 -0.139329 0.799852 36 255 211 0.392686
0.000262 -0.138458 0.795651 40 255 208 0.397627
-0.004152 -0.140511 0.798091 36 255 211 0.394526
0.001710 -0.137194 0.791440 43 255 205 0.400203
0.004268 -0.136198 0.792864 43 255 205 0.401577
0.053864 -0.021093 0.804352 36 255 211 0.392855
0.056570 -0.020682 0.805865 36 255 211 0.393531
0.056911 -0.024677 0.804539 36 255 211 0.390940
0.059309 -0.020297 0.807382 49 255 198 0.407650
0.059644 -0.024324 0.806116 66 255 182 0.428755
0.062374 -0.023959 0.807721 36 255 211 0.391450
0.062092 -0.019883 0.808914 36 255 211 0.393719
0.059946 -0.028448 0.804721 0 222 253 0.342257
0.062697 -0.028097 0.806399 33 255 215 0.387102
0.062967 -0.032269 0.804819 36 255 211 0.394425
0.060359 -0.032668 0.803307 40 255 208 0.395964
0.057376 -0.028801 0.803224 33 255 215 0.387505
0.057722 -0.033082 0.801884 40 255 208 0.397224
0.054788 -0.029217 0.801783 36 255 211 0.392640
0.054364 -0.025066 0.803098 36 255 211 0.394046
0.051813 -0.025510 0.801689 85 255 163 0.452155
0.055005 -0.033592 0.800501 40 255 208 0.396739
0.052154 -0.029667 0.800385 36 255 211 0.393254
0.052262 -0.034145 0.799192 40 255 208 0.395265
0.051316 -0.021560 0.802976 36 255 211 0.393697
0.064919 -0.019440 0.810274 36 255 211 0.393890
0.067958 -0.018974 0.811770 56 255 192 0.415837
0.067950 -0.023148 0.810582 30 255 218 0.386213
0.071026 -0.018486 0.813250 36 255 211 0.394157
0.070936 -0.022749 0.812176 23 255 224 0.376237
0.070958 -0.026959 0.810972 23 255 224 0.376701
0.071207 -0.031212 0.809560 20 254 228 0.374209
0.068172 -0.027354 0.809434 27 255 221 0.382583
0.068475 -0.031531 0.807900 30 255 218 0.385513
0.065418 -0.027729 0.807890 75 255 172 0.438391
0.065147 -0.023561 0.809137 33 255 215 0.388027
0.065724 -0.031873 0.806310 36 255 211 0.392303
0.069663 -0.049292 0.804895 56 255 192 0.414607
0.070017 -0.045079 0.805737 56 255 192 0.416889
0.067300 -0.045438 0.804544 56 255 192 0.414277
0.067044 -0.049573 0.803712 53 255 195 0.412297
0.067784 -0.040873 0.805245 53 255 195 0.412414
0.064653 -0.045731 0.803300 53 255 195 0.412026
0.065056 -0.041291 0.804062 53 255 195 0.412533
0.062366 -0.041701 0.802906 53 255 195 0.411427
0.064359 -0.050042 0.802575 56 255 192 0.415711
0.061968 -0.046214 0.802141 49 255 198 0.409796
0.061638 -0.050553 0.801436 46 255 202 0.405263
0.065440 -0.036587 0.804952 46 255 202 0.404953
0.062771 -0.037022 0.803725 49 255 198 0.406646
0.068277 -0.036184 0.806445 40 255 208 0.397024
0.071046 -0.035816 0.808029 36 255 211 0.390749
0.070716 -0.040352 0.806631 53 255 195 0.412091
0.059187 -0.050905 0.800159 43 255 205 0.400483
0.059220 -0.046759 0.800790 46 255 202 0.405255
0.056760 -0.047147 0.799479 43 255 205 0.402234
0.056713 -0.051399 0.798921 43 255 205 0.398714
0.056885 -0.042730 0.800191 46 255 202 0.403636
0.054268 -0.047579 0.798171 56 255 192 0.416421
0.054348 -0.043237 0.798913 43 255 205 0.401609
0.051866 -0.043689 0.797645 43 255 205 0.399340
0.054221 -0.051903 0.797706 46 255 202 0.404025
0.051749 -0.048177 0.797005 43 255 205 0.399291
0.051790 -0.052361 0.796444 117 255 130 0.489180
0.054615 -0.038551 0.799618 43 255 205 0.401208
0.052010 -0.039143 0.798455 43 255 205 0.398815
0.057380 -0.037993 0.800949 46 255 202 0.403286
0.060095 -0.037453 0.802324 46 255 202 0.406232
0.059639 -0.042222 0.801553 49 255 198 0.406830
0.033458 -0.001390 0.845279 36 255 211 0.393131
0.036654 -0.001417 0.846961 36 255 211 0.391847
0.037885 -0.002922 0.844689 40 255 208 0.396103
0.039862 -0.001499 0.848634 36 255 211 0.393280
0.041071 -0.002962 0.846387 40 255 208 0.396802
0.044340 -0.003077 0.848109 40 255 208 0.397556
0.043115 -0.001676 0.850374 40 255 208 0.395281
0.042329 -0.004270 0.843963 43 255 205 0.398664
0.045597 -0.004347 0.845683 43 255 205 0.398556
0.046943 -0.005307 0.843128 43 255 205 0.399318
0.043746 -0.005313 0.841362 40 255 208 0.398134
0.039224 -0.004297 0.842240 40 255 208 0.398250
0.040640 -0.005349 0.839678 43 255 205 0.398818
0.036110 -0.004373 0.840563 40 255 208 0.398038
0.034762 -0.002982 0.842990 40 255 208 0.396125
0.031579 -0.002992 0.841320 40 255 208 0.395883
0.037516 -0.005435 0.837997 43 255 205 0.399070
0.032924 -0.004412 0.838907 40 255 208 0.397799
0.034346 -0.005502 0.836334 43 255 205 0.398990
0.030266 -0.001394 0.843599 36 255 211 0.393116
0.046639 -0.001778 0.852252 40 255 208 0.396526
0.050252 -0.001961 0.854180 40 255 208 0.397892
0.051413 -0.003328 0.851877 43 255 205 0.400024
0.053870 -0.002289 0.856060 36 255 211 0.391034
0.055037 -0.003598 0.853769 43 255 205 0.400641
0.056282 -0.004699 0.851319 43 255 205 0.402245
0.057657 -0.005468 0.848706 46 255 202 0.402790
0.052679 -0.004518 0.849447 43 255 205 0.400493
0.054044 -0.005377 0.846838 43 255 205 0.401673
0.049129 -0.004396 0.847561 17 250 231 0.368068
0.047841 -0.003160 0.849975 40 255 208 0.397050
0.050476 -0.005324 0.844971 43 255 205 0.398858
0.061656 -0.005837 0.839716 46 255 202 0.402855
0.058123 -0.006017 0.838018 46 255 202 0.402403
0.056594 -0.006305 0.841100 46 255 202 0.402590
0.054658 -0.006224 0.836305 36 255 211 0.392767
0.053147 -0.006395 0.839337 43 255 205 0.401420
0.049737 -0.006555 0.837609 43 255 205 0.400570
0.051255 -0.006369 0.834568 43 255 205 0.401090
0.051698 -0.006123 0.842211 43 255 205 0.401245
0.048289 -0.006175 0.840452 43 255 205 0.399615
0.055275 -0.006082 0.844068 46 255 202 0.402360
0.058910 -0.006091 0.845921 46 255 202 0.403163
0.060227 -0.006205 0.842909 46 255 202 0.403222
0.048053 -0.006465 0.832884 43 255 205 0.400684
0.045003 -0.006566 0.831203 43 255 205 0.400115
0.043381 -0.006694 0.834233 43 255 205 0.399772
0.041953 -0.006660 0.829546 43 255 205 0.399993
0.040350 -0.006770 0.832556 43 255 205 0.399928
0.037274 -0.006912 0.830900 43 255 205 0.399764
0.038866 -0.006878 0.827905 43 255 205 0.399440
0.038838 -0.006349 0.835356 43 255 205 0.399618
0.035772 -0.006469 0.833694 43 255 205 0.399598
0.041970 -0.006253 0.837045 43 255 205 0.398812
0.045089 -0.006194 0.838728 23 255 224 0.375067
0.046517 -0.006595 0.835940 43 255 205 0.399089
-0.007736 -0.124422 0.873025 33 255 215 0.389856
-0.007345 -0.126361 0.869001 33 255 215 0.387111
-0.010866 -0.124562 0.871432 33 255 215 0.389683
-0.010511 -0.126486 0.867401 30 255 218 0.386104
-0.007013 -0.128700 0.865084 27 255 221 0.380340
-0.006600 -0.131493 0.861341 30 255 218 0.384226
-0.003522 -0.131028 0.863021 30 255 218 0.385450
-0.003952 -0.128277 0.866814 30 255 218 0.384916
-0.004349 -0.126009 0.870738 33 255 215 0.388803
-0.000484 -0.130525 0.864663 33 255 215 0.388401
-0.013886 -0.124674 0.869724 40 255 208 0.395384
-0.013407 -0.126747 0.865674 30 255 218 0.386351
-0.016983 -0.124701 0.868133 33 255 215 0.390111
-0.012995 -0.129275 0.861787 27 255 221 0.380270
-0.009581 -0.131785 0.859653 30 255 218 0.385948
-0.010033 -0.128997 0.863495 23 255 224 0.378020
-0.004496 -0.137675 0.849038 36 255 211 0.394170
-0.000794 -0.138742 0.846470 36 255 211 0.394417
-0.005172 -0.136043 0.853314 36 255 211 0.392845
-0.001478 -0.137310 0.850837 36 255 211 0.393638
-0.002244 -0.135523 0.855092 36 255 211 0.391958
0.002241 -0.138444 0.848278 36 255 211 0.394086
-0.005910 -0.133785 0.857391 33 255 215 0.389895
-0.008919 -0.134285 0.855755 36 255 211 0.391860
0.001591 -0.136999 0.852555 36 255 211 0.393072
0.005205 -0.138092 0.850032 36 255 211 0.393961
0.000868 -0.135066 0.856679 36 255 211 0.391699
0.004553 -0.136507 0.854288 36 255 211 0.392852
0.003844 -0.134618 0.858381 36 255 211 0.391829
0.008217 -0.137782 0.851758 36 255 211 0.393836
0.000196 -0.132966 0.860690 33 255 215 0.389586
-0.002903 -0.133365 0.859059 33 255 215 0.389134
0.016811 -0.115642 0.883678 40 255 208 0.395634
0.018592 -0.117029 0.880550 36 255 211 0.393516
0.015183 -0.118976 0.879272 36 255 211 0.391631
0.013299 -0.117467 0.882302 36 255 211 0.392447
0.018675 -0.120004 0.876987 36 255 211 0.391970
0.018827 -0.123436 0.873421 33 255 215 0.389335
0.022156 -0.121309 0.874792 36 255 211 0.391764
0.022020 -0.117929 0.878313 36 255 211 0.393648
0.010091 -0.119440 0.881117 33 255 215 0.390458
0.011995 -0.121111 0.878063 33 255 215 0.390161
0.008723 -0.122769 0.876842 36 255 211 0.391440
0.006758 -0.121107 0.879888 36 255 211 0.390924
0.012340 -0.124163 0.874562 33 255 215 0.390475
0.012642 -0.127496 0.870920 36 255 211 0.393763
0.015728 -0.125653 0.872228 33 255 215 0.390540
0.015392 -0.122072 0.875719 30 255 218 0.386371
0.020774 -0.135524 0.857798 36 255 211 0.393464
0.020183 -0.132851 0.861830 40 255 208 0.395969
0.023760 -0.134031 0.859133 40 255 208 0.394717
0.019622 -0.129870 0.865775 36 255 211 0.391298
0.023121 -0.131143 0.863172 33 255 215 0.389582
0.022548 -0.127767 0.867069 30 255 218 0.384642
0.026712 -0.132067 0.860445 33 255 215 0.388141
0.019188 -0.126650 0.869651 33 255 215 0.387936
0.016106 -0.128672 0.868369 62 255 185 0.424130
0.016551 -0.131458 0.864438 36 255 211 0.393547
0.026155 -0.128906 0.864416 30 255 218 0.384029
0.029837 -0.129825 0.861807 27 255 221 0.382273
0.025867 -0.125587 0.868391 30 255 218 0.386198
0.029398 -0.126677 0.865918 30 255 218 0.385337
0.023949 -0.123452 0.871644 33 255 215 0.389234
0.003508 -0.122389 0.878501 36 255 211 0.391906
0.005452 -0.124092 0.875418 36 255 211 0.392337
0.002088 -0.124933 0.873941 36 255 211 0.392047
0.000176 -0.123161 0.877021 36 255 211 0.392225
0.005756 -0.126720 0.871638 36 255 211 0.392308
0.006039 -0.129365 0.867839 36 255 211 0.392488
0.009364 -0.128605 0.869402 36 255 211 0.393199
0.009049 -0.125728 0.873139 36 255 211 0.392566
-0.003003 -0.123788 0.875459 36 255 211 0.391787
-0.001109 -0.125679 0.872318 33 255 215 0.390588
-0.000782 -0.127956 0.868442 33 255 215 0.388741
0.002789 -0.130012 0.866287 36 255 211 0.391203
0.002415 -0.127386 0.870093 36 255 211 0.390957
0.007689 -0.136163 0.855890 36 255 211 0.392832
0.011413 -0.137462 0.853349 36 255 211 0.393695
0.007147 -0.134161 0.859921 36 255 211 0.391879
0.010801 -0.135565 0.857490 36 255 211 0.392604
0.010313 -0.133465 0.861543 23 255 224 0.376574
0.014491 -0.137042 0.854895 36 255 211 0.393608
0.006594 -0.131820 0.863910 53 255 195 0.412126
0.003298 -0.132431 0.862334 36 255 211 0.391809
0.014051 -0.135106 0.858998 36 255 211 0.392799
0.017629 -0.136453 0.856379 36 255 211 0.393560
0.013531 -0.132632 0.862991 36 255 211 0.392377
0.017165 -0.134269 0.860474 36 255 211 0.393226
0.013090 -0.130150 0.866956 40 255 208 0.395061
0.009809 -0.131026 0.865473 36 255 211 0.393653
0.022965 -0.136323 0.854175 36 255 211 0.393869
0.026730 -0.136390 0.851304 40 255 208 0.395439
0.028920 -0.136540 0.847626 40 255 208 0.396467
0.032674 -0.135848 0.844787 36 255 211 0.393333
0.029656 -0.136949 0.843060 36 255 211 0.392231
0.031899 -0.135138 0.849143 72 255 176 0.435960
0.035583 -0.133706 0.846296 33 255 215 0.388469
0.029688 -0.134797 0.852644 53 255 195 0.411784
0.027475 -0.134221 0.856231 36 255 211 0.391843
0.031609 -0.135665 0.839430 36 255 211 0.393415
0.035213 -0.133814 0.836897 33 255 215 0.389703
0.037327 -0.132081 0.833521 33 255 215 0.388637
0.040426 -0.130334 0.835574 27 255 221 0.381482
0.038389 -0.132105 0.838782 17 250 231 0.367476
0.036324 -0.133607 0.842101 33 255 215 0.387287
0.046162 -0.125639 0.839639 17 250 231 0.368756
0.044222 -0.127413 0.842603 17 250 231 0.369039
0.040710 -0.130138 0.844734 20 254 228 0.373058
0.038652 -0.131388 0.847975 27 255 221 0.379286
0.041322 -0.129807 0.840638 20 254 228 0.372794
0.043351 -0.127994 0.837579 17 250 231 0.369895
0.037969 -0.130351 0.852200 30 255 218 0.386332
0.035728 -0.130181 0.855593 0 218 255 0.339242
0.031967 -0.130935 0.858295 23 255 224 0.375370
0.032636 -0.132591 0.854039 30 255 218 0.384497
0.034892 -0.132794 0.850537 33 255 215 0.386720
0.023781 -0.078692 0.784985 33 255 215 0.387063
0.023294 -0.075914 0.784097 0 142 255 0.264954
0.024507 -0.072977 0.784352 36 255 211 0.392034
0.024024 -0.069722 0.783513 40 255 208 0.396950
0.027579 -0.069612 0.785727 49 255 198 0.407895
0.027886 -0.072757 0.786451 53 255 195 0.411063
0.026599 -0.075765 0.786177 46 255 202 0.402521
0.026881 -0.078513 0.786982 46 255 202 0.405170
0.025704 -0.081319 0.786667 43 255 205 0.401290
0.028653 -0.081033 0.788850 53 255 195 0.410560
0.021462 -0.066658 0.782287 43 255 205 0.401087
0.020680 -0.063291 0.781789 46 255 202 0.403095
0.022748 -0.063280 0.783134 46 255 202 0.404704
0.019938 -0.059849 0.781155 46 255 202 0.403901
0.022093 -0.059717 0.782489 46 255 202 0.405423
0.021509 -0.056137 0.781560 40 255 208 0.396676
0.019312 -0.056190 0.780393 40 255 208 0.395317
0.024227 -0.059684 0.783650 46 255 202 0.406157
0.023705 -0.056033 0.782743 40 255 208 0.395400
0.025819 -0.055971 0.783818 36 255 211 0.393827
0.026571 -0.063046 0.785181 49 255 198 0.406274
0.025170 -0.066511 0.784524 0 174 255 0.293258
0.034242 -0.055269 0.787645 40 255 208 0.397371
0.034393 -0.058963 0.788319 40 255 208 0.397507
0.032565 -0.062738 0.788105 49 255 198 0.408600
0.032707 -0.066110 0.788553 56 255 192 0.414517
0.031177 -0.069443 0.787674 56 255 192 0.416883
0.034777 -0.069158 0.789823 62 255 185 0.422069
0.028963 -0.066460 0.786618 49 255 198 0.409299
0.028628 -0.062997 0.786151 49 255 198 0.409775
0.028352 -0.059447 0.785513 43 255 205 0.401225
0.030443 -0.059303 0.786499 43 255 205 0.400734
0.030109 -0.055753 0.785668 40 255 208 0.394915
0.028038 -0.055835 0.784728 36 255 211 0.392914
0.032221 -0.055497 0.786652 40 255 208 0.396242
0.034830 -0.072394 0.790417 66 255 182 0.428077
0.033304 -0.075634 0.789921 62 255 185 0.423841
0.033415 -0.078361 0.790631 62 255 185 0.423177
0.031854 -0.080985 0.790639 59 255 189 0.419039
0.035106 -0.080944 0.792366 62 255 185 0.424994
0.030167 -0.078426 0.788926 56 255 192 0.416002
0.029971 -0.075694 0.788050 56 255 192 0.416773
0.031397 -0.072647 0.788463 59 255 189 0.420944
0.053986 -0.056203 0.797552 40 255 208 0.395444
0.056431 -0.055793 0.798741 40 255 208 0.395977
0.056206 -0.059936 0.798817 36 255 211 0.393636
0.058854 -0.055385 0.800062 43 255 205 0.399058
0.058571 -0.059599 0.800016 36 255 211 0.394304
0.060948 -0.059357 0.801339 40 255 208 0.397755
0.061260 -0.055002 0.801295 46 255 202 0.403158
0.058387 -0.063574 0.800267 33 255 215 0.389722
0.060791 -0.063344 0.801439 36 255 211 0.392641
0.060667 -0.067221 0.801712 1 230 247 0.349167
0.058378 -0.067311 0.800734 30 255 218 0.383719
0.056146 -0.063799 0.799170 36 255 211 0.390929
0.056072 -0.067455 0.799611 33 255 215 0.386798
0.053854 -0.063997 0.798175 53 255 195 0.413818
0.053950 -0.060190 0.797759 36 255 211 0.392347
0.051635 -0.060556 0.796734 36 255 211 0.391090
0.053750 -0.067553 0.798665 33 255 215 0.388033
0.051560 -0.064261 0.797271 33 255 215 0.388561
0.051417 -0.067694 0.797680 33 255 215 0.388887
0.051702 -0.056574 0.796464 40 255 208 0.396176
0.063731 -0.054684 0.802370 49 255 198 0.407013
0.066364 -0.054217 0.803499 53 255 195 0.411580
0.065854 -0.058692 0.803382 46 255 202 0.405975
0.069003 -0.053846 0.804607 56 255 192 0.415528
0.068485 -0.058267 0.804435 53 255 195 0.412265
0.068034 -0.062628 0.804356 46 255 202 0.405157
0.067848 -0.066691 0.804515 43 255 205 0.399903
0.065589 -0.062915 0.803418 46 255 202 0.403405
0.065472 -0.066845 0.803572 53 255 195 0.413479
0.063202 -0.063136 0.802404 40 255 208 0.398007
0.063420 -0.059030 0.802339 46 255 202 0.402454
0.063094 -0.067011 0.802651 36 255 211 0.391022
0.066545 -0.078204 0.806776 27 255 221 0.382629
0.063812 -0.081222 0.806509 36 255 211 0.393949
0.064552 -0.074641 0.805228 27 255 221 0.380655
0.061849 -0.077893 0.805135 33 255 215 0.389560
0.059920 -0.074375 0.803528 30 255 218 0.382817
0.059113 -0.080976 0.804700 72 255 176 0.436770
0.062549 -0.070991 0.803611 17 250 231 0.370725
0.065020 -0.070873 0.804520 30 255 218 0.385999
0.067425 -0.070857 0.805348 33 255 215 0.390107
0.066982 -0.074675 0.806137 27 255 221 0.381659
0.057136 -0.077731 0.803184 43 255 205 0.400738
0.054701 -0.080844 0.802475 56 255 192 0.414296
0.055122 -0.074240 0.801555 36 255 211 0.390789
0.052560 -0.077641 0.801203 53 255 195 0.412494
0.050637 -0.074327 0.799621 46 255 202 0.405471
0.050287 -0.080694 0.800259 59 255 189 0.418339
0.053194 -0.070915 0.799702 33 255 215 0.387250
0.055626 -0.070929 0.800594 30 255 218 0.385362
0.057977 -0.070958 0.801571 27 255 221 0.381485
0.057519 -0.074308 0.802564 33 255 215 0.388311
0.048132 -0.077567 0.798909 0 222 253 0.339868
0.046222 -0.080624 0.798098 62 255 185 0.425384
0.046228 -0.074533 0.797361 49 255 198 0.406480
0.044151 -0.077772 0.796663 72 255 176 0.434276
0.042303 -0.074864 0.795237 69 255 179 0.432766
0.042242 -0.080681 0.796081 72 255 176 0.434022
0.044343 -0.071476 0.795598 59 255 189 0.419663
0.042694 -0.068354 0.793821 53 255 195 0.411158
0.047022 -0.067884 0.795649 40 255 208 0.395608
0.048715 -0.071225 0.797763 0 222 253 0.343619
0.040305 -0.077900 0.794439 72 255 176 0.434483
0.038570 -0.080790 0.794157 69 255 179 0.430711
0.038485 -0.075110 0.792850 69 255 179 0.430202
0.036780 -0.078148 0.792491 49 255 198 0.409431
0.038511 -0.072049 0.792418 69 255 179 0.433180
0.038668 -0.068759 0.791775 101 255 147 0.468761
0.036397 -0.054980 0.788566 46 255 202 0.404267
0.038570 -0.058448 0.789963 40 255 208 0.398345
0.038527 -0.054688 0.789591 40 255 208 0.398237
0.038458 -0.062035 0.790598 43 255 205 0.401567
0.040700 -0.058187 0.791010 46 255 202 0.403664
0.040634 -0.061836 0.791605 46 255 202 0.405699
0.042823 -0.061608 0.792691 98 255 150 0.466225
0.040615 -0.054335 0.790642 40 255 208 0.396821
0.042818 -0.057867 0.792069 85 255 163 0.452816
0.042745 -0.054010 0.791771 30 255 218 0.384850
0.040536 -0.065255 0.792182 49 255 198 0.406865
0.042728 -0.065135 0.793308 46 255 202 0.404420
0.036525 -0.065705 0.790330 53 255 195 0.410986
0.044941 -0.053616 0.792799 40 255 208 0.396082
0.047176 -0.057192 0.794025 40 255 208 0.396416
0.047192 -0.053215 0.793953 40 255 208 0.396998
0.047104 -0.061025 0.794402 40 255 208 0.395938
0.049438 -0.056937 0.795228 40 255 208 0.394815
0.049349 -0.060743 0.795543 36 255 211 0.391560
0.049472 -0.052819 0.795196 46 255 202 0.402614
0.049192 -0.064474 0.796125 33 255 215 0.390176
0.052010 -0.083919 0.802170 62 255 185 0.424812
0.053679 -0.086939 0.803963 66 255 182 0.427305
0.056310 -0.084068 0.804296 59 255 189 0.420402
0.058000 -0.087222 0.805988 59 255 189 0.420402
0.055372 -0.089978 0.805463 82 255 166 0.446872
0.057003 -0.092848 0.806945 53 255 195 0.413384
0.052969 -0.092512 0.805253 59 255 189 0.418661
0.051316 -0.089602 0.803571 62 255 185 0.424941
0.049607 -0.086583 0.801923 72 255 176 0.433617
0.048860 -0.092063 0.803911 40 255 208 0.396182
0.060709 -0.084225 0.806446 124 255 124 0.496793
0.062225 -0.087557 0.808049 49 255 198 0.409505
0.065316 -0.084587 0.808306 36 255 211 0.394270
0.063847 -0.090650 0.809285 53 255 195 0.411606
0.061203 -0.093250 0.808661 46 255 202 0.405567
0.059590 -0.090263 0.807435 53 255 195 0.411673
0.058193 -0.100900 0.812839 14 246 234 0.366103
0.059113 -0.098316 0.811195 43 255 205 0.402098
0.055227 -0.097899 0.809914 53 255 195 0.410280
0.054425 -0.100572 0.811647 49 255 198 0.408167
0.058085 -0.095525 0.809122 49 255 198 0.407669
0.062305 -0.096038 0.810530 43 255 205 0.400539
0.050690 -0.100338 0.810654 85 255 163 0.452594
0.051323 -0.097619 0.808807 59 255 189 0.421248
0.047523 -0.097288 0.807787 62 255 185 0.425033
0.047020 -0.100214 0.809593 88 255 160 0.453982
0.050040 -0.094796 0.806517 66 255 182 0.426096
0.054094 -0.095198 0.807663 56 255 192 0.416254
0.026689 -0.133804 0.821305 46 255 202 0.403444
0.024559 -0.135103 0.825013 49 255 198 0.406771
0.020842 -0.136477 0.827944 49 255 198 0.409175
0.018503 -0.137547 0.831855 46 255 202 0.406202
0.014668 -0.138634 0.834897 46 255 202 0.402938
0.017535 -0.138458 0.836607 43 255 205 0.401082
0.015566 -0.137710 0.830138 49 255 198 0.408441
0.011657 -0.138659 0.833202 46 255 202 0.404384
0.018020 -0.136731 0.826199 53 255 195 0.411738
0.020450 -0.135664 0.822346 53 255 195 0.410271
0.024096 -0.134283 0.819415 49 255 198 0.406420
0.021315 -0.134753 0.817631 49 255 198 0.408452
0.015147 -0.138597 0.840552 40 255 208 0.398188
0.011277 -0.138710 0.843562 27 255 221 0.379117
0.009044 -0.138391 0.847310 36 255 211 0.394180
0.006022 -0.138630 0.845591 40 255 208 0.394658
0.008309 -0.138824 0.841857 40 255 208 0.395442
0.010742 -0.138694 0.838037 43 255 205 0.399749
-0.001555 -0.139296 0.840972 40 255 208 0.395158
0.002272 -0.139146 0.838259 40 255 208 0.396156
0.004618 -0.138993 0.834480 43 255 205 0.398637
0.008591 -0.138702 0.831492 46 255 202 0.405081
0.005534 -0.138860 0.829722 46 255 202 0.405476
0.007701 -0.138853 0.836287 43 255 205 0.399587
0.005301 -0.138931 0.840118 40 255 208 0.396536
0.003023 -0.138864 0.843791 40 255 208 0.394972
0.008031 -0.137933 0.825949 82 255 166 0.447982
0.012086 -0.137071 0.822862 56 255 192 0.417647
0.014580 -0.136243 0.818965 56 255 192 0.416461
0.018521 -0.135235 0.815832 53 255 195 0.410389
0.015567 -0.135683 0.814157 53 255 195 0.412346
0.017539 -0.135964 0.820649 56 255 192 0.414084
0.015077 -0.136904 0.824550 56 255 192 0.415782
0.012572 -0.137804 0.828463 53 255 195 0.411281
-0.004697 -0.139618 0.839036 40 255 208 0.395032
-0.002393 -0.139637 0.835377 40 255 208 0.394689
