ply
format ascii 1.0
comment VCGLIB generated
element vertex 987
property float x
property float y
property float z
property uchar red
property uchar green
property uchar blue
property float quality
end_header
-0.051119 -0.077566 0.719079 0 198 255 0.316890
-0.049073 -0.077072 0.720098 0 190 255 0.308973
-0.046716 -0.077433 0.720334 0 210 255 0.328244
-0.047813 -0.079772 0.717873 0 206 255 0.325382
-0.052029 -0.079915 0.716505 0 198 255 0.316978
-0.043925 -0.082240 0.716308 0 222 253 0.341296
-0.046242 -0.082099 0.715988 0 222 253 0.340150
-0.047214 -0.083466 0.714156 0 214 255 0.335171
-0.049556 -0.083223 0.713744 0 210 255 0.328600
-0.050520 -0.084451 0.711860 0 226 250 0.344721
-0.049110 -0.081128 0.716225 0 194 255 0.314746
-0.045493 -0.079978 0.718256 0 186 255 0.308297
-0.052977 -0.084548 0.711599 0 182 255 0.302883
-0.053805 -0.086077 0.709729 0 218 255 0.339192
-0.056321 -0.086082 0.709446 0 222 253 0.342332
-0.058856 -0.085997 0.709037 0 226 250 0.346672
-0.057196 -0.087558 0.707595 4 234 244 0.352170
-0.057961 -0.084473 0.710865 0 210 255 0.328996
-0.012340 -0.091827 0.745040 20 254 228 0.374856
-0.010725 -0.094759 0.746687 17 250 231 0.368314
-0.009477 -0.098173 0.748005 4 234 244 0.353326
-0.008247 -0.101634 0.749887 1 230 247 0.347825
-0.007513 -0.105543 0.751359 11 242 237 0.360518
-0.011620 -0.096004 0.745088 17 250 231 0.368164
-0.013173 -0.093258 0.743435 20 254 228 0.372780
-0.007245 -0.108940 0.753945 20 254 228 0.371858
-0.007866 -0.112716 0.755010 11 242 237 0.362694
-0.008471 -0.116577 0.756582 14 246 234 0.364698
-0.009344 -0.120403 0.757396 23 255 224 0.378485
-0.008196 -0.109378 0.752100 11 242 237 0.362740
-0.010087 -0.120035 0.754636 17 250 231 0.367410
-0.009448 -0.116549 0.753424 7 238 240 0.357576
-0.008835 -0.112992 0.752418 20 254 228 0.371353
-0.008267 -0.106150 0.749437 14 246 234 0.365986
-0.009331 -0.102874 0.747222 11 242 237 0.362219
-0.010487 -0.099529 0.745758 14 246 234 0.363610
-0.008616 -0.109736 0.749711 11 242 237 0.362148
-0.009460 -0.119627 0.752542 14 246 234 0.366319
-0.008599 -0.113061 0.750111 14 246 234 0.363688
-0.008763 -0.116294 0.751045 14 246 234 0.364016
-0.008007 -0.106622 0.746626 14 246 234 0.363657
-0.013732 -0.095918 0.739258 14 246 234 0.365559
-0.012155 -0.098138 0.741339 17 250 231 0.367610
-0.010705 -0.100658 0.743520 14 246 234 0.364319
-0.009243 -0.103493 0.745016 11 242 237 0.362549
-0.013796 -0.094821 0.741386 17 250 231 0.370788
-0.010882 -0.124080 0.759480 17 250 231 0.368989
-0.013007 -0.127346 0.759633 17 250 231 0.369705
-0.015097 -0.130568 0.760531 23 255 224 0.375571
-0.017247 -0.133544 0.760591 20 254 228 0.372195
-0.011665 -0.123582 0.757130 17 250 231 0.369665
-0.019972 -0.136453 0.762496 20 254 228 0.374594
-0.022735 -0.138282 0.761876 23 255 224 0.375914
-0.025520 -0.140418 0.762229 27 255 221 0.379169
-0.028165 -0.142082 0.761617 23 255 224 0.378584
-0.025468 -0.139387 0.759490 23 255 224 0.376536
-0.022843 -0.137333 0.759377 20 254 228 0.373529
-0.020062 -0.135481 0.759997 20 254 228 0.372852
-0.027549 -0.140333 0.757092 30 255 218 0.382946
-0.025115 -0.138327 0.757090 20 254 228 0.372167
-0.022565 -0.136317 0.757052 20 254 228 0.371200
-0.020002 -0.134453 0.757603 20 254 228 0.371145
-0.017435 -0.132465 0.758073 7 238 240 0.359153
-0.015524 -0.129166 0.756500 14 246 234 0.366590
-0.013613 -0.126316 0.756375 11 242 237 0.362295
-0.025379 -0.138314 0.752786 17 250 231 0.368505
-0.023122 -0.136357 0.753016 17 250 231 0.369969
-0.020967 -0.134668 0.753663 20 254 228 0.371214
-0.018601 -0.132667 0.753851 20 254 228 0.371781
-0.016375 -0.130878 0.754483 20 254 228 0.371434
-0.024374 -0.137305 0.754942 17 250 231 0.370850
-0.026737 -0.139208 0.754856 20 254 228 0.371390
-0.014132 -0.127869 0.753312 17 250 231 0.370576
-0.012581 -0.125257 0.753260 17 250 231 0.369884
-0.010956 -0.122403 0.752758 14 246 234 0.366549
-0.011725 -0.122999 0.754900 23 255 224 0.378463
-0.045116 -0.145914 0.744640 0 218 255 0.336589
-0.042778 -0.145073 0.745816 0 226 250 0.346920
-0.040872 -0.144477 0.747609 4 234 244 0.352845
-0.038404 -0.143860 0.748785 7 238 240 0.357025
-0.036389 -0.143453 0.750582 11 242 237 0.360225
-0.039987 -0.144447 0.750815 7 238 240 0.357687
-0.042644 -0.145074 0.749722 4 234 244 0.354239
-0.044592 -0.145609 0.747925 1 230 247 0.350051
-0.047154 -0.146428 0.746870 1 230 247 0.350493
-0.033072 -0.141780 0.750142 23 255 224 0.375233
-0.030928 -0.140841 0.751532 14 246 234 0.365977
-0.028390 -0.139638 0.752414 14 246 234 0.366624
-0.034756 -0.142695 0.752621 14 246 234 0.364376
-0.030411 -0.141442 0.756500 20 254 228 0.373655
-0.032912 -0.142267 0.755223 17 250 231 0.369166
-0.037962 -0.144435 0.753323 11 242 237 0.362573
-0.035973 -0.143622 0.755321 14 246 234 0.367097
-0.041504 -0.145354 0.753770 11 242 237 0.362950
-0.043856 -0.145712 0.751989 7 238 240 0.359063
-0.046688 -0.146302 0.751008 7 238 240 0.357133
-0.048940 -0.146865 0.749235 7 238 240 0.355775
-0.033693 -0.143061 0.757439 20 254 228 0.374248
-0.030989 -0.142497 0.759199 43 255 205 0.399625
-0.036692 -0.144359 0.757627 17 250 231 0.370684
-0.039610 -0.145688 0.757800 17 250 231 0.368567
-0.038889 -0.145048 0.755511 14 246 234 0.365726
-0.034330 -0.144199 0.761094 36 255 211 0.393329
-0.031295 -0.143584 0.762339 53 255 195 0.413193
-0.037419 -0.145550 0.761818 20 254 228 0.373683
-0.040517 -0.146799 0.762558 17 250 231 0.369491
-0.040074 -0.146282 0.760189 20 254 228 0.373636
-0.053194 -0.147690 0.759720 4 234 244 0.353737
-0.049804 -0.147234 0.759247 11 242 237 0.362331
-0.052409 -0.147610 0.757104 11 242 237 0.360502
-0.046395 -0.146797 0.758777 14 246 234 0.365303
-0.048998 -0.147077 0.756607 1 230 247 0.347879
-0.045622 -0.146530 0.756120 14 246 234 0.364145
-0.051585 -0.147473 0.754443 11 242 237 0.360045
-0.042984 -0.146293 0.758295 17 250 231 0.367552
-0.043496 -0.146735 0.760666 17 250 231 0.367782
-0.046907 -0.147118 0.761130 14 246 234 0.365591
-0.047951 -0.146706 0.753603 11 242 237 0.360035
-0.050400 -0.147216 0.751756 7 238 240 0.358751
-0.049044 -0.141044 0.712381 7 238 240 0.357376
-0.048936 -0.142469 0.715729 7 238 240 0.357853
-0.048872 -0.143943 0.719056 7 238 240 0.358296
-0.046175 -0.143163 0.716410 7 238 240 0.358178
-0.051697 -0.143216 0.718392 7 238 240 0.358273
-0.054817 -0.142326 0.717467 7 238 240 0.358455
-0.051884 -0.141670 0.714914 7 238 240 0.357694
-0.055040 -0.140767 0.714004 7 238 240 0.357933
-0.044059 -0.144225 0.719117 7 238 240 0.358206
-0.046194 -0.144764 0.722015 7 238 240 0.358113
-0.043375 -0.145012 0.722627 7 238 240 0.357804
-0.040570 -0.145241 0.723275 7 238 240 0.357714
-0.045523 -0.145580 0.725524 7 238 240 0.357245
-0.048527 -0.145289 0.724794 7 238 240 0.357781
-0.051214 -0.144426 0.721840 7 238 240 0.358643
-0.052137 -0.146356 0.729093 7 238 240 0.358182
-0.053788 -0.145253 0.725346 11 242 237 0.362162
-0.055439 -0.144138 0.721607 7 238 240 0.359300
-0.056771 -0.144818 0.724376 11 242 237 0.359744
-0.050977 -0.145598 0.726209 4 234 244 0.352597
-0.059601 -0.143338 0.721242 11 242 237 0.359420
-0.057686 -0.142429 0.718685 7 238 240 0.358970
-0.060540 -0.141481 0.717616 7 238 240 0.359335
-0.063402 -0.140552 0.716483 7 238 240 0.359254
-0.058664 -0.140625 0.715045 20 254 228 0.372823
-0.031283 -0.078829 0.730318 27 255 221 0.381041
-0.033250 -0.078966 0.728641 23 255 224 0.377385
-0.035092 -0.079051 0.726854 30 255 218 0.385762
-0.031239 -0.080895 0.728390 27 255 221 0.379989
-0.033128 -0.080967 0.726615 30 255 218 0.385347
-0.036866 -0.079008 0.725020 11 242 237 0.362697
-0.038623 -0.078897 0.723114 4 234 244 0.353993
-0.039115 -0.076502 0.725251 0 222 253 0.340865
-0.037321 -0.076585 0.727167 11 242 237 0.363072
-0.034285 -0.081697 0.724098 7 238 240 0.357945
-0.030664 -0.083119 0.725865 23 255 224 0.376916
-0.032227 -0.083197 0.724014 20 254 228 0.373552
-0.035810 -0.081688 0.722306 0 226 250 0.343921
-0.037255 -0.081589 0.720420 7 238 240 0.356451
-0.043134 -0.080771 0.718692 0 210 255 0.329649
-0.042334 -0.079164 0.721123 0 194 255 0.313751
-0.039648 -0.080544 0.720802 1 230 247 0.351124
-0.040586 -0.082011 0.718382 1 230 247 0.349003
-0.044707 -0.077542 0.721468 0 214 255 0.334176
-0.043033 -0.076652 0.723251 0 218 255 0.338714
-0.041304 -0.075713 0.724955 0 194 255 0.314905
-0.015017 -0.089555 0.743073 27 255 221 0.380475
-0.017666 -0.087484 0.741266 20 254 228 0.374879
-0.020109 -0.085477 0.739525 33 255 215 0.387772
-0.022418 -0.083441 0.737802 27 255 221 0.382402
-0.021690 -0.081499 0.739378 40 255 208 0.397519
-0.019410 -0.083551 0.741099 40 255 208 0.396617
-0.015790 -0.091167 0.741390 23 255 224 0.377237
-0.018360 -0.089350 0.739480 27 255 221 0.380072
-0.020803 -0.087532 0.737689 23 255 224 0.377628
-0.022920 -0.085701 0.735735 23 255 224 0.377983
-0.029296 -0.080133 0.732289 30 255 218 0.384771
-0.027181 -0.081284 0.734208 30 255 218 0.385600
-0.030876 -0.076230 0.732414 36 255 211 0.392034
-0.028872 -0.077578 0.734343 33 255 215 0.389777
-0.024872 -0.082413 0.736008 33 255 215 0.387860
-0.030161 -0.073399 0.734421 36 255 211 0.393532
-0.026448 -0.078259 0.736679 40 255 208 0.394729
-0.028137 -0.075009 0.736299 53 255 195 0.411410
-0.024034 -0.079578 0.738319 40 255 208 0.397647
-0.035303 -0.076400 0.729054 30 255 218 0.385336
-0.039083 -0.073594 0.727462 0 214 255 0.332886
-0.037044 -0.073487 0.729418 0 218 255 0.338113
-0.034840 -0.073569 0.731139 4 234 244 0.352870
-0.032980 -0.075396 0.731470 40 255 208 0.397751
-0.043507 -0.073583 0.725601 0 214 255 0.335085
-0.045445 -0.074654 0.723692 0 214 255 0.332562
-0.047547 -0.073497 0.723358 0 206 255 0.325412
-0.045607 -0.072435 0.725265 0 210 255 0.329139
-0.047687 -0.071216 0.724854 0 206 255 0.325248
-0.041183 -0.072584 0.727261 0 218 255 0.338131
-0.047097 -0.066473 0.727720 0 206 255 0.326805
-0.044776 -0.066672 0.728776 0 210 255 0.328412
-0.042708 -0.067932 0.729126 0 210 255 0.331893
-0.040370 -0.068020 0.730022 0 218 255 0.339097
-0.038315 -0.069199 0.730171 0 226 250 0.345180
-0.043133 -0.070277 0.727771 0 210 255 0.331926
-0.045200 -0.069001 0.727466 0 206 255 0.327401
-0.047433 -0.068888 0.726377 0 202 255 0.323974
-0.035774 -0.068134 0.732665 0 214 255 0.333344
-0.034060 -0.070336 0.733207 0 202 255 0.323314
-0.032006 -0.071449 0.734227 23 255 224 0.378899
-0.016254 -0.092656 0.739499 23 255 224 0.375549
-0.018806 -0.090971 0.737496 23 255 224 0.377512
-0.021089 -0.089278 0.735449 27 255 221 0.379615
-0.023116 -0.087438 0.733790 27 255 221 0.381560
-0.018610 -0.092220 0.735397 17 250 231 0.368339
-0.016184 -0.093930 0.737261 17 250 231 0.370311
-0.028852 -0.084796 0.727472 23 255 224 0.378640
-0.027111 -0.085876 0.729622 27 255 221 0.379094
-0.025180 -0.086666 0.731716 27 255 221 0.379692
-0.029345 -0.082753 0.729811 27 255 221 0.380317
-0.027399 -0.083850 0.731898 27 255 221 0.382147
-0.025228 -0.084794 0.733824 27 255 221 0.382464
-0.027092 -0.087151 0.720605 20 254 228 0.374689
-0.028504 -0.087465 0.716789 20 254 228 0.371641
-0.026375 -0.088040 0.717627 20 254 228 0.372549
-0.024125 -0.088453 0.718436 17 250 231 0.367650
-0.029918 -0.087705 0.713005 14 246 234 0.366851
-0.030802 -0.086744 0.716124 17 250 231 0.369421
-0.032992 -0.085878 0.715434 14 246 234 0.366476
-0.022684 -0.088715 0.715737 20 254 228 0.371831
-0.021100 -0.088733 0.712957 20 254 228 0.371853
-0.019667 -0.088759 0.716554 20 254 228 0.373612
-0.024069 -0.088653 0.712225 17 250 231 0.367532
-0.027068 -0.088289 0.711614 14 246 234 0.365947
-0.029864 -0.090607 0.705773 11 242 237 0.360740
-0.031303 -0.089570 0.708283 11 242 237 0.362288
-0.032784 -0.088509 0.710884 14 246 234 0.363314
-0.034129 -0.089427 0.707853 11 242 237 0.360587
-0.028433 -0.089459 0.708668 17 250 231 0.370688
-0.025540 -0.089255 0.709089 14 246 234 0.364022
-0.036345 -0.088569 0.709259 11 242 237 0.361568
-0.036489 -0.087351 0.711587 11 242 237 0.361131
-0.038717 -0.087103 0.711180 14 246 234 0.366256
-0.032863 -0.087179 0.713053 14 246 234 0.364704
-0.015201 -0.088514 0.715224 17 250 231 0.370331
-0.012401 -0.088390 0.714590 14 246 234 0.367030
-0.015433 -0.088660 0.711403 14 246 234 0.365358
-0.012682 -0.088669 0.710834 14 246 234 0.363420
-0.009983 -0.088803 0.710306 4 234 244 0.354533
-0.009688 -0.088541 0.714031 14 246 234 0.365720
-0.006869 -0.088569 0.713635 14 246 234 0.364917
-0.012998 -0.088931 0.707102 11 242 237 0.361793
-0.015752 -0.088757 0.707667 11 242 237 0.362521
-0.018475 -0.088618 0.708356 11 242 237 0.363183
-0.018290 -0.088684 0.712116 20 254 228 0.373246
-0.021314 -0.088714 0.709257 14 246 234 0.363913
-0.003531 -0.088671 0.712976 14 246 234 0.364276
-0.001666 -0.088932 0.710724 14 246 234 0.363391
0.001578 -0.089144 0.710178 11 242 237 0.362637
-0.001371 -0.089425 0.706854 11 242 237 0.362001
-0.004729 -0.089170 0.707415 11 242 237 0.362203
-0.008149 -0.089025 0.708016 11 242 237 0.361614
-0.008714 -0.091957 0.700081 11 242 237 0.360122
-0.010595 -0.091122 0.701919 11 242 237 0.360656
-0.014007 -0.090854 0.702592 11 242 237 0.362508
-0.015975 -0.090151 0.704595 11 242 237 0.361441
-0.018851 -0.091203 0.702207 11 242 237 0.360282
-0.011017 -0.089663 0.705116 11 242 237 0.361434
-0.007701 -0.089899 0.704458 11 242 237 0.362350
-0.004407 -0.090167 0.703849 11 242 237 0.361091
-0.021586 -0.090920 0.702917 14 246 234 0.363898
-0.024414 -0.090826 0.703838 4 234 244 0.353136
-0.021335 -0.089729 0.705969 11 242 237 0.359444
-0.027169 -0.090722 0.704794 11 242 237 0.360006
-0.018625 -0.089888 0.705227 11 242 237 0.361809
-0.038602 -0.085856 0.713534 7 238 240 0.357656
-0.038484 -0.084517 0.715877 4 234 244 0.352815
-0.040792 -0.085471 0.713090 0 226 250 0.347366
-0.036245 -0.084785 0.716217 14 246 234 0.364583
-0.041052 -0.083492 0.716050 1 230 247 0.349322
-0.037877 -0.083095 0.718161 7 238 240 0.356644
-0.032993 -0.083900 0.721597 17 250 231 0.370619
-0.029472 -0.085076 0.723461 23 255 224 0.375990
-0.033875 -0.084396 0.719144 17 250 231 0.367367
-0.030130 -0.085718 0.721046 20 254 228 0.373840
-0.039957 -0.089489 0.707807 1 230 247 0.350911
-0.039809 -0.091144 0.705551 7 238 240 0.358059
-0.042015 -0.091240 0.705052 7 238 240 0.358318
-0.042228 -0.089621 0.707358 7 238 240 0.356526
-0.044488 -0.089670 0.706872 4 234 244 0.354585
-0.035447 -0.091325 0.705216 7 238 240 0.359035
-0.032679 -0.091022 0.705504 11 242 237 0.359891
-0.034058 -0.092949 0.702972 7 238 240 0.358788
-0.036901 -0.093181 0.702614 7 238 240 0.358542
-0.040663 -0.097460 0.699131 7 238 240 0.358367
-0.042302 -0.095518 0.700909 7 238 240 0.358642
-0.043974 -0.093550 0.702792 7 238 240 0.358697
-0.045280 -0.095843 0.700584 7 238 240 0.359173
-0.041029 -0.093180 0.703037 7 238 240 0.359057
-0.039447 -0.095081 0.701095 7 238 240 0.358371
-0.047771 -0.094748 0.701597 7 238 240 0.359307
-0.048084 -0.092822 0.703507 7 238 240 0.358506
-0.050535 -0.093007 0.703000 7 238 240 0.359127
-0.044219 -0.091582 0.704734 11 242 237 0.360627
-0.050670 -0.086708 0.709525 0 218 255 0.338584
-0.048348 -0.086615 0.709967 0 226 250 0.345976
-0.051505 -0.088201 0.707846 0 222 253 0.340826
-0.053955 -0.088286 0.707452 1 230 247 0.349799
-0.054763 -0.089753 0.705779 7 238 240 0.356349
-0.044327 -0.084229 0.713937 0 226 250 0.343802
-0.044524 -0.086153 0.711528 0 222 253 0.340567
-0.040911 -0.087235 0.710745 7 238 240 0.355870
-0.044595 -0.087955 0.709224 4 234 244 0.352167
-0.046802 -0.089921 0.706483 7 238 240 0.356067
-0.049152 -0.090188 0.706056 7 238 240 0.355665
-0.051518 -0.090309 0.705587 7 238 240 0.356080
0.013994 -0.097533 0.729033 7 238 240 0.357393
0.015018 -0.100174 0.731265 7 238 240 0.358016
0.012166 -0.099801 0.731939 7 238 240 0.356342
0.011157 -0.097272 0.729749 7 238 240 0.358457
0.013154 -0.102511 0.734106 4 234 244 0.355342
0.009224 -0.099496 0.732453 0 222 253 0.343379
0.010302 -0.102161 0.734559 0 222 253 0.341655
0.007506 -0.101978 0.735110 4 234 244 0.354013
0.008098 -0.097018 0.730284 0 226 250 0.347500
0.006332 -0.099355 0.732974 1 230 247 0.351399
0.005130 -0.096927 0.730801 7 238 240 0.358011
0.011307 -0.104971 0.736629 4 234 244 0.352521
0.008568 -0.104753 0.737164 4 234 244 0.351771
0.009519 -0.107622 0.739136 0 226 250 0.344936
0.011966 -0.107768 0.738588 4 234 244 0.352828
0.013817 -0.105239 0.736079 4 234 244 0.355335
0.014365 -0.108034 0.738027 4 234 244 0.355438
0.016270 -0.105525 0.735312 14 246 234 0.366920
0.015674 -0.102821 0.733334 7 238 240 0.357315
0.016802 -0.108285 0.737276 7 238 240 0.356790
0.002081 -0.099352 0.734030 11 242 237 0.360800
0.000588 -0.096974 0.731898 14 246 234 0.364253
0.003526 -0.101908 0.736155 7 238 240 0.358443
-0.000890 -0.101795 0.737269 4 234 244 0.353149
-0.002449 -0.099324 0.735155 14 246 234 0.364031
-0.004068 -0.097019 0.733077 17 250 231 0.367190
0.002683 -0.104583 0.738716 7 238 240 0.358371
0.001674 -0.107297 0.741196 7 238 240 0.359034
0.005593 -0.107434 0.740121 7 238 240 0.355731
0.002390 -0.119521 0.746473 11 242 237 0.360023
0.004311 -0.116622 0.744709 4 234 244 0.354391
0.006058 -0.119854 0.745398 7 238 240 0.356693
0.006139 -0.113601 0.742881 4 234 244 0.354903
0.008005 -0.116854 0.743675 0 218 255 0.338778
0.009847 -0.113817 0.741923 1 230 247 0.351142
0.009747 -0.120079 0.744442 0 226 250 0.347401
0.007892 -0.110639 0.741045 4 234 244 0.353034
0.003973 -0.110385 0.742054 7 238 240 0.357351
0.002219 -0.113338 0.743939 7 238 240 0.358886
0.012237 -0.117108 0.742629 4 234 244 0.354013
0.014278 -0.120221 0.743004 7 238 240 0.357612
0.014626 -0.114151 0.740642 0 222 253 0.342925
0.014550 -0.111104 0.739382 4 234 244 0.354430
0.012158 -0.110850 0.740008 4 234 244 0.352911
0.012265 -0.113977 0.741342 4 234 244 0.351924
-0.017945 -0.089498 0.718458 30 255 218 0.384381
-0.017828 -0.090336 0.721014 23 255 224 0.375985
-0.021089 -0.089470 0.719677 23 255 224 0.376077
-0.020971 -0.090236 0.722201 23 255 224 0.375707
-0.017620 -0.090969 0.723552 20 254 228 0.373917
-0.017305 -0.091538 0.726027 11 242 237 0.359948
-0.014248 -0.091316 0.724972 11 242 237 0.360138
-0.014561 -0.090639 0.722469 11 242 237 0.359834
-0.014757 -0.089921 0.719890 23 255 224 0.376376
-0.011342 -0.091225 0.723992 20 254 228 0.374223
-0.024034 -0.088990 0.721330 20 254 228 0.373297
-0.023804 -0.089349 0.724178 23 255 224 0.375613
-0.021228 -0.090593 0.725517 20 254 228 0.374737
-0.020029 -0.091054 0.727803 11 242 237 0.361213
-0.011279 -0.097048 0.736084 17 250 231 0.369973
-0.012871 -0.095483 0.733569 20 254 228 0.371906
-0.014448 -0.094044 0.731047 20 254 228 0.372886
-0.008937 -0.097089 0.734753 17 250 231 0.369545
-0.015935 -0.092766 0.728555 20 254 228 0.373211
-0.009638 -0.095548 0.732139 20 254 228 0.371142
-0.010292 -0.094045 0.729415 20 254 228 0.372695
-0.005965 -0.095381 0.730774 17 250 231 0.369693
-0.010869 -0.092611 0.726696 20 254 228 0.374629
0.004637 -0.089708 0.714014 11 242 237 0.362763
0.001318 -0.089456 0.714478 14 246 234 0.363925
0.002918 -0.090089 0.716652 14 246 234 0.364008
-0.001988 -0.089261 0.715053 14 246 234 0.364817
-0.000448 -0.089873 0.717141 14 246 234 0.364980
-0.003884 -0.089776 0.717715 14 246 234 0.366356
-0.005386 -0.089197 0.715686 14 246 234 0.365990
0.001155 -0.090543 0.719285 14 246 234 0.365105
-0.002337 -0.090398 0.719824 14 246 234 0.366244
-0.000729 -0.091037 0.721905 14 246 234 0.365676
0.005909 -0.091198 0.720714 14 246 234 0.363444
0.007595 -0.090787 0.718110 11 242 237 0.361312
-0.010872 -0.089208 0.716703 17 250 231 0.370362
-0.009193 -0.089876 0.718776 20 254 228 0.371311
-0.013610 -0.089171 0.717227 27 255 221 0.381635
-0.011992 -0.089894 0.719344 27 255 221 0.382397
-0.010279 -0.090551 0.721431 14 246 234 0.366024
-0.006050 -0.091057 0.722837 11 242 237 0.360238
-0.001011 -0.095382 0.729707 14 246 234 0.366004
-0.002693 -0.094026 0.727499 7 238 240 0.357337
0.002188 -0.093802 0.726326 14 246 234 0.364049
0.003679 -0.095338 0.728577 11 242 237 0.362421
-0.001755 -0.092528 0.724696 7 238 240 0.358343
-0.006976 -0.092450 0.725716 20 254 228 0.372547
0.006829 -0.095565 0.728122 11 242 237 0.360391
0.009927 -0.095709 0.727579 11 242 237 0.360306
0.008701 -0.094283 0.725392 11 242 237 0.362039
0.012806 -0.095897 0.726898 11 242 237 0.360396
0.011597 -0.094420 0.724685 11 242 237 0.361576
0.010424 -0.093017 0.722503 11 242 237 0.362419
0.007294 -0.092711 0.723057 11 242 237 0.363006
0.004016 -0.092501 0.723577 14 246 234 0.363723
0.005460 -0.094006 0.725888 11 242 237 0.362591
-0.025926 -0.088032 0.722957 23 255 224 0.375504
-0.025750 -0.088080 0.726333 23 255 224 0.377098
-0.023318 -0.089510 0.727538 23 255 224 0.376353
-0.021866 -0.090093 0.729873 23 255 224 0.376652
-0.027748 -0.086573 0.725189 23 255 224 0.376780
-0.024603 -0.088262 0.729648 23 255 224 0.377640
-0.020116 -0.091474 0.732190 23 255 224 0.375740
-0.016700 -0.093587 0.732701 11 242 237 0.360765
-0.018469 -0.092345 0.730260 20 254 228 0.374463
-0.005983 -0.099312 0.736352 17 250 231 0.368523
-0.004304 -0.101745 0.738445 11 242 237 0.361223
-0.002827 -0.104448 0.740461 11 242 237 0.361612
-0.002724 -0.107177 0.742786 11 242 237 0.360032
-0.006723 -0.101788 0.739414 14 246 234 0.363988
-0.008925 -0.099249 0.737713 17 250 231 0.368163
-0.005796 -0.104444 0.741736 14 246 234 0.363389
-0.005100 -0.107291 0.743980 11 242 237 0.362542
-0.005249 -0.119650 0.749201 14 246 234 0.366809
-0.004349 -0.116427 0.747715 11 242 237 0.363210
-0.003657 -0.113271 0.746158 11 242 237 0.361717
-0.002222 -0.119407 0.748036 14 246 234 0.363836
-0.003127 -0.110165 0.744511 11 242 237 0.361145
-0.001076 -0.116314 0.746408 11 242 237 0.361950
0.000880 -0.110222 0.742990 11 242 237 0.359647
-0.001144 -0.113240 0.745139 7 238 240 0.358172
-0.009144 -0.101427 0.741066 14 246 234 0.364386
-0.006918 -0.113146 0.748131 14 246 234 0.365390
-0.007557 -0.119543 0.750538 14 246 234 0.365839
-0.007192 -0.109998 0.747049 11 242 237 0.361770
-0.006714 -0.116397 0.749019 14 246 234 0.363997
0.009365 -0.136060 0.740276 11 242 237 0.360951
0.008057 -0.134240 0.741973 1 230 247 0.351342
0.011938 -0.132296 0.741761 11 242 237 0.360236
0.010643 -0.130438 0.743416 11 242 237 0.360497
0.006750 -0.132424 0.743598 11 242 237 0.360677
0.005541 -0.130569 0.745150 11 242 237 0.361544
0.002174 -0.134525 0.743823 4 234 244 0.355460
0.003461 -0.136334 0.742227 11 242 237 0.362690
0.004809 -0.138108 0.740563 14 246 234 0.364041
-0.001220 -0.138344 0.742344 14 246 234 0.365259
0.014216 -0.127843 0.742347 11 242 237 0.359998
0.012711 -0.125315 0.743178 7 238 240 0.358870
0.015791 -0.122900 0.742207 7 238 240 0.358880
0.011179 -0.122760 0.743944 7 238 240 0.356994
0.008743 -0.122810 0.744703 7 238 240 0.356463
0.010177 -0.125371 0.744097 7 238 240 0.358578
0.007709 -0.125392 0.744884 7 238 240 0.358399
0.001162 -0.122309 0.746872 4 234 244 0.351778
0.001964 -0.125120 0.746579 11 242 237 0.362090
0.000635 -0.127806 0.746841 14 246 234 0.363633
0.001358 -0.130486 0.746443 11 242 237 0.361120
-0.002932 -0.130395 0.747696 14 246 234 0.366368
0.004750 -0.127932 0.745565 11 242 237 0.361367
0.005071 -0.122487 0.745703 1 230 247 0.351386
-0.005107 -0.132406 0.747151 17 250 231 0.367509
-0.007231 -0.134310 0.746539 17 250 231 0.368604
-0.002144 -0.134421 0.745098 14 246 234 0.365615
-0.004228 -0.136356 0.744451 14 246 234 0.366354
-0.006359 -0.138166 0.743769 14 246 234 0.366261
-0.009457 -0.136072 0.745944 4 234 244 0.353300
-0.011691 -0.137759 0.745335 7 238 240 0.358112
-0.010084 -0.134057 0.747430 17 250 231 0.369388
-0.007815 -0.132252 0.747998 17 250 231 0.367815
-0.005643 -0.130312 0.748528 17 250 231 0.367502
-0.008439 -0.130138 0.749393 7 238 240 0.358435
-0.010808 -0.132033 0.748921 17 250 231 0.369512
-0.013166 -0.133832 0.748411 17 250 231 0.370071
-0.012503 -0.135773 0.746878 7 238 240 0.359194
-0.014785 -0.137496 0.746313 17 250 231 0.368181
-0.015432 -0.135611 0.747871 23 255 224 0.375649
-0.017625 -0.137324 0.747315 17 250 231 0.370237
-0.001278 -0.125021 0.747605 4 234 244 0.353498
-0.003629 -0.122213 0.748512 14 246 234 0.365084
-0.005208 -0.124949 0.748877 14 246 234 0.366608
-0.004033 -0.127707 0.748305 14 246 234 0.366564
-0.006849 -0.127611 0.749166 17 250 231 0.368890
-0.006907 -0.122432 0.749681 14 246 234 0.366680
-0.008581 -0.125073 0.750050 17 250 231 0.368244
-0.010139 -0.127665 0.750389 17 250 231 0.369421
-0.011769 -0.130127 0.750640 17 250 231 0.370286
-0.014136 -0.132041 0.750231 20 254 228 0.371562
-0.016464 -0.133827 0.749748 20 254 228 0.373055
-0.018701 -0.135615 0.749339 20 254 228 0.372138
-0.020882 -0.137359 0.748907 17 250 231 0.370621
-0.014617 -0.130293 0.752485 20 254 228 0.371695
-0.010901 -0.125017 0.751442 17 250 231 0.369336
-0.009257 -0.122320 0.751023 17 250 231 0.367680
-0.023435 -0.137660 0.750779 17 250 231 0.369537
-0.021234 -0.135839 0.751102 20 254 228 0.371314
-0.019325 -0.134046 0.751853 20 254 228 0.371835
-0.016585 -0.132162 0.751769 20 254 228 0.372243
-0.038241 -0.144541 0.739681 1 230 247 0.348786
-0.040784 -0.145193 0.736476 1 230 247 0.347703
-0.043267 -0.145937 0.733310 4 234 244 0.352446
-0.043661 -0.145820 0.735871 0 226 250 0.347261
-0.040403 -0.145291 0.733911 1 230 247 0.351431
-0.037707 -0.144753 0.734756 11 242 237 0.361317
-0.038002 -0.144622 0.737219 1 230 247 0.350077
-0.035284 -0.144137 0.738057 4 234 244 0.353387
-0.047098 -0.146324 0.733217 4 234 244 0.353808
-0.046328 -0.145998 0.730459 7 238 240 0.355540
-0.049210 -0.146182 0.729763 7 238 240 0.356865
-0.044140 -0.145652 0.729159 4 234 244 0.355292
-0.039268 -0.145296 0.726923 7 238 240 0.356491
-0.037971 -0.145371 0.730576 4 234 244 0.355040
-0.036263 -0.145187 0.727691 7 238 240 0.357842
-0.040976 -0.145493 0.729840 0 226 250 0.347015
-0.042338 -0.145437 0.726205 4 234 244 0.352449
-0.033213 -0.144792 0.730634 7 238 240 0.357639
-0.034579 -0.144530 0.733330 7 238 240 0.355522
-0.031444 -0.144154 0.734205 7 238 240 0.357498
-0.028252 -0.143838 0.735068 11 242 237 0.361201
-0.032802 -0.143951 0.736893 7 238 240 0.356446
-0.034234 -0.142631 0.748137 11 242 237 0.359751
-0.031195 -0.141214 0.748414 11 242 237 0.363024
-0.028805 -0.140161 0.749341 14 246 234 0.363953
-0.026442 -0.138935 0.750326 1 230 247 0.348198
-0.038811 -0.143864 0.745661 20 254 228 0.371510
-0.040370 -0.144552 0.743872 1 230 247 0.349232
-0.042700 -0.145397 0.742677 0 226 250 0.344027
-0.035899 -0.143102 0.746304 7 238 240 0.357182
-0.036252 -0.143743 0.740948 1 230 247 0.351016
-0.034188 -0.143026 0.742245 0 218 255 0.338273
-0.033636 -0.142557 0.744606 7 238 240 0.357032
-0.031487 -0.141955 0.745903 11 242 237 0.359879
-0.036626 -0.143389 0.743888 14 246 234 0.363599
-0.027804 -0.140618 0.745863 7 238 240 0.356604
-0.025532 -0.139565 0.746845 14 246 234 0.365271
-0.023246 -0.138456 0.747874 17 250 231 0.368324
-0.053299 -0.147318 0.750782 7 238 240 0.358559
-0.056598 -0.147519 0.750687 7 238 240 0.358760
-0.054507 -0.147514 0.753457 11 242 237 0.359580
-0.059892 -0.147741 0.750589 11 242 237 0.360072
-0.063231 -0.147938 0.750525 7 238 240 0.358328
-0.061461 -0.148049 0.747619 7 238 240 0.358798
-0.058150 -0.147761 0.747705 7 238 240 0.358653
-0.055522 -0.147478 0.756157 7 238 240 0.357229
-0.058623 -0.147428 0.755223 7 238 240 0.358625
-0.059471 -0.147383 0.757837 7 238 240 0.357612
-0.056348 -0.147444 0.758765 7 238 240 0.358859
-0.062163 -0.147405 0.755606 7 238 240 0.356643
-0.065694 -0.147393 0.755960 0 222 253 0.342286
-0.064476 -0.147689 0.753263 7 238 240 0.356801
-0.060938 -0.147657 0.752878 7 238 240 0.358426
-0.077249 -0.146072 0.751128 7 238 240 0.356797
-0.073777 -0.146479 0.750944 0 214 255 0.333880
-0.075544 -0.146553 0.748417 4 234 244 0.355402
-0.070282 -0.146965 0.750776 0 222 253 0.340231
-0.072045 -0.147003 0.748244 7 238 240 0.355490
-0.068528 -0.147446 0.748074 7 238 240 0.357101
-0.073788 -0.147036 0.745664 7 238 240 0.357309
-0.066772 -0.147456 0.750654 7 238 240 0.356862
-0.067984 -0.147187 0.753373 4 234 244 0.355207
-0.071518 -0.146648 0.753526 4 234 244 0.354290
-0.070565 -0.147291 0.745890 7 238 240 0.357816
-0.072227 -0.147230 0.743649 7 238 240 0.358289
-0.068998 -0.147486 0.743876 7 238 240 0.359008
-0.066535 -0.147643 0.745109 7 238 240 0.358874
-0.070644 -0.147391 0.741608 7 238 240 0.358992
-0.064085 -0.147801 0.746366 4 234 244 0.354341
-0.004428 -0.144371 0.730533 7 238 240 0.357455
-0.005834 -0.143826 0.732878 14 246 234 0.365312
-0.000913 -0.143208 0.733412 14 246 234 0.364374
-0.002330 -0.142691 0.735758 14 246 234 0.365441
-0.007357 -0.143274 0.735189 14 246 234 0.366407
-0.008879 -0.142625 0.737488 14 246 234 0.366197
-0.012932 -0.143562 0.734558 14 246 234 0.366162
-0.011253 -0.144265 0.732255 14 246 234 0.365837
-0.009743 -0.144870 0.729950 14 246 234 0.365392
-0.016877 -0.144522 0.731727 14 246 234 0.365188
0.002852 -0.141500 0.736086 4 234 244 0.355363
0.001497 -0.140461 0.738207 14 246 234 0.363789
0.006145 -0.139171 0.738414 4 234 244 0.354525
0.000115 -0.139425 0.740296 14 246 234 0.364984
-0.005133 -0.140551 0.739903 14 246 234 0.366384
-0.003709 -0.141652 0.737835 14 246 234 0.366272
-0.013384 -0.139950 0.742191 14 246 234 0.366501
-0.016260 -0.139689 0.742996 17 250 231 0.367201
-0.010268 -0.140252 0.741405 14 246 234 0.366377
-0.014841 -0.142115 0.739097 14 246 234 0.365472
-0.017758 -0.141828 0.739925 11 242 237 0.361634
-0.020541 -0.141591 0.740713 14 246 234 0.365545
-0.011762 -0.142438 0.738250 11 242 237 0.359853
-0.021813 -0.142800 0.737068 20 254 228 0.374352
-0.024532 -0.142628 0.737875 20 254 228 0.373882
-0.018912 -0.143025 0.736245 14 246 234 0.366169
-0.022978 -0.144074 0.733450 17 250 231 0.369233
-0.025670 -0.143947 0.734271 11 242 237 0.362617
-0.020034 -0.144267 0.732613 14 246 234 0.366171
-0.015936 -0.143299 0.735401 17 250 231 0.370120
-0.027433 -0.142545 0.739025 17 250 231 0.367285
-0.023574 -0.141506 0.741860 14 246 234 0.365255
-0.026443 -0.141448 0.742998 11 242 237 0.361897
-0.028507 -0.142005 0.741623 1 230 247 0.349657
-0.030498 -0.142643 0.740243 7 238 240 0.359366
-0.029388 -0.143196 0.737648 20 254 228 0.374986
-0.019182 -0.139411 0.744041 17 250 231 0.367568
-0.019925 -0.138374 0.746250 17 250 231 0.369337
-0.022153 -0.139418 0.745143 17 250 231 0.368356
-0.021431 -0.140427 0.742931 14 246 234 0.367092
-0.024341 -0.140443 0.744069 14 246 234 0.365958
-0.031118 -0.142206 0.743036 7 238 240 0.359062
-0.033282 -0.143357 0.739365 17 250 231 0.369048
-0.017808 -0.145405 0.718390 11 242 237 0.363025
-0.019877 -0.145438 0.720815 11 242 237 0.360991
-0.014751 -0.145566 0.721382 11 242 237 0.362979
-0.016768 -0.145606 0.723786 4 234 244 0.354831
-0.022082 -0.145386 0.723283 11 242 237 0.362150
-0.024261 -0.145293 0.725754 11 242 237 0.361917
-0.027316 -0.145200 0.722809 11 242 237 0.361126
-0.025322 -0.145251 0.720358 11 242 237 0.361544
-0.023160 -0.145300 0.717883 11 242 237 0.362166
-0.030292 -0.145167 0.719872 11 242 237 0.360101
-0.011449 -0.145470 0.724431 14 246 234 0.363714
-0.013104 -0.145249 0.726839 14 246 234 0.364526
-0.008022 -0.145105 0.727504 14 246 234 0.364854
-0.014948 -0.144927 0.729297 14 246 234 0.364844
-0.020673 -0.144840 0.728743 14 246 234 0.363469
-0.018603 -0.145285 0.726240 11 242 237 0.362754
-0.029017 -0.144480 0.731282 11 242 237 0.360363
-0.026358 -0.144555 0.730439 11 242 237 0.361603
-0.029754 -0.145191 0.727505 14 246 234 0.366099
-0.032321 -0.145162 0.728340 7 238 240 0.359313
-0.025351 -0.144924 0.728111 11 242 237 0.361833
-0.035160 -0.145182 0.725360 7 238 240 0.358606
-0.032635 -0.145160 0.724537 11 242 237 0.359608
-0.035501 -0.145207 0.721571 11 242 237 0.360177
-0.038025 -0.145218 0.722400 7 238 240 0.358494
-0.031487 -0.145168 0.722205 11 242 237 0.360069
-0.028574 -0.145212 0.725160 11 242 237 0.361996
-0.047303 -0.146297 0.743532 0 226 250 0.344832
-0.049486 -0.146727 0.742420 0 214 255 0.335156
-0.047467 -0.146407 0.740983 0 226 250 0.346193
-0.049633 -0.146852 0.739875 1 230 247 0.349198
-0.051822 -0.147310 0.738763 0 222 253 0.342330
-0.051681 -0.147142 0.741306 0 218 255 0.338746
-0.053867 -0.147606 0.740195 4 234 244 0.354546
-0.049748 -0.147004 0.737323 4 234 244 0.352677
-0.056613 -0.147424 0.736844 7 238 240 0.358262
-0.059404 -0.147207 0.733556 7 238 240 0.359225
-0.059752 -0.147477 0.736330 7 238 240 0.356233
-0.056255 -0.147147 0.734035 7 238 240 0.358809
-0.053392 -0.147025 0.734653 7 238 240 0.357313
-0.049870 -0.146523 0.732523 1 230 247 0.350565
-0.047600 -0.146652 0.735962 4 234 244 0.352463
-0.052765 -0.146695 0.731870 7 238 240 0.357798
-0.055822 -0.146837 0.731283 7 238 240 0.358943
-0.043691 -0.145704 0.738310 0 202 255 0.322079
-0.040973 -0.145110 0.738986 0 226 250 0.343938
-0.059700 -0.147705 0.739143 7 238 240 0.359266
-0.056767 -0.147665 0.739662 7 238 240 0.358066
-0.056711 -0.147880 0.742493 7 238 240 0.357833
-0.059823 -0.147874 0.741976 7 238 240 0.359169
-0.062017 -0.147781 0.740709 11 242 237 0.359603
-0.061914 -0.147605 0.737877 11 242 237 0.359570
-0.064098 -0.147490 0.736614 7 238 240 0.357025
-0.064233 -0.147672 0.739440 11 242 237 0.359699
-0.066432 -0.147557 0.738162 11 242 237 0.359672
-0.049365 -0.146760 0.745730 1 230 247 0.350778
-0.051822 -0.147093 0.744654 4 234 244 0.351729
-0.054258 -0.147486 0.743580 4 234 244 0.355319
-0.054642 -0.147446 0.747887 7 238 240 0.357432
-0.059258 -0.148049 0.744961 7 238 240 0.358842
-0.051385 -0.147106 0.748140 7 238 240 0.355831
-0.062273 -0.147937 0.744533 7 238 240 0.359023
-0.064710 -0.147773 0.743253 7 238 240 0.359303
-0.067145 -0.147619 0.741996 11 242 237 0.359549
-0.068549 -0.147499 0.739892 11 242 237 0.359441
-0.075265 -0.146051 0.754360 7 238 240 0.357161
-0.073246 -0.146057 0.757592 7 238 240 0.358469
-0.069489 -0.146688 0.756773 4 234 244 0.355020
-0.067439 -0.146781 0.760025 4 234 244 0.354004
-0.071215 -0.146102 0.760815 7 238 240 0.356834
-0.069146 -0.146224 0.764054 4 234 244 0.355016
-0.075425 -0.145150 0.761407 17 250 231 0.368586
-0.077437 -0.145162 0.758218 14 246 234 0.365424
-0.079455 -0.145182 0.755010 11 242 237 0.362826
-0.081613 -0.144414 0.758827 20 254 228 0.371464
-0.063249 -0.147248 0.758924 4 234 244 0.354692
-0.060789 -0.147167 0.761888 4 234 244 0.354142
-0.057643 -0.147320 0.762834 7 238 240 0.356455
-0.054479 -0.147635 0.763785 7 238 240 0.358792
-0.055794 -0.147420 0.767851 4 234 244 0.355129
-0.059153 -0.146929 0.766900 1 230 247 0.349006
-0.062486 -0.146599 0.765947 0 222 253 0.343283
-0.064975 -0.146597 0.762972 1 230 247 0.349323
-0.061703 -0.146045 0.774930 0 210 255 0.331237
-0.065133 -0.145642 0.773892 0 218 255 0.336885
-0.064201 -0.146034 0.771262 0 214 255 0.334579
-0.068536 -0.145350 0.772844 14 246 234 0.366228
-0.067596 -0.145674 0.770235 4 234 244 0.352011
-0.070984 -0.145479 0.769235 17 250 231 0.370590
-0.071916 -0.145201 0.771848 30 255 218 0.385102
-0.066666 -0.146072 0.767647 0 226 250 0.344697
-0.070060 -0.145835 0.766650 11 242 237 0.360058
-0.063336 -0.146286 0.768620 0 218 255 0.336908
-0.059999 -0.146611 0.769572 0 222 253 0.340977
-0.060865 -0.146272 0.772228 0 214 255 0.333689
-0.057506 -0.146674 0.773221 0 222 253 0.342350
-0.056644 -0.147052 0.770539 1 230 247 0.350481
-0.058359 -0.146417 0.775922 0 222 253 0.340566
-0.075056 -0.144683 0.770442 43 255 205 0.401208
-0.078386 -0.144093 0.768973 49 255 198 0.408566
-0.077274 -0.144490 0.766522 36 255 211 0.394330
-0.081682 -0.143615 0.767508 23 255 224 0.378740
-0.080563 -0.143977 0.765089 36 255 211 0.391769
-0.083840 -0.143539 0.763668 33 255 215 0.387831
-0.084949 -0.143187 0.766077 40 255 208 0.397377
-0.079451 -0.144439 0.762678 27 255 221 0.381124
-0.082723 -0.143950 0.761253 27 255 221 0.379317
-0.076320 -0.144804 0.763976 27 255 221 0.380871
-0.073198 -0.145255 0.765294 7 238 240 0.358333
-0.074128 -0.144932 0.767851 30 255 218 0.386564
-0.008999 -0.088101 0.749481 30 255 218 0.383904
-0.011798 -0.085383 0.747543 40 255 208 0.396330
-0.014615 -0.082903 0.745692 49 255 198 0.410129
-0.010451 -0.089624 0.747766 23 255 224 0.377283
-0.013269 -0.087023 0.745678 33 255 215 0.388211
-0.017324 -0.080554 0.743958 62 255 185 0.423742
-0.019888 -0.078272 0.742231 66 255 182 0.427040
-0.018265 -0.076261 0.744115 104 255 143 0.476269
-0.015771 -0.078694 0.745802 88 255 160 0.453904
-0.016442 -0.085270 0.743405 40 255 208 0.395258
-0.029149 -0.070655 0.736310 40 255 208 0.395965
-0.027021 -0.072515 0.738168 46 255 202 0.403534
-0.025138 -0.075077 0.739229 53 255 195 0.414048
-0.027778 -0.068194 0.738005 49 255 198 0.409851
-0.022630 -0.076696 0.740767 62 255 185 0.422295
-0.025616 -0.070248 0.739965 79 255 169 0.444360
-0.023181 -0.072074 0.741649 88 255 160 0.456581
-0.026050 -0.065931 0.739779 33 255 215 0.390375
-0.023849 -0.067998 0.741729 134 255 114 0.509368
-0.020566 -0.073851 0.743203 108 255 140 0.477656
-0.020867 -0.126467 0.861233 0 222 253 0.343066
-0.020477 -0.128226 0.857000 0 214 255 0.334882
-0.024036 -0.126714 0.859565 0 222 253 0.342228
-0.023665 -0.128475 0.855336 0 214 255 0.335133
-0.020105 -0.130272 0.852854 0 210 255 0.329658
-0.019739 -0.132410 0.848740 0 202 255 0.321167
-0.016588 -0.132032 0.850544 0 214 255 0.334870
-0.016952 -0.129849 0.854638 0 182 255 0.303025
-0.017353 -0.127839 0.858804 0 206 255 0.325191
-0.013425 -0.131630 0.852310 0 214 255 0.333262
-0.027201 -0.126999 0.857815 0 222 253 0.342346
-0.026838 -0.128825 0.853534 0 214 255 0.334023
-0.030400 -0.127212 0.856114 0 222 253 0.342421
-0.030043 -0.129070 0.851849 0 214 255 0.333178
-0.026485 -0.130897 0.849328 0 202 255 0.321693
-0.026153 -0.133141 0.845152 0 214 255 0.334560
-0.022936 -0.132813 0.846955 0 214 255 0.333714
-0.023301 -0.130540 0.851123 0 210 255 0.328304
-0.017838 -0.138807 0.831162 4 234 244 0.355039
-0.018313 -0.137375 0.835611 1 230 247 0.350363
-0.014588 -0.138439 0.833055 11 242 237 0.359686
-0.018789 -0.135808 0.840050 0 226 250 0.344477
-0.015084 -0.136980 0.837537 4 234 244 0.352358
-0.015577 -0.135344 0.841978 0 226 250 0.345891
-0.011337 -0.138017 0.834954 7 238 240 0.358083
-0.019256 -0.134183 0.844424 0 214 255 0.333976
-0.022494 -0.134473 0.842615 0 218 255 0.337402
-0.022030 -0.136144 0.838247 0 222 253 0.341606
-0.011865 -0.136558 0.839394 4 234 244 0.354057
-0.008166 -0.137589 0.836875 7 238 240 0.359156
-0.012378 -0.135044 0.843774 1 230 247 0.349354
-0.008692 -0.136148 0.841309 7 238 240 0.355522
-0.009242 -0.134611 0.845697 4 234 244 0.351572
-0.005003 -0.137071 0.838753 11 242 237 0.360171
-0.012897 -0.133411 0.848077 0 222 253 0.340830
-0.016064 -0.133783 0.846293 0 214 255 0.332477
-0.033645 -0.127457 0.854340 0 222 253 0.341857
-0.033339 -0.129317 0.849973 0 214 255 0.333306
-0.036973 -0.127639 0.852569 0 222 253 0.343498
-0.036670 -0.129550 0.848223 0 214 255 0.333623
-0.033058 -0.131467 0.845698 0 202 255 0.322194
-0.032789 -0.133576 0.841393 0 210 255 0.329284
-0.029472 -0.133315 0.843265 0 210 255 0.330385
-0.029740 -0.131123 0.847545 0 206 255 0.326475
-0.040214 -0.127893 0.850803 0 222 253 0.343487
-0.039831 -0.129839 0.846445 0 214 255 0.333377
-0.043416 -0.128077 0.849091 0 226 250 0.347293
-0.043044 -0.130008 0.844736 0 214 255 0.333663
-0.039486 -0.131937 0.842135 0 206 255 0.324997
-0.039163 -0.134051 0.837832 0 206 255 0.327156
-0.035972 -0.133769 0.839602 0 206 255 0.327704
-0.036315 -0.131674 0.843914 0 206 255 0.325831
-0.030859 -0.140151 0.823675 1 230 247 0.350225
-0.031345 -0.138734 0.828127 0 226 250 0.344220
-0.027678 -0.139787 0.825481 1 230 247 0.351291
-0.031837 -0.137067 0.832543 0 214 255 0.334873
-0.028192 -0.138337 0.829953 0 226 250 0.344527
-0.028687 -0.136695 0.834411 0 214 255 0.334291
-0.024509 -0.139518 0.827302 4 234 244 0.352211
-0.032315 -0.135284 0.836957 0 198 255 0.318971
-0.035515 -0.135576 0.835194 0 198 255 0.318594
-0.035047 -0.137301 0.830805 0 214 255 0.333237
-0.024934 -0.138071 0.831767 0 226 250 0.346651
-0.021179 -0.139146 0.829226 4 234 244 0.353455
-0.025350 -0.136483 0.836250 0 226 250 0.347181
-0.021610 -0.137678 0.833730 1 230 247 0.348609
-0.025746 -0.134808 0.840704 0 206 255 0.326087
-0.029083 -0.135024 0.838842 0 202 255 0.321594
-0.046409 -0.128282 0.847447 0 226 250 0.343922
-0.045823 -0.130199 0.843145 0 218 255 0.339197
-0.049214 -0.128364 0.845914 0 222 253 0.343418
-0.048652 -0.130312 0.841640 0 210 255 0.330520
-0.045275 -0.132259 0.838900 0 198 255 0.319678
-0.044742 -0.134335 0.834667 0 150 255 0.273300
-0.041946 -0.134205 0.836252 0 202 255 0.321941
-0.042494 -0.132059 0.840474 0 202 255 0.323840
-0.051895 -0.128552 0.844438 0 226 250 0.345455
-0.051197 -0.130453 0.840176 0 206 255 0.324646
-0.054462 -0.128659 0.843049 0 222 253 0.340894
-0.053767 -0.130528 0.838787 0 202 255 0.322085
-0.050504 -0.132521 0.835993 0 66 255 0.190914
-0.049830 -0.134688 0.831845 0 150 255 0.273064
-0.047280 -0.134502 0.833260 0 146 255 0.267736
-0.047953 -0.132331 0.837409 0 182 255 0.301752
-0.041388 -0.140979 0.817696 1 230 247 0.351113
-0.042235 -0.139561 0.821983 0 226 250 0.344855
-0.038867 -0.140806 0.819119 1 230 247 0.350291
-0.043066 -0.137856 0.826199 0 210 255 0.331938
-0.039734 -0.139347 0.823412 0 222 253 0.342929
-0.040588 -0.137659 0.827649 0 210 255 0.331614
-0.036356 -0.140622 0.820540 1 230 247 0.349394
-0.043904 -0.136138 0.830428 0 198 255 0.317907
-0.046453 -0.136237 0.829005 0 186 255 0.306762
-0.045631 -0.138049 0.824823 0 214 255 0.333681
-0.037084 -0.139175 0.824876 0 214 255 0.334517
-0.033612 -0.140351 0.822093 1 230 247 0.349160
-0.037775 -0.137594 0.829211 0 206 255 0.326957
-0.034330 -0.138923 0.826468 0 222 253 0.343098
-0.038478 -0.135830 0.833500 0 198 255 0.320282
-0.041274 -0.135922 0.831924 0 194 255 0.312681
-0.050484 -0.147603 0.762334 11 242 237 0.362228
-0.047786 -0.147485 0.764947 14 246 234 0.363659
-0.044143 -0.147226 0.763767 14 246 234 0.366980
-0.041322 -0.147406 0.766402 17 250 231 0.367943
-0.045005 -0.147594 0.767600 14 246 234 0.364819
-0.042186 -0.147779 0.770226 14 246 234 0.366487
-0.049035 -0.147420 0.769035 4 234 244 0.351990
-0.051755 -0.147467 0.766401 11 242 237 0.360256
-0.037629 -0.146388 0.764480 20 254 228 0.371833
-0.034573 -0.145415 0.764730 23 255 224 0.375402
-0.031465 -0.144455 0.764952 27 255 221 0.379458
-0.028441 -0.144007 0.766798 23 255 224 0.377456
-0.031717 -0.145444 0.768223 20 254 228 0.373910
-0.028614 -0.145038 0.770029 23 255 224 0.375163
-0.035081 -0.146229 0.768270 20 254 228 0.372335
-0.038419 -0.146950 0.768317 17 250 231 0.370036
-0.030256 -0.146264 0.780552 20 254 228 0.371878
-0.034157 -0.146453 0.780706 17 250 231 0.370420
-0.033228 -0.146774 0.778010 7 238 240 0.358700
-0.037095 -0.146916 0.778122 17 250 231 0.368668
-0.038045 -0.146561 0.780803 7 238 240 0.358443
-0.036217 -0.147142 0.775433 17 250 231 0.369294
-0.040947 -0.147020 0.778206 17 250 231 0.367977
-0.040062 -0.147310 0.775518 17 250 231 0.368175
-0.043869 -0.147430 0.775580 14 246 234 0.365391
-0.041862 -0.146681 0.780870 14 246 234 0.367070
-0.044745 -0.147190 0.778256 14 246 234 0.364507
-0.045659 -0.146895 0.780934 11 242 237 0.362369
-0.039206 -0.147499 0.772821 17 250 231 0.368168
-0.043011 -0.147639 0.772906 14 246 234 0.365972
-0.035815 -0.146910 0.772810 17 250 231 0.369814
-0.032396 -0.146218 0.772758 4 234 244 0.354893
-0.032778 -0.146524 0.775381 17 250 231 0.369113
-0.029340 -0.145870 0.775285 20 254 228 0.373073
-0.028934 -0.145524 0.772657 20 254 228 0.373695
-0.029750 -0.146160 0.777913 20 254 228 0.372414
-0.049070 -0.146607 0.780352 1 230 247 0.351304
-0.048190 -0.147027 0.777622 7 238 240 0.358799
-0.051611 -0.146690 0.777053 4 234 244 0.353984
-0.052488 -0.146329 0.779761 1 230 247 0.349637
-0.050753 -0.147073 0.774346 4 234 244 0.352237
-0.055000 -0.146483 0.776485 0 226 250 0.345422
-0.054138 -0.146863 0.773790 1 230 247 0.351146
-0.055862 -0.146207 0.779188 0 222 253 0.339894
-0.053266 -0.147263 0.771102 1 230 247 0.350743
-0.049867 -0.147309 0.771700 7 238 240 0.359257
-0.046447 -0.147453 0.772301 14 246 234 0.363338
-0.047305 -0.147251 0.774960 11 242 237 0.362508
0.010099 -0.080645 0.767198 0 182 255 0.303912
0.008783 -0.077006 0.766645 0 178 255 0.300631
0.009017 -0.073379 0.767510 0 210 255 0.328174
0.007813 -0.069807 0.766836 17 250 231 0.367400
0.008381 -0.066075 0.767345 59 255 189 0.419965
0.005012 -0.066308 0.764794 95 255 153 0.462473
0.011089 -0.069619 0.769473 14 246 234 0.364410
0.011748 -0.065901 0.769831 56 255 192 0.416419
0.012105 -0.073043 0.770016 0 214 255 0.334539
0.013186 -0.076477 0.770482 0 182 255 0.303820
0.012858 -0.080182 0.769695 0 114 255 0.238121
0.015625 -0.079712 0.772159 0 166 255 0.287029
0.003457 -0.062964 0.764517 121 255 127 0.492437
0.005341 -0.062897 0.765975 111 255 137 0.481954
0.003896 -0.059468 0.765578 172 255 75 0.556571
0.001996 -0.059548 0.764161 150 255 98 0.528309
0.005840 -0.059383 0.766956 137 255 111 0.514185
0.002553 -0.055959 0.765043 95 255 153 0.464275
0.004495 -0.055866 0.766428 166 255 82 0.549854
0.003257 -0.052263 0.765739 179 255 69 0.564402
0.000597 -0.056066 0.763695 163 255 85 0.545198
0.001298 -0.052392 0.764397 117 255 130 0.490009
-0.000686 -0.052534 0.763125 182 255 66 0.569302
0.006458 -0.055763 0.767774 166 255 82 0.550571
0.005235 -0.052141 0.767080 192 255 56 0.581830
0.007201 -0.052041 0.768431 185 255 62 0.573461
0.009373 -0.059087 0.769294 140 255 108 0.518857
0.008789 -0.062653 0.768427 108 255 140 0.477378
0.015964 -0.051722 0.773884 150 255 98 0.530029
0.016680 -0.055302 0.774306 156 255 92 0.537946
0.015510 -0.058900 0.773461 130 255 117 0.506517
0.016384 -0.062284 0.773631 43 255 205 0.398531
0.015460 -0.065698 0.772423 11 242 237 0.363014
0.019141 -0.065475 0.774989 30 255 218 0.383386
0.012614 -0.062517 0.771127 95 255 153 0.461938
0.011467 -0.059059 0.770802 134 255 114 0.508044
0.010385 -0.055536 0.770379 172 255 75 0.555852
0.012556 -0.055504 0.771764 163 255 85 0.545432
0.011589 -0.051884 0.771167 169 255 79 0.551438
0.009400 -0.051968 0.769771 176 255 72 0.559806
0.013768 -0.051790 0.772569 137 255 111 0.511920
0.019730 -0.068890 0.775609 33 255 215 0.388041
0.018708 -0.072438 0.775104 11 242 237 0.360069
0.019423 -0.075702 0.775532 0 214 255 0.333725
0.018628 -0.079238 0.774687 0 182 255 0.302066
0.021670 -0.078755 0.777163 0 202 255 0.324013
0.016266 -0.076181 0.773156 0 198 255 0.316605
0.015380 -0.072738 0.772493 1 230 247 0.348177
0.014459 -0.069288 0.771880 23 255 224 0.375490
0.001015 -0.082215 0.758922 1 230 247 0.350680
-0.000571 -0.078591 0.758226 23 255 224 0.376882
-0.001079 -0.074874 0.758671 46 255 202 0.405591
-0.002617 -0.071360 0.758051 134 255 114 0.510721
-0.002890 -0.067565 0.758324 182 255 66 0.566686
-0.005208 -0.068113 0.756372 240 254 7 0.638274
-0.000361 -0.070835 0.760052 14 246 234 0.365066
-0.000603 -0.067045 0.760262 255 206 0 0.688312
0.001131 -0.074401 0.760587 11 242 237 0.361374
0.002645 -0.077972 0.761107 0 218 255 0.338106
0.003099 -0.081844 0.760755 0 210 255 0.330030
0.005114 -0.081448 0.762659 0 206 255 0.325344
-0.006917 -0.065005 0.755945 255 90 0 0.812206
-0.007376 -0.061460 0.756558 255 187 0 0.709953
-0.008885 -0.058290 0.755877 237 255 11 0.634202
-0.009047 -0.054632 0.756139 124 255 124 0.498661
-0.011408 -0.055502 0.753992 91 255 156 0.458515
-0.006530 -0.057465 0.758109 202 255 46 0.591445
-0.006676 -0.053759 0.758284 101 255 147 0.470001
-0.005037 -0.060770 0.758642 215 255 33 0.607075
-0.003442 -0.064073 0.759039 221 255 27 0.615459
-0.000958 -0.059989 0.762099 143 255 104 0.523385
0.000626 -0.063332 0.762332 150 255 98 0.528172
0.002189 -0.066676 0.762566 98 255 150 0.465239
-0.003884 -0.056862 0.760265 215 255 33 0.607029
-0.003710 -0.053123 0.760759 172 255 75 0.556897
0.004850 -0.070100 0.764481 23 255 224 0.376242
0.006168 -0.073660 0.765029 0 210 255 0.329937
0.006262 -0.077404 0.764444 0 178 255 0.299232
0.007678 -0.081052 0.764904 0 186 255 0.306560
0.003519 -0.074022 0.762752 0 214 255 0.335785
0.002110 -0.070442 0.762103 40 255 208 0.398214
-0.013017 -0.081165 0.747573 69 255 179 0.429689
-0.016346 -0.074353 0.746058 255 217 0 0.677260
-0.013714 -0.076861 0.747780 176 255 72 0.559596
-0.011065 -0.079424 0.749428 108 255 140 0.477254
-0.009485 -0.083117 0.749891 36 255 211 0.393918
-0.007266 -0.086431 0.751158 36 255 211 0.391829
-0.021290 -0.069989 0.743602 156 255 92 0.537961
-0.024069 -0.063810 0.741804 53 255 195 0.412067
-0.021685 -0.065972 0.743908 147 255 101 0.523777
-0.019154 -0.067962 0.745609 247 246 1 0.646933
-0.017829 -0.071191 0.745861 255 206 0 0.688251
-0.019329 -0.059986 0.746578 49 255 198 0.408935
