ply
format ascii 1.0
comment Seamless Cloth Simulation with High Geometric Fidelity 
comment Tue May  7 09:46:05 2019
element vertex 966
property float x
property float y
property float z
property float quality
property uchar red
property uchar green
property uchar blue
end_header
-0.778943 -0.616869 5.2998 0.0163105 255 0 255 
-0.766226 -0.641411 5.2469 0.0638002 255 0 255 
-0.752712 -0.621931 5.24694 0.0516674 255 0 255 
-0.792349 -0.680403 5.2486 0.0705052 255 0 255 
-0.814049 -0.69675 5.26812 0.0728145 255 0 255 
-0.757587 -0.59629 5.29979 0.0201365 255 0 255 
-0.750245 -0.601067 5.28048 0.0108822 255 0 255 
-0.729569 -0.578946 5.28096 0.0136877 255 0 255 
-0.735829 -0.574398 5.29998 0.0201474 255 0 255 
-0.725104 -0.584033 5.26325 0.0198688 255 0 255 
-0.70989 -0.556762 5.28242 0.0223528 255 0 255 
-0.705353 -0.562695 5.26674 0.0354745 255 0 255 
-0.715049 -0.551253 5.2995 0.0113055 255 0 255 
-0.700757 -0.569202 5.25129 0.0468287 255 0 255 
-0.718469 -0.58658 5.24925 0.041153 255 0 255 
-0.735728 -0.604168 5.24779 0.0427779 255 0 255 
-0.742533 -0.602286 5.2635 0.0162801 255 0 255 
-0.76143 -0.886424 5.2539 0.0278432 255 0 255 
-0.77448 -0.862706 5.25266 0.0288411 255 0 255 
-0.782671 -0.876093 5.27542 0.0347829 255 0 255 
-0.788478 -0.838463 5.25155 0.0510245 255 0 255 
-0.79707 -0.852011 5.27452 0.0498284 255 0 255 
-0.81242 -0.826991 5.27459 0.0740769 255 0 255 
-0.806816 -0.866073 5.29736 0.0492668 255 0 255 
-0.802735 -0.813631 5.25106 0.0749616 255 0 255 
-0.816478 -0.788287 5.25317 0.0979318 255 0 255 
-0.79661 -0.799132 5.22601 0.123155 255 0 255 
-0.783376 -0.823678 5.22578 0.0829524 255 0 255 
-0.769804 -0.848107 5.22751 0.0496019 255 0 255 
-0.777749 -0.809288 5.20248 0.150998 255 0 255 
-0.822658 -0.859752 5.30829 0.0486055 255 0 255 
-0.823262 -0.841584 5.29877 0.0594722 255 0 255 
-0.84094 -0.834063 5.31 0.0597738 255 0 255 
-0.839941 -0.852604 5.31904 0.0664338 255 0 255 
-0.841378 -0.816011 5.302 0.0535368 255 0 255 
-0.856395 -0.82789 5.32257 0.0470207 255 0 255 
-0.855898 -0.809967 5.31473 0.0424554 255 0 255 
-0.870281 -0.803808 5.32758 0.0505124 255 0 255 
-0.856301 -0.845709 5.33039 0.0816539 255 0 255 
-0.870964 -0.821614 5.33488 0.0457285 255 0 255 
-0.870861 -0.839776 5.34268 0.10282 255 0 255 
-0.855348 -0.791853 5.30694 0.0537391 255 0 255 
-0.869205 -0.786151 5.32003 0.0470789 255 0 255 
-0.866762 -0.768086 5.31297 0.0580735 255 0 255 
-0.854226 -0.772219 5.29849 0.0884995 255 0 255 
-0.842084 -0.796109 5.29233 0.0896306 255 0 255 
-0.842079 -0.776533 5.28383 0.0977826 255 0 255 
-0.827923 -0.801857 5.27789 0.0890749 255 0 255 
-0.82585 -0.821854 5.28828 0.0770047 255 0 255 
-0.828896 -0.782321 5.26862 0.0931212 255 0 255 
-0.833116 -0.713581 5.28834 0.074246 255 0 255 
-0.829507 -0.736737 5.27517 0.0842562 255 0 255 
-0.811954 -0.720716 5.25464 0.0834212 255 0 255 
-0.818545 -0.740923 5.25791 0.0721395 255 0 255 
-0.80866 -0.745497 5.2405 0.111727 255 0 255 
-0.824388 -0.761966 5.26293 0.0915895 255 0 255 
-0.836506 -0.756481 5.27938 0.085453 255 0 255 
-0.848165 -0.752379 5.2944 0.086037 255 0 255 
-0.840694 -0.732579 5.29097 0.0751254 255 0 255 
-0.852108 -0.728116 5.3063 0.0667966 255 0 255 
-0.860116 -0.748195 5.30938 0.0711381 255 0 255 
-0.842853 -0.709732 5.30368 0.0712105 255 0 255 
-0.793866 -0.729047 5.22119 0.141593 255 0 255 
-0.790798 -0.755302 5.21204 0.143973 255 0 255 
-0.778138 -0.738292 5.19322 0.191996 255 0 255 
-0.773804 -0.76515 5.18637 0.185869 255 0 255 
-0.785825 -0.782257 5.20546 0.15636 255 0 255 
-0.803667 -0.772008 5.23168 0.109838 255 0 255 
-0.61802 -0.650831 5.13495 0.036923 255 0 255 
-0.633071 -0.662965 5.13224 0.0390852 255 0 255 
-0.656778 -0.669165 5.13526 0.0732936 255 0 255 
-0.671563 -0.682 5.13212 0.0996508 255 0 255 
-0.688016 -0.669008 5.144 0.153527 255 0 255 
-0.672213 -0.655165 5.14828 0.118153 255 0 255 
-0.649119 -0.649488 5.14556 0.0559412 255 0 255 
-0.6324 -0.636298 5.14956 0.0450244 255 0 255 
-0.675583 -0.705711 5.12516 0.104523 255 0 255 
-0.686425 -0.722624 5.1259 0.0776059 255 0 255 
-0.705479 -0.734632 5.13241 0.162168 255 0 255 
-0.714459 -0.752196 5.13394 0.128953 255 0 255 
-0.732304 -0.742063 5.14408 0.27435 255 0 255 
-0.722238 -0.723029 5.14289 0.254831 255 0 255 
-0.703637 -0.71074 5.13704 0.133753 255 0 255 
-0.692261 -0.692789 5.13719 0.16742 255 0 255 
-0.747548 -0.707318 5.16661 0.363283 255 0 255 
-0.737011 -0.687795 5.1667 0.22921 255 0 255 
-0.717268 -0.674969 5.15923 0.197153 255 0 255 
-0.70443 -0.656319 5.16097 0.184963 255 0 255 
-0.720615 -0.699199 5.15032 0.204119 255 0 255 
-0.74982 -0.731431 5.15966 0.356264 255 0 255 
-0.696458 -0.636073 5.17376 0.130174 255 0 255 
-0.679788 -0.621089 5.17789 0.122475 255 0 255 
-0.655725 -0.614372 5.17357 0.0877941 255 0 255 
-0.664805 -0.634876 5.1603 0.0883499 255 0 255 
-0.754317 -0.900637 5.26754 0.0145025 255 0 255 
-0.766426 -0.895119 5.27669 0.017793 255 0 255 
-0.759651 -0.909416 5.29043 0.0117765 255 0 255 
-0.747754 -0.914807 5.28082 0.0116837 255 0 255 
-0.772237 -0.904334 5.29939 0.0226792 255 0 255 
-0.753462 -0.92352 5.3035 0.0103423 255 0 255 
-0.766015 -0.918987 5.31256 0.0217399 255 0 255 
-0.759798 -0.933464 5.32612 0.0190409 255 0 255 
-0.741855 -0.928817 5.29379 0.00999812 255 0 255 
-0.747853 -0.937855 5.31653 0.0115238 255 0 255 
-0.736178 -0.943309 5.30668 0.0131999 255 0 255 
-0.77855 -0.914448 5.32223 0.0257208 255 0 255 
-0.7726 -0.92947 5.33534 0.025909 255 0 255 
-0.786093 -0.925255 5.3446 0.0425481 255 0 255 
-0.796043 -0.89592 5.32049 0.0378424 255 0 255 
-0.788775 -0.885682 5.29824 0.0264168 255 0 255 
-0.726254 -0.954328 5.32093 0.00889643 255 0 255 
-0.738547 -0.94942 5.33074 0.00887062 255 0 255 
-0.728734 -0.960927 5.34496 0.0101456 255 0 255 
-0.716633 -0.966106 5.33463 0.00968987 255 0 255 
-0.741034 -0.9563 5.35471 0.0126854 255 0 255 
-0.719401 -0.972988 5.35851 0.0109401 255 0 255 
-0.731444 -0.968063 5.36881 0.0120406 255 0 255 
-0.707293 -0.978341 5.34833 0.0106047 255 0 255 
-0.743959 -0.964078 5.37853 0.0155909 255 0 255 
-0.75655 -0.960553 5.38777 0.0203282 255 0 255 
-0.753017 -0.952028 5.36462 0.0176012 255 0 255 
-0.765881 -0.94815 5.37382 0.0253016 255 0 255 
-0.76237 -0.940567 5.35015 0.01689 255 0 255 
-0.750111 -0.944652 5.34057 0.0134479 255 0 255 
-0.776019 -0.936462 5.3592 0.0323688 255 0 255 
-0.836575 -0.937665 5.43194 0.0454677 255 0 255 
-0.817843 -0.945666 5.42449 0.0648334 255 0 255 
-0.825454 -0.932112 5.40656 0.0608117 255 0 255 
-0.843716 -0.924415 5.41476 0.0616045 255 0 255 
-0.807064 -0.938948 5.39833 0.069247 255 0 255 
-0.832548 -0.918981 5.3885 0.0781954 255 0 255 
-0.813989 -0.925563 5.38026 0.051579 255 0 255 
-0.820981 -0.912682 5.36211 0.0665227 255 0 255 
-0.851499 -0.910922 5.39705 0.0763587 255 0 255 
-0.840684 -0.905663 5.37039 0.0926515 255 0 255 
-0.858091 -0.898078 5.37992 0.135735 255 0 255 
-0.795989 -0.931584 5.37178 0.0430445 255 0 255 
-0.802393 -0.919413 5.35379 0.0426195 255 0 255 
-0.785814 -0.943963 5.38603 0.047098 255 0 255 
-0.775087 -0.956371 5.40058 0.0342465 255 0 255 
-0.795797 -0.95154 5.41284 0.0576541 255 0 255 
-0.850016 -0.874718 5.34974 0.0796061 255 0 255 
-0.864758 -0.868825 5.36086 0.106205 255 0 255 
-0.833164 -0.881791 5.33893 0.0615217 255 0 255 
-0.813303 -0.88912 5.32998 0.0389306 255 0 255 
0.130455 -1.04424 5.13166 0.0102402 255 0 255 
0.152648 -1.04041 5.11349 0.00951502 255 0 255 
0.114544 -1.03973 5.11274 0.0112348 255 0 255 
0.136944 -1.03612 5.09472 0.0115392 255 0 255 
0.100446 -1.03399 5.09431 0.0110865 255 0 255 
0.125077 -1.02934 5.07749 0.0122847 255 0 255 
0.0886654 -1.02694 5.0764 0.0113879 255 0 255 
0.113832 -1.02269 5.05934 0.0157661 255 0 255 
-0.325515 -1.02029 5.15096 0.03676 255 0 255 
-0.351184 -1.01067 5.14545 0.0399172 255 0 255 
-0.311828 -1.015 5.1362 0.0485515 255 0 255 
-0.33735 -1.00609 5.12992 0.051495 255 0 255 
-0.323717 -1.00039 5.11545 0.07534 255 0 255 
-0.363651 -0.996096 5.12497 0.0666248 255 0 255 
-0.298904 -1.0089 5.12172 0.0513574 255 0 255 
-0.28558 -1.00214 5.1078 0.0543475 255 0 255 
-0.275097 -1.01538 5.12671 0.0367261 255 0 255 
-0.288242 -1.02211 5.14088 0.0439931 255 0 255 
-0.301297 -1.02824 5.15528 0.0579507 255 0 255 
-0.264935 -1.02876 5.14551 0.0422021 255 0 255 
-0.347076 -0.990225 5.11158 0.063676 255 0 255 
-0.372375 -0.977197 5.10648 0.0705444 255 0 255 
-0.330849 -0.983316 5.09884 0.077333 255 0 255 
-0.355399 -0.97061 5.09317 0.0787712 255 0 255 
-0.338911 -0.963217 5.08054 0.117998 255 0 255 
-0.38089 -0.957493 5.08819 0.109125 255 0 255 
-0.315118 -0.975416 5.08665 0.0896072 255 0 255 
-0.298956 -0.967439 5.07552 0.0786073 255 0 255 
-0.292394 -0.985097 5.09151 0.0580678 255 0 255 
-0.308191 -0.993083 5.10297 0.0693934 255 0 255 
-0.191371 -0.977227 5.05828 0.0854656 255 0 255 
-0.217211 -0.983226 5.07149 0.081556 255 0 255 
-0.186255 -0.991399 5.07241 0.052618 255 0 255 
-0.241624 -0.989698 5.08405 0.0531371 255 0 255 
-0.212054 -0.997805 5.08509 0.0649907 255 0 255 
-0.23633 -1.00426 5.0982 0.0507043 255 0 255 
-0.180589 -1.0058 5.08581 0.0493822 255 0 255 
-0.264434 -0.996144 5.09601 0.0509351 255 0 255 
-0.271228 -0.978901 5.08018 0.0620979 255 0 255 
-0.248591 -0.972169 5.06867 0.0745243 255 0 255 
-0.203796 -1.01138 5.10099 0.0440852 255 0 255 
-0.170719 -1.01682 5.10185 0.0335118 255 0 255 
-0.226043 -1.01724 5.11638 0.0326632 255 0 255 
-0.194443 -1.02249 5.11758 0.0312439 255 0 255 
-0.217051 -1.02854 5.13345 0.0317725 255 0 255 
-0.160568 -1.02782 5.11848 0.0307986 255 0 255 
-0.246455 -1.02333 5.13116 0.0348939 255 0 255 
-0.256637 -1.00991 5.11264 0.0393993 255 0 255 
0.0523033 -0.983011 5.01146 0.035178 255 0 255 
0.0486833 -0.969642 5.00193 0.0414349 255 0 255 
0.0445648 -0.956632 4.99259 0.0632045 255 0 255 
0.0438994 -0.940934 4.98625 0.0332243 255 0 255 
0.0777861 -1.01876 5.05987 0.0135946 255 0 255 
0.104301 -1.01372 5.04452 0.0151298 255 0 255 
0.0683032 -1.0096 5.04485 0.0149201 255 0 255 
0.0950205 -1.00485 5.02947 0.0243758 255 0 255 
0.0609674 -0.999366 5.03058 0.0234043 255 0 255 
-0.161636 -0.971747 5.04807 0.0638297 255 0 255 
-0.193392 -0.960319 5.04925 0.0572464 255 0 255 
-0.132549 -0.965677 5.03872 0.0678715 255 0 255 
-0.163843 -0.955085 5.03893 0.0649059 255 0 255 
-0.134365 -0.949323 5.02892 0.079093 255 0 255 
-0.195083 -0.943142 5.0396 0.0986615 255 0 255 
-0.104168 -0.959146 5.0295 0.0654006 255 0 255 
-0.0762506 -0.95255 5.0197 0.0543851 255 0 255 
-0.0737956 -0.966912 5.02904 0.0382462 255 0 255 
-0.101637 -0.973941 5.03834 0.0573562 255 0 255 
-0.130636 -0.980508 5.0481 0.0605708 255 0 255 
-0.0713521 -0.981641 5.03834 0.0380984 255 0 255 
-0.16375 -0.937474 5.0319 0.0655936 255 0 255 
-0.192186 -0.92342 5.0347 0.0596032 255 0 255 
-0.133114 -0.931131 5.02403 0.0605454 255 0 255 
-0.161064 -0.917804 5.02679 0.0455091 255 0 255 
-0.103813 -0.933251 5.01886 0.0661637 255 0 255 
-0.0747547 -0.934966 5.01361 0.0425037 255 0 255 
0.0129482 -0.939616 4.99363 0.0534846 255 0 255 
-0.0172514 -0.938428 5.00049 0.0455997 255 0 255 
-0.0173035 -0.954445 5.00715 0.0434125 255 0 255 
0.013014 -0.955482 5.00042 0.0574862 255 0 255 
-0.0470499 -0.94541 5.01046 0.0409902 255 0 255 
-0.0458438 -0.928258 5.00417 0.032412 255 0 255 
0.0162868 -0.96916 5.0098 0.0521333 255 0 255 
-0.0146616 -0.968535 5.01676 0.038608 255 0 255 
-0.0111913 -0.981927 5.0261 0.0343175 255 0 255 
0.0199001 -0.982445 5.0191 0.0432526 255 0 255 
-0.0430248 -0.974787 5.02765 0.0329141 255 0 255 
-0.0458172 -0.96067 5.01842 0.0374449 255 0 255 
0.0573591 -1.02801 5.08386 0.0168035 255 0 255 
0.0335162 -1.0321 5.0997 0.0151824 255 0 255 
0.069913 -1.03493 5.10179 0.0147914 255 0 255 
0.0458858 -1.03929 5.11782 0.0174552 255 0 255 
0.00964089 -1.03641 5.11525 0.0153165 255 0 255 
-0.0135006 -1.04062 5.13032 0.0168778 255 0 255 
-0.0277899 -1.03257 5.11265 0.0120991 255 0 255 
-0.00451179 -1.02841 5.09764 0.0138539 255 0 255 
0.0193816 -1.02435 5.08218 0.0180574 255 0 255 
-0.0421861 -1.02532 5.09501 0.0175342 255 0 255 
0.0854282 -1.04128 5.12016 0.0162565 255 0 255 
0.0641692 -1.04435 5.13699 0.0163791 255 0 255 
0.101205 -1.04558 5.13974 0.0164849 255 0 255 
0.0435999 -1.04762 5.15326 0.0186162 255 0 255 
0.00474355 -1.04546 5.14967 0.0144287 255 0 255 
0.02555 -1.04245 5.13391 0.0152892 255 0 255 
-0.0694761 -1.05093 5.17553 0.0221165 255 0 255 
-0.10911 -1.04868 5.17181 0.0210897 255 0 255 
-0.050707 -1.04731 5.16049 0.0166239 255 0 255 
-0.089962 -1.04571 5.15652 0.0205603 255 0 255 
-0.0709353 -1.04226 5.14156 0.0200936 255 0 255 
-0.128773 -1.04414 5.15269 0.0301253 255 0 255 
-0.0322942 -1.04394 5.14565 0.0153681 255 0 255 
-0.0134736 -1.04901 5.16492 0.0177971 255 0 255 
-0.106844 -1.03955 5.13796 0.0229901 255 0 255 
-0.144758 -1.03591 5.13546 0.0244907 255 0 255 
-0.0853202 -1.03476 5.12394 0.0173517 255 0 255 
-0.122363 -1.03149 5.12063 0.0235442 255 0 255 
-0.100803 -1.02699 5.10651 0.0241289 255 0 255 
-0.0635427 -1.03 5.10946 0.0159644 255 0 255 
-0.0494152 -1.03732 5.12727 0.0141054 255 0 255 
0.026053 -0.994062 5.03149 0.0274842 255 0 255 
-0.00570741 -0.994137 5.03866 0.0249152 255 0 255 
0.000171611 -1.00533 5.0515 0.0239164 255 0 255 
0.0316822 -1.00525 5.0447 0.0213413 255 0 255 
-0.0335425 -1.00005 5.05134 0.0251612 255 0 255 
-0.0606146 -1.00589 5.06382 0.0267996 255 0 255 
-0.0660668 -0.993635 5.05082 0.0277221 255 0 255 
-0.0385679 -0.987636 5.03835 0.0287429 255 0 255 
0.0411265 -1.01471 5.05988 0.0164114 255 0 255 
0.0100567 -1.01516 5.06678 0.0183428 255 0 255 
-0.0160743 -1.0203 5.08101 0.0173867 255 0 255 
-0.051344 -1.01537 5.07938 0.0167946 255 0 255 
-0.0256844 -1.01037 5.06559 0.0197288 255 0 255 
-0.134464 -1.02285 5.10406 0.029409 255 0 255 
-0.10986 -1.01711 5.09071 0.0244839 255 0 255 
-0.144451 -1.01178 5.08789 0.0354533 255 0 255 
-0.119332 -1.00653 5.07433 0.0399041 255 0 255 
-0.0851489 -1.01151 5.0773 0.0241708 255 0 255 
-0.0760209 -1.02119 5.09292 0.0188967 255 0 255 
-0.15236 -1.00016 5.07322 0.045684 255 0 255 
-0.12482 -0.99429 5.06152 0.0423908 255 0 255 
-0.157714 -0.986304 5.05964 0.0599146 255 0 255 
-0.0977595 -0.987879 5.04942 0.0407009 255 0 255 
-0.092797 -1.00003 5.06264 0.0332276 255 0 255 
-0.18195 -1.03246 5.13476 0.0263692 255 0 255 
-0.202373 -1.03743 5.15113 0.0281223 255 0 255 
-0.166417 -1.0409 5.15156 0.0292436 255 0 255 
-0.188253 -1.04583 5.1688 0.0371453 255 0 255 
-0.221364 -1.04209 5.16756 0.0343001 255 0 255 
-0.238511 -1.04647 5.18336 0.0485012 255 0 255 
-0.251405 -1.03742 5.16438 0.0352773 255 0 255 
-0.235113 -1.03315 5.14906 0.0306247 255 0 255 
-0.148111 -1.04724 5.16944 0.0271738 255 0 255 
-0.168969 -1.0501 5.18787 0.0261697 255 0 255 
-0.127274 -1.05212 5.1885 0.0262566 255 0 255 
-0.187967 -1.05297 5.20559 0.0329914 255 0 255 
-0.221527 -1.05078 5.20313 0.0366164 255 0 255 
-0.205863 -1.04854 5.18621 0.0346616 255 0 255 
-0.276198 -1.05135 5.22064 0.0781941 255 0 255 
-0.257947 -1.05151 5.21497 0.0661095 255 0 255 
-0.274489 -1.04681 5.1943 0.0701793 255 0 255 
-0.292467 -1.04683 5.19995 0.0797959 255 0 255 
-0.248231 -1.04919 5.1994 0.0520051 255 0 255 
-0.231815 -1.05347 5.21909 0.0437955 255 0 255 
-0.306037 -1.03704 5.18073 0.0512477 255 0 255 
-0.287383 -1.0377 5.17568 0.0493998 255 0 255 
-0.276108 -1.03352 5.16044 0.0445298 255 0 255 
-0.263042 -1.04234 5.17926 0.0492495 255 0 255 
-0.454604 -1.02748 5.2188 0.00739384 255 0 255 
-0.455745 -1.03597 5.23591 0.0110884 255 0 255 
-0.435799 -1.051 5.25911 0.0194123 255 0 255 
-0.456804 -1.04446 5.25297 0.0108778 255 0 255 
-0.457803 -1.05306 5.27004 0.0175123 255 0 255 
-0.478696 -1.03726 5.24583 0.00787127 255 0 255 
-0.477425 -1.0284 5.22849 0.00620765 255 0 255 
-0.476661 -1.02041 5.21116 0.0082162 255 0 255 
-0.499447 -1.02178 5.22087 0.0125747 255 0 255 
-0.399764 -1.0588 5.27642 0.0156196 255 0 255 
-0.3984 -1.06357 5.29395 0.0332545 255 0 255 
-0.41944 -1.06636 5.30526 0.0254117 255 0 255 
-0.421154 -1.06118 5.28806 0.0135762 255 0 255 
-0.434132 -1.0568 5.27635 0.0128655 255 0 255 
-0.457848 -1.07026 5.32915 0.0422116 255 0 255 
-0.461666 -1.06521 5.31149 0.0274482 255 0 255 
-0.474763 -1.0607 5.29971 0.0233028 255 0 255 
-0.478231 -1.05496 5.28216 0.0207642 255 0 255 
-0.498575 -1.05673 5.29356 0.0314633 255 0 255 
-0.45473 -1.05882 5.28795 0.0196455 255 0 255 
-0.441671 -1.06317 5.29956 0.014679 255 0 255 
-0.438714 -1.06824 5.31725 0.0217367 255 0 255 
-0.498692 -1.04777 5.27536 0.0163505 255 0 255 
-0.519875 -1.03994 5.26813 0.0160981 255 0 255 
-0.498931 -1.0389 5.25722 0.0103048 255 0 255 
-0.520574 -1.03143 5.25008 0.0128573 255 0 255 
-0.520528 -1.02294 5.2317 0.0142871 255 0 255 
-0.542268 -1.02391 5.24222 0.0263901 255 0 255 
-0.499523 -1.0302 5.23935 0.00749052 255 0 255 
-0.478316 -1.04596 5.26396 0.00983358 255 0 255 
-0.360838 -0.950422 5.07805 0.109283 255 0 255 
-0.384902 -0.933831 5.0749 0.0943761 255 0 255 
-0.341642 -0.942523 5.06852 0.12122 255 0 255 
-0.364566 -0.926654 5.06488 0.110916 255 0 255 
-0.344722 -0.918421 5.05624 0.124603 255 0 255 
-0.388307 -0.910254 5.06188 0.112568 255 0 255 
-0.322655 -0.93407 5.0606 0.103601 255 0 255 
-0.303902 -0.925684 5.05299 0.0825763 255 0 255 
-0.301721 -0.946652 5.06427 0.0694709 255 0 255 
-0.320236 -0.955 5.0719 0.104347 255 0 255 
-0.364723 -0.903327 5.0553 0.0910711 255 0 255 
-0.38606 -0.885134 5.05465 0.0713801 255 0 255 
-0.341864 -0.895739 5.04996 0.0809368 255 0 255 
-0.362169 -0.877955 5.04859 0.0660487 255 0 255 
-0.321217 -0.899284 5.04835 0.0836054 255 0 255 
-0.301218 -0.902756 5.04738 0.0496541 255 0 255 
-0.222069 -0.9181 5.0395 0.0548391 255 0 255 
-0.250061 -0.91367 5.04288 0.070233 255 0 255 
-0.253045 -0.933823 5.04802 0.0784343 255 0 255 
-0.22499 -0.938034 5.04455 0.109422 255 0 255 
-0.277736 -0.919566 5.04818 0.0563941 255 0 255 
-0.275011 -0.896824 5.04279 0.0441516 255 0 255 
-0.222681 -0.957066 5.05437 0.102284 255 0 255 
-0.250552 -0.954634 5.05825 0.0790973 255 0 255 
-0.275561 -0.96103 5.06712 0.0701055 255 0 255 
-0.277934 -0.940036 5.05617 0.0665246 255 0 255 
-0.588651 -0.788306 5.08677 0.030153 255 0 255 
-0.569938 -0.778259 5.08193 0.0225875 255 0 255 
-0.571859 -0.759034 5.0832 0.0217547 255 0 255 
-0.552339 -0.749563 5.07836 0.0308297 255 0 255 
-0.550952 -0.768361 5.07665 0.0293167 255 0 255 
-0.532067 -0.758801 5.0709 0.0538711 255 0 255 
-0.546746 -0.785931 5.07499 0.0329608 255 0 255 
-0.564892 -0.796169 5.08056 0.024117 255 0 255 
-0.583346 -0.806377 5.08571 0.0330025 255 0 255 
-0.559336 -0.814264 5.07926 0.031089 255 0 255 
-0.55228 -0.733549 5.08261 0.0195368 255 0 255 
-0.528547 -0.710551 5.08454 0.0313945 255 0 255 
-0.500017 -0.725568 5.07305 0.0505744 255 0 255 
-0.520685 -0.73187 5.07597 0.0391106 255 0 255 
-0.468465 -0.740348 5.06377 0.0643879 255 0 255 
-0.489863 -0.746423 5.06642 0.043621 255 0 255 
-0.509362 -0.767538 5.06539 0.0454553 255 0 255 
-0.476475 -0.766055 5.05972 0.0863389 255 0 255 
-0.491745 -0.789865 5.06146 0.0527468 255 0 255 
-0.510139 -0.799068 5.06664 0.0426008 255 0 255 
-0.529299 -0.80828 5.07188 0.0360632 255 0 255 
-0.508914 -0.829441 5.06808 0.0524929 255 0 255 
-0.528045 -0.776752 5.07026 0.0404715 255 0 255 
-0.392064 -0.966253 5.10155 0.049157 255 0 255 
-0.403666 -0.974027 5.11498 0.0286864 255 0 255 
-0.383343 -0.98489 5.11983 0.0369555 255 0 255 
-0.394428 -0.992387 5.13316 0.0281513 255 0 255 
-0.415283 -0.981534 5.12833 0.0246977 255 0 255 
-0.427406 -0.988867 5.14218 0.0294327 255 0 255 
-0.43626 -0.96936 5.12364 0.0203856 255 0 255 
-0.423858 -0.961758 5.10973 0.0222556 255 0 255 
-0.411904 -0.953707 5.09632 0.0417517 255 0 255 
-0.444805 -0.949702 5.10458 0.0282072 255 0 255 
-0.372308 -1.00193 5.13977 0.0271583 255 0 255 
-0.381642 -1.00785 5.15464 0.0134719 255 0 255 
-0.359984 -1.01695 5.16028 0.0277355 255 0 255 
-0.414226 -1.00458 5.163 0.0157771 255 0 255 
-0.404212 -0.998248 5.14827 0.010001 255 0 255 
-0.453008 -1.00276 5.17531 0.0134417 255 0 255 
-0.453128 -0.987294 5.15008 0.0270172 255 0 255 
-0.472334 -0.993923 5.16814 0.0106172 255 0 255 
-0.433623 -1.01169 5.18194 0.0122176 255 0 255 
-0.483234 -0.975424 5.14784 0.029362 255 0 255 
-0.474442 -0.966562 5.13498 0.0248727 255 0 255 
-0.466034 -0.957367 5.1218 0.0332248 255 0 255 
-0.491363 -0.955176 5.12905 0.0316738 255 0 255 
-0.482743 -0.946543 5.11569 0.0464385 255 0 255 
-0.444709 -0.978197 5.13685 0.0319817 255 0 255 
-0.697358 -0.973845 5.31753 0.0162985 255 0 255 
-0.707216 -0.961801 5.3043 0.0165954 255 0 255 
-0.717225 -0.950725 5.29045 0.0278711 255 0 255 
-0.697847 -0.959198 5.27355 0.0381177 255 0 255 
-0.678038 -0.981742 5.29996 0.0191838 255 0 255 
-0.678435 -0.989775 5.32154 0.0193899 255 0 255 
-0.679149 -0.998153 5.34313 0.03288 255 0 255 
-0.659605 -1.00614 5.32489 0.0399289 255 0 255 
-0.730396 -0.922046 5.26421 0.0178208 255 0 255 
-0.737097 -0.908171 5.25067 0.0275656 255 0 255 
-0.744206 -0.894228 5.23731 0.0415742 255 0 255 
-0.726409 -0.902615 5.22105 0.0757555 255 0 255 
-0.718578 -0.916359 5.23478 0.0313257 255 0 255 
-0.710944 -0.930279 5.24813 0.0203501 255 0 255 
-0.713847 -0.940204 5.26931 0.0135941 255 0 255 
-0.69004 -0.915904 5.19424 0.098453 255 0 255 
-0.681665 -0.929477 5.20775 0.0608875 255 0 255 
-0.684253 -0.940029 5.22715 0.0398175 255 0 255 
-0.677164 -0.953883 5.23947 0.0206177 255 0 255 
-0.679987 -0.965173 5.25896 0.0326247 255 0 255 
-0.661082 -0.970993 5.24375 0.0430729 255 0 255 
-0.695523 -0.947977 5.25408 0.0242388 255 0 255 
-0.700863 -0.922898 5.22124 0.0399303 255 0 255 
-0.708803 -0.90911 5.20781 0.0661348 255 0 255 
-0.660553 -0.97926 5.26426 0.0232367 255 0 255 
-0.641209 -0.992766 5.26924 0.0228686 255 0 255 
-0.65994 -0.988008 5.28466 0.0194271 255 0 255 
-0.641027 -1.00201 5.28954 0.0235922 255 0 255 
-0.641145 -1.01142 5.30962 0.041398 255 0 255 
-0.622425 -1.01609 5.29391 0.0406 255 0 255 
-0.659406 -0.996901 5.30498 0.0259589 255 0 255 
-0.678933 -0.973462 5.27959 0.017665 255 0 255 
-0.597835 -0.934728 5.15023 0.0581094 255 0 255 
-0.601627 -0.918724 5.141 0.0467844 255 0 255 
-0.592762 -0.904804 5.12951 0.0232326 255 0 255 
-0.59674 -0.888516 5.12036 0.0311216 255 0 255 
-0.587423 -0.874922 5.10834 0.0354884 255 0 255 
-0.612808 -0.869513 5.1148 0.053067 255 0 255 
-0.571288 -0.893766 5.11387 0.0173872 255 0 255 
-0.562305 -0.880439 5.10137 0.0271808 255 0 255 
-0.567141 -0.908727 5.12229 0.0148817 255 0 255 
-0.563819 -0.923782 5.13026 0.0222583 255 0 255 
-0.572594 -0.937142 5.1424 0.0352881 255 0 255 
-0.547219 -0.940118 5.13414 0.0273887 255 0 255 
-0.611762 -0.851719 5.10856 0.0389005 255 0 255 
-0.598701 -0.837889 5.10011 0.0230654 255 0 255 
-0.596938 -0.820167 5.09415 0.0298856 255 0 255 
-0.574001 -0.827866 5.08805 0.025786 255 0 255 
-0.574667 -0.844553 5.09371 0.0229455 255 0 255 
-0.575249 -0.861288 5.09926 0.0301077 255 0 255 
-0.52329 -0.842128 5.07647 0.0236322 255 0 255 
-0.509769 -0.859941 5.07822 0.0257928 255 0 255 
-0.536691 -0.854959 5.08475 0.0210882 255 0 255 
-0.522931 -0.872745 5.08689 0.0223023 255 0 255 
-0.53602 -0.885245 5.09544 0.0255234 255 0 255 
-0.510009 -0.889863 5.08885 0.0231285 255 0 255 
-0.549819 -0.86768 5.0933 0.0225009 255 0 255 
-0.548491 -0.834597 5.08192 0.0284977 255 0 255 
-0.519606 -0.902631 5.10034 0.0211596 255 0 255 
-0.502569 -0.917815 5.10408 0.0194126 255 0 255 
-0.52919 -0.915129 5.11164 0.0153362 255 0 255 
-0.512268 -0.930143 5.1157 0.0147197 255 0 255 
-0.52123 -0.942544 5.12704 0.0287729 255 0 255 
-0.538532 -0.927661 5.12287 0.0199106 255 0 255 
-0.54531 -0.897911 5.1068 0.0131311 255 0 255 
-0.431844 -0.754261 5.05571 0.0721326 255 0 255 
-0.417018 -0.773618 5.05093 0.0766519 255 0 255 
-0.4331 -0.794414 5.05027 0.0801224 255 0 255 
-0.449001 -0.775058 5.05487 0.0705173 255 0 255 
-0.375773 -0.772991 5.047 0.0419858 255 0 255 
-0.373712 -0.798 5.0447 0.0311487 255 0 255 
-0.397889 -0.8041 5.04603 0.0436244 255 0 255 
-0.407192 -0.788853 5.04843 0.0464502 255 0 255 
-0.394933 -0.843719 5.04844 0.0277355 255 0 255 
-0.416884 -0.852179 5.05236 0.0487825 255 0 255 
-0.406919 -0.827307 5.04925 0.0270891 255 0 255 
-0.429736 -0.835732 5.05327 0.0337135 255 0 255 
-0.44297 -0.819002 5.05396 0.0558786 255 0 255 
-0.453087 -0.843474 5.0578 0.0557859 255 0 255 
-0.419779 -0.810928 5.04972 0.0357051 255 0 255 
-0.385754 -0.82026 5.04593 0.0217384 255 0 255 
-0.474946 -0.823387 5.06092 0.0523879 255 0 255 
-0.483468 -0.806686 5.06114 0.0413542 255 0 255 
-0.463856 -0.798113 5.05666 0.0736795 255 0 255 
-0.400893 -0.869804 5.05378 0.036682 255 0 255 
-0.418687 -0.879585 5.06054 0.0360414 255 0 255 
-0.403316 -0.894823 5.06123 0.0517635 255 0 255 
-0.420733 -0.904276 5.06871 0.0520643 255 0 255 
-0.437165 -0.889204 5.06785 0.0316418 255 0 255 
-0.455669 -0.89871 5.07584 0.0377263 255 0 255 
-0.454295 -0.871156 5.06657 0.01935 255 0 255 
-0.435354 -0.861868 5.05923 0.0335197 255 0 255 
-0.40222 -0.920521 5.07196 0.0631859 255 0 255 
-0.416451 -0.930585 5.08264 0.0344494 255 0 255 
-0.398311 -0.943964 5.08541 0.0570529 255 0 255 
-0.430564 -0.94037 5.09332 0.0223069 255 0 255 
-0.450435 -0.924348 5.09014 0.0226342 255 0 255 
-0.435644 -0.914286 5.07909 0.034421 255 0 255 
-0.476251 -0.92237 5.09759 0.0228266 255 0 255 
-0.492806 -0.906247 5.09342 0.0188594 255 0 255 
-0.482325 -0.894473 5.0827 0.0174799 255 0 255 
-0.4663 -0.910646 5.08691 0.0247525 255 0 255 
-0.460206 -0.935998 5.10106 0.0173163 255 0 255 
-0.496167 -0.87859 5.08093 0.0180664 255 0 255 
-0.481523 -0.86699 5.07287 0.0208146 255 0 255 
-0.495476 -0.848337 5.07067 0.0331418 255 0 255 
-0.467517 -0.855102 5.06529 0.0200913 255 0 255 
-0.468599 -0.882998 5.07455 0.020409 255 0 255 
-0.579341 -0.947011 5.15679 0.0271445 255 0 255 
-0.561089 -0.959403 5.1629 0.0131965 255 0 255 
-0.554452 -0.949509 5.14838 0.0191586 255 0 255 
-0.536864 -0.961897 5.15416 0.0144896 255 0 255 
-0.54347 -0.972039 5.16857 0.010262 255 0 255 
-0.526564 -0.984883 5.17422 0.0163874 255 0 255 
-0.550105 -0.98423 5.18406 0.0195574 255 0 255 
-0.567045 -0.971308 5.17849 0.0143209 255 0 255 
-0.585252 -0.958815 5.17171 0.0239263 255 0 255 
-0.573546 -0.983617 5.19353 0.0330866 255 0 255 
-0.529663 -0.95133 5.14032 0.0151938 255 0 255 
-0.512286 -0.962638 5.14642 0.0149256 255 0 255 
-0.490723 -0.985529 5.16163 0.0240679 255 0 255 
-0.519437 -0.973558 5.16038 0.0122911 255 0 255 
-0.471149 -1.01022 5.19466 0.00795488 255 0 255 
-0.489185 -1.00132 5.18832 0.00625202 255 0 255 
-0.494124 -1.01093 5.2043 0.00547119 255 0 255 
-0.512395 -1.00217 5.19734 0.00558127 255 0 255 
-0.507614 -0.99293 5.18144 0.00612217 255 0 255 
-0.517031 -1.01168 5.21433 0.00579419 255 0 255 
-0.535507 -1.0021 5.2079 0.00657664 255 0 255 
-0.538725 -1.01279 5.22516 0.0109405 255 0 255 
-0.557495 -1.00298 5.21808 0.0151436 255 0 255 
-0.554417 -0.992742 5.20083 0.0127726 255 0 255 
-0.530829 -0.993282 5.19094 0.00827659 255 0 255 
-0.694189 -0.897704 5.18282 0.10525 255 0 255 
-0.688897 -0.8834 5.16569 0.0964537 255 0 255 
-0.692782 -0.865043 5.15513 0.0819534 255 0 255 
-0.685248 -0.849791 5.14002 0.0936471 255 0 255 
-0.707154 -0.842767 5.149 0.142636 255 0 255 
-0.670539 -0.872069 5.1455 0.0888027 255 0 255 
-0.661831 -0.857107 5.1305 0.0841631 255 0 255 
-0.667144 -0.889627 5.15508 0.0605048 255 0 255 
-0.662322 -0.907001 5.1657 0.0983188 255 0 255 
-0.669595 -0.921504 5.18178 0.107806 255 0 255 
-0.646716 -0.927156 5.16989 0.101271 255 0 255 
-0.70552 -0.822827 5.14178 0.124883 255 0 255 
-0.692785 -0.807226 5.13091 0.0836 255 0 255 
-0.689752 -0.786993 5.12473 0.0733692 255 0 255 
-0.668392 -0.796492 5.11654 0.0539796 255 0 255 
-0.670634 -0.815256 5.12235 0.0453771 255 0 255 
-0.672707 -0.834284 5.12859 0.0764963 255 0 255 
-0.621944 -0.812976 5.10105 0.0394149 255 0 255 
-0.623584 -0.83066 5.10665 0.0347668 255 0 255 
-0.637582 -0.845159 5.11633 0.0598758 255 0 255 
-0.637445 -0.863128 5.12279 0.0450024 255 0 255 
-0.648206 -0.82303 5.11366 0.0533012 255 0 255 
-0.645067 -0.804294 5.10829 0.0468468 255 0 255 
-0.622548 -0.883889 5.1276 0.0443517 255 0 255 
-0.618421 -0.900407 5.13683 0.0416032 255 0 255 
-0.6266 -0.914886 5.15085 0.0688665 255 0 255 
-0.622653 -0.931159 5.16013 0.0584484 255 0 255 
-0.642941 -0.895414 5.14584 0.0658349 255 0 255 
-0.646443 -0.877803 5.1361 0.0474153 255 0 255 
-0.54114 -1.03215 5.2611 0.0213632 255 0 255 
-0.540592 -1.0403 5.27985 0.0230469 255 0 255 
-0.51946 -1.0485 5.28677 0.0220228 255 0 255 
-0.518345 -1.05709 5.30554 0.0387063 255 0 255 
-0.539442 -1.04857 5.29868 0.0304181 255 0 255 
-0.537814 -1.05658 5.31746 0.0406063 255 0 255 
-0.560311 -1.03941 5.292 0.0282103 255 0 255 
-0.561598 -1.03148 5.27307 0.0262015 255 0 255 
-0.562621 -1.0234 5.25413 0.0298903 255 0 255 
-0.582873 -1.0225 5.26615 0.0379975 255 0 255 
-0.494014 -1.06213 5.31143 0.0328041 255 0 255 
-0.480506 -1.06648 5.32337 0.0348275 255 0 255 
-0.476228 -1.07107 5.3413 0.0359953 255 0 255 
-0.495275 -1.07118 5.35347 0.030913 255 0 255 
-0.499339 -1.06694 5.33523 0.0293487 255 0 255 
-0.513561 -1.06218 5.32337 0.0319473 255 0 255 
-0.529831 -1.0682 5.38055 0.0307462 255 0 255 
-0.535237 -1.06482 5.36159 0.0300094 255 0 255 
-0.550761 -1.05939 5.3499 0.037549 255 0 255 
-0.556313 -1.05498 5.33119 0.0461281 255 0 255 
-0.574998 -1.05247 5.34514 0.0538953 255 0 255 
-0.531713 -1.06179 5.33579 0.0341266 255 0 255 
-0.517252 -1.06661 5.34779 0.030844 255 0 255 
-0.511693 -1.07046 5.36641 0.0295416 255 0 255 
-0.586892 -1.0433 5.33283 0.0431527 255 0 255 
-0.58867 -1.03601 5.31284 0.0316743 255 0 255 
-0.600605 -1.02679 5.3 0.0311408 255 0 255 
-0.603226 -1.01956 5.28002 0.0375727 255 0 255 
-0.581052 -1.02999 5.28603 0.0301156 255 0 255 
-0.55831 -1.04728 5.31149 0.0361298 255 0 255 
-0.603253 -0.945603 5.16645 0.0341779 255 0 255 
-0.608966 -0.956582 5.18241 0.0360418 255 0 255 
-0.590844 -0.96991 5.1886 0.023183 255 0 255 
-0.596807 -0.98173 5.20492 0.0381046 255 0 255 
-0.614038 -0.967822 5.19911 0.0347157 255 0 255 
-0.618893 -0.97933 5.21619 0.0477524 255 0 255 
-0.632274 -0.952578 5.19328 0.040593 255 0 255 
-0.627794 -0.941913 5.17631 0.0496553 255 0 255 
-0.576586 -0.992811 5.21183 0.0215105 255 0 255 
-0.578954 -1.00249 5.23001 0.0209508 255 0 255 
-0.560587 -1.01325 5.23629 0.02025 255 0 255 
-0.580831 -1.01238 5.24828 0.0238939 255 0 255 
-0.600319 -1.00041 5.24212 0.0238552 255 0 255 
-0.598904 -0.990902 5.2234 0.0274485 255 0 255 
-0.621276 -1.00639 5.27471 0.0225538 255 0 255 
-0.620647 -0.997412 5.25517 0.0235809 255 0 255 
-0.640689 -0.983761 5.24988 0.021327 255 0 255 
-0.640578 -0.975218 5.22979 0.0447684 255 0 255 
-0.62012 -0.988248 5.23576 0.0294313 255 0 255 
-0.602004 -1.00979 5.26068 0.0263295 255 0 255 
-0.657751 -0.959487 5.22505 0.0348691 255 0 255 
-0.66464 -0.945781 5.21307 0.0485904 255 0 255 
-0.661653 -0.935044 5.19416 0.0628137 255 0 255 
-0.636499 -0.963779 5.21135 0.034895 255 0 255 
-0.61845 -1.02331 5.31477 0.0326546 255 0 255 
-0.606384 -1.03247 5.32759 0.033859 255 0 255 
-0.602962 -1.03976 5.34863 0.044188 255 0 255 
-0.591862 -1.04856 5.36115 0.0436575 255 0 255 
-0.608131 -1.0449 5.37723 0.0650389 255 0 255 
-0.620891 -1.03499 5.3647 0.0478611 255 0 255 
-0.624183 -1.02791 5.34354 0.033946 255 0 255 
-0.63711 -1.01813 5.33031 0.0259351 255 0 255 
-0.566228 -1.05711 5.36507 0.0377127 255 0 255 
-0.551122 -1.06249 5.37654 0.0341017 255 0 255 
-0.54236 -1.06591 5.39667 0.0380006 255 0 255 
-0.557165 -1.06252 5.41296 0.0416284 255 0 255 
-0.565578 -1.05944 5.39292 0.0407675 255 0 255 
-0.582613 -1.05335 5.38124 0.0405976 255 0 255 
-0.577345 -1.0548 5.44487 0.0368981 255 0 255 
-0.595753 -1.04876 5.43344 0.0354439 255 0 255 
-0.606128 -1.04555 5.41087 0.0417734 255 0 255 
-0.62527 -1.03839 5.39822 0.0505267 255 0 255 
-0.580666 -1.055 5.41236 0.0391837 255 0 255 
-0.64597 -1.02552 5.3952 0.0244838 255 0 255 
-0.66032 -1.01504 5.38104 0.0177517 255 0 255 
-0.664836 -1.00831 5.35741 0.018425 255 0 255 
-0.64202 -1.02212 5.3616 0.0241837 255 0 255 
-0.757218 -0.871147 5.23269 0.0349308 255 0 255 
-0.75406 -0.856482 5.21025 0.0721553 255 0 255 
-0.766338 -0.833158 5.2061 0.0989262 255 0 255 
-0.761433 -0.818127 5.18638 0.165942 255 0 255 
-0.74937 -0.841879 5.1898 0.117829 255 0 255 
-0.743896 -0.827137 5.17094 0.190902 255 0 255 
-0.735811 -0.86537 5.19473 0.0854594 255 0 255 
-0.739749 -0.87982 5.21605 0.0576646 255 0 255 
-0.769116 -0.792042 5.18498 0.204152 255 0 255 
-0.758644 -0.77491 5.16981 0.2382 255 0 255 
-0.762425 -0.748225 5.17216 0.268912 255 0 255 
-0.746174 -0.758536 5.15601 0.280783 255 0 255 
-0.740566 -0.78454 5.15499 0.196462 255 0 255 
-0.751701 -0.801413 5.16948 0.19613 255 0 255 
-0.710027 -0.778056 5.13388 0.100262 255 0 255 
-0.713297 -0.798446 5.13985 0.133948 255 0 255 
-0.724849 -0.814769 5.15223 0.167475 255 0 255 
-0.726312 -0.834846 5.1597 0.134613 255 0 255 
-0.727884 -0.768299 5.14421 0.143312 255 0 255 
-0.713927 -0.857789 5.16477 0.111228 255 0 255 
-0.709042 -0.876375 5.17687 0.0970869 255 0 255 
-0.713904 -0.891029 5.19489 0.102192 255 0 255 
-0.731317 -0.850231 5.17656 0.0984584 255 0 255 
-0.81869 -0.558852 5.3818 0.00818488 255 0 255 
-0.819694 -0.573485 5.37449 0.011208 255 0 255 
-0.792585 -0.555358 5.36527 0.0122463 255 0 255 
-0.820637 -0.587278 5.36639 0.0177443 255 0 255 
-0.79314 -0.569597 5.35834 0.0147261 255 0 255 
-0.794555 -0.583836 5.35048 0.0300557 255 0 255 
-0.766152 -0.551429 5.34917 0.012263 255 0 255 
-0.821024 -0.601516 5.35836 0.0332274 255 0 255 
-0.822106 -0.615191 5.34909 0.0367634 255 0 255 
-0.845178 -0.615357 5.36667 0.0369491 255 0 255 
-0.844046 -0.601757 5.37554 0.030863 255 0 255 
-0.843495 -0.587757 5.38442 0.0285306 255 0 255 
-0.86875 -0.615459 5.38488 0.0486524 255 0 255 
-0.746359 -0.545825 5.33702 0.01133 255 0 255 
-0.769144 -0.568639 5.33858 0.0163992 255 0 255 
-0.750078 -0.563026 5.32574 0.0141981 255 0 255 
-0.727516 -0.539792 5.32415 0.0116529 255 0 255 
-0.772212 -0.58487 5.32655 0.0239711 255 0 255 
-0.731442 -0.557034 5.3124 0.014452 255 0 255 
-0.753689 -0.579894 5.31336 0.0191045 255 0 255 
-0.71079 -0.533531 5.31125 0.00843333 255 0 255 
-0.775864 -0.60079 5.31364 0.0186747 255 0 255 
-0.801341 -0.615996 5.32526 0.0204149 255 0 255 
-0.798502 -0.60038 5.33812 0.0291497 255 0 255 
-0.842414 -0.669186 5.32641 0.0487433 255 0 255 
-0.854972 -0.686589 5.32628 0.0641961 255 0 255 
-0.829095 -0.652156 5.32578 0.037796 255 0 255 
-0.849806 -0.648887 5.35121 0.0653046 255 0 255 
-0.862964 -0.665611 5.35156 0.0638271 255 0 255 
-0.876679 -0.68251 5.35097 0.0672132 255 0 255 
-0.825986 -0.634387 5.33778 0.0346071 255 0 255 
-0.886061 -0.663455 5.36976 0.0561502 255 0 255 
-0.899351 -0.678184 5.36985 0.0503015 255 0 255 
-0.872855 -0.648867 5.36922 0.0725164 255 0 255 
-0.895422 -0.644662 5.38829 0.0712583 255 0 255 
-0.90869 -0.658897 5.38892 0.0446688 255 0 255 
-0.922212 -0.673039 5.38885 0.032656 255 0 255 
-0.87069 -0.6324 5.37743 0.0696856 255 0 255 
-0.84731 -0.632356 5.3598 0.0600613 255 0 255 
-0.922098 -0.691684 5.38062 0.0504504 255 0 255 
-0.920845 -0.71109 5.37307 0.0606546 255 0 255 
-0.899172 -0.696514 5.36221 0.0561578 255 0 255 
-0.897711 -0.715851 5.35508 0.0620458 255 0 255 
-0.919024 -0.730902 5.36629 0.0757118 255 0 255 
-0.915816 -0.751249 5.36022 0.0890229 255 0 255 
-0.939633 -0.741346 5.37805 0.0714988 255 0 255 
-0.942737 -0.720908 5.38472 0.0536824 255 0 255 
-0.944615 -0.701106 5.39227 0.0429131 255 0 255 
-0.963432 -0.730943 5.39612 0.0492097 255 0 255 
-0.876077 -0.702667 5.3405 0.068487 255 0 255 
-0.875066 -0.724512 5.33086 0.076062 255 0 255 
-0.883843 -0.741792 5.33342 0.0773414 255 0 255 
-0.89171 -0.759996 5.33686 0.0897325 255 0 255 
-0.898302 -0.811521 5.35636 0.107048 255 0 255 
-0.90992 -0.789447 5.36058 0.0973338 255 0 255 
-0.914048 -0.821147 5.3736 0.1049 255 0 255 
-0.925571 -0.798633 5.37793 0.0883108 255 0 255 
-0.89456 -0.77785 5.34313 0.0906784 255 0 255 
-0.940727 -0.807786 5.39224 0.095014 255 0 255 
-0.95179 -0.786465 5.39419 0.0855461 255 0 255 
-0.961004 -0.765424 5.39686 0.066785 255 0 255 
-0.967766 -0.793037 5.40789 0.0786324 255 0 255 
-0.978089 -0.771867 5.41074 0.0629224 255 0 255 
-0.932686 -0.761647 5.37427 0.0806207 255 0 255 
-0.884639 -0.846648 5.36119 0.12542 255 0 255 
-0.897695 -0.853586 5.37919 0.109565 255 0 255 
-0.878127 -0.875638 5.37915 0.133704 255 0 255 
-0.89144 -0.882416 5.39682 0.136856 255 0 255 
-0.910557 -0.859973 5.39705 0.092978 255 0 255 
-0.922438 -0.866 5.41449 0.154735 255 0 255 
-0.9254 -0.840203 5.39936 0.0963395 255 0 255 
-0.874042 -0.899319 5.40166 0.115921 255 0 255 
-0.867371 -0.912359 5.41855 0.0850454 255 0 255 
-0.89023 -0.900818 5.42278 0.115098 255 0 255 
-0.859875 -0.925764 5.43555 0.0642043 255 0 255 
-0.882572 -0.914097 5.43958 0.0926629 255 0 255 
-0.874297 -0.927233 5.45634 0.0854807 255 0 255 
-0.852499 -0.939188 5.45232 0.0685287 255 0 255 
-0.904094 -0.90198 5.4438 0.112779 255 0 255 
-0.895647 -0.91509 5.46026 0.102663 255 0 255 
-0.916925 -0.902054 5.46472 0.138769 255 0 255 
-0.920528 -0.883678 5.43931 0.119821 255 0 255 
-0.906755 -0.883272 5.41848 0.0995409 255 0 255 
-0.975314 -0.863313 5.4854 0.0370438 255 0 255 
-0.96357 -0.864326 5.46747 0.0579801 255 0 255 
-0.977791 -0.846916 5.46467 0.024307 255 0 255 
-0.950854 -0.865438 5.44991 0.101805 255 0 255 
-0.965507 -0.847938 5.44668 0.0530852 255 0 255 
-0.951982 -0.848662 5.42911 0.108688 255 0 255 
-0.97999 -0.830834 5.44413 0.0269676 255 0 255 
-0.937144 -0.865841 5.43214 0.0893552 255 0 255 
-0.934242 -0.883478 5.45674 0.0873675 255 0 255 
-0.946793 -0.882549 5.474 0.0998664 255 0 255 
-0.968048 -0.826906 5.42933 0.0506551 255 0 255 
-0.981687 -0.807914 5.43018 0.0449435 255 0 255 
-0.955044 -0.823146 5.41438 0.0823413 255 0 255 
-0.939078 -0.844411 5.41415 0.0730179 255 0 255 
-0.961077 -0.875938 5.49948 0.0318886 255 0 255 
-0.946041 -0.888977 5.51409 0.0244017 255 0 255 
-0.932246 -0.895921 5.48915 0.0769443 255 0 255 
-0.917657 -0.909358 5.5041 0.0506616 255 0 255 
-0.932034 -0.901976 5.52887 0.0167856 255 0 255 
-0.918403 -0.914928 5.54398 0.0180939 255 0 255 
-0.94613 -0.896642 5.54556 0.0110328 255 0 255 
-0.960333 -0.883772 5.53078 0.0138731 255 0 255 
-0.97494 -0.871051 5.51641 0.0221059 255 0 255 
-0.974198 -0.878959 5.54775 0.0107277 255 0 255 
-0.898472 -0.916197 5.48852 0.0567287 255 0 255 
-0.878531 -0.929298 5.4843 0.0540091 255 0 255 
-0.881422 -0.929837 5.512 0.0288431 255 0 255 
-0.857948 -0.94173 5.48062 0.0524842 255 0 255 
-0.861667 -0.943136 5.50817 0.0347962 255 0 255 
-0.86391 -0.943015 5.5356 0.0180076 255 0 255 
-0.865152 -0.946006 5.55505 0.0164717 255 0 255 
-0.881937 -0.932841 5.53138 0.0163854 255 0 255 
-0.882101 -0.935786 5.55101 0.0135945 255 0 255 
-0.900076 -0.922513 5.5273 0.0218537 255 0 255 
-0.899358 -0.91959 5.50793 0.0297037 255 0 255 
-0.899958 -0.925345 5.54704 0.0117533 255 0 255 
-0.871994 -0.94141 5.65895 0.0012952 255 0 255 
-0.869387 -0.940264 5.63467 0.00404325 255 0 255 
-0.886728 -0.931036 5.62778 0.00293432 255 0 255 
-0.88866 -0.932284 5.65193 0.00149293 255 0 255 
-0.884856 -0.930734 5.60383 0.00512126 255 0 255 
-0.904242 -0.922171 5.62089 0.00222898 255 0 255 
-0.903078 -0.921708 5.59681 0.00235044 255 0 255 
-0.920405 -0.913037 5.59031 0.00428362 255 0 255 
-0.90565 -0.923462 5.64524 0.00201502 255 0 255 
-0.922043 -0.913305 5.61431 0.00271837 255 0 255 
-0.922729 -0.914878 5.6388 0.00530844 255 0 255 
-0.900842 -0.922576 5.57375 0.00339643 255 0 255 
-0.919463 -0.913695 5.56687 0.00821916 255 0 255 
-0.884143 -0.932709 5.57675 0.00242848 255 0 255 
-0.866631 -0.943415 5.58062 0.00385793 255 0 255 
-0.868047 -0.941328 5.60697 0.00250499 255 0 255 
-0.948781 -0.897516 5.61199 0.00610946 255 0 255 
-0.950526 -0.899734 5.63145 0.00426779 255 0 255 
-0.947175 -0.895986 5.59311 0.00828838 255 0 255 
-0.975588 -0.881011 5.5856 0.0131361 255 0 255 
-0.976146 -0.883138 5.60524 0.00695813 255 0 255 
-0.977249 -0.885427 5.62478 0.00786466 255 0 255 
-0.960941 -0.887154 5.56993 0.00849854 255 0 255 
-0.875369 -0.939444 5.68086 0.00308887 255 0 255 
-0.878885 -0.936998 5.70605 0.00591212 255 0 255 
-0.89509 -0.929004 5.69601 0.00622977 255 0 255 
-0.882234 -0.934431 5.73111 0.0132513 255 0 255 
-0.898436 -0.92693 5.72152 0.011282 255 0 255 
-0.901941 -0.924449 5.74701 0.0192422 255 0 255 
-0.885994 -0.931042 5.75623 0.0236089 255 0 255 
-0.915015 -0.919815 5.71276 0.00777457 255 0 255 
-0.918452 -0.917892 5.73865 0.0142183 255 0 255 
-0.935625 -0.910722 5.73045 0.0127813 255 0 255 
-0.932003 -0.911868 5.70724 0.00796231 255 0 255 
-0.911399 -0.921045 5.68999 0.00473557 255 0 255 
-0.928662 -0.912547 5.68409 0.00660537 255 0 255 
-0.908327 -0.922103 5.66734 0.004023 255 0 255 
-0.891854 -0.930499 5.67381 0.00271547 255 0 255 
-0.925638 -0.913423 5.66131 0.00438562 255 0 255 
-0.892242 -0.925324 5.77615 0.0266259 255 0 255 
-0.898608 -0.918087 5.79835 0.0274573 255 0 255 
-0.914128 -0.913978 5.78813 0.0228981 255 0 255 
-0.90574 -0.909859 5.82116 0.0209041 255 0 255 
-0.921279 -0.906373 5.81117 0.0205877 255 0 255 
-0.937375 -0.902511 5.80166 0.0206765 255 0 255 
-0.954617 -0.897139 5.79422 0.0137665 255 0 255 
-0.930675 -0.908744 5.78079 0.016965 255 0 255 
-0.947681 -0.902914 5.77304 0.0209189 255 0 255 
-0.92415 -0.913915 5.75973 0.0188522 255 0 255 
-0.907767 -0.919695 5.7676 0.0180584 255 0 255 
-0.94144 -0.907178 5.7516 0.0136272 255 0 255 
-1.00834 -0.879156 5.76606 0.0121321 255 0 255 
-0.988158 -0.887344 5.75153 0.0132506 255 0 255 
-0.98213 -0.889851 5.73159 0.0120673 255 0 255 
-0.962832 -0.898461 5.71789 0.0106732 255 0 255 
-0.990483 -0.885806 5.70565 0.00943536 255 0 255 
-0.981018 -0.888765 5.77898 0.0127068 255 0 255 
-0.986458 -0.885572 5.68522 0.00720342 255 0 255 
-0.969418 -0.892195 5.66802 0.00675326 255 0 255 
-0.966663 -0.891709 5.64779 0.0063771 255 0 255 
-0.959161 -0.898744 5.69417 0.00827755 255 0 255 
-0.697505 -0.160501 5.66168 0.00858376 255 0 255 
-0.705737 -0.17386 5.64723 0.00809642 255 0 255 
-0.685305 -0.172657 5.63581 0.0117334 255 0 255 
-0.69299 -0.186747 5.62235 0.00929165 255 0 255 
-0.713788 -0.187623 5.63283 0.00944991 255 0 255 
-0.722364 -0.201698 5.61863 0.0108829 255 0 255 
-0.732188 -0.190461 5.63992 0.00924091 255 0 255 
-0.7236 -0.176914 5.65464 0.00687083 255 0 255 
-0.675193 -0.185642 5.61325 0.0110051 255 0 255 
-0.685909 -0.199988 5.60217 0.00928479 255 0 255 
-0.664844 -0.200689 5.58939 0.0115883 255 0 255 
-0.67516 -0.216008 5.57843 0.00930574 255 0 255 
-0.697042 -0.215041 5.5901 0.00934366 255 0 255 
-0.707977 -0.229856 5.57818 0.0105303 255 0 255 
-0.715182 -0.21513 5.59801 0.012252 255 0 255 
-0.704105 -0.200841 5.61022 0.00986437 255 0 255 
-0.76623 -0.259895 5.57749 0.0169698 255 0 255 
-0.755461 -0.243644 5.58761 0.0212044 255 0 255 
-0.744608 -0.22859 5.59785 0.0158946 255 0 255 
-0.75973 -0.230177 5.60537 0.0145572 255 0 255 
-0.748994 -0.216016 5.61553 0.0149416 255 0 255 
-0.733247 -0.215074 5.60838 0.0118619 255 0 255 
-0.726591 -0.229264 5.58778 0.0135033 255 0 255 
-0.737643 -0.243728 5.57748 0.017833 255 0 255 
-0.778617 -0.227025 5.62192 0.0217369 255 0 255 
-0.770696 -0.213199 5.63381 0.0171834 255 0 255 
-0.762616 -0.200465 5.64596 0.0120872 255 0 255 
-0.786093 -0.217233 5.64031 0.0217066 255 0 255 
-0.740604 -0.203061 5.62779 0.0102836 255 0 255 
-0.849883 -0.27712 5.61709 0.00999472 255 0 255 
-0.827211 -0.258321 5.6229 0.0102419 255 0 255 
-0.820974 -0.269013 5.60624 0.00851853 255 0 255 
-0.855932 -0.296504 5.60026 0.0099168 255 0 255 
-0.818903 -0.244042 5.63209 0.0235522 255 0 255 
-0.786273 -0.240119 5.61099 0.0340119 255 0 255 
-0.792026 -0.271051 5.58252 0.0124546 255 0 255 
-0.81796 -0.283322 5.58988 0.00508072 255 0 255 
-0.803184 -0.288286 5.5738 0.00414318 255 0 255 
-0.795757 -0.25662 5.59978 0.0184044 255 0 255 
-0.827502 -0.306065 5.57269 0.00579235 255 0 255 
-0.841485 -0.301529 5.58582 0.00823123 255 0 255 
-0.864811 -0.318065 5.58425 0.0126374 255 0 255 
-0.850873 -0.322209 5.57075 0.00875944 255 0 255 
-0.807169 -0.416429 5.46715 0.00365154 255 0 255 
-0.785149 -0.418714 5.4549 0.00518242 255 0 255 
-0.761505 -0.420395 5.44278 0.00528283 255 0 255 
-0.762202 -0.401303 5.45491 0.00972091 255 0 255 
-0.784345 -0.437379 5.44257 0.00407716 255 0 255 
-0.80553 -0.451939 5.44353 0.00275151 255 0 255 
-0.806761 -0.43481 5.45557 0.00224569 255 0 255 
-0.827485 -0.449235 5.45689 0.00258821 255 0 255 
-0.724785 -0.386524 5.45062 0.00552663 255 0 255 
-0.705148 -0.378894 5.44812 0.00420869 255 0 255 
-0.723639 -0.406533 5.43593 0.00596986 255 0 255 
-0.703967 -0.39846 5.43282 0.00544411 255 0 255 
-0.687055 -0.371462 5.44536 0.00463636 255 0 255 
-0.740367 -0.431601 5.4253 0.00665249 255 0 255 
-0.759282 -0.475707 5.40361 0.0162852 255 0 255 
-0.759911 -0.458182 5.41651 0.00883422 255 0 255 
-0.783628 -0.473892 5.41881 0.0105066 255 0 255 
-0.806735 -0.488058 5.42205 0.00941345 255 0 255 
-0.784036 -0.455359 5.43106 0.00517604 255 0 255 
-0.827642 -0.484223 5.43521 0.00548108 255 0 255 
-0.848968 -0.479756 5.44832 0.00528783 255 0 255 
-0.849706 -0.496814 5.43805 0.0072681 255 0 255 
-0.827076 -0.467063 5.44544 0.00430804 255 0 255 
-0.806112 -0.470486 5.433 0.00611755 255 0 255 
-0.76927 -0.333391 5.51373 0.00619406 255 0 255 
-0.738313 -0.327673 5.50386 0.00595004 255 0 255 
-0.707813 -0.324008 5.49416 0.00248549 255 0 255 
-0.7169 -0.309033 5.51024 0.00302891 255 0 255 
-0.729582 -0.342719 5.48768 0.00478363 255 0 255 
-0.751801 -0.361496 5.48226 0.00494501 255 0 255 
-0.760814 -0.347852 5.49736 0.00574658 255 0 255 
-0.781099 -0.365025 5.49391 0.00472243 255 0 255 
-0.681917 -0.296551 5.50717 0.00213725 255 0 255 
-0.667794 -0.300973 5.49738 0.0020231 255 0 255 
-0.650207 -0.294293 5.49507 0.00272494 255 0 255 
-0.658059 -0.315594 5.47944 0.003147 255 0 255 
-0.675071 -0.321946 5.4823 0.00315835 255 0 255 
-0.693074 -0.328402 5.48455 0.00289358 255 0 255 
-0.692472 -0.356166 5.4611 0.00344778 255 0 255 
-0.710546 -0.362815 5.46379 0.00359092 255 0 255 
-0.729869 -0.370556 5.46587 0.00343853 255 0 255 
-0.674345 -0.348928 5.45872 0.00480154 255 0 255 
-0.766345 -0.385962 5.46946 0.0059655 255 0 255 
-0.787176 -0.401438 5.46811 0.00528874 255 0 255 
-0.790412 -0.385256 5.48223 0.00459111 255 0 255 
-0.750216 -0.260279 5.56784 0.0173864 255 0 255 
-0.733744 -0.261631 5.55897 0.010588 255 0 255 
-0.720986 -0.245385 5.56867 0.0110888 255 0 255 
-0.703936 -0.246948 5.55949 0.00825789 255 0 255 
-0.716496 -0.262943 5.55044 0.00608284 255 0 255 
-0.699455 -0.263962 5.5412 0.00600263 255 0 255 
-0.731014 -0.277787 5.54339 0.00651896 255 0 255 
-0.748163 -0.276804 5.55163 0.0122303 255 0 255 
-0.764735 -0.276588 5.56076 0.0130367 255 0 255 
-0.763368 -0.293872 5.54436 0.00995842 255 0 255 
-0.688258 -0.23248 5.56795 0.00772899 255 0 255 
-0.66894 -0.234106 5.55703 0.00662148 255 0 255 
-0.656116 -0.217898 5.56761 0.0066038 255 0 255 
-0.649431 -0.236167 5.54696 0.0035637 255 0 255 
-0.664127 -0.250905 5.53937 0.00336144 255 0 255 
-0.68372 -0.249635 5.54979 0.00433714 255 0 255 
-0.646413 -0.274572 5.51067 0.00165146 255 0 255 
-0.663968 -0.280996 5.51352 0.00217907 255 0 255 
-0.681377 -0.277338 5.52327 0.00243848 255 0 255 
-0.699667 -0.283274 5.52513 0.0023222 255 0 255 
-0.646962 -0.254912 5.52927 0.00249029 255 0 255 
