ply
format ascii 1.0
comment Seamless Cloth Simulation with High Geometric Fidelity 
comment Tue May  7 09:33:34 2019
element vertex 977
property float x
property float y
property float z
property float quality
property uchar red
property uchar green
property uchar blue
end_header
-1.03641 -0.249609 6.82244 0.0476187 255 0 255 
-1.04805 -0.25793 6.79889 0.0590864 255 0 255 
-1.02515 -0.20448 6.83465 0.0361354 255 0 255 
-1.03734 -0.222098 6.81372 0.0464268 255 0 255 
-1.04778 -0.22015 6.78746 0.0497622 255 0 255 
-1.05986 -0.237649 6.76672 0.0407064 255 0 255 
-1.04944 -0.239629 6.79291 0.0553619 255 0 255 
-1.02598 -0.222821 6.84031 0.0395537 255 0 255 
-1.07114 -0.23518 6.74041 0.0454421 255 0 255 
-1.08398 -0.252058 6.71997 0.0562112 255 0 255 
-1.09459 -0.248115 6.69366 0.0613461 255 0 255 
-1.10761 -0.264981 6.67286 0.058409 255 0 255 
-1.09684 -0.269145 6.69947 0.0670214 255 0 255 
-1.07265 -0.254632 6.74624 0.0510559 255 0 255 
-0.978745 -0.331471 6.8785 0.0798829 255 0 255 
-0.982044 -0.348041 6.85968 0.0388208 255 0 255 
-0.993667 -0.357786 6.83718 0.0408579 255 0 255 
-0.99679 -0.374369 6.81834 0.0487129 255 0 255 
-1.0138 -0.360834 6.8106 0.0793482 255 0 255 
-0.976849 -0.371537 6.84465 0.0540948 255 0 255 
-0.979914 -0.388178 6.8259 0.0867308 255 0 255 
-0.965463 -0.361767 6.86623 0.069634 255 0 255 
-0.954148 -0.352082 6.88761 0.104538 255 0 255 
-1.02509 -0.370586 6.78859 0.10221 255 0 255 
-1.02762 -0.387113 6.77107 0.0484176 255 0 255 
-1.03857 -0.397051 6.74875 0.0490384 255 0 255 
-1.04084 -0.413984 6.73015 0.0598909 255 0 255 
-1.02109 -0.410868 6.75783 0.0673894 255 0 255 
-1.0232 -0.427722 6.73947 0.0776417 255 0 255 
-1.0103 -0.400905 6.7796 0.0895237 255 0 255 
-0.999352 -0.391087 6.8009 0.13531 255 0 255 
-0.979466 -0.433067 6.77598 0.104163 255 0 255 
-0.969 -0.423438 6.79669 0.0980368 255 0 255 
-0.969215 -0.408456 6.81328 0.156847 255 0 255 
-0.958637 -0.398825 6.8335 0.0954833 255 0 255 
-0.990735 -0.412925 6.78815 0.101318 255 0 255 
-1.00145 -0.422679 6.76659 0.090325 255 0 255 
-1.00112 -0.437682 6.74924 0.0846105 255 0 255 
-0.936883 -0.394739 6.85854 0.106476 255 0 255 
-0.926129 -0.385249 6.87874 0.0831681 255 0 255 
-0.92563 -0.370237 6.89609 0.138749 255 0 255 
-0.946692 -0.374099 6.87277 0.0815656 255 0 255 
-0.957996 -0.383749 6.85124 0.081965 255 0 255 
-1.0151 -0.275872 6.85792 0.0465254 255 0 255 
-1.02691 -0.284747 6.83441 0.0469027 255 0 255 
-1.03477 -0.302411 6.8141 0.0587524 255 0 255 
-1.04648 -0.311185 6.79068 0.0499712 255 0 255 
-1.03861 -0.328687 6.79701 0.0629634 255 0 255 
-1.02678 -0.3194 6.82014 0.0684034 255 0 255 
-1.01894 -0.30175 6.8405 0.0500543 255 0 255 
-1.00707 -0.29227 6.8637 0.0559991 255 0 255 
-1.06223 -0.311623 6.76506 0.0509286 255 0 255 
-1.0742 -0.319753 6.74208 0.0539007 255 0 255 
-1.08188 -0.337759 6.72229 0.0567449 255 0 255 
-1.07349 -0.356404 6.72891 0.0618092 255 0 255 
-1.06597 -0.338283 6.74868 0.0519157 255 0 255 
-1.0543 -0.329088 6.77129 0.0662149 255 0 255 
-1.05376 -0.3822 6.74062 0.0598758 255 0 255 
-1.04259 -0.372221 6.76303 0.0531817 255 0 255 
-1.03763 -0.35447 6.78174 0.072202 255 0 255 
-1.0262 -0.344717 6.80379 0.0560515 255 0 255 
-1.05539 -0.355667 6.75573 0.0571776 255 0 255 
-1.00833 -0.343427 6.83036 0.068088 255 0 255 
-0.996589 -0.333507 6.85295 0.0444329 255 0 255 
-0.990881 -0.316081 6.87282 0.059291 255 0 255 
-1.00879 -0.31797 6.84679 0.0555041 255 0 255 
-1.0593 -0.417372 6.70483 0.0690764 255 0 255 
-1.06885 -0.42672 6.6845 0.0648604 255 0 255 
-1.06908 -0.443095 6.6693 0.101839 255 0 255 
-1.07825 -0.451993 6.64967 0.0798382 255 0 255 
-1.06 -0.466825 6.65867 0.106551 255 0 255 
-1.05097 -0.457516 6.67824 0.11455 255 0 255 
-1.05082 -0.441002 6.69364 0.0673351 255 0 255 
-1.04149 -0.431141 6.71401 0.0743419 255 0 255 
-1.09448 -0.452898 6.62927 0.0608417 255 0 255 
-1.10194 -0.460773 6.61339 0.0653578 255 0 255 
-1.09964 -0.476583 6.60194 0.0917154 255 0 255 
-1.08068 -0.49194 6.61086 0.110934 255 0 255 
-1.08297 -0.476114 6.62245 0.0800445 255 0 255 
-1.07617 -0.467682 6.63829 0.0839125 255 0 255 
-1.04587 -0.508109 6.62447 0.0965113 255 0 255 
-1.05058 -0.494306 6.63594 0.105378 255 0 255 
-1.04407 -0.485709 6.65196 0.0908944 255 0 255 
-1.03748 -0.477154 6.66802 0.0935462 255 0 255 
-1.01731 -0.473025 6.6927 0.108095 255 0 255 
-1.00827 -0.463402 6.71266 0.0681425 255 0 255 
-1.01023 -0.448191 6.72848 0.0833798 255 0 255 
-1.0307 -0.453089 6.70303 0.0699466 255 0 255 
-1.16114 -0.529379 6.4908 0.0106129 255 0 255 
-1.17787 -0.52543 6.47628 0.0158468 255 0 255 
-1.15101 -0.54504 6.48882 0.0142411 255 0 255 
-1.16762 -0.540984 6.47433 0.0127339 255 0 255 
-1.15746 -0.556629 6.47238 0.0119699 255 0 255 
-1.18446 -0.537013 6.45973 0.0225697 255 0 255 
-1.14097 -0.560688 6.4868 0.0122499 255 0 255 
-1.13097 -0.576532 6.48491 0.0166737 255 0 255 
-1.12573 -0.563953 6.50077 0.0209467 255 0 255 
-1.17289 -0.553029 6.45811 0.0129614 255 0 255 
-1.1889 -0.548929 6.44345 0.0256797 255 0 255 
-1.16134 -0.569116 6.45654 0.0125867 255 0 255 
-1.17714 -0.564958 6.44194 0.0182522 255 0 255 
-1.16548 -0.58103 6.44044 0.0185228 255 0 255 
-1.19328 -0.56077 6.42732 0.0354911 255 0 255 
-1.14983 -0.5852 6.45498 0.0156094 255 0 255 
-1.13838 -0.601412 6.45339 0.0245297 255 0 255 
-1.13467 -0.589011 6.46915 0.0190875 255 0 255 
-1.14605 -0.572828 6.47078 0.0119021 255 0 255 
-1.08998 -0.613938 6.48257 0.0213323 255 0 255 
-1.10373 -0.601516 6.48337 0.0173581 255 0 255 
-1.08712 -0.601509 6.4975 0.0232922 255 0 255 
-1.10063 -0.589029 6.49838 0.018537 255 0 255 
-1.11738 -0.589049 6.48413 0.0166174 255 0 255 
-1.12097 -0.601444 6.46846 0.0175252 255 0 255 
-1.10726 -0.613933 6.46768 0.0177593 255 0 255 
-1.08122 -0.582472 6.52032 0.0337774 255 0 255 
-1.09358 -0.570003 6.52166 0.0302881 255 0 255 
-1.11057 -0.570147 6.50752 0.019573 255 0 255 
-1.18131 -0.358225 6.55153 0.112383 255 0 255 
-1.17133 -0.352691 6.56899 0.128125 255 0 255 
-1.16406 -0.335472 6.58195 0.130081 255 0 255 
-1.15405 -0.330327 6.59885 0.0838566 255 0 255 
-1.15888 -0.306959 6.59037 0.109252 255 0 255 
-1.16921 -0.31054 6.57245 0.158675 255 0 255 
-1.17681 -0.327574 6.55963 0.135554 255 0 255 
-1.18715 -0.331472 6.54113 0.0789284 255 0 255 
-1.19468 -0.348847 6.52776 0.0778886 255 0 255 
-1.20067 -0.322097 6.51708 0.102353 255 0 255 
-1.13983 -0.337148 6.62448 0.0770402 255 0 255 
-1.12812 -0.330669 6.64519 0.0899839 255 0 255 
-1.11815 -0.313678 6.66324 0.099803 255 0 255 
-1.1222 -0.291892 6.65555 0.104379 255 0 255 
-1.13235 -0.308757 6.63768 0.0900315 255 0 255 
-1.14445 -0.313744 6.61603 0.0763 255 0 255 
-1.11907 -0.260109 6.647 0.0766162 255 0 255 
-1.13266 -0.275845 6.62765 0.0861712 255 0 255 
-1.14376 -0.268045 6.60157 0.071613 255 0 255 
-1.15704 -0.283289 6.58313 0.0844221 255 0 255 
-1.14594 -0.291354 6.60888 0.0837273 255 0 255 
-1.16656 -0.274954 6.56143 0.113741 255 0 255 
-1.17802 -0.290436 6.54698 0.127172 255 0 255 
-1.1876 -0.279894 6.52286 0.0934247 255 0 255 
-1.19921 -0.295627 6.50786 0.0899421 255 0 255 
-1.18935 -0.306124 6.53222 0.103899 255 0 255 
-1.25737 -0.277786 6.33335 0.05425 255 0 255 
-1.26224 -0.29113 6.34537 0.0586491 255 0 255 
-1.25322 -0.274787 6.352 0.0594569 255 0 255 
-1.24422 -0.25853 6.3585 0.0638325 255 0 255 
-1.25779 -0.288076 6.36421 0.0710552 255 0 255 
-1.23891 -0.24553 6.34645 0.0718022 255 0 255 
-1.22949 -0.229777 6.353 0.101425 255 0 255 
-1.24854 -0.272954 6.37051 0.0563548 255 0 255 
-1.25111 -0.28536 6.38307 0.0643323 255 0 255 
-1.23884 -0.258166 6.37705 0.0531683 255 0 255 
-1.24185 -0.270274 6.38947 0.061651 255 0 255 
-1.23248 -0.255371 6.39597 0.0693234 255 0 255 
-1.24435 -0.282576 6.40202 0.0612587 255 0 255 
-1.22932 -0.243369 6.3835 0.0500619 255 0 255 
-1.21972 -0.228654 6.38995 0.127456 255 0 255 
-1.22465 -0.229308 6.37146 0.072704 255 0 255 
-1.23427 -0.243962 6.36505 0.0535059 255 0 255 
-1.19281 -0.196484 6.37964 0.089884 255 0 255 
-1.20495 -0.207341 6.3708 0.0758231 255 0 255 
-1.19754 -0.195028 6.35295 0.0797963 255 0 255 
-1.221 -0.218699 6.33524 0.0538566 255 0 255 
-1.20937 -0.206825 6.34401 0.0802649 255 0 255 
-1.18867 -0.393509 6.53104 0.038825 255 0 255 
-1.20199 -0.384896 6.51406 0.0304159 255 0 255 
-1.18896 -0.411504 6.52392 0.0160531 255 0 255 
-1.20221 -0.402819 6.50696 0.0118295 255 0 255 
-1.20258 -0.420848 6.49987 0.0087172 255 0 255 
-1.21599 -0.39427 6.48984 0.0196915 255 0 255 
-1.1891 -0.429469 6.5169 0.0115914 255 0 255 
-1.18946 -0.447508 6.50985 0.0189741 255 0 255 
-1.17572 -0.436616 6.53375 0.0259129 255 0 255 
-1.17544 -0.418597 6.54084 0.0288287 255 0 255 
-1.21439 -0.4123 6.48553 0.0126104 255 0 255 
-1.22576 -0.402771 6.47139 0.0224153 255 0 255 
-1.2128 -0.430374 6.48129 0.0118939 255 0 255 
-1.22436 -0.420912 6.46716 0.0173784 255 0 255 
-1.22271 -0.43897 6.46296 0.0174852 255 0 255 
-1.23598 -0.411319 6.45301 0.0337136 255 0 255 
-1.21141 -0.44856 6.47702 0.0148681 255 0 255 
-1.20987 -0.466764 6.47292 0.0285908 255 0 255 
-1.19946 -0.457009 6.49142 0.0191219 255 0 255 
-1.20099 -0.438891 6.49558 0.0112375 255 0 255 
-1.17574 -0.496988 6.497 0.0160928 255 0 255 
-1.18014 -0.480331 6.50129 0.0202254 255 0 255 
-1.17066 -0.470005 6.5196 0.0185583 255 0 255 
-1.18474 -0.463853 6.50555 0.0149435 255 0 255 
-1.19484 -0.473519 6.48709 0.0184311 255 0 255 
-1.19038 -0.490193 6.48284 0.0133376 255 0 255 
-1.14824 -0.469826 6.54823 0.0277096 255 0 255 
-1.15983 -0.442438 6.55037 0.0282464 255 0 255 
-1.17315 -0.453245 6.52663 0.0161862 255 0 255 
-1.21469 -0.625314 6.28576 0.0494129 255 0 255 
-1.20363 -0.639098 6.29339 0.0612759 255 0 255 
-1.22585 -0.611497 6.27798 0.0450798 255 0 255 
-1.22673 -0.601143 6.30119 0.0493196 255 0 255 
-1.21543 -0.614804 6.30895 0.0490112 255 0 255 
-1.20445 -0.628529 6.31653 0.0582702 255 0 255 
-1.2375 -0.59265 6.28183 0.0502164 255 0 255 
-1.2492 -0.57369 6.28564 0.076932 255 0 255 
-1.24834 -0.583456 6.2618 0.0731907 255 0 255 
-1.23649 -0.602347 6.25797 0.0508257 255 0 255 
-1.21478 -0.604287 6.32866 0.0350839 255 0 255 
-1.20386 -0.617754 6.33583 0.0380045 255 0 255 
-1.22611 -0.590886 6.32132 0.0420289 255 0 255 
-1.2251 -0.580197 6.34063 0.0287847 255 0 255 
-1.21408 -0.593537 6.34795 0.0356949 255 0 255 
-1.20311 -0.607047 6.35524 0.045178 255 0 255 
-1.23698 -0.572085 6.32358 0.0377922 255 0 255 
-1.24808 -0.553459 6.32599 0.0583406 255 0 255 
-1.24877 -0.563587 6.30572 0.0591706 255 0 255 
-1.2377 -0.582284 6.30342 0.0483299 255 0 255 
-1.27875 -0.485388 6.29733 0.131479 255 0 255 
-1.27155 -0.507388 6.29417 0.088692 255 0 255 
-1.27876 -0.494265 6.27662 0.13844 255 0 255 
-1.26398 -0.529495 6.29131 0.049337 255 0 255 
-1.27118 -0.516493 6.27383 0.0667069 255 0 255 
-1.26362 -0.538594 6.271 0.0510178 255 0 255 
-1.27809 -0.503243 6.25624 0.107681 255 0 255 
-1.25655 -0.551623 6.28852 0.0514904 255 0 255 
-1.25594 -0.541559 6.30871 0.0461487 255 0 255 
-1.26317 -0.519504 6.31165 0.0488444 255 0 255 
-1.27022 -0.52561 6.25167 0.0771034 255 0 255 
-1.27502 -0.512473 6.23301 0.0897199 255 0 255 
-1.26238 -0.548234 6.24722 0.0456387 255 0 255 
-1.26731 -0.534929 6.22854 0.0606988 255 0 255 
-1.25483 -0.570553 6.24258 0.063148 255 0 255 
-1.25572 -0.561037 6.26651 0.0495838 255 0 255 
-1.26588 -0.446985 6.37866 0.0627652 255 0 255 
-1.26615 -0.424801 6.38115 0.042146 255 0 255 
-1.25944 -0.43786 6.39747 0.0587395 255 0 255 
-1.26647 -0.402627 6.3836 0.0359386 255 0 255 
-1.25956 -0.415825 6.40003 0.0403943 255 0 255 
-1.2596 -0.393737 6.40258 0.0344419 255 0 255 
-1.25295 -0.428758 6.41628 0.0567305 255 0 255 
-1.26612 -0.380608 6.38619 0.0373106 255 0 255 
-1.26548 -0.358578 6.3887 0.0520515 255 0 255 
-1.27186 -0.364803 6.3695 0.0578707 255 0 255 
-1.27226 -0.38687 6.36705 0.0432484 255 0 255 
-1.27227 -0.409077 6.36469 0.0380664 255 0 255 
-1.2778 -0.370972 6.35043 0.0722757 255 0 255 
-1.25243 -0.408294 6.41879 0.0373392 255 0 255 
-1.24444 -0.420024 6.43457 0.0399694 255 0 255 
-1.25152 -0.387748 6.42135 0.0263044 255 0 255 
-1.2435 -0.399587 6.43725 0.0235254 255 0 255 
-1.24262 -0.379119 6.43988 0.0199245 255 0 255 
-1.25023 -0.36727 6.42395 0.0245318 255 0 255 
-1.24912 -0.346856 6.42646 0.0345399 255 0 255 
-1.25722 -0.352748 6.40759 0.0374778 255 0 255 
-1.25843 -0.373238 6.40512 0.0303352 255 0 255 
-1.2501 -0.301368 6.39865 0.0383418 255 0 255 
-1.25559 -0.32029 6.3953 0.0351195 255 0 255 
-1.25679 -0.304174 6.3798 0.0446158 255 0 255 
-1.26239 -0.323159 6.37651 0.0384692 255 0 255 
-1.2607 -0.339383 6.39197 0.0385371 255 0 255 
-1.25245 -0.333638 6.41104 0.0295296 255 0 255 
-1.24734 -0.314633 6.41438 0.0288017 255 0 255 
-1.26335 -0.30852 6.36071 0.0448798 255 0 255 
-1.26862 -0.329154 6.35722 0.0451279 255 0 255 
-1.26795 -0.311668 6.34192 0.05075 255 0 255 
-1.2734 -0.332359 6.33845 0.0552578 255 0 255 
-1.27358 -0.350019 6.35377 0.0562194 255 0 255 
-1.26739 -0.343902 6.37293 0.0453497 255 0 255 
-1.19648 -0.206504 6.39957 0.107836 255 0 255 
-1.21171 -0.22795 6.4107 0.0992358 255 0 255 
-1.19841 -0.216544 6.4206 0.0833782 255 0 255 
-1.18659 -0.206379 6.42947 0.0584202 255 0 255 
-1.1838 -0.195989 6.40901 0.09041 255 0 255 
-1.22306 -0.252604 6.4169 0.0592024 255 0 255 
-1.23366 -0.26753 6.40954 0.0550147 255 0 255 
-1.2348 -0.279748 6.42283 0.0587982 255 0 255 
-1.22441 -0.264737 6.43023 0.0641753 255 0 255 
-1.2256 -0.276851 6.44343 0.0706858 255 0 255 
-1.20958 -0.239194 6.43441 0.0923737 255 0 255 
-1.19896 -0.258617 6.48204 0.0698215 255 0 255 
-1.2008 -0.247851 6.46521 0.0645642 255 0 255 
-1.18912 -0.235137 6.47627 0.0546254 255 0 255 
-1.19054 -0.224703 6.45944 0.084594 255 0 255 
-1.21311 -0.262342 6.45444 0.0577236 255 0 255 
-1.21111 -0.272954 6.47121 0.0807768 255 0 255 
-1.1756 -0.213402 6.47234 0.0509346 255 0 255 
-1.1735 -0.204406 6.45748 0.0589768 255 0 255 
-1.15983 -0.194099 6.46948 0.0458412 255 0 255 
-1.17131 -0.195368 6.44261 0.0752738 255 0 255 
-1.18852 -0.215533 6.44455 0.0713066 255 0 255 
-1.20534 -0.285567 6.49042 0.072119 255 0 255 
-1.21326 -0.301974 6.48232 0.0333143 255 0 255 
-1.21942 -0.289442 6.46301 0.0444847 255 0 255 
-1.22775 -0.305898 6.45466 0.0231913 255 0 255 
-1.22122 -0.318445 6.47404 0.0208813 255 0 255 
-1.22922 -0.335142 6.46552 0.0234964 255 0 255 
-1.21466 -0.328586 6.49155 0.041252 255 0 255 
-1.207 -0.312096 6.49973 0.0562786 255 0 255 
-1.23173 -0.294137 6.43927 0.0311771 255 0 255 
-1.23772 -0.311574 6.43504 0.0215824 255 0 255 
-1.24113 -0.297102 6.41864 0.0362616 255 0 255 
-1.2434 -0.329158 6.43083 0.0236329 255 0 255 
-1.23895 -0.341012 6.44605 0.0248399 255 0 255 
-1.23345 -0.323394 6.45037 0.0211735 255 0 255 
-1.23445 -0.392253 6.45605 0.0205637 255 0 255 
-1.2329 -0.373158 6.45926 0.0169118 255 0 255 
-1.22429 -0.383734 6.47453 0.0164138 255 0 255 
-1.22289 -0.364811 6.47775 0.0165244 255 0 255 
-1.23117 -0.354123 6.46246 0.0176 255 0 255 
-1.24096 -0.360052 6.44296 0.0198402 255 0 255 
-1.21221 -0.376111 6.49683 0.0178592 255 0 255 
-1.2086 -0.358069 6.50365 0.0250369 255 0 255 
-1.19827 -0.366786 6.52096 0.0398297 255 0 255 
-1.20471 -0.340075 6.51043 0.0477302 255 0 255 
-1.2188 -0.346661 6.48474 0.0195002 255 0 255 
-1.25848 -0.462647 6.38478 0.0599059 255 0 255 
-1.248 -0.472862 6.39981 0.0452458 255 0 255 
-1.2405 -0.488525 6.40601 0.0285324 255 0 255 
-1.23053 -0.49872 6.42089 0.0353414 255 0 255 
-1.236 -0.509641 6.40348 0.0474534 255 0 255 
-1.23499 -0.477669 6.42349 0.0314616 255 0 255 
-1.22512 -0.487779 6.43841 0.0423619 255 0 255 
-1.23889 -0.458218 6.42734 0.034835 255 0 255 
-1.24888 -0.448055 6.41246 0.0385812 255 0 255 
-1.22262 -0.516434 6.41751 0.0222075 255 0 255 
-1.21409 -0.535021 6.41542 0.0197115 255 0 255 
-1.20964 -0.523265 6.43158 0.0141949 255 0 255 
-1.20132 -0.541964 6.42944 0.0207295 255 0 255 
-1.19689 -0.530122 6.44566 0.0153848 255 0 255 
-1.20448 -0.512291 6.44895 0.0142085 255 0 255 
-1.21739 -0.505495 6.4349 0.0184398 255 0 255 
-1.18427 -0.507308 6.47925 0.010487 255 0 255 
-1.19754 -0.500717 6.46564 0.0112461 255 0 255 
-1.20367 -0.483682 6.46924 0.0151814 255 0 255 
-1.21737 -0.477208 6.45563 0.0250726 255 0 255 
-1.21119 -0.494207 6.45202 0.0173568 255 0 255 
-1.19095 -0.518828 6.46269 0.0120736 255 0 255 
-1.2202 -0.457276 6.45881 0.0160341 255 0 255 
-1.23085 -0.44783 6.44467 0.0198423 255 0 255 
-1.23338 -0.429545 6.44887 0.0229392 255 0 255 
-1.24166 -0.438303 6.43052 0.0289447 255 0 255 
-1.22794 -0.467715 6.44149 0.0237139 255 0 255 
-1.28134 -0.460154 6.30017 0.0997243 255 0 255 
-1.27676 -0.475762 6.31785 0.10756 255 0 255 
-1.28339 -0.435007 6.30307 0.0644304 255 0 255 
-1.27906 -0.450734 6.3209 0.0691581 255 0 255 
-1.28087 -0.425655 6.32404 0.058252 255 0 255 
-1.27444 -0.466217 6.33859 0.0835659 255 0 255 
-1.285 -0.409775 6.3061 0.0710499 255 0 255 
-1.2858 -0.38473 6.30938 0.0909953 255 0 255 
-1.28769 -0.392006 6.28833 0.0998708 255 0 255 
-1.28663 -0.417229 6.28533 0.0819287 255 0 255 
-1.28475 -0.442566 6.28245 0.0827469 255 0 255 
-1.28908 -0.399341 6.26754 0.113863 255 0 255 
-1.27603 -0.44231 6.34134 0.0642435 255 0 255 
-1.27017 -0.456604 6.35853 0.0650954 255 0 255 
-1.27704 -0.418476 6.34429 0.0408382 255 0 255 
-1.27152 -0.432805 6.36151 0.0418149 255 0 255 
-1.27759 -0.39465 6.34745 0.0494215 255 0 255 
-1.28175 -0.377915 6.32998 0.0706498 255 0 255 
-1.28151 -0.401688 6.32698 0.0523261 255 0 255 
-1.27232 -0.316471 6.32214 0.0598752 255 0 255 
-1.27728 -0.339031 6.31781 0.0570724 255 0 255 
-1.2749 -0.320284 6.302 0.0714107 255 0 255 
-1.27997 -0.342924 6.29772 0.0713605 255 0 255 
-1.28187 -0.361754 6.31353 0.0690088 255 0 255 
-1.27777 -0.355055 6.33418 0.0579016 255 0 255 
-1.27674 -0.325651 6.2815 0.0787102 255 0 255 
-1.28162 -0.349895 6.27666 0.0804422 255 0 255 
-1.27701 -0.330253 6.26084 0.0907164 255 0 255 
-1.28169 -0.354643 6.25605 0.0967532 255 0 255 
-1.28571 -0.374486 6.27194 0.0903619 255 0 255 
-1.28413 -0.367372 6.293 0.0787983 255 0 255 
-1.18099 -0.576907 6.42543 0.0239136 255 0 255 
-1.19626 -0.572517 6.40999 0.0343133 255 0 255 
-1.16868 -0.593047 6.42361 0.0177109 255 0 255 
-1.18382 -0.588686 6.4081 0.0221225 255 0 255 
-1.17141 -0.604813 6.40631 0.0177804 255 0 255 
-1.19924 -0.584311 6.39267 0.0383783 255 0 255 
-1.15646 -0.60921 6.42178 0.018467 255 0 255 
-1.14429 -0.62541 6.41988 0.0314012 255 0 255 
-1.14133 -0.613423 6.43662 0.0243939 255 0 255 
-1.15336 -0.597227 6.43859 0.0176993 255 0 255 
-1.18606 -0.60026 6.39087 0.020845 255 0 255 
-1.20109 -0.595607 6.37396 0.0286871 255 0 255 
-1.17292 -0.616304 6.3891 0.0202871 255 0 255 
-1.18779 -0.611654 6.3722 0.0218625 255 0 255 
-1.17454 -0.627651 6.37045 0.0177347 255 0 255 
-1.15999 -0.632445 6.38736 0.0244739 255 0 255 
-1.14706 -0.648544 6.3856 0.0441608 255 0 255 
-1.14568 -0.636988 6.40273 0.0327457 255 0 255 
-1.15854 -0.620889 6.40451 0.0218127 255 0 255 
-1.09774 -0.660902 6.42056 0.0214715 255 0 255 
-1.11319 -0.649091 6.42037 0.021736 255 0 255 
-1.09729 -0.649539 6.43562 0.0199731 255 0 255 
-1.11262 -0.637693 6.43547 0.0191566 255 0 255 
-1.12869 -0.637256 6.42008 0.0220849 255 0 255 
-1.13004 -0.648838 6.40301 0.0271812 255 0 255 
-1.11441 -0.660575 6.40323 0.0269994 255 0 255 
-1.09562 -0.637925 6.45147 0.0174712 255 0 255 
-1.1098 -0.625812 6.45217 0.0178453 255 0 255 
-1.09297 -0.626116 6.46701 0.0194738 255 0 255 
-1.12412 -0.613631 6.4528 0.0185996 255 0 255 
-1.12694 -0.62557 6.43604 0.0190152 255 0 255 
-1.26269 -0.472987 6.3652 0.0499697 255 0 255 
-1.25468 -0.489331 6.37213 0.0520802 255 0 255 
-1.2588 -0.499079 6.3521 0.0601602 255 0 255 
-1.2668 -0.482689 6.34525 0.0760751 255 0 255 
-1.24931 -0.51056 6.36888 0.0476685 255 0 255 
-1.24358 -0.531901 6.36579 0.0504147 255 0 255 
-1.23994 -0.520792 6.38459 0.0484866 255 0 255 
-1.24537 -0.49953 6.38777 0.0395406 255 0 255 
-1.26907 -0.492795 6.3249 0.0816782 255 0 255 
-1.26152 -0.50971 6.33197 0.0473402 255 0 255 
-1.25471 -0.53155 6.32891 0.0371957 255 0 255 
-1.24581 -0.542602 6.34585 0.0413698 255 0 255 
-1.25226 -0.520847 6.34895 0.032225 255 0 255 
-1.21203 -0.58239 6.36727 0.0283845 255 0 255 
-1.22301 -0.569281 6.36051 0.0288699 255 0 255 
-1.22076 -0.557908 6.37926 0.0201583 255 0 255 
-1.20987 -0.571097 6.38595 0.0303352 255 0 255 
-1.23313 -0.550479 6.36312 0.0273966 255 0 255 
-1.23524 -0.561296 6.34319 0.0296424 255 0 255 
-1.21742 -0.546865 6.39794 0.0207613 255 0 255 
-1.2051 -0.553723 6.4127 0.0244153 255 0 255 
-1.22679 -0.528268 6.40063 0.0278451 255 0 255 
-1.23039 -0.539334 6.38185 0.024922 255 0 255 
-1.18836 -0.622934 6.35449 0.0258567 255 0 255 
-1.17362 -0.638797 6.35365 0.0226449 255 0 255 
-1.1888 -0.633678 6.33504 0.0273329 255 0 255 
-1.17399 -0.649526 6.33426 0.0281578 255 0 255 
-1.15909 -0.654734 6.35285 0.032884 255 0 255 
-1.14465 -0.670632 6.3521 0.0531441 255 0 255 
-1.14585 -0.659574 6.36889 0.040073 255 0 255 
-1.16025 -0.643683 6.36965 0.0241805 255 0 255 
-1.18748 -0.645017 6.3152 0.0374372 255 0 255 
-1.17037 -0.661439 6.31385 0.028017 255 0 255 
-1.18647 -0.655562 6.29197 0.0451052 255 0 255 
-1.15341 -0.677936 6.31255 0.0401354 255 0 255 
-1.14067 -0.682528 6.3316 0.052514 255 0 255 
-1.15727 -0.666044 6.33294 0.0301622 255 0 255 
-1.08544 -0.701818 6.36727 0.0438376 255 0 255 
-1.10273 -0.695948 6.3567 0.0428028 255 0 255 
-1.10971 -0.682832 6.37328 0.0421976 255 0 255 
-1.09237 -0.68872 6.38394 0.0378548 255 0 255 
-1.12359 -0.683334 6.35442 0.0450108 255 0 255 
-1.11938 -0.694995 6.33398 0.0355252 255 0 255 
-1.09481 -0.677769 6.39882 0.0326784 255 0 255 
-1.12892 -0.660178 6.38785 0.0305247 255 0 255 
-1.12774 -0.671235 6.37111 0.0295608 255 0 255 
-1.27756 -0.489914 6.22548 0.0737337 255 0 255 
-1.27983 -0.467424 6.21796 0.101856 255 0 255 
-1.28299 -0.45867 6.24141 0.130665 255 0 255 
-1.28058 -0.480934 6.24878 0.118513 255 0 255 
-1.28345 -0.440412 6.2221 0.152095 255 0 255 
-1.2863 -0.413658 6.22646 0.154551 255 0 255 
-1.28183 -0.42222 6.20385 0.176228 255 0 255 
-1.27863 -0.449111 6.19973 0.110954 255 0 255 
-1.28166 -0.472744 6.26915 0.127403 255 0 255 
-1.28471 -0.451169 6.26158 0.095468 255 0 255 
-1.28721 -0.42527 6.26443 0.0898508 255 0 255 
-1.28788 -0.406598 6.24681 0.123259 255 0 255 
-1.28574 -0.432611 6.24406 0.0964443 255 0 255 
-1.27636 -0.335907 6.23996 0.107699 255 0 255 
-1.28069 -0.361522 6.23507 0.119776 255 0 255 
-1.27362 -0.34112 6.21937 0.119474 255 0 255 
-1.27781 -0.366859 6.21474 0.12772 255 0 255 
-1.28387 -0.3875 6.23058 0.131404 255 0 255 
-1.28532 -0.380418 6.25126 0.108262 255 0 255 
-1.27004 -0.347711 6.19766 0.135602 255 0 255 
-1.27326 -0.374991 6.19181 0.12753 255 0 255 
-1.26383 -0.35526 6.17512 0.120215 255 0 255 
-1.27798 -0.398522 6.19765 0.141345 255 0 255 
-1.10296 -0.299056 5.94345 0.0145822 255 0 255 
-1.11481 -0.314109 5.94455 0.0192452 255 0 255 
-1.1264 -0.322049 5.95653 0.0149935 255 0 255 
-1.13859 -0.337088 5.95755 0.0161561 255 0 255 
-1.15007 -0.345111 5.96943 0.0214436 255 0 255 
-1.15074 -0.359371 5.9479 0.0305368 255 0 255 
-1.13791 -0.322886 5.979 0.0155381 255 0 255 
-1.14944 -0.330915 5.99086 0.0240658 255 0 255 
-1.12368 -0.306324 5.97749 0.0177101 255 0 255 
-1.10988 -0.289669 5.97576 0.0158184 255 0 255 
-1.09837 -0.281672 5.96392 0.0102872 255 0 255 
-1.09345 -0.26437 5.98448 0.0136951 255 0 255 
-1.16176 -0.376881 5.94881 0.0436423 255 0 255 
-1.17402 -0.389391 5.96147 0.0400073 255 0 255 
-1.18511 -0.407341 5.96274 0.0390214 255 0 255 
-1.1969 -0.420369 5.9758 0.0556188 255 0 255 
-1.19462 -0.430883 5.95244 0.0504484 255 0 255 
-1.18738 -0.396987 5.98613 0.0400906 255 0 255 
-1.19923 -0.409916 5.99913 0.0481522 255 0 255 
-1.17494 -0.376976 5.98384 0.048436 255 0 255 
-1.16242 -0.357448 5.98202 0.0363531 255 0 255 
-1.1965 -0.370971 6.03428 0.0391522 255 0 255 
-1.18117 -0.357354 6.01959 0.0439456 255 0 255 
-1.16996 -0.329037 6.02871 0.0311696 255 0 255 
-1.15409 -0.315886 6.01441 0.0245593 255 0 255 
-1.16536 -0.343993 6.00512 0.0332777 255 0 255 
-1.19019 -0.383367 6.00928 0.0427512 255 0 255 
-1.20538 -0.397283 6.02419 0.0473966 255 0 255 
-1.14168 -0.291855 6.02474 0.0205774 255 0 255 
-1.12221 -0.270084 6.02445 0.0164108 255 0 255 
-1.12555 -0.282645 6.01132 0.018273 255 0 255 
-1.1029 -0.24857 6.02398 0.0120684 255 0 255 
-1.10619 -0.260856 6.01099 0.013202 255 0 255 
-1.08722 -0.239138 6.01052 0.0164091 255 0 255 
-1.08381 -0.226867 6.02361 0.0160491 255 0 255 
-1.10925 -0.273585 5.99797 0.0132147 255 0 255 
-1.0902 -0.251665 5.9976 0.013584 255 0 255 
-1.13754 -0.306779 6.00104 0.0197958 255 0 255 
-1.20188 -0.449273 5.95397 0.102885 255 0 255 
-1.21062 -0.464657 5.96893 0.0959211 255 0 255 
-1.21705 -0.483495 5.97072 0.0573225 255 0 255 
-1.22469 -0.499466 5.98593 0.0401126 255 0 255 
-1.22126 -0.506063 5.95975 0.0425571 255 0 255 
-1.22052 -0.476973 5.99693 0.0568717 255 0 255 
-1.22794 -0.493108 6.01212 0.0546591 255 0 255 
-1.2135 -0.455908 5.99355 0.0662244 255 0 255 
-1.20613 -0.435378 5.99046 0.0974485 255 0 255 
-1.22536 -0.52231 5.97649 0.0395971 255 0 255 
-1.2256 -0.541965 5.96394 0.0473605 255 0 255 
-1.22885 -0.538614 5.99331 0.0465673 255 0 255 
-1.22886 -0.558463 5.98085 0.0545501 255 0 255 
-1.23166 -0.574587 5.99751 0.0765258 255 0 255 
-1.22855 -0.577927 5.96816 0.0426482 255 0 255 
-1.23178 -0.554873 6.01002 0.0607964 255 0 255 
-1.23451 -0.570878 6.02664 0.0468349 255 0 255 
-1.23188 -0.532064 6.0194 0.0589298 255 0 255 
-1.22863 -0.515829 6.00271 0.0369839 255 0 255 
-1.24301 -0.541864 6.06909 0.0398741 255 0 255 
-1.2417 -0.520917 6.06397 0.0455054 255 0 255 
-1.23684 -0.504611 6.04499 0.0572056 255 0 255 
-1.23483 -0.483721 6.03983 0.0573897 255 0 255 
-1.23678 -0.548157 6.0383 0.0685661 255 0 255 
-1.24118 -0.564424 6.0573 0.0966296 255 0 255 
-1.23195 -0.457704 6.05005 0.0500703 255 0 255 
-1.22458 -0.434875 6.04533 0.0633234 255 0 255 
-1.21371 -0.418973 6.0283 0.0767214 255 0 255 
-1.21818 -0.44598 6.01898 0.0579775 255 0 255 
-1.22505 -0.466957 6.02244 0.0493238 255 0 255 
-1.24244 -0.577257 6.076 0.0859914 255 0 255 
-1.23734 -0.596612 6.06408 0.108411 255 0 255 
-1.23605 -0.583715 6.0453 0.0515746 255 0 255 
-1.23063 -0.603225 6.0335 0.0294755 255 0 255 
-1.23195 -0.616104 6.0522 0.0726737 255 0 255 
-1.2263 -0.635135 6.03998 0.0805082 255 0 255 
-1.2316 -0.630729 6.07379 0.173047 255 0 255 
-1.23687 -0.611199 6.08566 0.100378 255 0 255 
-1.23164 -0.588019 6.01401 0.0472933 255 0 255 
-1.22844 -0.605165 6.00136 0.07854 255 0 255 
-1.22856 -0.591584 5.98484 0.0462712 255 0 255 
-1.2252 -0.608422 5.97196 0.0334053 255 0 255 
-1.22506 -0.621997 5.98851 0.0618482 255 0 255 
-1.22115 -0.63882 5.97563 0.0544045 255 0 255 
-1.22405 -0.637183 6.00792 0.127049 255 0 255 
-1.22751 -0.620171 6.02071 0.0660508 255 0 255 
-1.19876 -0.694377 5.97107 0.0583779 255 0 255 
-1.20627 -0.679815 5.98853 0.0826859 255 0 255 
-1.19885 -0.69471 6.00381 0.150007 255 0 255 
-1.21344 -0.665028 6.00577 0.133569 255 0 255 
-1.20592 -0.67997 6.02113 0.118648 255 0 255 
-1.21273 -0.664976 6.03821 0.076185 255 0 255 
-1.19797 -0.695085 6.0365 0.126682 255 0 255 
-1.22018 -0.650068 6.0229 0.110866 255 0 255 
-1.21746 -0.651973 5.99078 0.0716741 255 0 255 
-1.21018 -0.666817 5.97351 0.0429749 255 0 255 
-1.19674 -0.69606 6.05837 0.124395 255 0 255 
-1.20847 -0.677952 6.0543 0.153833 255 0 255 
-1.20674 -0.678908 6.07623 0.145421 255 0 255 
-1.19506 -0.69692 6.0801 0.127892 255 0 255 
-1.21816 -0.660803 6.07212 0.161082 255 0 255 
-1.20409 -0.680119 6.09798 0.0733535 255 0 255 
-1.21569 -0.661852 6.09395 0.100364 255 0 255 
-1.19261 -0.698222 6.10188 0.0874685 255 0 255 
-1.22717 -0.643638 6.08984 0.117287 255 0 255 
-1.22243 -0.64789 6.05605 0.129287 255 0 255 
-1.18517 -0.710497 5.97868 0.0522778 255 0 255 
-1.17879 -0.722252 5.95749 0.0384312 255 0 255 
-1.17145 -0.726583 5.98622 0.0352817 255 0 255 
-1.16503 -0.738072 5.96485 0.0285867 255 0 255 
-1.1513 -0.753778 5.97216 0.0318741 255 0 255 
-1.15839 -0.749521 5.94346 0.020109 255 0 255 
-1.15772 -0.74238 5.99354 0.030547 255 0 255 
-1.14379 -0.758217 6.0009 0.0438756 255 0 255 
-1.17145 -0.727024 6.01896 0.0765523 255 0 255 
-1.18538 -0.710828 6.01144 0.100971 255 0 255 
-1.14629 -0.761562 5.93247 0.0296699 255 0 255 
-1.1262 -0.777407 5.93292 0.0244161 255 0 255 
-1.11419 -0.788881 5.92159 0.0186244 255 0 255 
-1.09436 -0.804136 5.92161 0.0189172 255 0 255 
-1.1101 -0.796521 5.89865 0.0160528 255 0 255 
-1.09843 -0.796727 5.94457 0.0196939 255 0 255 
-1.07871 -0.811849 5.94443 0.0254682 255 0 255 
-1.11484 -0.78341 5.95883 0.0196805 255 0 255 
-1.13111 -0.769907 5.97281 0.0315443 255 0 255 
-1.06107 -0.811998 5.9993 0.00797532 255 0 255 
-1.08055 -0.798735 6.01601 0.0219823 255 0 255 
-1.08854 -0.794739 6.00036 0.0127085 255 0 255 
-1.09981 -0.784911 6.03221 0.0347899 255 0 255 
-1.10809 -0.78079 6.01655 0.0269557 255 0 255 
-1.12749 -0.766375 6.03246 0.0504292 255 0 255 
-1.119 -0.770541 6.04808 0.0469947 255 0 255 
-1.11627 -0.776774 6.00086 0.0235185 255 0 255 
-1.13589 -0.762191 6.01667 0.0428838 255 0 255 
-1.09982 -0.79025 5.9868 0.0195181 255 0 255 
-1.08358 -0.803376 5.97251 0.0130382 255 0 255 
-1.07241 -0.807668 5.98595 0.0100957 255 0 255 
-1.05639 -0.820387 5.97142 0.0150657 255 0 255 
-1.06766 -0.816146 5.95803 0.0167492 255 0 255 
-1.04518 -0.824637 5.98464 0.0133468 255 0 255 
-1.13243 -0.755349 6.05726 0.0331247 255 0 255 
-1.15328 -0.736574 6.0723 0.0494719 255 0 255 
-1.15471 -0.735446 6.0506 0.0420913 255 0 255 
-1.17334 -0.717546 6.08717 0.0697188 255 0 255 
-1.17528 -0.71632 6.06543 0.062084 255 0 255 
-1.17673 -0.71518 6.04355 0.053302 255 0 255 
-1.16315 -0.731172 6.03479 0.0428787 255 0 255 
-1.14959 -0.746875 6.02582 0.0472342 255 0 255 
-1.14104 -0.751091 6.04164 0.0310544 255 0 255 
-1.03086 -0.833459 5.96904 0.010922 255 0 255 
-1.0421 -0.829443 5.95591 0.0110374 255 0 255 
-1.028 -0.838487 5.94023 0.0125584 255 0 255 
-1.05326 -0.825354 5.94252 0.0153444 255 0 255 
-1.03913 -0.834483 5.92684 0.0102137 255 0 255 
-1.05022 -0.83015 5.91341 0.0107686 255 0 255 
-1.06437 -0.821015 5.92901 0.0134905 255 0 255 
-1.02519 -0.843578 5.91101 0.00961735 255 0 255 
-1.03632 -0.839367 5.89753 0.00930482 255 0 255 
-1.02251 -0.848407 5.88146 0.00922834 255 0 255 
-1.00903 -0.853148 5.89309 0.00875126 255 0 255 
-1.01165 -0.848099 5.92253 0.0100418 255 0 255 
-0.995532 -0.857766 5.90462 0.00847653 255 0 255 
-0.998075 -0.852344 5.93388 0.00708878 255 0 255 
-1.01441 -0.842945 5.95159 0.00846918 255 0 255 
-0.982054 -0.861899 5.91606 0.00687508 255 0 255 
-1.08264 -0.812582 5.90801 0.0108818 255 0 255 
-1.07111 -0.820817 5.89423 0.0147339 255 0 255 
-1.08661 -0.813428 5.87126 0.00753474 255 0 255 
-1.09817 -0.805078 5.88505 0.0159122 255 0 255 
-1.06739 -0.82539 5.86878 0.00778742 255 0 255 
-1.06397 -0.830003 5.84328 0.00844624 255 0 255 
-1.04329 -0.839305 5.86242 0.00651768 255 0 255 
-1.02426 -0.855616 5.77936 0.00203347 255 0 255 
-1.02358 -0.854021 5.80506 0.00304855 255 0 255 
-1.00091 -0.866285 5.7956 0.00264127 255 0 255 
-1.02314 -0.852321 5.83073 0.0036105 255 0 255 
-1.00028 -0.864426 5.8212 0.00429822 255 0 255 
-0.999821 -0.862713 5.84676 0.00531921 255 0 255 
-0.97762 -0.876718 5.81166 0.00427109 255 0 255 
-1.02283 -0.850447 5.85615 0.00679901 255 0 255 
-1.0434 -0.841146 5.837 0.00473926 255 0 255 
-1.04377 -0.842986 5.81143 0.00271995 255 0 255 
-0.962671 -0.882221 5.82159 0.00638023 255 0 255 
-0.975151 -0.874579 5.84094 0.0071983 255 0 255 
-0.960321 -0.879779 5.85083 0.00821665 255 0 255 
-0.947814 -0.887551 5.83142 0.00602439 255 0 255 
-0.97284 -0.871914 5.86994 0.0108612 255 0 255 
-0.945382 -0.884836 5.86058 0.00700482 255 0 255 
-0.957892 -0.876847 5.87967 0.00889591 255 0 255 
-0.932957 -0.892681 5.84136 0.00471531 255 0 255 
-0.970637 -0.868905 5.89894 0.00948974 255 0 255 
-0.984082 -0.864811 5.88725 0.00898964 255 0 255 
-0.99762 -0.860323 5.8758 0.00964182 255 0 255 
-0.986344 -0.867484 5.85837 0.00628271 255 0 255 
-0.697659 -0.1525 5.69232 0.00613921 255 0 255 
-0.704583 -0.165664 5.67871 0.00414098 255 0 255 
-0.717846 -0.15841 5.69966 0.00449996 255 0 255 
-0.724937 -0.17165 5.68607 0.00386426 255 0 255 
-0.745236 -0.177734 5.69347 0.00407705 255 0 255 
-0.731961 -0.185009 5.67258 0.00357243 255 0 255 
-0.738119 -0.164509 5.70705 0.00465431 255 0 255 
-0.758302 -0.17069 5.71463 0.00672597 255 0 255 
-0.732668 -0.149236 5.72517 0.0046363 255 0 255 
-0.712563 -0.143157 5.71761 0.00638235 255 0 255 
-0.749879 -0.191396 5.67855 0.00270212 255 0 255 
-0.767743 -0.197981 5.68461 0.00453401 255 0 255 
-0.791652 -0.216711 5.67976 0.00677424 255 0 255 
-0.768171 -0.212591 5.66507 0.00355875 255 0 255 
-0.803124 -0.211572 5.69698 0.00472 255 0 255 
-0.780884 -0.190958 5.70577 0.00721268 255 0 255 
-0.763086 -0.184216 5.69956 0.0035705 255 0 255 
-0.831576 -0.207579 5.72964 0.0012641 255 0 255 
-0.813402 -0.198142 5.72574 0.00230998 255 0 255 
-0.810618 -0.185059 5.74199 0.00170874 255 0 255 
-0.795114 -0.188819 5.72187 0.0034541 255 0 255 
-0.792261 -0.175786 5.73815 0.00283978 255 0 255 
-0.773953 -0.166695 5.73442 0.00773789 255 0 255 
-0.789432 -0.162789 5.75438 0.00409791 255 0 255 
-0.777267 -0.150942 5.76172 0.00472683 255 0 255 
-0.756784 -0.142062 5.75691 0.00729237 255 0 255 
-0.744784 -0.130269 5.76415 0.00669031 255 0 255 
-0.727817 -0.136534 5.74029 0.00673771 255 0 255 
-0.753336 -0.157952 5.72978 0.00614166 255 0 255 
-0.872717 -0.288188 5.64055 0.0450859 255 0 255 
-0.87067 -0.275964 5.65785 0.0321206 255 0 255 
-0.868668 -0.264025 5.67537 0.0279426 255 0 255 
-0.890759 -0.2796 5.66789 0.041897 255 0 255 
-0.846506 -0.248633 5.68275 0.0186625 255 0 255 
-0.848007 -0.26046 5.66461 0.0202737 255 0 255 
-0.849477 -0.272694 5.6466 0.0279949 255 0 255 
-0.831264 -0.255259 5.66028 0.0186083 255 0 255 
-0.891744 -0.270316 5.68543 0.031757 255 0 255 
-0.892739 -0.261372 5.70307 0.0240992 255 0 255 
-0.913337 -0.276871 5.69467 0.0414043 255 0 255 
-0.871824 -0.245961 5.71168 0.0146849 255 0 255 
-0.870374 -0.254876 5.6934 0.0204873 255 0 255 
-0.828293 -0.218525 5.70958 0.0030238 255 0 255 
-0.824878 -0.229865 5.68975 0.00616933 255 0 255 
-0.849236 -0.237499 5.70156 0.00916822 255 0 255 
-0.851892 -0.22655 5.72047 0.00421675 255 0 255 
-0.814751 -0.234179 5.67475 0.00985211 255 0 255 
-0.803217 -0.239576 5.6576 0.00957271 255 0 255 
-0.977192 -0.248435 5.82617 0.00512658 255 0 255 
-0.992001 -0.252057 5.84252 0.00390388 255 0 255 
-1.00689 -0.255386 5.85861 0.00172509 255 0 255 
-1.0082 -0.268335 5.83744 0.00447376 255 0 255 
-0.990508 -0.23922 5.86374 0.00190713 255 0 255 
-0.972514 -0.221484 5.86812 0.00389084 255 0 255 
-0.974955 -0.234947 5.84714 0.00455767 255 0 255 
-0.957048 -0.217039 5.85134 0.011711 255 0 255 
-1.02848 -0.281866 5.84396 0.00926969 255 0 255 
-1.028 -0.270845 5.86527 0.0041096 255 0 255 
-1.04315 -0.286777 5.85876 0.0089673 255 0 255 
-1.0583 -0.302662 5.85218 0.0149921 255 0 255 
-1.04283 -0.275694 5.8799 0.00331201 255 0 255 
-1.02684 -0.259236 5.88607 0.00218647 255 0 255 
-1.00552 -0.243869 5.87954 0.000925928 255 0 255 
-1.00488 -0.230833 5.90274 0.00092963 255 0 255 
-0.985355 -0.210757 5.90892 0.00160518 255 0 255 
-0.987926 -0.224703 5.88587 0.00243199 255 0 255 
-1.02642 -0.246162 5.90909 0.00142915 255 0 255 
-0.957954 -0.198734 5.88751 0.00703899 255 0 255 
-0.933081 -0.182388 5.87895 0.0174754 255 0 255 
-0.897278 -0.214932 5.78596 0.00237681 255 0 255 
-0.908937 -0.210254 5.80557 0.00327265 255 0 255 
-0.920512 -0.205531 5.82504 0.00746197 255 0 255 
-0.926438 -0.225193 5.80266 0.00334686 255 0 255 
-0.902805 -0.190945 5.82812 0.00610244 255 0 255 
-0.883127 -0.175203 5.83097 0.00392179 255 0 255 
-0.890249 -0.19492 5.80854 0.00217374 255 0 255 
-0.870607 -0.179126 5.81139 0.00213073 255 0 255 
-0.946406 -0.233481 5.8126 0.00365724 255 0 255 
-0.94321 -0.217538 5.834 0.00659801 255 0 255 
-0.960221 -0.233004 5.8301 0.00569825 255 0 255 
-0.938555 -0.200616 5.8554 0.0112289 255 0 255 
-0.915854 -0.18891 5.84658 0.008739 255 0 255 
-0.901 -0.158409 5.88008 0.0108899 255 0 255 
-0.910439 -0.170949 5.87028 0.012477 255 0 255 
-0.885739 -0.157876 5.86181 0.00923846 255 0 255 
-0.876329 -0.14541 5.87169 0.00737701 255 0 255 
-0.895163 -0.170365 5.85198 0.00769364 255 0 255 
-0.853907 -0.137443 5.8607 0.00327905 255 0 255 
-0.864325 -0.150179 5.85084 0.00347056 255 0 255 
-0.840908 -0.141655 5.83969 0.0016916 255 0 255 
-0.830557 -0.128858 5.84955 0.00252399 255 0 255 
-0.862986 -0.15883 5.8354 0.00368873 255 0 255 
-0.829745 -0.195787 5.74465 0.00129425 255 0 255 
-0.847107 -0.207991 5.74471 0.00139451 255 0 255 
-0.827752 -0.184278 5.7599 0.000931711 255 0 255 
-0.845222 -0.196174 5.75972 0.00100427 255 0 255 
-0.843207 -0.184678 5.77489 0.000762777 255 0 255 
-0.862666 -0.208394 5.75965 0.00155186 255 0 255 
-0.825673 -0.172703 5.77501 0.00109627 255 0 255 
-0.823571 -0.161174 5.79013 0.00278391 255 0 255 
-0.806577 -0.161947 5.77224 0.0025647 255 0 255 
-0.808587 -0.173493 5.75709 0.00155525 255 0 255 
-0.862472 -0.198086 5.7748 0.000947265 255 0 255 
-0.879951 -0.211675 5.77288 0.00179987 255 0 255 
-0.86229 -0.18779 5.7898 0.0012699 255 0 255 
-0.879798 -0.201194 5.78784 0.00142167 255 0 255 
-0.852197 -0.165848 5.8125 0.00222113 255 0 255 
-0.842928 -0.1745 5.79004 0.00110619 255 0 255 
-0.810725 -0.125941 5.83371 0.00285008 255 0 255 
-0.821908 -0.138576 5.82486 0.00195152 255 0 255 
-0.801039 -0.135928 5.80791 0.00288248 255 0 255 
-0.789837 -0.123355 5.81678 0.00398033 255 0 255 
-0.822717 -0.150027 5.80768 0.00169054 255 0 255 
-0.841788 -0.152973 5.82243 0.00151329 255 0 255 
-0.771937 -0.124872 5.79733 0.00578358 255 0 255 
-0.783929 -0.136783 5.79018 0.00431839 255 0 255 
-0.795238 -0.149318 5.78125 0.00284649 255 0 255 
-0.916297 -0.269838 5.71205 0.0270978 255 0 255 
-0.919296 -0.263151 5.72957 0.0301498 255 0 255 
-0.932056 -0.278248 5.7141 0.0486561 255 0 255 
-0.903466 -0.254879 5.72766 0.0168583 255 0 255 
-0.886068 -0.246806 5.72519 0.0167913 255 0 255 
-0.945157 -0.280185 5.72626 0.0362278 255 0 255 
-0.934788 -0.26627 5.74163 0.0307429 255 0 255 
-0.948536 -0.269075 5.75285 0.0209698 255 0 255 
-0.958958 -0.283004 5.7375 0.0371793 255 0 255 
-0.931092 -0.253901 5.76272 0.0215514 255 0 255 
-0.915613 -0.250814 5.75088 0.0227166 255 0 255 
-0.898827 -0.231238 5.76239 0.00602959 255 0 255 
-0.881507 -0.227821 5.74909 0.00522246 255 0 255 
-0.914303 -0.234398 5.77436 0.0068133 255 0 255 
-0.867469 -0.226941 5.73543 0.00398382 255 0 255 
-0.964036 -0.247567 5.81065 0.00744571 255 0 255 
-0.950912 -0.246623 5.79508 0.00578786 255 0 255 
-0.968553 -0.26085 5.79313 0.0124869 255 0 255 
-0.984205 -0.273591 5.79031 0.0118807 255 0 255 
-0.980746 -0.260956 5.80824 0.00945655 255 0 255 
-0.996499 -0.273555 5.8053 0.0146618 255 0 255 
-0.933673 -0.241079 5.78536 0.00709564 255 0 255 
-0.948324 -0.25949 5.77249 0.0158677 255 0 255 
-0.97341 -0.286944 5.74743 0.0401231 255 0 255 
-0.965794 -0.274703 5.76263 0.0259743 255 0 255 
-0.98096 -0.279497 5.77109 0.0209076 255 0 255 
-0.988568 -0.291641 5.75585 0.037174 255 0 255 
-1.00453 -0.297666 5.76347 0.0270172 255 0 255 
-0.999567 -0.287997 5.77915 0.0185793 255 0 255 
-1.01628 -0.295183 5.78606 0.0260442 255 0 255 
-1.02129 -0.304958 5.77038 0.0251485 255 0 255 
-1.03901 -0.313822 5.77707 0.0386176 255 0 255 
-1.05172 -0.318174 5.78975 0.0337014 255 0 255 
-1.06732 -0.329263 5.78654 0.02846 255 0 255 
-1.03921 -0.306259 5.80254 0.0239587 255 0 255 
-1.02251 -0.2939 5.80534 0.0146384 255 0 255 
-1.07961 -0.335462 5.79815 0.0228818 255 0 255 
-1.09212 -0.341422 5.80956 0.0180198 255 0 255 
-1.10376 -0.352207 5.79661 0.0149686 255 0 255 
-1.08044 -0.33075 5.82249 0.0282157 255 0 255 
-1.06756 -0.32416 5.81101 0.0307238 255 0 255 
-1.05185 -0.311908 5.81475 0.0328818 255 0 255 
-1.04439 -0.296487 5.83949 0.0163661 255 0 255 
-1.03058 -0.290066 5.82665 0.0127087 255 0 255 
-1.06525 -0.317479 5.82746 0.0246884 255 0 255 
-1.01068 -0.278422 5.81977 0.008441 255 0 255 
-0.993976 -0.263502 5.82298 0.00922441 255 0 255 
-1.12857 -0.35969 5.86428 0.0339122 255 0 255 
-1.14551 -0.376676 5.87542 0.0401837 255 0 255 
-1.16233 -0.393835 5.88664 0.0453788 255 0 255 
-1.15784 -0.39297 5.86658 0.029908 255 0 255 
-1.14976 -0.377605 5.89543 0.0445948 255 0 255 
-1.13592 -0.357531 5.90399 0.0345746 255 0 255 
-1.13201 -0.358632 5.88426 0.0392516 255 0 255 
-1.11798 -0.338477 5.89284 0.0309291 255 0 255 
-1.17719 -0.417453 5.86759 0.0359264 255 0 255 
-1.1824 -0.42489 5.88763 0.0525778 255 0 255 
-1.19409 -0.44133 5.87809 0.0563388 255 0 255 
-1.20542 -0.457873 5.86859 0.0938299 255 0 255 
-1.19897 -0.449252 5.89851 0.076686 255 0 255 
-1.18697 -0.430213 5.90753 0.0407762 255 0 255 
-1.16691 -0.399083 5.90641 0.0540579 255 0 255 
-1.18533 -0.418832 5.94068 0.0439053 255 0 255 
-1.1744 -0.400775 5.93948 0.0403064 255 0 255 
-1.16499 -0.389066 5.92783 0.0454279 255 0 255 
-1.15391 -0.371454 5.92686 0.0448712 255 0 255 
-1.17652 -0.410724 5.91788 0.0513164 255 0 255 
-1.19582 -0.438491 5.93046 0.0588408 255 0 255 
-1.12985 -0.337223 5.93535 0.0306042 255 0 255 
-1.10893 -0.315144 5.92287 0.0314601 255 0 255 
-1.12366 -0.338411 5.91366 0.0187425 255 0 255 
-1.1629 -0.399685 5.80595 0.015235 255 0 255 
-1.17246 -0.410417 5.82056 0.0258899 255 0 255 
-1.18707 -0.424682 5.82809 0.0490108 255 0 255 
-1.16318 -0.401671 5.8343 0.0270592 255 0 255 
-1.15361 -0.390855 5.81967 0.0176787 255 0 255 
-1.14424 -0.38221 5.8333 0.0153146 255 0 255 
-1.19028 -0.435181 5.85982 0.0518307 255 0 255 
-1.17904 -0.416927 5.84321 0.0549107 255 0 255 
-1.19757 -0.442183 5.84362 0.0845667 255 0 255 
-1.21337 -0.463652 5.85214 0.166525 255 0 255 
-1.14215 -0.376406 5.85737 0.0218114 255 0 255 
-1.21803 -0.486247 5.87891 0.110991 255 0 255 
-1.22963 -0.515884 5.89002 0.149795 255 0 255 
-1.22803 -0.502863 5.8685 0.187662 255 0 255 
-1.22 -0.499046 5.90018 0.0778399 255 0 255 
-1.21106 -0.479269 5.90936 0.0696476 255 0 255 
-1.2085 -0.468609 5.88902 0.05993 255 0 255 
-1.23518 -0.533132 5.88003 0.185244 255 0 255 
-1.24205 -0.563434 5.87976 0.182025 255 0 255 
-1.23498 -0.563633 5.90263 0.118481 255 0 255 
-1.23 -0.546254 5.91255 0.0753752 255 0 255 
-1.22813 -0.56168 5.95396 0.0460846 255 0 255 
-1.22722 -0.545447 5.93965 0.0470013 255 0 255 
-1.22447 -0.525767 5.94967 0.0370304 255 0 255 
-1.22277 -0.509786 5.93551 0.0454295 255 0 255 
-1.22592 -0.529401 5.92538 0.0556555 255 0 255 
-1.23083 -0.562349 5.9269 0.0723023 255 0 255 
-1.23158 -0.578609 5.94123 0.0698569 255 0 255 
-1.216 -0.490739 5.94668 0.0429125 255 0 255 
-1.20915 -0.471621 5.9447 0.0623484 255 0 255 
-1.203 -0.456957 5.932 0.065568 255 0 255 
-1.21734 -0.494454 5.92235 0.0490332 255 0 255 
-1.21695 -0.69706 5.86824 0.122919 255 0 255 
-1.20441 -0.710969 5.87582 0.0476759 255 0 255 
-1.20477 -0.7184 5.86034 0.0599525 255 0 255 
-1.19277 -0.73183 5.8675 0.0423285 255 0 255 
-1.20564 -0.725436 5.8445 0.0954652 255 0 255 
-1.19204 -0.724651 5.88317 0.0304115 255 0 255 
-1.17963 -0.738165 5.8904 0.038398 255 0 255 
-1.19473 -0.714591 5.90098 0.0320389 255 0 255 
-1.20737 -0.70057 5.89341 0.0426355 255 0 255 
-1.21992 -0.686577 5.88572 0.108021 255 0 255 
-1.20987 -0.690254 5.91109 0.0510853 255 0 255 
-1.18923 -0.739281 5.84784 0.0390232 255 0 255 
-1.18962 -0.743848 5.83112 0.0514743 255 0 255 
-1.17365 -0.752519 5.85056 0.0201552 255 0 255 
-1.17352 -0.757386 5.83401 0.0239549 255 0 255 
-1.15811 -0.770426 5.83643 0.0241668 255 0 255 
-1.17404 -0.761919 5.81709 0.0403406 255 0 255 
-1.14207 -0.778998 5.85571 0.0264042 255 0 255 
-1.16085 -0.758745 5.87335 0.0237221 255 0 255 
-1.17629 -0.745716 5.87072 0.0196088 255 0 255 
-1.12744 -0.782267 5.89686 0.0140148 255 0 255 
-1.13948 -0.770531 5.90809 0.0217077 255 0 255 
-1.15682 -0.755903 5.90598 0.0274271 255 0 255 
-1.16887 -0.743996 5.91704 0.0453416 255 0 255 
-1.14342 -0.773443 5.87541 0.0262483 255 0 255 
-1.12609 -0.787872 5.87721 0.0295584 255 0 255 
-1.17115 -0.735 5.93558 0.0209765 255 0 255 
-1.1843 -0.720171 5.92754 0.0437099 255 0 255 
-1.1918 -0.70722 5.94934 0.0603469 255 0 255 
-1.2046 -0.692232 5.94112 0.100891 255 0 255 
-1.19718 -0.70531 5.91938 0.0595532 255 0 255 
-1.18205 -0.729181 5.90892 0.0490817 255 0 255 
-1.22915 -0.592923 5.95532 0.0417239 255 0 255 
-1.22926 -0.607984 5.94257 0.074741 255 0 255 
-1.23197 -0.593396 5.92822 0.0888514 255 0 255 
-1.23186 -0.608707 5.91546 0.0420297 255 0 255 
-1.22905 -0.622846 5.92956 0.0823035 255 0 255 
-1.22854 -0.637864 5.91662 0.0689857 255 0 255 
-1.22493 -0.638565 5.94629 0.106163 255 0 255 
-1.22522 -0.623554 5.9592 0.05104 255 0 255 
-1.23736 -0.592864 5.90226 0.091744 255 0 255 
-1.24019 -0.606617 5.89052 0.195264 255 0 255 
-1.23703 -0.635611 5.89175 0.193763 255 0 255 
-1.23439 -0.622367 5.90375 0.0877387 255 0 255 
-1.22948 -0.672076 5.87463 0.15946 255 0 255 
-1.22956 -0.660369 5.88845 0.112898 255 0 255 
-1.21992 -0.675301 5.89983 0.0605414 255 0 255 
-1.21966 -0.664108 5.9139 0.0441818 255 0 255 
-1.21315 -0.677616 5.92737 0.0544197 255 0 255 
-1.21626 -0.664612 5.94345 0.0962612 255 0 255 
-1.2073 -0.679749 5.95739 0.0613329 255 0 255 
-1.21899 -0.651692 5.95955 0.0685181 255 0 255 
-1.22247 -0.651347 5.93015 0.061694 255 0 255 
-1.10573 -0.80371 5.85358 0.0121427 255 0 255 
-1.12397 -0.791442 5.85472 0.0138229 255 0 255 
-1.12163 -0.795083 5.83226 0.00718431 255 0 255 
-1.10354 -0.807366 5.83086 0.00715031 255 0 255 
-1.10175 -0.810761 5.80805 0.00313807 255 0 255 
-1.08297 -0.820451 5.82567 0.00524077 255 0 255 
-1.08475 -0.816932 5.84855 0.00809725 255 0 255 
-1.14074 -0.782541 5.83589 0.0112659 255 0 255 
-1.13921 -0.786255 5.81618 0.00834396 255 0 255 
-1.15666 -0.774075 5.81671 0.0165218 255 0 255 
-1.15496 -0.777729 5.79696 0.0176065 255 0 255 
-1.13811 -0.789474 5.79593 0.00774942 255 0 255 
-1.13678 -0.793019 5.7759 0.00393452 255 0 255 
-1.11945 -0.801965 5.79206 0.00461491 255 0 255 
-1.1202 -0.798693 5.81223 0.0045689 255 0 255 
-1.10334 -0.816657 5.72282 0.00147636 255 0 255 
-1.10261 -0.815412 5.74453 0.000830722 255 0 255 
-1.08457 -0.825859 5.73647 0.000858602 255 0 255 
-1.10202 -0.814131 5.76574 0.000932238 255 0 255 
-1.08377 -0.824622 5.75786 0.000529399 255 0 255 
-1.08325 -0.823134 5.77923 0.00087195 255 0 255 
-1.0654 -0.834975 5.75009 0.000272464 255 0 255 
-1.10186 -0.81254 5.78706 0.00218596 255 0 255 
-1.11934 -0.803641 5.77104 0.00147805 255 0 255 
-1.11955 -0.805157 5.74971 0.001553 255 0 255 
-1.0648 -0.834106 5.77358 0.000923777 255 0 255 
-1.04482 -0.845323 5.76472 0.000687444 255 0 255 
-1.06434 -0.832829 5.79685 0.00186074 255 0 255 
-1.0442 -0.844359 5.78813 0.0019246 255 0 255 
-1.06412 -0.831413 5.82009 0.00415264 255 0 255 
-1.08308 -0.821869 5.80256 0.00235382 255 0 255 
-1.12062 -0.807375 5.72994 0.0039452 255 0 255 
-1.13733 -0.795524 5.75646 0.00638555 255 0 255 
-1.15461 -0.781813 5.77901 0.0099779 255 0 255 
-0.968648 -0.32524 5.6039 0.0941889 255 0 255 
-0.964319 -0.317822 5.62092 0.044621 255 0 255 
-0.960233 -0.31055 5.63807 0.0252599 255 0 255 
-0.982748 -0.31823 5.62742 0.0815393 255 0 255 
-0.937749 -0.302824 5.64877 0.0298708 255 0 255 
-0.94137 -0.31053 5.6312 0.0287952 255 0 255 
-0.945127 -0.318046 5.61368 0.0361261 255 0 255 
-0.921505 -0.310843 5.62356 0.0347964 255 0 255 
