ply
format ascii 1.0
comment Seamless Cloth Simulation with High Geometric Fidelity 
comment Tue May  7 09:44:00 2019
element vertex 985
property float x
property float y
property float z
property float quality
property uchar red
property uchar green
property uchar blue
end_header
-0.376096 -0.323212 5.36387 0.0390964 255 0 255 
-0.410578 -0.33681 5.35337 0.0343151 255 0 255 
-0.399485 -0.323887 5.36051 0.0300566 255 0 255 
-0.422097 -0.325442 5.35761 0.0428396 255 0 255 
-0.421313 -0.349612 5.34661 0.0280749 255 0 255 
-0.433273 -0.3379 5.35035 0.0549186 255 0 255 
-0.444451 -0.350269 5.34287 0.0727624 255 0 255 
-0.411503 -0.312834 5.36503 0.0441374 255 0 255 
-0.642603 -0.200358 5.57755 0.0125689 255 0 255 
-0.631908 -0.183969 5.59136 0.0140036 255 0 255 
-0.65332 -0.18509 5.60118 0.0149325 255 0 255 
-0.62104 -0.167702 5.60523 0.0145096 255 0 255 
-0.642581 -0.169219 5.61545 0.0157145 255 0 255 
-0.631478 -0.153497 5.62994 0.0150876 255 0 255 
-0.663714 -0.170327 5.62517 0.0159419 255 0 255 
-0.609939 -0.15172 5.61925 0.0134699 255 0 255 
-0.59846 -0.135761 5.63367 0.0198673 255 0 255 
-0.585993 -0.151096 5.60477 0.0224377 255 0 255 
-0.597007 -0.167535 5.59132 0.0161745 255 0 255 
-0.608086 -0.18429 5.57788 0.0145479 255 0 255 
-0.573037 -0.166842 5.57679 0.0215075 255 0 255 
-0.655116 -0.155143 5.64197 0.0129064 255 0 255 
-0.67641 -0.15777 5.65044 0.0139058 255 0 255 
-0.646729 -0.140397 5.65885 0.00911251 255 0 255 
-0.667679 -0.143272 5.66779 0.00912775 255 0 255 
-0.630509 -0.131873 5.66129 0.0119602 255 0 255 
-0.61378 -0.122931 5.66368 0.012835 255 0 255 
-0.560565 -0.0963898 5.67748 0.0127796 255 0 255 
-0.579188 -0.104927 5.67359 0.0100793 255 0 255 
-0.55162 -0.102821 5.66051 0.0115441 255 0 255 
-0.570908 -0.111753 5.6568 0.0148648 255 0 255 
-0.561994 -0.118322 5.64009 0.0136707 255 0 255 
-0.54309 -0.109609 5.64341 0.0142237 255 0 255 
-0.589218 -0.120306 5.65337 0.0125511 255 0 255 
-0.580446 -0.127176 5.63692 0.0188627 255 0 255 
-0.604284 -0.107936 5.68365 0.00980822 255 0 255 
-0.529842 -0.124228 5.61161 0.0170227 255 0 255 
-0.54977 -0.132761 5.61035 0.0157933 255 0 255 
-0.522468 -0.131773 5.5954 0.0105323 255 0 255 
-0.542419 -0.140762 5.59431 0.0127188 255 0 255 
-0.535111 -0.148672 5.57862 0.00853988 255 0 255 
-0.514808 -0.139362 5.57964 0.00748384 255 0 255 
-0.561759 -0.149558 5.59321 0.014657 255 0 255 
-0.554268 -0.157844 5.57771 0.0128677 255 0 255 
-0.469529 -0.131974 5.5662 0.00951098 255 0 255 
-0.449011 -0.124579 5.56957 0.0124424 255 0 255 
-0.444418 -0.1338 5.55196 0.0135002 255 0 255 
-0.428617 -0.117624 5.5739 0.0156961 255 0 255 
-0.423733 -0.126694 5.55562 0.0175956 255 0 255 
-0.402435 -0.119868 5.55988 0.0244444 255 0 255 
-0.407289 -0.111216 5.57817 0.0214009 255 0 255 
-0.418727 -0.135808 5.53799 0.0204107 255 0 255 
-0.397451 -0.12893 5.54197 0.027218 255 0 255 
-0.392739 -0.138143 5.52438 0.0331405 255 0 255 
-0.414345 -0.14432 5.52243 0.026516 255 0 255 
-0.44012 -0.142379 5.53644 0.016708 255 0 255 
-0.435832 -0.151006 5.52116 0.0242002 255 0 255 
-0.461496 -0.149264 5.53543 0.016154 255 0 255 
-0.465556 -0.140478 5.55084 0.0121174 255 0 255 
-0.485773 -0.147425 5.55018 0.0125113 255 0 255 
-0.456792 -0.158117 5.52055 0.0204922 255 0 255 
-0.481372 -0.156275 5.5352 0.0150803 255 0 255 
-0.476673 -0.165326 5.52032 0.0184273 255 0 255 
-0.490123 -0.138742 5.5653 0.0103064 255 0 255 
-0.384276 -0.108059 5.58239 0.0160532 255 0 255 
-0.361893 -0.104003 5.58865 0.0133875 255 0 255 
-0.355961 -0.113706 5.56793 0.0191481 255 0 255 
-0.339684 -0.100326 5.59514 0.0176721 255 0 255 
-0.334085 -0.109966 5.57436 0.0174239 255 0 255 
-0.328063 -0.119961 5.55409 0.0250767 255 0 255 
-0.323241 -0.128931 5.53661 0.0341534 255 0 255 
-0.351165 -0.122534 5.54973 0.0244301 255 0 255 
-0.346164 -0.131487 5.53208 0.029251 255 0 255 
-0.374394 -0.125519 5.54567 0.0231318 255 0 255 
-0.379357 -0.116593 5.56379 0.0196241 255 0 255 
-0.369732 -0.134574 5.52803 0.0305987 255 0 255 
-0.319535 -0.17052 5.47295 0.0695328 255 0 255 
-0.319498 -0.160298 5.48653 0.0558789 255 0 255 
-0.343274 -0.162067 5.48374 0.0485999 255 0 255 
-0.34298 -0.172266 5.47001 0.0655099 255 0 255 
-0.343555 -0.152375 5.49797 0.041571 255 0 255 
-0.366807 -0.16438 5.48146 0.0453823 255 0 255 
-0.367307 -0.154652 5.4957 0.0392432 255 0 255 
-0.390983 -0.157605 5.49409 0.0424907 255 0 255 
-0.366256 -0.174661 5.46787 0.0452123 255 0 255 
-0.390546 -0.167357 5.4801 0.0469626 255 0 255 
-0.389741 -0.177441 5.46643 0.0635315 255 0 255 
-0.368306 -0.145268 5.51046 0.0319377 255 0 255 
-0.392019 -0.147981 5.50899 0.0358922 255 0 255 
-0.344661 -0.142011 5.51445 0.0347559 255 0 255 
-0.321871 -0.139313 5.51885 0.0330948 255 0 255 
-0.320525 -0.149715 5.50229 0.0461307 255 0 255 
-0.411772 -0.183445 5.46706 0.0553062 255 0 255 
-0.433359 -0.180466 5.47986 0.0404571 255 0 255 
-0.454114 -0.187432 5.48171 0.0269352 255 0 255 
-0.474968 -0.185048 5.49568 0.0198987 255 0 255 
-0.473736 -0.204071 5.472 0.0233768 255 0 255 
-0.455189 -0.168332 5.50565 0.0244842 255 0 255 
-0.434822 -0.161069 5.50632 0.0268033 255 0 255 
-0.413362 -0.154324 5.50726 0.0294048 255 0 255 
-0.413059 -0.164244 5.49254 0.0334911 255 0 255 
-0.457506 -0.207164 5.46058 0.0349552 255 0 255 
-0.437212 -0.200223 5.45866 0.0529231 255 0 255 
-0.420151 -0.20379 5.44759 0.0627817 255 0 255 
-0.398731 -0.19786 5.44622 0.0893641 255 0 255 
-0.407551 -0.218257 5.42754 0.0947477 255 0 255 
-0.429088 -0.224664 5.42982 0.0560999 255 0 255 
-0.445765 -0.221018 5.44088 0.0583648 255 0 255 
-0.466281 -0.228217 5.44372 0.0527398 255 0 255 
-0.482124 -0.225219 5.45544 0.0278659 255 0 255 
-0.490196 -0.245792 5.4386 0.0285178 255 0 255 
-0.352235 -0.191994 5.4465 0.099117 255 0 255 
-0.329027 -0.190229 5.44914 0.120612 255 0 255 
-0.338866 -0.210454 5.42912 0.119919 255 0 255 
-0.361969 -0.212399 5.42769 0.137267 255 0 255 
-0.380256 -0.20471 5.43657 0.092998 255 0 255 
-0.366094 -0.241024 5.40423 0.126977 255 0 255 
-0.388957 -0.244326 5.4049 0.0807069 255 0 255 
-0.411495 -0.248529 5.40573 0.062456 255 0 255 
-0.424872 -0.241406 5.41369 0.0850248 255 0 255 
-0.441288 -0.264129 5.40001 0.100986 255 0 255 
-0.393508 -0.225432 5.41933 0.113157 255 0 255 
-0.461864 -0.270903 5.40302 0.0573361 255 0 255 
-0.481967 -0.278236 5.40651 0.0411549 255 0 255 
-0.46574 -0.254412 5.41836 0.0513817 255 0 255 
-0.485529 -0.262094 5.42242 0.0288501 255 0 255 
-0.505215 -0.270223 5.42673 0.0100857 255 0 255 
-0.501714 -0.285587 5.41 0.0233925 255 0 255 
-0.52097 -0.293634 5.41333 0.0193939 255 0 255 
-0.445655 -0.247826 5.41591 0.0869275 255 0 255 
-0.522049 -0.457103 5.27876 0.0315322 255 0 255 
-0.545959 -0.475187 5.26938 0.0417075 255 0 255 
-0.52344 -0.477917 5.26664 0.0259179 255 0 255 
-0.547411 -0.495096 5.25668 0.0284963 255 0 255 
-0.569822 -0.493404 5.26042 0.0369793 255 0 255 
-0.593097 -0.510488 5.24924 0.0468483 255 0 255 
-0.595492 -0.490567 5.26636 0.0602677 255 0 255 
-0.572156 -0.472679 5.27643 0.0526409 255 0 255 
-0.548393 -0.453641 5.28495 0.0437658 255 0 255 
-0.597219 -0.471021 5.28386 0.0773037 255 0 255 
-0.519324 -0.499014 5.25318 0.0219188 255 0 255 
-0.537283 -0.516469 5.24119 0.0206096 255 0 255 
-0.515999 -0.518503 5.23976 0.0180864 255 0 255 
-0.561054 -0.522913 5.23683 0.0243564 255 0 255 
-0.584342 -0.529447 5.23234 0.0471131 255 0 255 
-0.641446 -0.559704 5.2204 0.0654675 255 0 255 
-0.662416 -0.570155 5.2174 0.0877846 255 0 255 
-0.620521 -0.549526 5.224 0.0546807 255 0 255 
-0.633793 -0.533258 5.24519 0.0826735 255 0 255 
-0.653614 -0.544705 5.24272 0.0816629 255 0 255 
-0.67352 -0.556293 5.24028 0.0722221 255 0 255 
-0.606659 -0.530595 5.23716 0.0618047 255 0 255 
-0.5974 -0.548789 5.2194 0.0331159 255 0 255 
-0.678965 -0.548273 5.25433 0.0790639 255 0 255 
-0.659584 -0.527582 5.26598 0.0804643 255 0 255 
-0.684555 -0.540504 5.26834 0.0765422 255 0 255 
-0.634642 -0.515337 5.26412 0.051477 255 0 255 
-0.664865 -0.519575 5.2795 0.044593 255 0 255 
-0.640842 -0.506458 5.27654 0.0422852 255 0 255 
-0.646427 -0.497889 5.28962 0.0300212 255 0 255 
-0.689345 -0.533495 5.28305 0.0386282 255 0 255 
-0.67025 -0.511913 5.29368 0.0228873 255 0 255 
-0.694202 -0.527246 5.29892 0.0130267 255 0 255 
-0.616154 -0.493819 5.27441 0.0493217 255 0 255 
-0.622437 -0.484372 5.28646 0.0467738 255 0 255 
-0.614226 -0.512536 5.25653 0.0424225 255 0 255 
-0.504049 -0.30547 5.39324 0.0456057 255 0 255 
-0.484409 -0.298012 5.39064 0.0466545 255 0 255 
-0.464135 -0.291142 5.38819 0.0580665 255 0 255 
-0.48725 -0.31798 5.37429 0.0732918 255 0 255 
-0.506943 -0.325623 5.37733 0.0395696 255 0 255 
-0.526835 -0.333688 5.38015 0.0179178 255 0 255 
-0.523495 -0.313779 5.39684 0.0186655 255 0 255 
-0.542835 -0.322406 5.40074 0.00765751 255 0 255 
-0.546074 -0.342093 5.38333 0.00958726 255 0 255 
-0.565135 -0.35067 5.38694 0.00700909 255 0 255 
-0.409545 -0.268356 5.39131 0.0903386 255 0 255 
-0.420824 -0.281001 5.38486 0.0799146 255 0 255 
-0.432175 -0.294402 5.37901 0.0711515 255 0 255 
-0.443843 -0.308078 5.37249 0.0402217 255 0 255 
-0.465585 -0.312903 5.3733 0.0453508 255 0 255 
-0.467541 -0.355665 5.34306 0.0497781 255 0 255 
-0.490322 -0.36139 5.34321 0.0407663 255 0 255 
-0.465743 -0.333376 5.35724 0.0756008 255 0 255 
-0.488646 -0.339485 5.35887 0.0549854 255 0 255 
-0.510718 -0.346294 5.36004 0.0422678 255 0 255 
-0.512794 -0.36758 5.34403 0.0310679 255 0 255 
-0.535315 -0.374029 5.34485 0.0437753 255 0 255 
-0.554953 -0.38245 5.34824 0.0210539 255 0 255 
-0.574321 -0.391271 5.35179 0.00896388 255 0 255 
-0.550462 -0.361549 5.36507 0.0241087 255 0 255 
-0.569573 -0.370797 5.36945 0.00843369 255 0 255 
-0.588647 -0.379988 5.37377 0.00236926 255 0 255 
-0.593408 -0.400305 5.35564 0.00439904 255 0 255 
-0.612277 -0.409268 5.35955 0.00406468 255 0 255 
-0.530922 -0.353569 5.3624 0.0251071 255 0 255 
-0.621178 -0.201707 5.56579 0.0101634 255 0 255 
-0.599733 -0.202766 5.55377 0.0085037 255 0 255 
-0.586428 -0.184733 5.56517 0.0129948 255 0 255 
-0.564741 -0.184638 5.55194 0.0133859 255 0 255 
-0.578254 -0.202857 5.54086 0.00774265 255 0 255 
-0.556537 -0.202341 5.52776 0.00865817 255 0 255 
-0.592947 -0.220155 5.53281 0.00393352 255 0 255 
-0.614521 -0.219582 5.54512 0.00438198 255 0 255 
-0.636206 -0.217966 5.55624 0.00768773 255 0 255 
-0.629433 -0.235818 5.53578 0.0039535 255 0 255 
-0.549629 -0.16739 5.56334 0.0121633 255 0 255 
-0.530701 -0.157937 5.56369 0.00880686 255 0 255 
-0.525894 -0.166984 5.54938 0.00854653 255 0 255 
-0.5108 -0.148389 5.56431 0.00923378 255 0 255 
-0.506216 -0.157348 5.54971 0.00918617 255 0 255 
-0.501708 -0.166371 5.53507 0.0101351 255 0 255 
-0.518152 -0.184236 5.52389 0.00855643 255 0 255 
-0.541718 -0.184856 5.53845 0.00773359 255 0 255 
-0.494399 -0.213635 5.47583 0.0146162 255 0 255 
-0.514952 -0.214214 5.48976 0.00566097 255 0 255 
-0.534623 -0.223034 5.49351 0.00311989 255 0 255 
-0.554511 -0.222105 5.50723 0.00395296 255 0 255 
-0.553335 -0.241309 5.48693 0.00179306 255 0 255 
-0.536261 -0.203878 5.51389 0.00758418 255 0 255 
-0.496608 -0.184808 5.50984 0.0126228 255 0 255 
-0.572211 -0.250567 5.49134 0.00260101 255 0 255 
-0.591047 -0.249723 5.50366 0.00291491 255 0 255 
-0.609828 -0.257775 5.50666 0.00221689 255 0 255 
-0.628536 -0.255958 5.518 0.00208932 255 0 255 
-0.628493 -0.275063 5.49974 0.00148598 255 0 255 
-0.610361 -0.238758 5.52446 0.00247043 255 0 255 
-0.574112 -0.22119 5.52029 0.00368029 255 0 255 
-0.613481 -0.277916 5.48958 0.00170508 255 0 255 
-0.594567 -0.26985 5.48695 0.00294499 255 0 255 
-0.579829 -0.271643 5.47591 0.00217472 255 0 255 
-0.560843 -0.262863 5.47194 0.00150838 255 0 255 
-0.568639 -0.283722 5.45611 0.000704511 255 0 255 
-0.587409 -0.292369 5.46057 0.00163322 255 0 255 
-0.601972 -0.29079 5.47151 0.00263276 255 0 255 
-0.620944 -0.298888 5.47468 0.00286796 255 0 255 
-0.635969 -0.296129 5.48487 0.00286797 255 0 255 
-0.643975 -0.316866 5.4692 0.00267463 255 0 255 
-0.537294 -0.243319 5.47458 0.00208596 255 0 255 
-0.51803 -0.233997 5.471 0.0055166 255 0 255 
-0.50217 -0.234663 5.4589 0.0115548 255 0 255 
-0.510054 -0.255566 5.44324 0.0079296 255 0 255 
-0.525683 -0.254714 5.45518 0.00339127 255 0 255 
-0.545198 -0.26429 5.45987 0.000814321 255 0 255 
-0.540318 -0.303208 5.41742 0.00679733 255 0 255 
-0.559586 -0.312743 5.42127 0.0023027 255 0 255 
-0.544684 -0.288789 5.43462 0.00126838 255 0 255 
-0.56382 -0.298254 5.43905 0.000738529 255 0 255 
-0.58277 -0.30707 5.44288 0.00112558 255 0 255 
-0.578664 -0.32154 5.42556 0.000833767 255 0 255 
-0.597469 -0.330427 5.42879 0.00083541 255 0 255 
-0.52492 -0.279558 5.43082 0.00423059 255 0 255 
-0.615146 -0.339083 5.43259 0.00196584 255 0 255 
-0.632929 -0.346854 5.43622 0.00281371 255 0 255 
-0.620228 -0.324599 5.44981 0.00243773 255 0 255 
-0.637993 -0.332544 5.45289 0.00429449 255 0 255 
-0.65622 -0.340038 5.45573 0.00508127 255 0 255 
-0.650742 -0.354929 5.43933 0.00540836 255 0 255 
-0.669476 -0.362871 5.44218 0.00699455 255 0 255 
-0.601655 -0.316148 5.44664 0.00249253 255 0 255 
-0.893419 -0.910083 5.83201 0.0183151 255 0 255 
-0.872537 -0.911978 5.84414 0.0272918 255 0 255 
-0.86558 -0.923282 5.82314 0.0285614 255 0 255 
-0.886323 -0.919565 5.81029 0.0275563 255 0 255 
-0.844975 -0.927169 5.83506 0.0378379 255 0 255 
-0.859118 -0.933747 5.80184 0.0368927 255 0 255 
-0.838744 -0.93912 5.81447 0.0293557 255 0 255 
-0.832731 -0.950049 5.79404 0.0348522 255 0 255 
-0.879662 -0.928694 5.78846 0.028627 255 0 255 
-0.85276 -0.943243 5.7808 0.0283626 255 0 255 
-0.872982 -0.93627 5.76687 0.0316357 255 0 255 
-0.818667 -0.944666 5.82652 0.0341227 255 0 255 
-0.813077 -0.957065 5.80684 0.0424496 255 0 255 
-0.79351 -0.963598 5.81896 0.0573908 255 0 255 
-0.799446 -0.947954 5.84023 0.0292476 255 0 255 
-0.825146 -0.929199 5.8484 0.0329557 255 0 255 
-0.805684 -0.931999 5.86161 0.0219657 255 0 255 
-0.8324 -0.913913 5.87088 0.026998 255 0 255 
-0.852615 -0.912989 5.85787 0.0313685 255 0 255 
-0.812762 -0.916183 5.88356 0.0238693 255 0 255 
-0.868365 -0.941579 5.74219 0.027926 255 0 255 
-0.847844 -0.951188 5.75562 0.0229146 255 0 255 
-0.843085 -0.956556 5.73171 0.0180147 255 0 255 
-0.864301 -0.945307 5.71729 0.0164536 255 0 255 
-0.822748 -0.967611 5.7444 0.0310539 255 0 255 
-0.838175 -0.960727 5.70735 0.012036 255 0 255 
-0.817362 -0.972376 5.72004 0.0235563 255 0 255 
-0.811789 -0.97662 5.69594 0.0201502 255 0 255 
-0.860092 -0.948442 5.69235 0.00618489 255 0 255 
-0.833183 -0.964453 5.68267 0.00823813 255 0 255 
-0.856089 -0.951575 5.66746 0.00323971 255 0 255 
-0.797602 -0.983439 5.73184 0.0394537 255 0 255 
-0.791866 -0.987793 5.70763 0.0397398 255 0 255 
-0.772658 -0.997969 5.71832 0.0651661 255 0 255 
-0.778951 -0.992369 5.74411 0.0705007 255 0 255 
-0.803511 -0.976698 5.75736 0.0433431 255 0 255 
-0.784648 -0.985164 5.7697 0.083232 255 0 255 
-0.808604 -0.968141 5.78261 0.0506273 255 0 255 
-0.828103 -0.959814 5.76941 0.0379686 255 0 255 
-0.789528 -0.975748 5.79477 0.0806261 255 0 255 
-0.712691 -1.01615 5.78515 0.168492 255 0 255 
-0.718207 -1.00595 5.81072 0.138231 255 0 255 
-0.740412 -1.00097 5.79696 0.143055 255 0 255 
-0.722576 -0.992035 5.83476 0.0852974 255 0 255 
-0.745002 -0.987881 5.82162 0.09256 255 0 255 
-0.748884 -0.971925 5.84514 0.0435037 255 0 255 
-0.726374 -0.975216 5.85774 0.0371146 255 0 255 
-0.767122 -0.983055 5.80816 0.0883289 255 0 255 
-0.771289 -0.96796 5.83216 0.0436568 255 0 255 
-0.762644 -0.993559 5.78337 0.103202 255 0 255 
-0.757327 -1.00121 5.75771 0.0992759 255 0 255 
-0.735175 -1.00915 5.7715 0.133977 255 0 255 
-0.729314 -1.01474 5.74562 0.115413 255 0 255 
-0.751198 -1.00665 5.73191 0.0861628 255 0 255 
-0.706555 -1.02198 5.75934 0.145737 255 0 255 
-0.731424 -0.957435 5.87762 0.0132547 255 0 255 
-0.737754 -0.937397 5.89919 0.0199984 255 0 255 
-0.75964 -0.936756 5.88594 0.019583 255 0 255 
-0.744692 -0.917612 5.9209 0.0711384 255 0 255 
-0.766765 -0.917637 5.90838 0.057198 255 0 255 
-0.789018 -0.917526 5.89519 0.040219 255 0 255 
-0.782686 -0.934534 5.87377 0.0179325 255 0 255 
-0.776794 -0.951637 5.853 0.0257041 255 0 255 
-0.754361 -0.955232 5.86562 0.0171775 255 0 255 
-0.650828 -0.373824 5.42269 0.00722893 255 0 255 
-0.633245 -0.365543 5.41944 0.0048319 255 0 255 
-0.615432 -0.357323 5.41609 0.00336094 255 0 255 
-0.633618 -0.383941 5.40222 0.00586273 255 0 255 
-0.649266 -0.391483 5.40611 0.00686651 255 0 255 
-0.66552 -0.398944 5.41006 0.00822467 255 0 255 
-0.667296 -0.381215 5.42646 0.00610044 255 0 255 
-0.684831 -0.388786 5.42989 0.00600251 255 0 255 
-0.68296 -0.406739 5.41398 0.0105979 255 0 255 
-0.701798 -0.415139 5.41771 0.0123612 255 0 255 
-0.581295 -0.34068 5.40806 0.00159377 255 0 255 
-0.562168 -0.331778 5.40454 0.00293417 255 0 255 
-0.582732 -0.358944 5.39107 0.00190917 255 0 255 
-0.599603 -0.367486 5.39492 0.00178 255 0 255 
-0.598381 -0.34922 5.41211 0.0017702 255 0 255 
-0.616612 -0.375812 5.39875 0.00401932 255 0 255 
-0.627291 -0.416815 5.36382 0.00280809 255 0 255 
-0.641923 -0.424338 5.36828 0.00365036 255 0 255 
-0.622848 -0.396811 5.38078 0.0028532 255 0 255 
-0.637471 -0.404286 5.38513 0.00453199 255 0 255 
-0.652829 -0.411945 5.38968 0.0077088 255 0 255 
-0.65703 -0.432069 5.37262 0.00802803 255 0 255 
-0.672849 -0.439727 5.3773 0.0139738 255 0 255 
-0.60567 -0.388383 5.37735 0.00184498 255 0 255 
-0.694896 -0.440537 5.393 0.0198215 255 0 255 
-0.720508 -0.441573 5.4076 0.0142135 255 0 255 
-0.721675 -0.460624 5.39334 0.0211315 255 0 255 
-0.66899 -0.419703 5.39371 0.0120182 255 0 255 
-0.32701 -0.787361 5.04236 0.0316726 255 0 255 
-0.306189 -0.791776 5.04127 0.0276874 255 0 255 
-0.291989 -0.807466 5.04048 0.0229741 255 0 255 
-0.271554 -0.812291 5.03936 0.0185702 255 0 255 
-0.283795 -0.833734 5.03835 0.0285879 255 0 255 
-0.304238 -0.828763 5.03901 0.0329326 255 0 255 
-0.318556 -0.813049 5.04064 0.0275514 255 0 255 
-0.339461 -0.807748 5.0414 0.0339902 255 0 255 
-0.355249 -0.792129 5.04349 0.0410372 255 0 255 
-0.368423 -0.812881 5.04269 0.0490658 255 0 255 
-0.239828 -0.807254 5.0374 0.0142975 255 0 255 
-0.213517 -0.812908 5.03378 0.0123048 255 0 255 
-0.191468 -0.830428 5.02932 0.0152611 255 0 255 
-0.204067 -0.852008 5.02971 0.019025 255 0 255 
-0.225925 -0.83447 5.03441 0.0154593 255 0 255 
-0.252452 -0.828493 5.03728 0.0161427 255 0 255 
-0.22181 -0.896558 5.0342 0.0434155 255 0 255 
-0.245498 -0.878822 5.0371 0.0430651 255 0 255 
-0.271753 -0.873466 5.03939 0.0304549 255 0 255 
-0.292293 -0.856566 5.04048 0.0352976 255 0 255 
-0.300827 -0.879662 5.04164 0.0679455 255 0 255 
-0.262939 -0.850414 5.03792 0.024982 255 0 255 
-0.236796 -0.856217 5.03526 0.0242318 255 0 255 
-0.212783 -0.873905 5.03244 0.0222861 255 0 255 
-0.321144 -0.8748 5.04268 0.0666756 255 0 255 
-0.337638 -0.857866 5.04302 0.057912 255 0 255 
-0.359014 -0.85298 5.04479 0.0392815 255 0 255 
-0.377176 -0.836033 5.0454 0.038761 255 0 255 
-0.38619 -0.859399 5.04795 0.0682725 255 0 255 
-0.350428 -0.829262 5.04229 0.0358203 255 0 255 
-0.328971 -0.834841 5.04104 0.0387953 255 0 255 
-0.31275 -0.851471 5.04095 0.0400622 255 0 255 
-0.660618 -1.02382 5.59183 0.00826829 255 0 255 
-0.667298 -1.02309 5.61245 0.0100907 255 0 255 
-0.690296 -1.01778 5.59939 0.0126909 255 0 255 
-0.674056 -1.02305 5.63394 0.0141002 255 0 255 
-0.697163 -1.01717 5.62043 0.0169584 255 0 255 
-0.70395 -1.01694 5.64213 0.0224585 255 0 255 
-0.681022 -1.02334 5.65592 0.0207377 255 0 255 
-0.719737 -1.01152 5.60675 0.0222747 255 0 255 
-0.726313 -1.01074 5.62821 0.0281823 255 0 255 
-0.748639 -1.00407 5.6139 0.0385194 255 0 255 
-0.741802 -1.00532 5.59139 0.0384871 255 0 255 
-0.712516 -1.0121 5.58459 0.0197727 255 0 255 
-0.735029 -1.00658 5.56946 0.0398103 255 0 255 
-0.705319 -1.0127 5.56348 0.0177727 255 0 255 
-0.682952 -1.01808 5.57744 0.0105032 255 0 255 
-0.675659 -1.01832 5.55628 0.0125873 255 0 255 
-0.728242 -1.0069 5.54855 0.0347113 255 0 255 
-0.69819 -1.01299 5.54246 0.018216 255 0 255 
-0.721207 -1.00693 5.5277 0.0285513 255 0 255 
-0.65317 -1.02448 5.56992 0.0114874 255 0 255 
-0.688088 -1.02498 5.68283 0.0418264 255 0 255 
-0.694666 -1.02527 5.70811 0.0680108 255 0 255 
-0.71739 -1.01864 5.695 0.0638547 255 0 255 
-0.700789 -1.02455 5.73367 0.104848 255 0 255 
-0.723567 -1.01743 5.72015 0.0878735 255 0 255 
-0.745462 -1.00977 5.70677 0.0737849 255 0 255 
-0.766955 -1.00014 5.69177 0.0511036 255 0 255 
-0.73929 -1.01036 5.68015 0.0507483 255 0 255 
-0.761098 -1.0015 5.66546 0.0424484 255 0 255 
-0.732967 -1.01038 5.65409 0.0356671 255 0 255 
-0.710926 -1.01753 5.66855 0.0353722 255 0 255 
-0.754963 -1.00244 5.63971 0.036562 255 0 255 
-0.853179 -0.952015 5.63931 0.0020219 255 0 255 
-0.828874 -0.967179 5.65582 0.0094251 255 0 255 
-0.825131 -0.968154 5.62841 0.0090856 255 0 255 
-0.850885 -0.953029 5.61191 0.0034306 255 0 255 
-0.801865 -0.98197 5.6427 0.0248986 255 0 255 
-0.821476 -0.969496 5.60189 0.0125468 255 0 255 
-0.79726 -0.982608 5.61616 0.0227792 255 0 255 
-0.792529 -0.983582 5.59031 0.0239426 255 0 255 
-0.848345 -0.954909 5.58541 0.00845492 255 0 255 
-0.818062 -0.970981 5.5757 0.0191078 255 0 255 
-0.845649 -0.957098 5.55999 0.0215065 255 0 255 
-0.775266 -0.99411 5.62874 0.0372507 255 0 255 
-0.769543 -0.9946 5.60276 0.0320533 255 0 255 
-0.780886 -0.992471 5.65473 0.0358631 255 0 255 
-0.786352 -0.990627 5.68108 0.0372661 255 0 255 
-0.8067 -0.979486 5.66933 0.0203349 255 0 255 
-0.843231 -0.957059 5.53164 0.0359021 255 0 255 
-0.812434 -0.974305 5.55417 0.0331637 255 0 255 
-0.808371 -0.973096 5.52656 0.0345947 255 0 255 
-0.839088 -0.95626 5.50448 0.0468168 255 0 255 
-0.780257 -0.988481 5.54643 0.0404487 255 0 255 
-0.802548 -0.971003 5.49907 0.0326948 255 0 255 
-0.774685 -0.985811 5.51929 0.0271758 255 0 255 
-0.768504 -0.982098 5.49174 0.0176681 255 0 255 
-0.833888 -0.954565 5.47636 0.0653953 255 0 255 
-0.795749 -0.967946 5.47095 0.0310825 255 0 255 
-0.826043 -0.951783 5.4486 0.0678722 255 0 255 
-0.749987 -0.999298 5.53737 0.0371883 255 0 255 
-0.743886 -0.995131 5.51062 0.0180408 255 0 255 
-0.75659 -0.99835 5.55855 0.0392431 255 0 255 
-0.763063 -0.996621 5.58033 0.0357648 255 0 255 
-0.786525 -0.986472 5.56795 0.0341921 255 0 255 
-0.696306 -0.991802 5.35894 0.0184212 255 0 255 
-0.682105 -1.00168 5.37345 0.0193532 255 0 255 
-0.677911 -1.00754 5.4008 0.0169804 255 0 255 
-0.664089 -1.01744 5.41475 0.0173818 255 0 255 
-0.660485 -1.02309 5.44123 0.0250599 255 0 255 
-0.640182 -1.0321 5.4154 0.0395318 255 0 255 
-0.684374 -1.01009 5.43993 0.0206833 255 0 255 
-0.680809 -1.01568 5.46525 0.0296021 255 0 255 
-0.696333 -1.00529 5.45001 0.0171876 255 0 255 
-0.700061 -0.998852 5.42403 0.0144008 255 0 255 
-0.712219 -0.994813 5.43435 0.0148121 255 0 255 
-0.716203 -0.988082 5.40757 0.0129607 255 0 255 
-0.70401 -0.992647 5.39719 0.0112199 255 0 255 
-0.720354 -0.981573 5.38014 0.0161045 255 0 255 
-0.728413 -0.983762 5.41739 0.0140088 255 0 255 
-0.733017 -0.977313 5.38998 0.0197517 255 0 255 
-0.745678 -0.973632 5.3995 0.0280071 255 0 255 
-0.70839 -0.986096 5.36971 0.015648 255 0 255 
-0.621327 -1.03929 5.42786 0.0408662 255 0 255 
-0.611075 -1.04182 5.45458 0.0357082 255 0 255 
-0.592731 -1.04733 5.46611 0.0307472 255 0 255 
-0.60901 -1.0401 5.49343 0.0270358 255 0 255 
-0.629549 -1.03363 5.48074 0.0241227 255 0 255 
-0.649867 -1.02653 5.4675 0.0217814 255 0 255 
-0.642879 -1.02707 5.55429 0.0134483 255 0 255 
-0.665548 -1.02111 5.541 0.0173578 255 0 255 
-0.65563 -1.02391 5.5258 0.0167987 255 0 255 
-0.688165 -1.01545 5.52705 0.0200064 255 0 255 
-0.678209 -1.01788 5.51181 0.0254859 255 0 255 
-0.701303 -1.01094 5.49683 0.0321832 255 0 255 
-0.711256 -1.009 5.51223 0.0301255 255 0 255 
-0.668111 -1.02069 5.49627 0.023808 255 0 255 
-0.691169 -1.01287 5.48133 0.0300559 255 0 255 
-0.64768 -1.02623 5.50955 0.0216306 255 0 255 
-0.62727 -1.03188 5.52195 0.0170826 255 0 255 
-0.635308 -1.02913 5.53815 0.0138254 255 0 255 
-0.727183 -0.999341 5.49741 0.0196331 255 0 255 
-0.75062 -0.986468 5.47913 0.0184978 255 0 255 
-0.733121 -0.991038 5.46598 0.0202411 255 0 255 
-0.775894 -0.973119 5.45908 0.0254805 255 0 255 
-0.75729 -0.978179 5.44656 0.023043 255 0 255 
-0.78326 -0.96462 5.42529 0.0567322 255 0 255 
-0.804242 -0.959021 5.43695 0.0707781 255 0 255 
-0.739241 -0.982347 5.43344 0.0194023 255 0 255 
-0.763924 -0.969284 5.41256 0.040566 255 0 255 
-0.722736 -0.99302 5.4503 0.018305 255 0 255 
-0.706553 -1.00283 5.46605 0.0222352 255 0 255 
-0.716896 -1.00139 5.48184 0.0226619 255 0 255 
-0.664942 -0.599498 5.18966 0.098133 255 0 255 
-0.690397 -0.607734 5.19692 0.112049 255 0 255 
-0.706824 -0.62319 5.19292 0.19721 255 0 255 
-0.73003 -0.63351 5.20147 0.263256 255 0 255 
-0.714874 -0.64464 5.17672 0.196504 255 0 255 
-0.721132 -0.612233 5.21768 0.154291 255 0 255 
-0.743026 -0.623872 5.22933 0.119223 255 0 255 
-0.703775 -0.595346 5.22119 0.104181 255 0 255 
-0.685944 -0.578842 5.22507 0.0791238 255 0 255 
-0.727944 -0.663282 5.17456 0.264289 255 0 255 
-0.748337 -0.677606 5.18558 0.337295 255 0 255 
-0.75955 -0.697462 5.18576 0.31634 255 0 255 
-0.778221 -0.712878 5.19953 0.256162 255 0 255 
-0.761545 -0.722557 5.17434 0.367686 255 0 255 
-0.774403 -0.6888 5.21317 0.136693 255 0 255 
-0.793281 -0.70435 5.22954 0.154149 255 0 255 
-0.76253 -0.668487 5.21304 0.151656 255 0 255 
-0.74973 -0.648407 5.21363 0.148826 255 0 255 
-0.832492 -0.691176 5.29799 0.062104 255 0 255 
-0.819305 -0.671816 5.2982 0.0407994 255 0 255 
-0.809649 -0.674442 5.2814 0.0441648 255 0 255 
-0.796335 -0.655755 5.28162 0.0292123 255 0 255 
-0.805901 -0.652785 5.29831 0.0336829 255 0 255 
-0.786382 -0.658134 5.26312 0.0350771 255 0 255 
-0.782483 -0.636709 5.28114 0.0212448 255 0 255 
-0.772532 -0.638906 5.26284 0.0208198 255 0 255 
-0.758138 -0.61933 5.26167 0.0307719 255 0 255 
-0.79187 -0.634351 5.29821 0.0289602 255 0 255 
-0.766959 -0.617727 5.2796 0.0120235 255 0 255 
-0.777029 -0.615542 5.29715 0.0160935 255 0 255 
-0.764088 -0.640978 5.24462 0.0755365 255 0 255 
-0.750339 -0.621307 5.24484 0.0601618 255 0 255 
-0.790476 -0.680533 5.24598 0.0843837 255 0 255 
-0.81232 -0.697058 5.26512 0.0854149 255 0 255 
-0.755625 -0.594741 5.29761 0.0193595 255 0 255 
-0.748263 -0.599839 5.27844 0.0121162 255 0 255 
-0.727645 -0.57769 5.27941 0.0156826 255 0 255 
-0.734037 -0.572857 5.29837 0.0202387 255 0 255 
-0.722779 -0.583107 5.26163 0.0227342 255 0 255 
-0.707831 -0.555626 5.28118 0.025251 255 0 255 
-0.702951 -0.561813 5.26538 0.039563 255 0 255 
-0.713285 -0.549927 5.29829 0.0120718 255 0 255 
-0.698023 -0.568545 5.24983 0.050634 255 0 255 
-0.715834 -0.585902 5.2476 0.0453523 255 0 255 
-0.733239 -0.603485 5.24595 0.0479155 255 0 255 
-0.740363 -0.601321 5.2616 0.0194486 255 0 255 
-0.759525 -0.888208 5.25232 0.0326537 255 0 255 
-0.772695 -0.864529 5.25111 0.0320972 255 0 255 
-0.781037 -0.877883 5.27386 0.0392859 255 0 255 
-0.786757 -0.840319 5.25004 0.0565065 255 0 255 
-0.795482 -0.853817 5.27298 0.0544271 255 0 255 
-0.810752 -0.828779 5.27298 0.0814444 255 0 255 
-0.805249 -0.86776 5.29587 0.0550424 255 0 255 
-0.800975 -0.815415 5.24945 0.0830534 255 0 255 
-0.814721 -0.789906 5.25132 0.110045 255 0 255 
-0.794639 -0.80082 5.2244 0.138718 255 0 255 
-0.781375 -0.825495 5.22432 0.0939698 255 0 255 
-0.767744 -0.849944 5.22602 0.0573571 255 0 255 
-0.775449 -0.811018 5.20094 0.17053 255 0 255 
-0.820953 -0.861399 5.30687 0.0539293 255 0 255 
-0.821544 -0.843283 5.29724 0.0648241 255 0 255 
-0.838886 -0.835822 5.30849 0.0653586 255 0 255 
-0.837929 -0.854319 5.31769 0.0735599 255 0 255 
-0.839309 -0.817752 5.30025 0.0582429 255 0 255 
-0.854085 -0.829593 5.32097 0.0516784 255 0 255 
-0.853572 -0.81166 5.31291 0.0459168 255 0 255 
-0.867801 -0.805385 5.32572 0.0556109 255 0 255 
-0.853911 -0.847501 5.32902 0.0900594 255 0 255 
-0.868478 -0.82324 5.33316 0.0507861 255 0 255 
-0.868346 -0.841472 5.34127 0.113832 255 0 255 
-0.8531 -0.793458 5.30493 0.0584139 255 0 255 
-0.866801 -0.787566 5.31795 0.0517024 255 0 255 
-0.86445 -0.769342 5.31065 0.064298 255 0 255 
-0.8521 -0.773649 5.29621 0.0980568 255 0 255 
-0.840054 -0.797858 5.29044 0.0976151 255 0 255 
-0.840114 -0.778143 5.28163 0.108803 255 0 255 
-0.826111 -0.803585 5.27604 0.0982035 255 0 255 
-0.824082 -0.823547 5.28663 0.0842139 255 0 255 
-0.827078 -0.783895 5.26662 0.103782 255 0 255 
-0.831246 -0.714155 5.28528 0.0820078 255 0 255 
-0.827772 -0.737743 5.27241 0.0961822 255 0 255 
-0.81017 -0.721438 5.25197 0.0958765 255 0 255 
-0.816794 -0.741991 5.25541 0.0820177 255 0 255 
-0.806824 -0.746635 5.23828 0.127034 255 0 255 
-0.822605 -0.763353 5.26069 0.103075 255 0 255 
-0.834621 -0.757787 5.27685 0.0955532 255 0 255 
-0.846162 -0.753542 5.29184 0.0953574 255 0 255 
-0.838784 -0.733485 5.28809 0.0840556 255 0 255 
-0.850041 -0.728755 5.30337 0.0748873 255 0 255 
-0.857926 -0.749154 5.3067 0.079308 255 0 255 
-0.840898 -0.710099 5.30055 0.0759745 255 0 255 
-0.791756 -0.730045 5.219 0.161026 255 0 255 
-0.7886 -0.756652 5.21016 0.161814 255 0 255 
-0.775553 -0.739489 5.19124 0.214604 255 0 255 
-0.771168 -0.766564 5.18457 0.207493 255 0 255 
-0.783539 -0.783835 5.20375 0.175355 255 0 255 
-0.801755 -0.773437 5.22978 0.124337 255 0 255 
-0.614711 -0.651143 5.13371 0.0410253 255 0 255 
-0.629619 -0.663334 5.13087 0.0434628 255 0 255 
-0.653079 -0.669535 5.13372 0.0808826 255 0 255 
-0.667784 -0.682471 5.13048 0.11019 255 0 255 
-0.684109 -0.669422 5.14225 0.168081 255 0 255 
-0.668326 -0.655497 5.14658 0.128652 255 0 255 
-0.64541 -0.649777 5.14403 0.0618037 255 0 255 
-0.628906 -0.636559 5.1482 0.0495465 255 0 255 
-0.671854 -0.706309 5.12352 0.115382 255 0 255 
-0.682737 -0.723295 5.12423 0.0859242 255 0 255 
-0.701824 -0.735444 5.13063 0.178549 255 0 255 
-0.710926 -0.753144 5.13217 0.143949 255 0 255 
-0.728822 -0.743069 5.14223 0.303145 255 0 255 
-0.718618 -0.723869 5.14104 0.278607 255 0 255 
-0.699882 -0.71145 5.13524 0.146399 255 0 255 
-0.688444 -0.693364 5.13543 0.182682 255 0 255 
-0.744186 -0.708088 5.16461 0.3973 255 0 255 
-0.733414 -0.688383 5.16469 0.248127 255 0 255 
-0.71352 -0.675417 5.15733 0.214516 255 0 255 
-0.70055 -0.656665 5.15911 0.200566 255 0 255 
-0.716874 -0.699877 5.14841 0.22166 255 0 255 
-0.746473 -0.732453 5.15768 0.392372 255 0 255 
-0.692653 -0.636255 5.17194 0.141268 255 0 255 
-0.675999 -0.621202 5.17617 0.132554 255 0 255 
-0.651933 -0.614506 5.17199 0.0959221 255 0 255 
-0.660974 -0.635089 5.15868 0.0964941 255 0 255 
-0.7524 -0.902351 5.26595 0.0171726 255 0 255 
-0.7647 -0.896852 5.2751 0.0203293 255 0 255 
-0.757879 -0.911106 5.28877 0.0135691 255 0 255 
-0.745817 -0.916483 5.27918 0.0138114 255 0 255 
-0.770583 -0.906011 5.29779 0.0256933 255 0 255 
-0.751634 -0.92519 5.30178 0.0119168 255 0 255 
-0.764315 -0.920598 5.3109 0.0246478 255 0 255 
-0.758021 -0.935016 5.32441 0.0218051 255 0 255 
-0.739871 -0.930451 5.29211 0.0118166 255 0 255 
-0.74592 -0.939461 5.31477 0.0136455 255 0 255 
-0.734116 -0.944873 5.30493 0.0157377 255 0 255 
-0.776934 -0.915955 5.32064 0.0288055 255 0 255 
-0.770902 -0.930906 5.33367 0.0293694 255 0 255 
-0.784442 -0.926595 5.34301 0.048143 255 0 255 
-0.794509 -0.897411 5.319 0.0422501 255 0 255 
-0.787228 -0.887355 5.29674 0.029331 255 0 255 
-0.724155 -0.955768 5.31909 0.0105297 255 0 255 
-0.736548 -0.95087 5.32889 0.00997369 255 0 255 
-0.726668 -0.962213 5.34302 0.0111416 255 0 255 
-0.714502 -0.967362 5.33271 0.0110874 255 0 255 
-0.739081 -0.957539 5.35277 0.0136562 255 0 255 
-0.717324 -0.974033 5.3564 0.0119765 255 0 255 
-0.729459 -0.969125 5.36672 0.0129458 255 0 255 
-0.70511 -0.97941 5.34625 0.0119205 255 0 255 
-0.742057 -0.965053 5.3765 0.0167913 255 0 255 
-0.754736 -0.961431 5.38584 0.0223421 255 0 255 
-0.75116 -0.953185 5.36275 0.0191657 255 0 255 
-0.764105 -0.949212 5.37199 0.0280282 255 0 255 
-0.76062 -0.941901 5.34842 0.0186425 255 0 255 
-0.748239 -0.946041 5.33877 0.0146927 255 0 255 
-0.774325 -0.937669 5.35752 0.036129 255 0 255 
-0.834407 -0.93822 5.43084 0.0484288 255 0 255 
-0.815892 -0.946112 5.42311 0.0699297 255 0 255 
-0.823435 -0.932843 5.40526 0.0668283 255 0 255 
-0.841486 -0.9252 5.41373 0.066874 255 0 255 
-0.805207 -0.93966 5.39685 0.0762703 255 0 255 
-0.830421 -0.919951 5.38731 0.0856139 255 0 255 
-0.812114 -0.926561 5.37888 0.0573045 255 0 255 
-0.819098 -0.913903 5.36082 0.0738393 255 0 255 
-0.849109 -0.912038 5.39607 0.0833974 255 0 255 
-0.838584 -0.906835 5.36924 0.101859 255 0 255 
-0.855673 -0.899421 5.37895 0.14861 255 0 255 
-0.794285 -0.93262 5.37026 0.0480768 255 0 255 
-0.80075 -0.920673 5.35233 0.048263 255 0 255 
-0.784084 -0.944838 5.38437 0.0524918 255 0 255 
-0.773342 -0.957069 5.39877 0.0378485 255 0 255 
-0.793972 -0.952065 5.41121 0.0628791 255 0 255 
-0.847742 -0.876272 5.34859 0.0874131 255 0 255 
-0.862305 -0.870347 5.35972 0.116926 255 0 255 
-0.831148 -0.883284 5.33767 0.0678272 255 0 255 
-0.811602 -0.890564 5.32858 0.0430081 255 0 255 
0.126281 -1.04523 5.13198 0.0119104 255 0 255 
0.148281 -1.04155 5.11401 0.0111494 255 0 255 
0.110353 -1.04064 5.1131 0.0129467 255 0 255 
0.132553 -1.03719 5.09531 0.0134377 255 0 255 
0.0963155 -1.03484 5.09477 0.0127637 255 0 255 
0.120681 -1.03029 5.07818 0.0142211 255 0 255 
0.0845037 -1.02773 5.07704 0.0130254 255 0 255 
0.109342 -1.02358 5.06028 0.0180327 255 0 255 
-0.328513 -1.01973 5.15126 0.0414612 255 0 255 
-0.354063 -1.01012 5.14585 0.0447734 255 0 255 
-0.314828 -1.01432 5.13658 0.0536567 255 0 255 
-0.340238 -1.00539 5.1304 0.0562647 255 0 255 
-0.32654 -0.999618 5.11597 0.0816876 255 0 255 
-0.366323 -0.995448 5.12549 0.0731154 255 0 255 
-0.301789 -1.00818 5.12216 0.0559631 255 0 255 
-0.288363 -1.00143 5.10824 0.0592673 255 0 255 
-0.278048 -1.01472 5.12699 0.040734 255 0 255 
-0.291278 -1.02149 5.14112 0.0493316 255 0 255 
-0.304411 -1.02764 5.15549 0.0651731 255 0 255 
-0.267986 -1.02815 5.14569 0.0472549 255 0 255 
-0.349776 -0.989439 5.11214 0.0686288 255 0 255 
-0.374813 -0.976465 5.10716 0.0755116 255 0 255 
-0.333475 -0.982504 5.09945 0.0827562 255 0 255 
-0.357843 -0.969808 5.0939 0.0833854 255 0 255 
-0.34135 -0.962449 5.08131 0.12519 255 0 255 
-0.383082 -0.956772 5.08896 0.115909 255 0 255 
-0.317694 -0.97465 5.08731 0.0954668 255 0 255 
-0.301517 -0.96668 5.07606 0.0847146 255 0 255 
-0.29509 -0.98432 5.09203 0.0624912 255 0 255 
-0.310947 -0.992301 5.10353 0.0746279 255 0 255 
-0.194598 -0.976472 5.059 0.0896856 255 0 255 
-0.220212 -0.982504 5.07197 0.0874174 255 0 255 
-0.189467 -0.990775 5.07302 0.0560801 255 0 255 
-0.244543 -0.988953 5.08447 0.0574287 255 0 255 
-0.215118 -0.997166 5.08561 0.0699643 255 0 255 
-0.239316 -1.00358 5.09859 0.0553963 255 0 255 
-0.183867 -1.0053 5.08642 0.0534183 255 0 255 
-0.267252 -0.995398 5.09643 0.0552005 255 0 255 
-0.273913 -0.978104 5.08063 0.0668226 255 0 255 
-0.251379 -0.971387 5.06905 0.0806747 255 0 255 
-0.206938 -1.01085 5.10144 0.0482249 255 0 255 
-0.174023 -1.01646 5.1024 0.0367748 255 0 255 
-0.229088 -1.01667 5.1167 0.036066 255 0 255 
-0.197603 -1.02207 5.11789 0.0349637 255 0 255 
-0.220082 -1.02811 5.13357 0.036395 255 0 255 
-0.163872 -1.02762 5.11886 0.0350145 255 0 255 
-0.249493 -1.02273 5.13133 0.0391368 255 0 255 
-0.259569 -1.00925 5.11294 0.0435013 255 0 255 
0.0483656 -0.983324 5.01262 0.0389163 255 0 255 
0.0448336 -0.969826 5.00314 0.0452973 255 0 255 
0.0408386 -0.956678 4.99382 0.0685799 255 0 255 
0.0403473 -0.940832 4.98742 0.0359867 255 0 255 
0.0736273 -1.01949 5.06064 0.015511 255 0 255 
0.0998739 -1.01455 5.04553 0.0172555 255 0 255 
0.0642145 -1.01024 5.0457 0.0170352 255 0 255 
0.0906116 -1.00555 5.03064 0.027381 255 0 255 
0.056866 -0.999883 5.03167 0.0260605 255 0 255 
-0.164956 -0.971023 5.04878 0.0672457 255 0 255 
-0.196538 -0.959519 5.04987 0.06006 255 0 255 
-0.136015 -0.964985 5.03942 0.0721057 255 0 255 
-0.167159 -0.954281 5.03961 0.0682095 255 0 255 
-0.137771 -0.948545 5.02957 0.084466 255 0 255 
-0.19819 -0.942313 5.04017 0.104027 255 0 255 
-0.107603 -0.958576 5.03011 0.0709869 255 0 255 
-0.0796541 -0.952054 5.02033 0.0592163 255 0 255 
-0.0772365 -0.966548 5.02972 0.0413809 255 0 255 
-0.105137 -0.973438 5.0391 0.0610881 255 0 255 
-0.134081 -0.979929 5.04876 0.0649119 255 0 255 
-0.0748622 -0.981362 5.03906 0.0411472 255 0 255 
-0.167066 -0.936646 5.03236 0.0706134 255 0 255 
-0.195272 -0.922619 5.03496 0.0643429 255 0 255 
-0.136486 -0.930355 5.02452 0.0657043 255 0 255 
-0.164347 -0.917025 5.02704 0.0501124 255 0 255 
-0.107158 -0.932554 5.01931 0.0723859 255 0 255 
-0.0781228 -0.934389 5.0142 0.0461172 255 0 255 
0.00956617 -0.939389 4.99459 0.058146 255 0 255 
-0.0205793 -0.938068 5.0013 0.0496329 255 0 255 
-0.0206586 -0.954224 5.00794 0.0476281 255 0 255 
0.00954893 -0.955392 5.00137 0.0627402 255 0 255 
-0.0503943 -0.944983 5.01114 0.0446951 255 0 255 
-0.0491133 -0.927734 5.00478 0.0355352 255 0 255 
0.0127225 -0.969214 5.01078 0.0567347 255 0 255 
-0.0180946 -0.968486 5.01756 0.0423638 255 0 255 
-0.0146898 -0.98202 5.02691 0.037938 255 0 255 
0.016249 -0.982646 5.02004 0.0477549 255 0 255 
-0.046451 -0.974666 5.02836 0.036217 255 0 255 
-0.0492152 -0.960392 5.01913 0.040894 255 0 255 
0.0533944 -1.02874 5.08433 0.0194553 255 0 255 
0.0296547 -1.03277 5.1 0.0177766 255 0 255 
0.0659368 -1.03571 5.10213 0.0171057 255 0 255 
0.0419691 -1.04005 5.11797 0.0207045 255 0 255 
0.00579845 -1.03703 5.11542 0.0182137 255 0 255 
-0.0172972 -1.04119 5.13041 0.0203739 255 0 255 
-0.031534 -1.03307 5.11289 0.0145655 255 0 255 
-0.00827451 -1.02898 5.09796 0.0164349 255 0 255 
0.0155982 -1.02493 5.08264 0.020885 255 0 255 
-0.0458353 -1.0257 5.09539 0.0206855 255 0 255 
0.081387 -1.04208 5.12037 0.018716 255 0 255 
0.0602069 -1.04508 5.137 0.0190741 255 0 255 
0.0971588 -1.04647 5.13982 0.0193105 255 0 255 
0.0396426 -1.04828 5.15317 0.0217847 255 0 255 
0.000828696 -1.04602 5.14969 0.0170583 255 0 255 
0.0216472 -1.04304 5.134 0.0178055 255 0 255 
-0.0734747 -1.05107 5.17568 0.0256211 255 0 255 
-0.112914 -1.04868 5.17201 0.024513 255 0 255 
-0.0546763 -1.04764 5.16061 0.0198531 255 0 255 
-0.0938171 -1.04585 5.15677 0.0240824 255 0 255 
-0.0747903 -1.04257 5.1418 0.02398 255 0 255 
-0.132441 -1.0441 5.15296 0.0347417 255 0 255 
-0.0361334 -1.04439 5.14572 0.0184308 255 0 255 
-0.0174774 -1.04949 5.16489 0.0211859 255 0 255 
-0.11055 -1.03964 5.1383 0.0267132 255 0 255 
-0.148258 -1.03577 5.13582 0.0277985 255 0 255 
-0.0889953 -1.03499 5.12424 0.0206059 255 0 255 
-0.125941 -1.03145 5.12108 0.0267229 255 0 255 
-0.104416 -1.02707 5.10693 0.0278276 255 0 255 
-0.067228 -1.03033 5.10981 0.0190116 255 0 255 
-0.0531935 -1.03774 5.12748 0.0170274 255 0 255 
0.0223043 -0.994375 5.03244 0.030357 255 0 255 
-0.00927529 -0.994351 5.03945 0.027594 255 0 255 
-0.00348841 -1.00571 5.05218 0.0271169 255 0 255 
0.0278784 -1.00573 5.04547 0.0242542 255 0 255 
-0.0370873 -1.00017 5.05206 0.0277317 255 0 255 
-0.0641611 -1.00595 5.06441 0.0300185 255 0 255 
-0.0695779 -0.993548 5.05152 0.0302988 255 0 255 
-0.0420638 -0.987637 5.03911 0.0314653 255 0 255 
0.0372409 -1.01531 5.06055 0.018896 255 0 255 
0.00630876 -1.01567 5.06734 0.0211526 255 0 255 
-0.0197272 -1.02073 5.08145 0.0201924 255 0 255 
-0.0549292 -1.01564 5.07986 0.0194641 255 0 255 
-0.0292876 -1.01069 5.06613 0.0226281 255 0 255 
-0.137945 -1.02267 5.10458 0.0326895 255 0 255 
-0.113416 -1.01703 5.09123 0.0274992 255 0 255 
-0.1479 -1.01148 5.08847 0.0389221 255 0 255 
-0.122825 -1.00627 5.07497 0.0435533 255 0 255 
-0.0887414 -1.01154 5.07785 0.0273524 255 0 255 
-0.0796272 -1.02138 5.09337 0.0219906 255 0 255 
-0.155748 -0.999693 5.07388 0.0491035 255 0 255 
-0.128315 -0.993869 5.06219 0.0455244 255 0 255 
-0.161102 -0.985682 5.06036 0.0633008 255 0 255 
-0.101288 -0.987541 5.05018 0.0436712 255 0 255 
-0.0963049 -0.999867 5.0633 0.0362997 255 0 255 
-0.185134 -1.03219 5.13499 0.0302227 255 0 255 
-0.205497 -1.03704 5.1512 0.0321839 255 0 255 
-0.169721 -1.04064 5.15179 0.033144 255 0 255 
-0.191383 -1.04541 5.16875 0.0418212 255 0 255 
-0.22441 -1.0416 5.16749 0.0389306 255 0 255 
-0.241592 -1.04589 5.18319 0.0540718 255 0 255 
-0.254513 -1.03685 5.16443 0.0397004 255 0 255 
-0.238189 -1.03263 5.14914 0.0348209 255 0 255 
-0.151523 -1.04706 5.16956 0.0311624 255 0 255 
-0.17217 -1.04974 5.18778 0.0295024 255 0 255 
-0.130911 -1.05197 5.18849 0.0301645 255 0 255 
-0.191063 -1.05244 5.20531 0.0361141 255 0 255 
-0.224623 -1.05015 5.20284 0.0398037 255 0 255 
-0.208969 -1.04799 5.186 0.0385512 255 0 255 
-0.279404 -1.05076 5.2205 0.0838437 255 0 255 
-0.261144 -1.05089 5.21478 0.0708488 255 0 255 
-0.277701 -1.04625 5.19425 0.0777735 255 0 255 
-0.295762 -1.04631 5.19994 0.0888909 255 0 255 
-0.251391 -1.04856 5.1992 0.0567689 255 0 255 
-0.234943 -1.0528 5.21879 0.0464323 255 0 255 
-0.309239 -1.03654 5.18082 0.058123 255 0 255 
-0.290586 -1.03714 5.17577 0.055657 255 0 255 
-0.279248 -1.03294 5.16051 0.0504078 255 0 255 
-0.2662 -1.04176 5.17924 0.0550869 255 0 255 
-0.455564 -1.02724 5.21825 0.00870406 255 0 255 
-0.456582 -1.0356 5.23521 0.012546 255 0 255 
-0.436941 -1.05048 5.25829 0.0213216 255 0 255 
-0.457548 -1.04394 5.25209 0.0120186 255 0 255 
-0.458487 -1.05247 5.26905 0.0191462 255 0 255 
-0.479062 -1.03678 5.24494 0.00886004 255 0 255 
-0.477927 -1.02806 5.22776 0.0072427 255 0 255 
-0.477205 -1.02018 5.21058 0.00982759 255 0 255 
-0.499547 -1.02144 5.22015 0.0143908 255 0 255 
-0.40153 -1.05825 5.27567 0.0165338 255 0 255 
-0.400017 -1.06307 5.29307 0.0353238 255 0 255 
-0.42061 -1.06577 5.30422 0.0269633 255 0 255 
-0.422386 -1.06059 5.28711 0.0144328 255 0 255 
-0.435186 -1.05621 5.27542 0.0138524 255 0 255 
-0.458365 -1.06959 5.32783 0.0449996 255 0 255 
-0.462133 -1.0645 5.31025 0.0290229 255 0 255 
-0.475101 -1.05998 5.29848 0.024783 255 0 255 
-0.478545 -1.05427 5.28107 0.022191 255 0 255 
-0.49855 -1.05597 5.29234 0.0332873 255 0 255 
-0.455419 -1.05815 5.28686 0.0209187 255 0 255 
-0.442489 -1.06254 5.29846 0.0156795 255 0 255 
-0.439473 -1.06762 5.31607 0.0231573 255 0 255 
-0.498684 -1.04709 5.27429 0.0172189 255 0 255 
-0.519504 -1.0393 5.26708 0.0167434 255 0 255 
-0.498942 -1.03832 5.25626 0.0110255 255 0 255 
-0.520178 -1.03085 5.24913 0.0134371 255 0 255 
-0.520243 -1.02246 5.23087 0.0154667 255 0 255 
-0.541527 -1.0234 5.24135 0.0276376 255 0 255 
-0.499521 -1.02971 5.23845 0.00828506 255 0 255 
-0.478639 -1.04536 5.26295 0.0106841 255 0 255 
-0.363158 -0.949647 5.07884 0.115001 255 0 255 
-0.387023 -0.933098 5.07571 0.0986881 255 0 255 
-0.344016 -0.941796 5.0693 0.127664 255 0 255 
-0.366846 -0.925896 5.06573 0.115477 255 0 255 
-0.347099 -0.917724 5.05696 0.132198 255 0 255 
-0.390474 -0.909513 5.06269 0.117993 255 0 255 
-0.325063 -0.933401 5.06126 0.109961 255 0 255 
-0.306325 -0.925032 5.05345 0.0887049 255 0 255 
-0.304183 -0.945927 5.06481 0.0739866 255 0 255 
-0.322699 -0.954246 5.07261 0.110517 255 0 255 
-0.367079 -0.90264 5.05603 0.0958541 255 0 255 
-0.388353 -0.884473 5.05528 0.076103 255 0 255 
-0.344339 -0.895131 5.05047 0.0877928 255 0 255 
-0.364675 -0.877369 5.04908 0.0716258 255 0 255 
-0.323712 -0.898708 5.04873 0.0904644 255 0 255 
-0.303652 -0.902222 5.04761 0.0542509 255 0 255 
-0.224892 -0.917453 5.03959 0.0598343 255 0 255 
-0.252647 -0.913065 5.04298 0.0767318 255 0 255 
-0.255625 -0.933156 5.04833 0.0844077 255 0 255 
-0.227851 -0.937352 5.04488 0.117958 255 0 255 
-0.280177 -0.918954 5.0484 0.0610875 255 0 255 
-0.277495 -0.896316 5.04277 0.0490943 255 0 255 
-0.225576 -0.956352 5.05477 0.109908 255 0 255 
-0.253213 -0.953913 5.05873 0.0842298 255 0 255 
-0.27812 -0.960285 5.06758 0.0752557 255 0 255 
-0.280399 -0.93938 5.05658 0.0711074 255 0 255 
-0.586493 -0.788713 5.08606 0.0336936 255 0 255 
-0.568214 -0.778577 5.08139 0.0253829 255 0 255 
-0.570011 -0.759362 5.0826 0.0245555 255 0 255 
-0.550915 -0.749889 5.07797 0.0344839 255 0 255 
-0.549642 -0.76865 5.0763 0.0327694 255 0 255 
-0.531189 -0.759071 5.07074 0.0597799 255 0 255 
-0.545595 -0.786174 5.0747 0.0367711 255 0 255 
-0.563304 -0.796445 5.08011 0.0267933 255 0 255 
-0.581396 -0.806702 5.08512 0.036566 255 0 255 
-0.557905 -0.814465 5.07889 0.0342391 255 0 255 
-0.550764 -0.733886 5.08222 0.0216098 255 0 255 
-0.527431 -0.710813 5.08443 0.0344453 255 0 255 
-0.499802 -0.725765 5.07327 0.0550228 255 0 255 
-0.519974 -0.732127 5.07599 0.0426098 255 0 255 
-0.469214 -0.740429 5.06426 0.0703299 255 0 255 
-0.490086 -0.746536 5.06674 0.0473481 255 0 255 
-0.509215 -0.767672 5.06548 0.0498918 255 0 255 
-0.477153 -0.766026 5.06009 0.0949198 255 0 255 
-0.492116 -0.789787 5.06169 0.0579256 255 0 255 
-0.510048 -0.799046 5.06673 0.0469695 255 0 255 
-0.528699 -0.808318 5.07179 0.039764 255 0 255 
-0.508928 -0.829244 5.0682 0.057334 255 0 255 
-0.527401 -0.776938 5.07017 0.0446893 255 0 255 
-0.394256 -0.96553 5.10221 0.0523197 255 0 255 
-0.405682 -0.973461 5.1155 0.031288 255 0 255 
-0.385697 -0.984307 5.1204 0.0402704 255 0 255 
-0.396722 -0.991966 5.13362 0.0316328 255 0 255 
-0.417233 -0.981154 5.12874 0.0277657 255 0 255 
-0.429189 -0.988578 5.14243 0.0334668 255 0 255 
-0.437723 -0.968963 5.12395 0.0224725 255 0 255 
-0.425632 -0.961232 5.11024 0.0241589 255 0 255 
-0.41375 -0.953067 5.09691 0.0447983 255 0 255 
-0.446188 -0.949214 5.105 0.0308969 255 0 255 
-0.374938 -1.00144 5.14021 0.0304936 255 0 255 
-0.384291 -1.00748 5.15497 0.0156322 255 0 255 
-0.362866 -1.01652 5.16055 0.0318968 255 0 255 
-0.41622 -1.00438 5.16316 0.0183186 255 0 255 
-0.406396 -0.997955 5.14857 0.0115933 255 0 255 
-0.454222 -1.00263 5.17522 0.0156471 255 0 255 
-0.454366 -0.987099 5.15013 0.0309354 255 0 255 
-0.473168 -0.993786 5.16801 0.0123233 255 0 255 
-0.435251 -1.01155 5.18189 0.0142152 255 0 255 
-0.483888 -0.975225 5.14779 0.0330556 255 0 255 
-0.475309 -0.966293 5.13504 0.027893 255 0 255 
-0.467002 -0.957022 5.12198 0.0367294 255 0 255 
-0.491914 -0.95489 5.12908 0.035237 255 0 255 
-0.483383 -0.946181 5.1158 0.0514607 255 0 255 
-0.446039 -0.977912 5.13705 0.0356491 255 0 255 
-0.695097 -0.97493 5.31568 0.0182701 255 0 255 
-0.704925 -0.963132 5.30252 0.0192967 255 0 255 
-0.714969 -0.952181 5.28877 0.0326104 255 0 255 
-0.695433 -0.960398 5.27205 0.0430852 255 0 255 
-0.67572 -0.982607 5.2983 0.0212313 255 0 255 
-0.676222 -0.990564 5.31967 0.021683 255 0 255 
-0.676976 -0.998864 5.34108 0.0363453 255 0 255 
-0.657501 -1.00664 5.32307 0.0440262 255 0 255 
-0.728186 -0.923646 5.26265 0.0208549 255 0 255 
-0.734921 -0.909835 5.24916 0.0325251 255 0 255 
-0.741999 -0.895951 5.23582 0.0487923 255 0 255 
-0.723923 -0.904212 5.21966 0.0869043 255 0 255 
-0.716126 -0.917856 5.23336 0.0361141 255 0 255 
-0.708504 -0.931667 5.24677 0.0229678 255 0 255 
-0.711507 -0.941616 5.26778 0.0156726 255 0 255 
-0.687288 -0.91699 5.19319 0.107706 255 0 255 
-0.679021 -0.930437 5.20667 0.0660367 255 0 255 
-0.68164 -0.941033 5.22601 0.0432072 255 0 255 
-0.674653 -0.954754 5.23834 0.0220639 255 0 255 
-0.67752 -0.966053 5.25765 0.0352849 255 0 255 
-0.658684 -0.971638 5.24268 0.0462709 255 0 255 
-0.693041 -0.949133 5.25272 0.0269704 255 0 255 
-0.698234 -0.924178 5.21999 0.0445016 255 0 255 
-0.706119 -0.910487 5.20655 0.074535 255 0 255 
-0.65821 -0.979899 5.26301 0.0248639 255 0 255 
-0.639086 -0.993105 5.26806 0.0241484 255 0 255 
-0.657692 -0.988556 5.28323 0.0207182 255 0 255 
-0.638984 -1.00228 5.28816 0.0250065 255 0 255 
-0.639195 -1.01169 5.30804 0.0448957 255 0 255 
-0.620667 -1.01613 5.29256 0.0437454 255 0 255 
-0.657251 -0.99744 5.30335 0.0282455 255 0 255 
-0.676547 -0.974354 5.27813 0.0192245 255 0 255 
-0.596082 -0.934808 5.14991 0.0608476 255 0 255 
-0.59981 -0.918834 5.14065 0.0487399 255 0 255 
-0.59105 -0.904906 5.12911 0.024769 255 0 255 
-0.594858 -0.888695 5.11991 0.0334371 255 0 255 
-0.585642 -0.875032 5.10788 0.0385925 255 0 255 
-0.610541 -0.86982 5.11418 0.0575118 255 0 255 
-0.569934 -0.893744 5.11354 0.018877 255 0 255 
-0.561046 -0.880354 5.10109 0.0295077 255 0 255 
-0.565901 -0.908673 5.122 0.0159943 255 0 255 
-0.562759 -0.923715 5.13003 0.0237707 255 0 255 
-0.571326 -0.937126 5.1422 0.0373198 255 0 255 
-0.546518 -0.940005 5.13401 0.0299591 255 0 255 
-0.609401 -0.852108 5.10787 0.0422434 255 0 255 
