ply
format ascii 1.0
comment Seamless Cloth Simulation with High Geometric Fidelity 
comment Sat Apr  6 09:36:51 2019
element vertex 1263
property float x
property float y
property float z
property float quality
end_header
-0.962145 -0.308504 5.65513 0.0429573 
-0.917948 -0.281404 5.67302 0.0248468 
-0.918336 -0.289973 5.65475 0.0290077 
-0.940274 -0.295664 5.66428 0.0312325 
-0.939384 -0.287423 5.68204 0.0254791 
-0.89833 -0.286982 5.64481 0.0268096 
-0.901571 -0.298674 5.62692 0.0315874 
-0.921955 -0.30141 5.63724 0.0337834 
-1.01308 -0.330244 5.63062 0.102307 
-1.03037 -0.332942 5.63711 0.107046 
-0.998306 -0.335253 5.60748 0.109974 
-1.04413 -0.333769 5.6993 0.0400715 
-1.03874 -0.327999 5.71879 0.0303784 
-1.06196 -0.340557 5.71106 0.0333182 
-1.03339 -0.322296 5.73803 0.015693 
-1.01336 -0.315175 5.72627 0.0227429 
-1.07329 -0.344265 5.72681 0.020481 
-1.09466 -0.354981 5.72701 0.0260314 
-1.06419 -0.338212 5.74149 0.0120653 
-1.03348 -0.317725 5.75616 0.013646 
-1.0169 -0.309028 5.7493 0.0133444 
-1.05576 -0.330671 5.75648 0.00816839 
-0.996126 -0.301119 5.73672 0.0207356 
-1.00252 -0.319772 5.67035 0.0498021 
-1.00258 -0.315888 5.68838 0.0376081 
-1.0222 -0.326787 5.67741 0.0541066 
-0.982702 -0.305047 5.69901 0.0261527 
-0.982216 -0.308727 5.681 0.0356192 
-1.02014 -0.321293 5.70511 0.0321424 
-0.976538 -0.29447 5.72076 0.0220198 
-0.962937 -0.290617 5.70891 0.0224914 
-0.961744 -0.296161 5.69093 0.0266889 
-1.051 -0.336584 5.67717 0.0668631 
-1.02167 -0.328288 5.65984 0.0720321 
-1.0445 -0.33553 5.65482 0.0929769 
-1.09582 -0.356112 5.74394 0.0173525 
-1.11165 -0.365215 5.74877 0.0209163 
-1.09753 -0.356997 5.7616 0.011867 
-1.07994 -0.347011 5.75626 0.0108695 
-1.13128 -0.3782 5.76008 0.0230891 
-1.10288 -0.358982 5.77887 0.00966823 
-1.0845 -0.346405 5.77443 0.00809059 
-1.12058 -0.370231 5.7823 0.0139378 
-1.08318 -0.349075 5.71212 0.0353049 
-1.07348 -0.344888 5.69538 0.0512039 
-0.533752 -0.873683 6.32273 0.0235279 
-0.54724 -0.865126 6.34955 0.0317505 
-0.519961 -0.880281 6.29482 0.0144823 
-0.538113 -0.88213 6.28604 0.0175411 
-0.551856 -0.875128 6.31371 0.0255798 
-0.565314 -0.866593 6.34058 0.0336681 
-0.515152 -0.886896 6.2621 0.00782615 
-0.510264 -0.892193 6.22915 0.00399387 
-0.492455 -0.890954 6.23859 0.0035547 
-0.497382 -0.885651 6.2717 0.00715376 
-0.570786 -0.875724 6.30235 0.0253719 
-0.584765 -0.867867 6.32899 0.0332567 
-0.5566 -0.882669 6.27505 0.0170347 
-0.552042 -0.888137 6.24139 0.00861025 
-0.528696 -0.892829 6.21844 0.00443723 
-0.533455 -0.887574 6.25219 0.00799668 
-0.493402 -0.906567 6.12834 0.0219861 
-0.470241 -0.916561 6.10637 0.0213076 
-0.498896 -0.89941 6.16144 0.0148123 
-0.475234 -0.905995 6.13868 0.0263301 
-0.480771 -0.898874 6.17183 0.0195281 
-0.451964 -0.916156 6.11667 0.0259868 
-0.504383 -0.894485 6.19512 0.00642226 
-0.522899 -0.895295 6.18452 0.00595928 
-0.457232 -0.904928 6.14825 0.0276236 
-0.434414 -0.915294 6.12635 0.0265248 
-0.462919 -0.897761 6.18109 0.0203054 
-0.439702 -0.904114 6.15809 0.0283916 
-0.477642 -0.893638 6.20982 0.0110628 
-0.579613 -0.217411 6.48391 0.154851 
-0.585935 -0.197174 6.4646 0.126436 
-0.586087 -0.17568 6.44851 0.0837554 
-0.5698 -0.192889 6.47164 0.0993745 
-0.563967 -0.213803 6.49061 0.131697 
-0.585326 -0.152754 6.43314 0.0485361 
-0.584164 -0.127763 6.4185 0.0212795 
-0.549462 -0.18926 6.48306 0.0914796 
-0.555294 -0.146058 6.44667 0.0191645 
-0.567597 -0.124579 6.42544 0.0162707 
-0.566942 -0.171411 6.45679 0.0617212 
-0.577654 -0.0673477 6.37114 0.0147699 
-0.572992 -0.0867172 6.3887 0.0154029 
-0.593693 -0.0915402 6.38306 0.0170328 
-0.598585 -0.0716299 6.36685 0.0145146 
-0.578577 -0.107933 6.40339 0.0167005 
-0.562206 -0.104254 6.40999 0.0151451 
-0.615762 -0.0750711 6.36467 0.013538 
-0.61845 -0.0970123 6.37859 0.0186051 
-0.603781 -0.113969 6.3965 0.0238486 
-0.596259 -0.531012 6.61554 0.111636 
-0.589798 -0.49711 6.61376 0.150969 
-0.611389 -0.566257 6.61091 0.0774703 
-0.625239 -0.599713 6.60444 0.0536202 
-0.606857 -0.498486 6.60864 0.159158 
-0.630559 -0.565775 6.60431 0.079304 
-0.613186 -0.53291 6.60975 0.114945 
-0.663094 -0.687995 6.55136 0.0383312 
-0.665992 -0.715207 6.53549 0.0461349 
-0.646942 -0.659117 6.57186 0.0405214 
-0.637697 -0.6851 6.56066 0.0433557 
-0.640496 -0.712596 6.54395 0.0461914 
-0.642893 -0.630893 6.58631 0.0391533 
-0.623931 -0.710731 6.55165 0.0498324 
-0.620823 -0.655759 6.58273 0.0483117 
-0.614641 -0.682388 6.57214 0.0507825 
-0.623417 -0.628126 6.59457 0.0457857 
-0.60906 -0.731622 6.53121 0.0342203 
-0.610614 -0.753871 6.50264 0.0210947 
-0.625509 -0.732932 6.5233 0.0297254 
-0.627135 -0.755265 6.4952 0.0193903 
-0.612113 -0.776788 6.47482 0.0163142 
-0.61376 -0.799752 6.44708 0.0167731 
-0.595916 -0.798904 6.45573 0.0182836 
-0.594491 -0.775907 6.48406 0.0197283 
-0.643605 -0.735077 6.51215 0.0255647 
-0.647095 -0.757842 6.48071 0.0162903 
-0.640448 -0.77921 6.45613 0.0109222 
-0.633964 -0.80239 6.43328 0.0134247 
-0.596851 -0.852386 6.35483 0.0235154 
-0.609074 -0.836014 6.38115 0.0179639 
-0.589599 -0.835116 6.3932 0.0196499 
-0.577376 -0.851398 6.36668 0.0255206 
-0.611428 -0.818005 6.41387 0.0144848 
-0.631719 -0.820699 6.40038 0.0132302 
-0.559248 -0.850663 6.37548 0.0263599 
-0.571509 -0.833985 6.40138 0.0200358 
-0.574836 -0.816649 6.43303 0.0190589 
-0.592693 -0.817367 6.42436 0.0174262 
-0.550443 -0.419516 6.60346 0.192645 
-0.548556 -0.385348 6.58868 0.199897 
-0.544485 -0.350526 6.57551 0.22184 
-0.542296 -0.316924 6.56307 0.210692 
-0.536739 -0.415111 6.6082 0.175104 
-0.530787 -0.3469 6.58178 0.204235 
-0.534943 -0.381319 6.59387 0.185541 
-0.546938 -0.235516 6.51474 0.160479 
-0.547203 -0.260975 6.52894 0.194122 
-0.541834 -0.287549 6.54703 0.201992 
-0.562913 -0.238453 6.50569 0.184911 
-0.561308 -0.263809 6.52226 0.210563 
-0.740661 0.00200643 6.2453 0.0373047 
-0.755142 0.00499651 6.22985 0.041823 
-0.726664 -0.000244532 6.26077 0.0400042 
-0.751045 -0.00616409 6.26325 0.0474081 
-0.764935 -0.0040994 6.2479 0.0447211 
-0.779482 -0.00141981 6.23226 0.0485167 
-0.736911 -0.00935911 6.27819 0.0479524 
-0.723076 -0.013032 6.29269 0.0499532 
-0.713823 -0.00564964 6.27589 0.0400335 
-0.701693 -0.0103641 6.29088 0.0387021 
-0.783776 -0.00923337 6.25085 0.0486581 
-0.799049 -0.00743466 6.23604 0.0516489 
-0.76904 -0.0100387 6.2653 0.0537416 
-0.754958 -0.0131007 6.28041 0.0570803 
-0.74121 -0.0161109 6.29516 0.0581133 
-0.704723 -0.0533377 6.33511 0.0193095 
-0.715692 -0.0420605 6.32139 0.0254879 
-0.719192 -0.0274829 6.30726 0.0356174 
-0.678025 -0.0493429 6.33275 0.0157025 
-0.678422 -0.0364774 6.31835 0.0179156 
-0.660242 -0.0471619 6.33237 0.013235 
-0.679155 -0.0224005 6.30422 0.0230309 
-0.70057 -0.0243897 6.30565 0.0300051 
-0.846576 -0.028692 6.1163 0.0163549 
-0.874878 -0.0468693 6.10431 0.0152801 
-0.843951 -0.0253386 6.13397 0.0188867 
-0.872162 -0.0439125 6.12152 0.0149629 
-0.869616 -0.040904 6.13905 0.0159673 
-0.900829 -0.06118 6.10999 0.016801 
-0.841684 -0.022127 6.15169 0.021485 
-0.839085 -0.0200973 6.16926 0.0239243 
-0.814691 -0.00832985 6.1655 0.0238695 
-0.817004 -0.0111619 6.1478 0.0191999 
-0.895186 -0.0552181 6.12751 0.0174544 
-0.922416 -0.0718186 6.11913 0.0174505 
-0.889616 -0.0492409 6.14541 0.0198617 
-0.916546 -0.0659669 6.13687 0.0188823 
-0.884486 -0.0434004 6.16361 0.0226009 
-0.859413 -0.0283115 6.17549 0.0282982 
-0.864483 -0.0343928 6.15736 0.0216367 
-0.813784 -0.0117697 6.22035 0.0410018 
-0.828762 -0.0159683 6.20434 0.0355497 
-0.809391 -0.00995049 6.2008 0.029666 
-0.794367 -0.00551839 6.21667 0.0363049 
-0.833964 -0.0175694 6.18699 0.0288844 
-0.85388 -0.0269946 6.19301 0.0299368 
-0.769819 0.00362309 6.21369 0.0353928 
-0.784539 0.00116418 6.19717 0.0319929 
-0.799799 -0.00317905 6.1814 0.0265145 
-0.972503 -0.142049 6.01855 0.00401283 
-0.985054 -0.156645 6.00796 0.00343611 
-0.959847 -0.127308 6.02939 0.00559785 
-0.990111 -0.146409 6.035 0.00570889 
-1.00038 -0.166018 6.01073 0.00339622 
-1.01581 -0.175141 6.01351 0.00428497 
-0.977183 -0.132154 6.04606 0.00661377 
-0.964151 -0.117854 6.05743 0.00789935 
-0.947371 -0.114265 6.04058 0.0059419 
-0.934741 -0.101271 6.0515 0.0075684 
-1.03355 -0.185875 6.01805 0.00470839 
-1.01618 -0.165557 6.02919 0.00634785 
-1.03367 -0.176509 6.03405 0.00634162 
-1.0515 -0.196545 6.02251 0.00554915 
-1.01619 -0.156589 6.04528 0.00917658 
-1.05159 -0.187111 6.03836 0.00752974 
-1.03358 -0.167645 6.04987 0.00876798 
-1.06974 -0.206714 6.02707 0.0181656 
-1.01574 -0.147834 6.06172 0.0120807 
-0.989456 -0.128661 6.06807 0.0109515 
-0.938382 -0.0856889 6.10559 0.0141098 
-0.954355 -0.0995635 6.09217 0.0119638 
-0.932377 -0.0901635 6.08308 0.00983489 
-0.916523 -0.0759433 6.09629 0.0127146 
-0.959321 -0.108567 6.07474 0.00973843 
-0.984197 -0.120195 6.08515 0.0113853 
-0.889125 -0.0596368 6.09074 0.0125946 
-0.903814 -0.071985 6.0775 0.0114951 
-0.905023 -0.0778975 6.06149 0.00949156 
-0.933622 -0.0955031 6.06729 0.0089101 
-1.0322 -0.23712 5.93209 0.00196919 
-1.03343 -0.224915 5.95299 0.00188094 
-1.05044 -0.243979 5.94522 0.0024394 
-1.06689 -0.262568 5.93727 0.00297337 
-1.0517 -0.231471 5.96603 0.00245053 
-1.03239 -0.212063 5.9734 0.00210198 
-1.00436 -0.193321 5.96855 0.00163761 
-1.08747 -0.274426 5.9492 0.00415899 
-1.07975 -0.255386 5.96918 0.00343366 
-1.06722 -0.219103 6.00331 0.00430591 
-1.04903 -0.208259 5.99931 0.003534 
-1.03117 -0.197412 5.99498 0.0030866 
-1.07096 -0.231703 5.99101 0.0033295 
-1.00345 -0.179329 5.98998 0.00264921 
-0.987972 -0.169995 5.98725 0.0021552 
-1.07851 -0.313142 5.86605 0.00672626 
-1.09253 -0.317711 5.87851 0.00660612 
-1.09155 -0.328119 5.85807 0.00673027 
-1.07927 -0.30287 5.88644 0.00609795 
-1.06396 -0.286298 5.89398 0.00560839 
-1.06447 -0.297269 5.87365 0.00616336 
-1.11003 -0.342661 5.86019 0.00749286 
-1.11253 -0.335938 5.88009 0.00811864 
-1.12497 -0.350975 5.87134 0.00881233 
-1.11452 -0.327826 5.89948 0.00776166 
-1.09393 -0.309861 5.89816 0.00664767 
-1.09433 -0.292667 5.92911 0.00542232 
-1.07596 -0.281726 5.91706 0.0042226 
-1.05004 -0.256641 5.92395 0.00263307 
-1.05001 -0.269222 5.90229 0.00334461 
-1.12627 -0.372409 5.8067 0.0119776 
-1.1162 -0.361643 5.82048 0.00852404 
-1.14767 -0.390053 5.80038 0.0223058 
-1.13611 -0.37606 5.82928 0.0126793 
-1.12384 -0.357276 5.85318 0.00888024 
-1.09329 -0.336303 5.84127 0.00659507 
-1.10618 -0.349068 5.8349 0.00715055 
-1.15896 -0.398553 5.78604 0.0338362 
-1.13576 -0.381551 5.78467 0.0186102 
0.896353 -0.0225256 6.41638 0.0180812 
0.857043 -0.0180708 6.41484 0.0115712 
0.905232 -0.021549 6.3974 0.0301899 
0.865925 -0.0169101 6.39615 0.0199152 
0.874622 -0.0160441 6.37704 0.0291982 
0.847775 -0.0167841 6.43224 0.00730859 
0.956454 -0.0379808 6.33069 0.0789115 
0.921803 -0.027966 6.33323 0.0654264 
0.915602 -0.0252174 6.35478 0.0514592 
0.886663 -0.0202696 6.33568 0.0526515 
0.926736 -0.0308618 6.30994 0.0785693 
0.892002 -0.0229449 6.31396 0.065079 
0.898243 -0.0260887 6.29199 0.0815898 
0.909548 -0.0224603 6.3749 0.0391854 
0.88053 -0.0176705 6.35661 0.0400126 
0.634792 -0.0227327 6.31314 0.017442 
0.665748 -0.0205705 6.33013 0.0114934 
0.674229 -0.021739 6.31192 0.00941634 
0.69541 -0.0189146 6.34635 0.00765434 
0.704669 -0.0193148 6.32831 0.00531747 
0.734786 -0.0167991 6.34471 0.00402409 
0.725233 -0.016965 6.36252 0.00505929 
0.714079 -0.0186151 6.31012 0.00368937 
0.744281 -0.0156147 6.32622 0.00471592 
0.753613 -0.0138627 6.30708 0.010341 
0.723579 -0.0165154 6.29137 0.00576442 
0.683711 -0.0209686 6.2939 0.00534705 
0.692844 -0.0189712 6.27502 0.00391314 
0.652304 -0.0238959 6.27689 0.00960386 
0.643573 -0.0241398 6.29542 0.0149126 
0.609626 -0.0271372 6.27708 0.0237081 
0.661837 -0.0220638 6.25822 0.00474221 
0.618067 -0.0270337 6.25827 0.0172183 
0.626407 -0.0252255 6.23856 0.00911513 
0.601078 -0.0253397 6.29512 0.0262268 
0.755033 -0.0160984 6.37893 0.00401676 
0.784983 -0.0162287 6.39591 0.00406575 
0.794429 -0.0162228 6.37797 0.00543834 
0.816217 -0.016378 6.4137 0.00514809 
0.825514 -0.0164163 6.39598 0.00818557 
0.834201 -0.0155286 6.37727 0.0143631 
0.843218 -0.0150659 6.35848 0.0243571 
0.803699 -0.0150901 6.35969 0.00993242 
0.813458 -0.0139425 6.34106 0.0198289 
0.773811 -0.0151552 6.34285 0.00743418 
0.764534 -0.0162741 6.36127 0.00421108 
0.783078 -0.0135984 6.32369 0.0149285 
0.868648 -0.0239656 6.27382 0.0748213 
0.861839 -0.0205923 6.29522 0.0616467 
0.832826 -0.0193287 6.27792 0.0547738 
0.838437 -0.0214805 6.25576 0.0721947 
0.825305 -0.0168646 6.29869 0.0428867 
0.80291 -0.0175308 6.26101 0.0468831 
0.79646 -0.0158555 6.28243 0.0322385 
0.76749 -0.015122 6.26635 0.0275617 
0.810611 -0.0199814 6.23897 0.0632488 
0.774619 -0.0159073 6.24427 0.0419865 
0.781327 -0.01826 6.22305 0.0571111 
0.789765 -0.0140182 6.30288 0.0237685 
0.760215 -0.014322 6.28686 0.0180351 
0.81917 -0.0147358 6.31984 0.030669 
0.849417 -0.0164541 6.33764 0.0329977 
0.855439 -0.0181108 6.31685 0.0473236 
0.751997 -0.0179277 6.20741 0.0476666 
0.744509 -0.0163439 6.2284 0.0343455 
0.714352 -0.0169727 6.21249 0.0287497 
0.721948 -0.017196 6.19138 0.0420781 
0.706442 -0.0178252 6.23351 0.0140867 
0.68213 -0.019247 6.19534 0.0191394 
0.675332 -0.0202179 6.21687 0.00881653 
0.638831 -0.023276 6.19595 0.00471674 
0.688551 -0.0182882 6.17321 0.0365768 
0.64544 -0.0204422 6.17301 0.0138593 
0.652222 -0.0185763 6.15043 0.0343656 
0.668264 -0.0213718 6.23759 0.00442817 
0.632354 -0.0247119 6.21745 0.00525895 
0.699615 -0.0182505 6.25441 0.00676373 
0.730297 -0.0161294 6.27065 0.010819 
0.737196 -0.0161593 6.2497 0.020207 
0.690233 -0.0192244 6.14644 0.0632977 
0.726031 -0.0202889 6.1676 0.0601928 
0.729299 -0.0242086 6.14278 0.0817535 
0.756326 -0.0221216 6.18435 0.0597963 
0.760502 -0.0269484 6.16034 0.0760902 
0.789765 -0.0294858 6.177 0.0738525 
0.785351 -0.0234765 6.2006 0.0639664 
0.764559 -0.0331797 6.13619 0.0965182 
0.794312 -0.0362299 6.15357 0.0901112 
0.798246 -0.0435564 6.12976 0.105517 
0.768964 -0.0408937 6.11261 0.115063 
0.733163 -0.0295249 6.11779 0.111854 
0.736999 -0.0361946 6.09208 0.141568 
0.697622 -0.0254992 6.09397 0.138513 
0.693947 -0.0216397 6.1204 0.0981973 
0.662049 -0.0221452 6.10063 0.0957919 
0.702168 -0.0312156 6.06817 0.168746 
0.667846 -0.0258521 6.0756 0.13797 
0.673631 -0.0315542 6.05149 0.16957 
0.656891 -0.0196285 6.12538 0.060697 
0.813054 -0.0248807 6.21568 0.071403 
0.842175 -0.0277088 6.23246 0.0802315 
0.84503 -0.0331514 6.20849 0.0902468 
0.870566 -0.0289283 6.24956 0.088224 
0.873975 -0.0355904 6.22591 0.0989286 
0.901983 -0.0381434 6.24303 0.103225 
0.899957 -0.0316413 6.26777 0.0948798 
0.876028 -0.0423232 6.20096 0.103844 
0.905084 -0.0459711 6.21844 0.115113 
0.906508 -0.053671 6.19424 0.120936 
0.879968 -0.0513281 6.17767 0.114508 
0.848757 -0.0403954 6.18535 0.0968809 
0.852599 -0.0488477 6.16127 0.107781 
0.821592 -0.0381931 6.169 0.089999 
0.81756 -0.031438 6.19316 0.0757196 
0.825254 -0.0464574 6.14534 0.101757 
0.89958 -0.109748 6.0961 0.10617 
0.874204 -0.107872 6.08188 0.0986643 
0.875048 -0.0908236 6.10362 0.0968496 
0.849808 -0.0888548 6.08902 0.0978672 
0.848936 -0.105736 6.06748 0.100699 
0.850454 -0.0737258 6.11232 0.0929648 
0.82436 -0.0865093 6.07447 0.103055 
0.824924 -0.0714244 6.09713 0.0995869 
0.798981 -0.0688673 6.08263 0.110921 
0.823707 -0.104031 6.05303 0.107736 
0.798904 -0.0844119 6.05934 0.115467 
0.797666 -0.101587 6.03656 0.124814 
0.824992 -0.0583528 6.12083 0.0994151 
0.798709 -0.055583 6.10553 0.103641 
0.851686 -0.060943 6.13631 0.100014 
0.878592 -0.0636082 6.15225 0.106098 
0.876981 -0.07648 6.12814 0.0974704 
0.903625 -0.0794236 6.14347 0.109792 
0.905615 -0.0661848 6.16912 0.11476 
0.901833 -0.0935458 6.11982 0.107734 
0.766346 -0.0974075 6.01261 0.157087 
0.76714 -0.0798746 6.03651 0.150398 
0.735556 -0.0748177 6.01219 0.202401 
0.736338 -0.0947199 5.99207 0.187393 
0.734271 -0.0581569 6.03564 0.188088 
0.708678 -0.0742336 5.99672 0.209222 
0.706089 -0.0564829 6.01794 0.213716 
0.681488 -0.0581196 6.00586 0.202968 
0.710552 -0.0950314 5.97816 0.184419 
0.684704 -0.0760462 5.98538 0.201343 
0.686757 -0.0963312 5.96759 0.16892 
0.70315 -0.0420232 6.0412 0.197393 
0.677772 -0.0433548 6.02782 0.190005 
0.735214 -0.0456667 6.06328 0.162967 
0.769087 -0.0520086 6.08805 0.113698 
0.768993 -0.0651081 6.06281 0.136311 
0.926825 -0.0359417 6.28428 0.0939195 
0.956161 -0.0424916 6.3046 0.0845424 
0.954808 -0.0474744 6.27578 0.0999078 
0.984306 -0.0554072 6.29693 0.0931156 
0.983685 -0.0612223 6.2696 0.106348 
1.01223 -0.0764967 6.26217 0.109224 
0.984421 -0.0693128 6.24327 0.103253 
0.956187 -0.0548917 6.25144 0.102742 
0.957977 -0.0629669 6.22597 0.113702 
0.930471 -0.0501438 6.23445 0.109643 
0.928439 -0.042775 6.25945 0.0946552 
0.932298 -0.0580767 6.20974 0.116992 
1.0564 -0.142564 6.18204 0.108595 
1.04085 -0.123554 6.19895 0.10437 
1.03487 -0.137074 6.17017 0.103417 
1.01884 -0.117229 6.18639 0.106532 
1.02365 -0.104181 6.21453 0.10986 
1.00266 -0.0987191 6.20257 0.109931 
1.0126 -0.130796 6.15763 0.0987219 
0.996476 -0.110932 6.17355 0.113525 
0.991149 -0.125059 6.14595 0.110827 
1.00756 -0.0871218 6.23167 0.104061 
0.968389 -0.121226 6.13337 0.108113 
0.971471 -0.106292 6.15811 0.110419 
0.948294 -0.102502 6.14477 0.106977 
0.945546 -0.117775 6.12127 0.106658 
0.950317 -0.0871606 6.16975 0.116076 
0.925029 -0.0980973 6.13239 0.112381 
0.927494 -0.0834344 6.157 0.114928 
0.922409 -0.113224 6.10859 0.111601 
0.928075 -0.0690559 6.18136 0.118611 
0.954695 -0.0745155 6.19769 0.117798 
0.980412 -0.0803629 6.21298 0.10851 
0.976491 -0.0930919 6.18597 0.114381 
0.607319 -1.05007 6.50536 0.0359031 
0.596924 -1.04315 6.52767 0.0268891 
0.58309 -1.03575 6.51649 0.0199795 
0.572616 -1.02892 6.53868 0.0152353 
0.586342 -1.03643 6.54973 0.0212511 
0.558403 -1.02144 6.52735 0.0112833 
0.562073 -1.022 6.5606 0.011787 
0.548108 -1.01453 6.54943 0.00872784 
0.537665 -1.0075 6.5712 0.00702405 
0.575717 -1.02959 6.57153 0.0187219 
0.551557 -1.01508 6.58237 0.0102134 
0.565014 -1.02282 6.59328 0.0162018 
0.533331 -1.00712 6.5377 0.00667425 
0.523147 -1.00009 6.55972 0.00487895 
0.50769 -0.992793 6.54774 0.00391037 
0.518074 -0.998658 6.52515 0.00491257 
0.54396 -1.01301 6.51521 0.007933 
0.528546 -1.00436 6.50248 0.00573901 
0.554692 -1.01884 6.4925 0.0099486 
0.569196 -1.02728 6.50474 0.013748 
0.580193 -1.03328 6.48208 0.017611 
0.539138 -1.00985 6.47966 0.00734131 
0.5656 -1.02457 6.46972 0.01309 
0.54989 -1.01528 6.45683 0.0101886 
0.594121 -1.04179 6.49394 0.0245978 
0.553898 -1.0144 6.61305 0.0134082 
0.540266 -1.00743 6.60318 0.00878407 
0.529347 -0.998994 6.62313 0.00722086 
0.543169 -1.00615 6.63311 0.0108153 
0.515325 -0.991948 6.6131 0.00502119 
0.518646 -0.990525 6.64339 0.00633962 
0.504502 -0.983328 6.63341 0.00451713 
0.532346 -0.997831 6.65327 0.00988971 
0.489923 -0.97644 6.62293 0.00324665 
0.474632 -0.968922 6.61098 0.00233514 
0.50104 -0.984436 6.60175 0.00339206 
0.485776 -0.97699 6.58966 0.00220351 
0.512165 -0.992392 6.58072 0.0040306 
0.526525 -0.999801 6.59214 0.00575739 
0.496755 -0.984928 6.56857 0.00276784 
0.406645 -0.939551 6.56195 0.0153028 
0.424293 -0.949 6.57607 0.0151403 
0.435882 -0.955488 6.55344 0.0154731 
0.418425 -0.945398 6.53922 0.0152066 
0.452951 -0.963584 6.5667 0.0148318 
0.447454 -0.961842 6.53102 0.0159441 
0.464521 -0.97045 6.54456 0.00319106 
0.475863 -0.977254 6.52241 0.00424686 
0.429971 -0.95123 6.51674 0.0153514 
0.458793 -0.968181 6.50883 0.00435484 
0.441405 -0.957159 6.49458 0.00331296 
0.480786 -0.978265 6.55737 0.00275787 
0.492196 -0.985521 6.5355 0.00391531 
0.469886 -0.970523 6.57854 0.00184023 
0.458811 -0.962432 6.5999 0.00184736 
0.441892 -0.955957 6.5882 0.0141757 
0.452068 -0.960419 6.47114 0.00262771 
0.46897 -0.97303 6.48599 0.00453869 
0.479654 -0.976671 6.46265 0.00400923 
0.462629 -0.964055 6.44785 0.00235876 
0.496358 -0.98766 6.47693 0.00548643 
0.490209 -0.980465 6.43925 0.00430147 
0.507152 -0.991621 6.45357 0.00591021 
0.518068 -0.995596 6.4301 0.00668638 
0.473144 -0.967806 6.42458 0.00240763 
0.500839 -0.984556 6.41574 0.00556657 
0.483609 -0.97173 6.40114 0.00339466 
0.523288 -1.00165 6.46724 0.00699811 
0.534442 -1.0057 6.44379 0.00788785 
0.512827 -0.996383 6.48994 0.00533349 
0.502485 -0.991078 6.51274 0.00462655 
0.486132 -0.982522 6.49964 0.00468901 
0.455706 -0.95855 6.41189 0.00274402 
0.445255 -0.954571 6.43506 0.00221269 
0.428329 -0.944609 6.42239 0.00223995 
0.43471 -0.951487 6.4584 0.00267344 
0.417793 -0.941501 6.44553 0.00212115 
0.407026 -0.938243 6.46877 0.00228214 
0.423964 -0.948659 6.48176 0.00364032 
0.401192 -0.930174 6.43251 0.00213959 
0.390376 -0.927443 6.45577 0.00178386 
0.373722 -0.916367 6.44279 0.00327212 
0.385623 -0.918527 6.41956 0.00456956 
0.412616 -0.933262 6.40945 0.0034744 
0.397054 -0.921872 6.39663 0.0065609 
0.423796 -0.937122 6.38659 0.00377176 
0.439586 -0.947973 6.39923 0.00289545 
0.450752 -0.951632 6.37607 0.00385202 
0.408154 -0.925733 6.37385 0.00708077 
0.434928 -0.940494 6.36353 0.00527541 
0.419276 -0.929374 6.35092 0.00892009 
0.466942 -0.961988 6.38857 0.00364275 
0.411955 -0.943605 6.50452 0.0166345 
0.400314 -0.938042 6.52697 0.0163795 
0.382561 -0.928734 6.5144 0.0158729 
0.388393 -0.932875 6.54965 0.0166934 
0.370418 -0.923823 6.53716 0.0164459 
0.35276 -0.914586 6.52484 0.0156674 
0.335752 -0.903458 6.51158 0.0141842 
0.365605 -0.918772 6.50154 0.0146261 
0.348735 -0.907488 6.48831 0.00201659 
0.37818 -0.922431 6.47842 0.0141365 
0.394985 -0.933051 6.49138 0.0149724 
0.361392 -0.911135 6.46519 0.00283824 
0.271135 -0.865956 6.46587 0.0253928 
0.286316 -0.876228 6.47743 0.0105478 
0.2998 -0.879741 6.45401 0.0144607 
0.284423 -0.86977 6.44251 0.0304927 
0.315421 -0.889481 6.46555 0.00696318 
0.313002 -0.884783 6.43122 0.0160524 
0.328638 -0.893912 6.44254 0.00822879 
0.341726 -0.898633 6.42001 0.00915332 
0.297554 -0.874594 6.41984 0.0313091 
0.325888 -0.889641 6.4087 0.018094 
0.310093 -0.880875 6.39756 0.0327059 
0.344785 -0.90277 6.45404 0.00385334 
0.357657 -0.907729 6.43134 0.00460225 
0.331961 -0.898971 6.47695 0.00280013 
0.318833 -0.895807 6.5003 0.00252624 
0.302423 -0.886133 6.48875 0.00435756 
0.322523 -0.884723 6.37486 0.0346844 
0.337743 -0.892992 6.38599 0.0207292 
0.34992 -0.897298 6.36338 0.0253823 
0.334521 -0.889933 6.35227 0.0372364 
0.365222 -0.905249 6.37446 0.0158235 
0.361793 -0.902742 6.34088 0.0268364 
0.37717 -0.909451 6.35181 0.0185078 
0.388732 -0.914829 6.32917 0.0203049 
0.346543 -0.895976 6.32978 0.0360159 
0.373439 -0.908062 6.3181 0.0273634 
0.358142 -0.902225 6.30708 0.0355111 
0.392273 -0.917858 6.36287 0.0115045 
0.403891 -0.922524 6.34011 0.014165 
0.381129 -0.913507 6.38546 0.00974075 
0.369556 -0.910342 6.40829 0.0082477 
0.353632 -0.9017 6.39711 0.0131659 
0.694318 -1.03617 6.27104 0.0594423 
0.683617 -1.04067 6.30312 0.0415983 
0.66849 -1.03268 6.29023 0.0397534 
0.658262 -1.0369 6.32232 0.0288995 
0.672831 -1.04518 6.33439 0.0335276 
0.643148 -1.02876 6.30952 0.0265091 
0.647522 -1.04151 6.35378 0.0255403 
0.6329 -1.03287 6.34165 0.021918 
0.622575 -1.03793 6.37293 0.0238577 
0.661641 -1.05009 6.36527 0.0324363 
0.636822 -1.04677 6.38452 0.0291775 
0.650579 -1.05544 6.3957 0.0378719 
0.617438 -1.02414 6.32899 0.019892 
0.607403 -1.02883 6.361 0.0193857 
0.591222 -1.01923 6.34872 0.0164621 
0.601472 -1.01556 6.31823 0.0186762 
0.627674 -1.02093 6.29852 0.026039 
0.611453 -1.01222 6.28698 0.0248912 
0.6378 -1.01773 6.26717 0.0387002 
0.653623 -1.02572 6.27892 0.0392541 
0.663878 -1.02191 6.24781 0.0586959 
0.621331 -1.00786 6.2554 0.0345188 
0.64753 -1.01292 6.23576 0.0560563 
0.631057 -1.00215 6.22378 0.0479778 
0.679637 -1.0293 6.25971 0.0587401 
0.639592 -1.05335 6.42315 0.0293055 
0.625791 -1.04491 6.41092 0.0234249 
0.615374 -1.04358 6.43873 0.0209017 
0.628883 -1.05187 6.45051 0.0274795 
0.601038 -1.03483 6.4266 0.0148494 
0.604757 -1.0425 6.46636 0.0211848 
0.590661 -1.03395 6.45433 0.0154234 
0.618191 -1.05082 6.47802 0.0294536 
0.575665 -1.0248 6.44187 0.0108803 
0.56037 -1.01527 6.43029 0.00765893 
0.586388 -1.02551 6.41532 0.0101429 
0.57078 -1.01575 6.40355 0.00724856 
0.597004 -1.02676 6.38833 0.0126655 
0.611825 -1.03602 6.39973 0.0173249 
0.581169 -1.01717 6.37639 0.00969314 
0.494048 -0.971112 6.37514 0.00263978 
0.510617 -0.984312 6.38892 0.004302 
0.520908 -0.984307 6.3624 0.00360708 
0.504422 -0.970953 6.34878 0.0027314 
0.537588 -0.995833 6.37608 0.0050799 
0.531406 -0.984406 6.33552 0.00452901 
0.54817 -0.996869 6.34902 0.00692514 
0.558639 -0.998513 6.32164 0.0123845 
0.515101 -0.970946 6.32207 0.00366465 
0.542015 -0.98523 6.30807 0.00770632 
0.525767 -0.971307 6.2947 0.00539677 
0.564779 -1.0074 6.36265 0.00827778 
0.575247 -1.00947 6.33531 0.015028 
0.554702 -1.00616 6.39007 0.00603529 
0.544749 -1.00562 6.41722 0.00605833 
0.527771 -0.995494 6.40326 0.00546975 
0.536505 -0.966704 6.26543 0.0061866 
0.552106 -0.979255 6.27709 0.00737164 
0.563161 -0.974772 6.24719 0.00941611 
0.547424 -0.962022 6.23553 0.00757046 
0.578657 -0.987159 6.25914 0.0130574 
0.573849 -0.970057 6.21705 0.0146866 
0.58925 -0.982865 6.22912 0.0190805 
0.59992 -0.978096 6.19886 0.030381 
0.558297 -0.957998 6.20499 0.0121168 
0.584798 -0.965568 6.18675 0.0234705 
0.569149 -0.953354 6.17456 0.0208751 
0.605003 -0.995218 6.24134 0.0271932 
0.615429 -0.99067 6.21113 0.0384512 
0.595058 -1.00091 6.2731 0.0206452 
0.585324 -1.0055 6.30439 0.0163985 
0.568706 -0.993 6.29065 0.0118046 
0.541783 -0.947555 6.19406 0.0133978 
0.530917 -0.951647 6.22441 0.00909547 
0.514429 -0.941758 6.21314 0.0130577 
0.520188 -0.956636 6.25419 0.00790059 
0.503708 -0.946165 6.2429 0.0118155 
0.493292 -0.951071 6.27202 0.00932095 
0.509482 -0.961693 6.28332 0.00649412 
0.487376 -0.936383 6.23144 0.0156829 
0.476995 -0.941121 6.26038 0.013125 
0.461135 -0.931598 6.24864 0.0188209 
0.472095 -0.927257 6.22105 0.0216069 
0.498656 -0.932077 6.20317 0.0188874 
0.483189 -0.92315 6.19278 0.0252181 
0.510402 -0.928569 6.17416 0.0190989 
0.526045 -0.938023 6.18411 0.0151338 
0.537743 -0.934537 6.15467 0.0214189 
0.494785 -0.919345 6.16405 0.0247862 
0.522282 -0.925251 6.14457 0.0240306 
0.506793 -0.915547 6.13487 0.0275744 
0.553333 -0.943784 6.16461 0.020375 
0.498264 -0.960828 6.31021 0.00499491 
0.487756 -0.960844 6.33663 0.00406566 
0.47131 -0.950507 6.32457 0.00506889 
0.477263 -0.961287 6.36277 0.00356722 
0.461077 -0.951077 6.35052 0.00469534 
0.445048 -0.940207 6.33812 0.00845053 
0.430059 -0.929688 6.32623 0.0117351 
0.455842 -0.940482 6.31288 0.00907817 
0.440606 -0.929909 6.30099 0.0165798 
0.466411 -0.940681 6.28691 0.0106217 
0.482198 -0.950804 6.29861 0.00775686 
0.450928 -0.930609 6.2752 0.0164229 
0.369422 -0.904012 6.28279 0.0407089 
0.383991 -0.910039 6.29355 0.0320192 
0.39533 -0.911611 6.26881 0.0354883 
0.380988 -0.906229 6.25831 0.0467261 
0.409598 -0.917538 6.27936 0.0286258 
0.406422 -0.913154 6.24372 0.0376033 
0.420557 -0.918724 6.2541 0.0313634 
0.431496 -0.919986 6.22828 0.0336617 
0.39214 -0.908164 6.23323 0.048653 
0.417248 -0.914641 6.21809 0.0382752 
0.403262 -0.909803 6.20794 0.0507123 
0.43521 -0.924728 6.26453 0.0236855 
0.446137 -0.925667 6.23851 0.0268124 
0.425049 -0.92382 6.29026 0.0220574 
0.414624 -0.9228 6.31543 0.0164573 
0.399298 -0.916124 6.30454 0.025875 
0.414405 -0.90591 6.18198 0.0524719 
0.427641 -0.91055 6.19122 0.0432047 
0.438972 -0.906271 6.16441 0.0488524 
0.425641 -0.901067 6.15541 0.0548522 
0.452608 -0.911648 6.17336 0.0400474 
0.450749 -0.901569 6.13726 0.0475286 
0.464539 -0.907245 6.14579 0.0374091 
0.477379 -0.903623 6.11768 0.0394355 
0.437463 -0.896346 6.12856 0.0575144 
0.463184 -0.897579 6.1095 0.0483501 
0.449627 -0.891689 6.10108 0.0554881 
0.479071 -0.913125 6.15447 0.0348012 
0.491845 -0.90946 6.12625 0.0331068 
0.467691 -0.917068 6.18303 0.0321079 
0.456682 -0.921342 6.21106 0.0312637 
0.441838 -0.915647 6.20116 0.0382409 
0.707694 -0.122777 5.96222 0.131879 
0.732446 -0.121995 5.97381 0.138675 
0.728135 -0.150902 5.95954 0.0878439 
0.760612 -0.122309 5.99053 0.134719 
0.754779 -0.150027 5.97284 0.0926015 
0.785603 -0.151078 5.99264 0.0839907 
0.792773 -0.125962 6.01434 0.103778 
0.748479 -0.180007 5.95933 0.0533229 
0.777771 -0.179242 5.97472 0.0587133 
0.76958 -0.209241 5.96099 0.0335302 
0.7444 -0.210412 5.95042 0.0223508 
0.725402 -0.180496 5.9496 0.0480387 
0.721922 -0.211736 5.94134 0.0168706 
0.703456 -0.181265 5.94117 0.0406062 
0.705927 -0.151795 5.95074 0.0780435 
0.684538 -0.152165 5.94203 0.0698091 
0.700412 -0.212357 5.93236 0.0148203 
0.682223 -0.181487 5.93189 0.0367891 
0.679366 -0.212077 5.92215 0.0165967 
0.686143 -0.123087 5.95366 0.118967 
0.81784 -0.128181 6.02996 0.0931184 
0.843424 -0.12933 6.04547 0.086514 
0.836768 -0.154459 6.02447 0.0652428 
0.868603 -0.130639 6.05972 0.0825753 
0.862249 -0.155468 6.03891 0.0689652 
0.887107 -0.15643 6.05264 0.0716381 
0.893756 -0.132379 6.07349 0.0873911 
0.854626 -0.180849 6.01918 0.0544947 
0.879875 -0.181604 6.03272 0.0563579 
0.871988 -0.20742 6.01448 0.0462259 
0.848431 -0.207965 6.00249 0.0422756 
0.831135 -0.180488 6.00663 0.0517367 
0.824255 -0.207978 5.99005 0.0412635 
0.804998 -0.179911 5.99103 0.0557954 
0.812465 -0.1534 6.01041 0.0696675 
0.796729 -0.208771 5.97447 0.0362967 
0.823017 -0.334972 5.95883 0.00280703 
0.799984 -0.337112 5.94876 0.00178832 
0.809591 -0.306746 5.96097 0.00309399 
0.786478 -0.308239 5.95139 0.00213447 
0.778723 -0.337962 5.939 0.00130247 
0.795973 -0.27621 5.96179 0.00479573 
0.765164 -0.308681 5.94235 0.00171464 
0.77319 -0.276793 5.95229 0.00283579 
0.751923 -0.277003 5.94407 0.00248625 
0.759056 -0.337866 5.9304 0.000997707 
0.745598 -0.308192 5.93371 0.00183561 
0.740762 -0.337122 5.92132 0.000968526 
0.782946 -0.243435 5.96185 0.0110248 
0.7601 -0.24378 5.95277 0.00790759 
0.81093 -0.241809 5.97532 0.0155334 
0.837428 -0.240633 5.98897 0.0206034 
0.824229 -0.273695 5.97535 0.00751709 
0.850093 -0.271282 5.9872 0.0105939 
0.861507 -0.240247 6.00085 0.0252027 
0.836671 -0.303571 5.9738 0.00454582 
0.72232 -0.336609 5.91217 0.00103956 
0.72488 -0.308767 5.92333 0.00128929 
0.706361 -0.308046 5.91408 0.00108865 
0.703933 -0.336228 5.90271 0.00159315 
0.70933 -0.278508 5.92407 0.00198937 
0.687906 -0.307818 5.90509 0.00108971 
0.690749 -0.277707 5.91478 0.00179262 
0.672254 -0.27708 5.90532 0.00196535 
0.685495 -0.335587 5.89335 0.00240207 
0.669608 -0.306581 5.89474 0.00140381 
0.667188 -0.334909 5.8832 0.00413283 
0.694197 -0.24673 5.92359 0.00462031 
0.675405 -0.245611 5.91454 0.00496829 
0.715098 -0.246385 5.93392 0.00436333 
0.736656 -0.245139 5.94323 0.0052914 
0.730162 -0.278096 5.93426 0.00227586 
0.679995 -0.366768 5.88483 0.00388721 
0.698372 -0.367129 5.89451 0.00231561 
0.692733 -0.397669 5.88587 0.00463176 
0.71674 -0.367635 5.90412 0.00156708 
0.711248 -0.398039 5.89519 0.00335699 
0.729618 -0.398407 5.90432 0.00236668 
0.735133 -0.368414 5.91317 0.00132517 
0.705829 -0.427538 5.88554 0.00780277 
0.724441 -0.427479 5.89441 0.00632148 
0.719109 -0.456355 5.88395 0.0147958 
0.70171 -0.455295 5.87662 0.0159628 
0.688694 -0.426005 5.87745 0.00975457 
0.684246 -0.454014 5.8696 0.0165095 
0.671104 -0.424958 5.86998 0.0103889 
0.675685 -0.396079 5.87752 0.00564825 
0.658212 -0.394856 5.86971 0.00613242 
0.666462 -0.453184 5.86227 0.0172839 
0.653411 -0.423651 5.86236 0.0110775 
0.648423 -0.452477 5.85521 0.0171716 
0.662882 -0.365414 5.87621 0.0050214 
0.751781 -0.370035 5.92146 0.00139614 
0.770121 -0.37048 5.93076 0.00165011 
0.762997 -0.401875 5.92055 0.00180847 
0.789661 -0.370175 5.94021 0.00231043 
0.781221 -0.402015 5.92997 0.00224936 
0.800633 -0.401369 5.93998 0.00321687 
0.810948 -0.36903 5.94986 0.00289905 
0.774225 -0.432398 5.91816 0.0034181 
0.792682 -0.432061 5.92787 0.00305627 
0.785803 -0.461924 5.91453 0.00830695 
0.769229 -0.460884 5.90669 0.0100438 
0.757718 -0.430668 5.91019 0.00415673 
0.752711 -0.459355 5.8986 0.0122682 
0.741048 -0.429381 5.90222 0.00486022 
0.746275 -0.400224 5.91242 0.00200248 
0.735893 -0.457957 5.89149 0.0134441 
0.755134 -0.585842 5.88807 0.0637982 
0.74657 -0.554077 5.88815 0.0380474 
0.723444 -0.581833 5.87785 0.0558954 
0.737315 -0.521979 5.88789 0.0232818 
0.714557 -0.549825 5.87685 0.0353364 
0.705144 -0.517435 5.87547 0.0227706 
0.691018 -0.577763 5.86779 0.049833 
0.72833 -0.489426 5.88603 0.0172656 
0.74521 -0.490742 5.89325 0.0162407 
0.761848 -0.492013 5.90048 0.0143166 
0.754146 -0.52318 5.89435 0.0228844 
0.770921 -0.524183 5.90121 0.0227258 
0.778443 -0.493039 5.90817 0.0128122 
0.763118 -0.555116 5.89455 0.0383568 
0.680422 -0.547114 5.86565 0.0322658 
0.657615 -0.574837 5.8579 0.041837 
0.669367 -0.516121 5.86359 0.020412 
0.646605 -0.544256 5.8553 0.0261839 
0.635678 -0.512957 5.85193 0.0186685 
0.623584 -0.571895 5.84865 0.0361072 
0.658821 -0.484485 5.85977 0.0175954 
0.676752 -0.485102 5.86667 0.0169661 
0.694743 -0.485771 5.87264 0.0188688 
0.687502 -0.516514 5.86978 0.0220715 
0.781731 -0.866953 6.02418 0.075169 
0.769882 -0.892964 6.05229 0.0555423 
0.755634 -0.887161 6.04143 0.0645374 
0.743846 -0.913229 6.07019 0.052178 
0.758214 -0.919446 6.08078 0.0492794 
0.729588 -0.906314 6.05916 0.0584515 
0.73238 -0.939304 6.09877 0.0550891 
0.71781 -0.932329 6.08796 0.0584687 
0.706358 -0.95804 6.11652 0.0699573 
0.747 -0.945647 6.10964 0.0538191 
0.721143 -0.96489 6.1274 0.0690332 
0.735943 -0.971315 6.13789 0.0687948 
0.702995 -0.925335 6.07747 0.0635088 
0.691287 -0.950531 6.10651 0.067784 
0.676063 -0.942647 6.09622 0.0692336 
0.688576 -0.919797 6.06873 0.0663278 
0.700875 -0.895906 6.04176 0.066763 
0.727575 -0.877655 6.02369 0.0750424 
0.753806 -0.858541 6.00637 0.0905537 
0.713406 -0.87234 6.01523 0.0775901 
0.725349 -0.848556 5.98926 0.0994098 
0.725957 -0.988825 6.17152 0.0591929 
0.710401 -0.980916 6.15837 0.0561864 
0.700329 -0.998508 6.19198 0.0559627 
0.71589 -1.00659 6.20472 0.0570882 
0.684318 -0.98922 6.17932 0.0501396 
0.689963 -1.01502 6.22601 0.0580657 
0.674219 -1.00635 6.21364 0.0528135 
0.705109 -1.02239 6.23801 0.0585035 
0.657923 -0.996585 6.20122 0.0459926 
0.641826 -0.98741 6.19158 0.0403376 
0.668611 -0.981234 6.16912 0.0483041 
0.65326 -0.973123 6.15931 0.0428174 
0.680104 -0.966187 6.13755 0.0531171 
0.694994 -0.973451 6.14782 0.0546722 
0.664636 -0.957856 6.12763 0.049443 
0.581246 -0.941976 6.14403 0.021719 
0.596065 -0.952526 6.15397 0.024984 
0.607879 -0.940178 6.12416 0.0290226 
0.593167 -0.930116 6.11392 0.0255244 
0.62272 -0.950274 6.1341 0.032681 
0.620095 -0.928077 6.09404 0.0383895 
0.634789 -0.937883 6.1043 0.0433012 
0.647265 -0.924559 6.07473 0.0616537 
0.605619 -0.917164 6.08447 0.0309076 
0.632756 -0.915015 6.06439 0.0577733 
0.617972 -0.90453 6.05471 0.047318 
0.649556 -0.946843 6.1149 0.0471928 
0.661688 -0.933832 6.08513 0.0678957 
0.637892 -0.961808 6.14654 0.0358581 
0.626532 -0.975695 6.17902 0.034623 
0.611175 -0.964359 6.16635 0.0298825 
0.631183 -0.883922 6.02987 0.0465167 
0.645705 -0.892559 6.0369 0.0552306 
0.658495 -0.871575 6.01227 0.0595916 
0.644153 -0.863989 6.00482 0.0578916 
0.672874 -0.879101 6.02009 0.0658781 
0.671438 -0.850691 5.98816 0.0806157 
0.685573 -0.857748 5.99575 0.082825 
0.697995 -0.836562 5.97192 0.108341 
0.657134 -0.843432 5.98023 0.0754771 
0.684067 -0.829664 5.9642 0.111553 
0.669694 -0.822801 5.95632 0.109419 
0.699341 -0.864075 6.00452 0.0767826 
0.711944 -0.842422 5.98066 0.102836 
0.687071 -0.887873 6.03074 0.0660429 
0.67425 -0.910841 6.05785 0.0632889 
0.65998 -0.902082 6.04715 0.060588 
0.976277 -0.338823 6.01284 0.0194891 
0.972022 -0.309143 6.02215 0.022807 
0.941416 -0.335974 6.00222 0.0121054 
0.967382 -0.278399 6.03178 0.0332108 
0.937364 -0.305539 6.01127 0.0153626 
0.932033 -0.274427 6.02001 0.0233949 
0.906408 -0.333547 5.99095 0.00873576 
0.961939 -0.247223 6.04109 0.0444138 
0.955986 -0.215205 6.05152 0.060523 
0.974402 -0.217878 6.05841 0.0663722 
0.980488 -0.249585 6.04818 0.0465802 
0.993446 -0.221409 6.06532 0.0707477 
0.999052 -0.252497 6.05442 0.0484767 
0.985635 -0.280716 6.03843 0.0352889 
1.00402 -0.282943 6.04418 0.0403818 
1.0115 -0.224762 6.07277 0.0728201 
1.01748 -0.255025 6.06095 0.056761 
1.03021 -0.227553 6.07994 0.0717205 
0.990054 -0.311039 6.02845 0.0289656 
0.886649 -0.333085 5.98374 0.00686559 
0.898974 -0.303966 5.99782 0.0106267 
0.878799 -0.30325 5.99013 0.0089709 
0.866896 -0.332554 5.97625 0.00518571 
0.890961 -0.272685 6.00366 0.0164627 
0.858139 -0.302694 5.98201 0.00635176 
0.870802 -0.271918 5.99555 0.0130279 
0.845755 -0.333318 5.9687 0.00381452 
0.881966 -0.24058 6.00948 0.02928 
0.89302 -0.209418 6.02376 0.0497841 
0.902546 -0.24188 6.01801 0.0317868 
0.914214 -0.2116 6.03374 0.0508367 
0.923665 -0.243442 6.0273 0.0345157 
0.911448 -0.273549 6.012 0.0191121 
0.935145 -0.213455 6.04293 0.0517888 
0.915143 -0.135075 6.08359 0.0932248 
0.938056 -0.138424 6.09565 0.0941215 
0.929706 -0.161515 6.07208 0.0788487 
0.959932 -0.141192 6.10716 0.0973365 
0.95231 -0.164191 6.08332 0.0832432 
0.974913 -0.167707 6.09513 0.0835864 
0.983183 -0.145827 6.11923 0.097963 
0.943345 -0.188354 6.06149 0.0736475 
0.965828 -0.190844 6.07268 0.0710399 
0.922083 -0.186116 6.05222 0.0646522 
0.900939 -0.183715 6.04279 0.0577427 
0.90849 -0.159059 6.0627 0.0740268 
1.00317 -0.149958 6.12845 0.0957537 
1.02419 -0.154693 6.13945 0.0937064 
1.01292 -0.175241 6.11092 0.0923705 
1.04436 -0.159789 6.14984 0.0963107 
1.03368 -0.180093 6.121 0.0887712 
1.05468 -0.185249 6.13228 0.0887796 
1.06565 -0.16566 6.16054 0.0959489 
1.02225 -0.20181 6.09574 0.0861789 
1.04294 -0.206023 6.10556 0.0802073 
1.00297 -0.198201 6.08787 0.0768544 
0.984453 -0.194137 6.07968 0.0745217 
0.993757 -0.1716 6.10346 0.0891054 
0.831202 -0.368303 5.95879 0.00357668 
0.852914 -0.36621 5.96782 0.00389445 
0.839212 -0.400333 5.95765 0.00506921 
0.87368 -0.365629 5.97537 0.00427422 
0.859905 -0.398415 5.96588 0.00477369 
0.879871 -0.397779 5.97287 0.00477692 
0.892231 -0.366369 5.98239 0.00487743 
0.847604 -0.431274 5.9537 0.00445534 
0.866902 -0.42977 5.96158 0.00500222 
0.855492 -0.461469 5.94823 0.00576045 
0.837101 -0.463178 5.93952 0.00566349 
0.828267 -0.43261 5.94515 0.0036844 
0.819426 -0.463451 5.93121 0.00565159 
0.809879 -0.433228 5.93591 0.00309058 
0.819442 -0.401499 5.94836 0.00406892 
0.802406 -0.462944 5.92316 0.00617497 
0.927159 -0.368736 5.99405 0.00611297 
0.912986 -0.400909 5.98419 0.00519074 
0.947115 -0.402913 5.99517 0.00572967 
0.961282 -0.371269 6.00468 0.00836762 
0.91653 -0.433629 5.97853 0.00556243 
0.920644 -0.465435 5.97162 0.00781282 
0.889053 -0.462474 5.9606 0.00682722 
0.873062 -0.598071 5.94246 0.0408162 
0.868744 -0.564881 5.94418 0.022451 
0.844542 -0.597081 5.92837 0.0463221 
0.86458 -0.530775 5.94615 0.0126871 
0.839441 -0.563528 5.92979 0.024026 
0.833915 -0.529865 5.93129 0.0135023 
0.815807 -0.594604 5.91385 0.0567141 
0.859924 -0.496358 5.94788 0.00849433 
0.892622 -0.497355 5.96031 0.00992038 
0.895736 -0.532024 5.95868 0.014119 
0.808566 -0.561821 5.91524 0.0300483 
0.785702 -0.590885 5.90028 0.0634091 
0.80128 -0.528848 5.91592 0.0180379 
0.810079 -0.496779 5.92353 0.00998333 
0.826762 -0.49676 5.93198 0.00824301 
0.81752 -0.529536 5.92364 0.016057 
0.681806 -0.795575 5.94138 0.101892 
0.708073 -0.772735 5.93271 0.101303 
0.719835 -0.744304 5.91867 0.112647 
0.745009 -0.719875 5.91267 0.12289 
0.716072 -0.71211 5.90009 0.12599 
0.748526 -0.752168 5.9316 0.110402 
0.773566 -0.726855 5.92576 0.120895 
0.762199 -0.757687 5.94022 0.101676 
0.73654 -0.78262 5.94722 0.102005 
0.750381 -0.788127 5.95562 0.0942122 
0.724144 -0.812785 5.96323 0.0968696 
0.710541 -0.806608 5.95541 0.101865 
0.738064 -0.81826 5.97225 0.0881998 
0.725826 -0.681348 5.89637 0.0968625 
0.750941 -0.652126 5.89822 0.082523 
0.760897 -0.620247 5.89603 0.0702335 
0.790838 -0.624588 5.9084 0.0681161 
0.780184 -0.657978 5.9109 0.0789886 
0.769573 -0.69084 5.91457 0.099101 
0.861287 -0.63348 5.94343 0.0487044 
0.836551 -0.666435 5.93847 0.058254 
0.825544 -0.701173 5.94169 0.0761318 
0.801184 -0.732969 5.9397 0.107325 
0.827955 -0.738241 5.95411 0.0893847 
0.798367 -0.695773 5.92749 0.0910775 
0.808764 -0.662639 5.9247 0.0736428 
0.819518 -0.629534 5.92228 0.060058 
0.81657 -0.770816 5.96992 0.0678161 
0.791557 -0.799053 5.97814 0.0686396 
0.779736 -0.831385 5.99628 0.0709826 
0.789679 -0.763816 5.95398 0.0898077 
1.13731 -0.84659 6.1745 0.0707391 
1.13782 -0.824369 6.15648 0.0746825 
1.11622 -0.849602 6.16775 0.0704547 
1.13934 -0.802171 6.13829 0.082493 
1.11651 -0.82739 6.14943 0.0728483 
1.11798 -0.805283 6.13101 0.0765187 
1.09455 -0.852395 6.16091 0.0352996 
1.14124 -0.779973 6.12 0.0930081 
1.14289 -0.757802 6.1014 0.106945 
1.16346 -0.757264 6.10955 0.111011 
1.16175 -0.779456 6.12802 0.0964896 
1.15961 -0.801684 6.14614 0.0836933 
1.09539 -0.82912 6.14157 0.0366449 
1.07241 -0.855486 6.15317 0.0330361 
1.0971 -0.805656 6.12214 0.0715188 
1.07338 -0.832306 6.13367 0.0347935 
1.07496 -0.808961 6.1141 0.0418416 
1.05087 -0.858715 6.14535 0.0280637 
1.09898 -0.782035 6.10266 0.0854924 
1.10071 -0.758435 6.08313 0.104578 
1.12208 -0.758062 6.09228 0.104567 
1.11976 -0.781717 6.11163 0.0865902 
1.15621 -0.644701 6.05233 0.140378 
1.15287 -0.673569 6.06424 0.127742 
1.17673 -0.647253 6.06141 0.146103 
1.14952 -0.702024 6.07645 0.116344 
1.17292 -0.675983 6.07334 0.132012 
1.16912 -0.704267 6.08551 0.121153 
1.14633 -0.730087 6.08882 0.109716 
1.125 -0.730251 6.07964 0.10977 
1.12792 -0.702104 6.06738 0.115952 
1.17682 -0.730774 6.10167 0.119045 
1.08502 -0.356937 6.04053 0.0569643 
1.08854 -0.328176 6.05476 0.0573566 
1.06037 -0.351708 6.03443 0.0466077 
1.09085 -0.299578 6.06915 0.0561552 
1.06121 -0.323435 6.04753 0.0517142 
1.06322 -0.29423 6.06149 0.0562529 
1.03404 -0.346789 6.02792 0.0401055 
1.09221 -0.270702 6.08385 0.0740094 
1.09251 -0.242447 6.10057 0.0825551 
1.12024 -0.249972 6.10901 0.0797739 
1.11856 -0.277995 6.09145 0.0752077 
1.11604 -0.306671 6.07563 0.0667012 
1.03456 -0.317677 6.04029 0.0407112 
1.00534 -0.342692 6.02052 0.0284092 
1.03413 -0.287741 6.05268 0.048739 
1.04738 -0.261394 6.0706 0.0620769 
1.06189 -0.234842 6.09043 0.0832935 
1.08657 -0.19374 6.14371 0.0908583 
1.09023 -0.217173 6.12104 0.0877414 
1.15834 -0.375436 6.05964 0.076579 
1.15054 -0.344239 6.07076 0.070591 
1.13458 -0.368634 6.05287 0.0696182 
1.12623 -0.337557 6.06453 0.0633705 
1.11093 -0.362353 6.0473 0.062085 
1.14228 -0.312759 6.08325 0.0681085 
1.1794 -0.616325 6.05791 0.140568 
0.725559 -1.07031 6.58196 0.0584388 
0.714145 -1.06106 6.60333 0.0453276 
0.6998 -1.06146 6.59309 0.0427297 
0.688014 -1.05188 6.61451 0.0343756 
0.702497 -1.05174 6.6248 0.0362916 
0.674954 -1.05426 6.60578 0.0366542 
0.676027 -1.0422 6.63599 0.0261103 
0.662738 -1.04423 6.62715 0.0266662 
0.65058 -1.03405 6.6486 0.021631 
0.690665 -1.04215 6.64628 0.0304535 
0.664586 -1.03253 6.65784 0.0213528 
0.679502 -1.03273 6.66818 0.0271109 
0.649563 -1.0469 6.61868 0.0352123 
0.637046 -1.0366 6.64018 0.027047 
0.623037 -1.03958 6.63153 0.0345436 
0.633596 -1.04678 6.6095 0.0368769 
0.660163 -1.05406 6.59702 0.0373641 
0.644082 -1.05408 6.5877 0.0413602 
0.670725 -1.06122 6.57539 0.0418967 
0.68574 -1.06097 6.58434 0.0410865 
0.695997 -1.06787 6.5627 0.0465849 
0.654315 -1.06128 6.56569 0.0481058 
0.680776 -1.06825 6.5535 0.0495488 
0.664729 -1.06882 6.54397 0.0575015 
0.709788 -1.06788 6.57151 0.0466245 
0.669875 -1.02508 6.68555 0.025663 
0.65422 -1.02439 6.67708 0.0205589 
0.64461 -1.01654 6.69451 0.0196145 
0.660447 -1.01739 6.70306 0.0242612 
0.629051 -1.01705 6.68665 0.0210659 
0.63494 -1.00879 6.71212 0.018555 
0.619506 -1.00933 6.70449 0.0186174 
0.650942 -1.0097 6.72055 0.0214099 
0.604805 -1.01118 6.69779 0.019389 
0.591048 -1.014 6.68973 0.0218458 
0.615589 -1.01973 6.67863 0.0210666 
0.601788 -1.02252 6.67034 0.0258422 
0.626269 -1.02808 6.65932 0.0240567 
0.639605 -1.0255 6.66744 0.020852 
0.612305 -1.03099 6.65076 0.0291188 
0.547554 -1.00249 6.66343 0.0124005 
0.558419 -1.01071 6.64329 0.0139127 
0.573186 -1.01507 6.65311 0.0177792 
0.569358 -1.01895 6.62333 0.0156064 
0.584179 -1.02322 6.63311 0.0194957 
0.595187 -1.03133 6.61327 0.0219074 
0.580308 -1.02714 6.60338 0.0192223 
0.598309 -1.02738 6.64235 0.0230177 
0.609574 -1.03545 6.62264 0.025993 
0.587937 -1.01883 6.66205 0.0211247 
0.577354 -1.0103 6.68165 0.0188624 
0.56259 -1.00648 6.6728 0.0164339 
0.590336 -1.03463 6.58117 0.0230744 
0.600978 -1.04127 6.55932 0.0253513 
0.615351 -1.04609 6.56875 0.0290465 
0.611753 -1.04792 6.53745 0.0288876 
0.626038 -1.05267 6.54693 0.0338853 
0.63709 -1.05951 6.52514 0.0406837 
0.622234 -1.0547 6.51522 0.0366939 
0.640326 -1.05744 6.55632 0.0403102 
0.651139 -1.06418 6.53462 0.0483599 
0.629664 -1.04989 6.57816 0.0336102 
0.619746 -1.04277 6.60049 0.0291969 
0.605385 -1.03875 6.59103 0.0248335 
1.08226 -0.390852 6.03489 0.0412988 
1.07977 -0.424201 6.02805 0.0386693 
1.10729 -0.396275 6.04088 0.0509193 
1.10361 -0.430183 6.03394 0.0481364 
1.07658 -0.457722 6.02024 0.0451005 
1.07554 -0.490057 6.01219 0.0609794 
1.05076 -0.485606 6.00549 0.0473989 
1.05286 -0.452373 6.01447 0.031248 
1.0553 -0.419101 6.02247 0.0287135 
1.02644 -0.480782 5.99928 0.0334626 
1.13079 -0.402587 6.04719 0.0612145 
1.12689 -0.436263 6.04053 0.0618313 
1.15434 -0.409118 6.05338 0.0700198 
1.14939 -0.442661 6.04617 0.0730424 
1.12377 -0.469013 6.03311 0.0663639 
1.12175 -0.501456 6.0256 0.0874908 
1.09861 -0.49575 6.01873 0.0679079 
1.10049 -0.463217 6.0266 0.0542717 
1.06772 -0.630004 6.01407 0.0997881 
1.06894 -0.595718 6.01297 0.0842379 
1.04485 -0.625922 6.00512 0.0870205 
1.07102 -0.560813 6.01247 0.0680639 
1.04615 -0.591174 6.00477 0.0663906 
1.04771 -0.556334 6.00446 0.0522021 
1.02262 -0.621296 5.99654 0.079031 
1.07335 -0.525524 6.01238 0.0617263 
1.09617 -0.531222 6.01943 0.0692266 
1.09398 -0.566184 6.02014 0.0795425 
1.02321 -0.5867 5.99672 0.057326 
0.999256 -0.617084 5.98798 0.0677424 
1.02402 -0.551816 5.99731 0.0427346 
1.00007 -0.582351 5.98888 0.0490245 
1.00026 -0.547458 5.99025 0.0329552 
0.975814 -0.612828 5.97953 0.0531206 
1.0252 -0.516657 5.9983 0.0358418 
1.04904 -0.5211 6.00504 0.0443047 
1.06454 -0.662633 6.02532 0.0826264 
1.0904 -0.633889 6.02381 0.102911 
1.06146 -0.6949 6.0371 0.0735827 
1.08703 -0.666294 6.03541 0.0905679 
1.08342 -0.698488 6.04736 0.078919 
1.11253 -0.637956 6.03318 0.111477 
1.05869 -0.726825 6.04964 0.0683021 
1.05582 -0.758292 6.06279 0.0684417 
1.033 -0.757268 6.05226 0.0643036 
1.03605 -0.725833 6.03908 0.0657221 
1.03834 -0.693726 6.02669 0.0682432 
1.01027 -0.75644 6.04135 0.0599061 
1.10955 -0.668585 6.04511 0.128053 
1.13473 -0.641245 6.04288 0.133733 
1.10682 -0.698717 6.05744 0.115162 
1.13151 -0.671916 6.05504 0.126233 
1.10383 -0.7288 6.07021 0.107443 
1.0783 -0.758326 6.07314 0.0679891 
1.08077 -0.728649 6.06 0.073218 
1.05136 -0.833787 6.12483 0.0285791 
1.02641 -0.861436 6.13654 0.0259206 
1.05254 -0.808806 6.10411 0.0345593 
1.02744 -0.836686 6.11577 0.0270404 
1.02887 -0.811851 6.09485 0.0327543 
1.00309 -0.864462 6.1277 0.0213285 
1.05431 -0.783611 6.08344 0.0476044 
1.07681 -0.783669 6.0936 0.0498489 
1.00431 -0.83774 6.10627 0.0224606 
0.979873 -0.866435 6.11892 0.0186284 
1.00651 -0.810942 6.08446 0.0281929 
0.981341 -0.839832 6.09717 0.0187325 
0.982525 -0.812967 6.07493 0.0242435 
0.956619 -0.868752 6.10987 0.0168314 
1.00877 -0.783834 6.06287 0.0405667 
1.03122 -0.784672 6.07353 0.0413676 
0.962134 -0.646535 5.98353 0.0497835 
0.937241 -0.677675 5.98383 0.0492234 
0.924833 -0.710892 5.98918 0.049109 
0.901367 -0.743146 5.99036 0.0577711 
0.924358 -0.745812 6.00114 0.0517147 
0.901147 -0.707758 5.97903 0.0515126 
0.878175 -0.741708 5.97965 0.0641785 
0.913392 -0.674102 5.97415 0.0478256 
0.925822 -0.640408 5.97013 0.0486266 
0.951367 -0.608686 5.9711 0.0501309 
0.926283 -0.604839 5.96255 0.0467723 
0.911806 -0.777254 6.01814 0.0379293 
0.888125 -0.807662 6.03063 0.0275442 
0.877424 -0.84034 6.04962 0.025852 
0.857477 -0.873336 6.06376 0.0374864 
0.877454 -0.872568 6.07458 0.0278992 
0.855984 -0.840673 6.03873 0.0338726 
0.834582 -0.873329 6.05251 0.0487927 
0.866844 -0.807798 6.01966 0.0347638 
0.877794 -0.774765 6.00159 0.0429084 
0.806549 -0.835982 6.01169 0.0554524 
0.818192 -0.80374 5.9936 0.0538112 
