ply
format ascii 1.0
comment Seamless Cloth Simulation with High Geometric Fidelity 
comment Mon Apr 29 11:28:29 2019
element vertex 997
property float x
property float y
property float z
property float quality
property uchar red
property uchar green
property uchar blue
end_header
-0.514282 -0.598933 6.6644 0.904385 255 0 255 
-0.54059 -0.633019 6.64405 0.911033 255 0 255 
-0.545961 -0.607671 6.64852 0.920662 255 0 255 
-0.5428 -0.659091 6.63047 0.918578 255 0 255 
-0.54301 -0.682987 6.61267 0.943611 255 0 255 
-0.533553 -0.705572 6.59778 0.961808 255 0 255 
-0.552002 -0.70831 6.58774 0.963992 255 0 255 
-0.507454 -0.566742 6.6611 0.943947 255 0 255 
-0.504795 -0.534633 6.65221 0.974374 255 0 255 
-0.494462 -0.496869 6.64459 0.989586 255 0 255 
-0.490564 -0.459448 6.63508 0.959128 255 0 255 
-0.515105 -0.502921 6.64105 0.97044 255 0 255 
-0.528096 -0.540615 6.6467 0.968345 255 0 255 
-0.529703 -0.573579 6.65228 0.947151 255 0 255 
-0.52227 -0.470615 6.62754 0.925901 255 0 255 
-0.537463 -0.509148 6.63543 0.94294 255 0 255 
-0.545892 -0.545045 6.64141 0.966878 255 0 255 
-0.557144 -0.581424 6.63957 0.954286 255 0 255 
-0.565228 -0.612867 6.63732 0.931792 255 0 255 
-0.577505 -0.640626 6.62118 0.940977 255 0 255 
-0.572508 -0.664481 6.61159 0.939499 255 0 255 
-0.57503 -0.688081 6.59407 0.953857 255 0 255 
-0.568124 -0.710473 6.5783 0.964957 255 0 255 
-0.584833 -0.712486 6.5694 0.967083 255 0 255 
-0.558691 -0.685238 6.60384 0.949036 255 0 255 
-0.556535 -0.636081 6.63436 0.926368 255 0 255 
-0.517804 -0.722876 6.57574 0.986221 255 0 255 
-0.51953 -0.744967 6.54394 0.995577 255 0 255 
-0.535827 -0.725417 6.56641 0.987315 255 0 255 
-0.538283 -0.746627 6.53491 0.995162 255 0 255 
-0.522042 -0.769624 6.51362 0.998415 255 0 255 
-0.523657 -0.795898 6.48362 0.99586 255 0 255 
-0.503969 -0.79549 6.49359 0.995631 255 0 255 
-0.502243 -0.768069 6.5231 0.998471 255 0 255 
-0.50039 -0.743141 6.55411 0.99601 255 0 255 
-0.484224 -0.794737 6.50372 0.995312 255 0 255 
-0.553661 -0.72744 6.55612 0.988254 255 0 255 
-0.555656 -0.748335 6.52504 0.995553 255 0 255 
-0.569851 -0.729786 6.54764 0.987621 255 0 255 
-0.57187 -0.749921 6.51635 0.994538 255 0 255 
-0.557705 -0.771109 6.49465 0.997742 255 0 255 
-0.559007 -0.796425 6.4649 0.997383 255 0 255 
-0.541437 -0.79634 6.47445 0.996687 255 0 255 
-0.540207 -0.770601 6.50464 0.998016 255 0 255 
-0.515804 -0.85821 6.39054 0.97226 255 0 255 
-0.518292 -0.839318 6.4198 0.983145 255 0 255 
-0.49774 -0.857493 6.40033 0.969703 255 0 255 
-0.500563 -0.839455 6.43033 0.980122 255 0 255 
-0.520945 -0.818012 6.45076 0.992364 255 0 255 
-0.538653 -0.818576 6.44182 0.993113 255 0 255 
-0.535724 -0.839936 6.41092 0.982511 255 0 255 
-0.479173 -0.858018 6.41091 0.966765 255 0 255 
-0.480389 -0.838744 6.43979 0.981721 255 0 255 
-0.459271 -0.857326 6.4216 0.967539 255 0 255 
-0.460751 -0.83859 6.45102 0.980432 255 0 255 
-0.482269 -0.817671 6.47103 0.990561 255 0 255 
-0.501912 -0.817814 6.46099 0.992203 255 0 255 
-0.5994 -0.863739 6.3427 0.972924 255 0 255 
-0.624201 -0.848213 6.35493 0.986153 255 0 255 
-0.635707 -0.827718 6.37957 0.995307 255 0 255 
-0.660488 -0.811045 6.39315 0.998235 255 0 255 
-0.63402 -0.803319 6.41716 0.998135 255 0 255 
-0.662718 -0.836714 6.35654 0.993845 255 0 255 
-0.688152 -0.819836 6.36986 0.998214 255 0 255 
-0.649759 -0.853926 6.33536 0.983253 255 0 255 
-0.636083 -0.869929 6.31457 0.967689 255 0 255 
-0.642525 -0.778276 6.44487 0.995096 255 0 255 
-0.658976 -0.79083 6.42481 0.997747 255 0 255 
-0.667629 -0.767713 6.45266 0.99522 255 0 255 
-0.651231 -0.757674 6.47395 0.994135 255 0 255 
-0.684357 -0.779388 6.43258 0.997392 255 0 255 
-0.676866 -0.748374 6.48158 0.992083 255 0 255 
-0.693843 -0.758754 6.46132 0.995148 255 0 255 
-0.660468 -0.738926 6.50298 0.9878 255 0 255 
-0.711052 -0.769329 6.44086 0.99722 255 0 255 
-0.711467 -0.786942 6.40787 0.99715 255 0 255 
-0.685896 -0.798801 6.40054 0.997708 255 0 255 
-0.780652 -0.791773 6.37554 0.99822 255 0 255 
-0.76614 -0.804788 6.35808 0.998078 255 0 255 
-0.748781 -0.800007 6.37268 0.997855 255 0 255 
-0.752496 -0.8187 6.3424 0.998853 255 0 255 
-0.735254 -0.813948 6.35655 0.998591 255 0 255 
-0.721721 -0.828822 6.34062 0.997689 255 0 255 
-0.738634 -0.833293 6.32719 0.996996 255 0 255 
-0.718287 -0.80961 6.37073 0.99835 255 0 255 
-0.705136 -0.824156 6.35497 0.997921 255 0 255 
-0.730089 -0.793047 6.39007 0.997007 255 0 255 
-0.742646 -0.778243 6.41062 0.997366 255 0 255 
-0.761562 -0.784554 6.39275 0.997394 255 0 255 
-0.725497 -0.852303 6.30583 0.986846 255 0 255 
-0.710405 -0.866289 6.28754 0.971861 255 0 255 
-0.695203 -0.864595 6.29874 0.972519 255 0 255 
-0.695066 -0.87851 6.2687 0.958815 255 0 255 
-0.68 -0.876406 6.2798 0.963408 255 0 255 
-0.66492 -0.875327 6.29152 0.96278 255 0 255 
-0.678182 -0.85984 6.31288 0.979315 255 0 255 
-0.691608 -0.842374 6.33368 0.992204 255 0 255 
-0.708545 -0.847064 6.31931 0.990662 255 0 255 
-0.422975 -0.688648 6.64982 0.963926 255 0 255 
-0.426433 -0.712539 6.61841 0.987746 255 0 255 
-0.447118 -0.691955 6.63985 0.961263 255 0 255 
-0.429932 -0.737944 6.58755 0.994713 255 0 255 
-0.450843 -0.714785 6.60837 0.988135 255 0 255 
-0.454499 -0.739597 6.57718 0.996027 255 0 255 
-0.471307 -0.695303 6.62929 0.959847 255 0 255 
-0.433316 -0.764995 6.5567 0.997574 255 0 255 
-0.436696 -0.7924 6.52649 0.995927 255 0 255 
-0.411812 -0.791402 6.53872 0.995303 255 0 255 
-0.408435 -0.763732 6.56859 0.996463 255 0 255 
-0.405466 -0.736232 6.59991 0.992633 255 0 255 
-0.386933 -0.790765 6.55057 0.994645 255 0 255 
-0.474315 -0.717432 6.59698 0.987472 255 0 255 
-0.493372 -0.698954 6.6192 0.955157 255 0 255 
-0.477152 -0.741215 6.5648 0.996477 255 0 255 
-0.497083 -0.720236 6.58657 0.985748 255 0 255 
-0.480838 -0.767411 6.53355 0.998301 255 0 255 
-0.460473 -0.793933 6.51528 0.995323 255 0 255 
-0.45755 -0.766158 6.54573 0.998135 255 0 255 
-0.437413 -0.856685 6.43263 0.96895 255 0 255 
-0.436599 -0.837566 6.46209 0.981623 255 0 255 
-0.415011 -0.856166 6.44577 0.965042 255 0 255 
-0.414131 -0.83699 6.47525 0.978967 255 0 255 
-0.436311 -0.81562 6.49298 0.991181 255 0 255 
-0.460302 -0.816765 6.48217 0.990531 255 0 255 
-0.391087 -0.855267 6.45826 0.963045 255 0 255 
-0.388858 -0.836154 6.48728 0.977921 255 0 255 
-0.367341 -0.853961 6.47165 0.962903 255 0 255 
-0.365336 -0.835452 6.50145 0.975923 255 0 255 
-0.387474 -0.814583 6.5182 0.988922 255 0 255 
-0.412494 -0.814978 6.50592 0.989814 255 0 255 
-0.453016 -0.22373 6.58634 0.973585 255 0 255 
-0.458496 -0.252385 6.58781 0.990085 255 0 255 
-0.475531 -0.227226 6.56679 0.985869 255 0 255 
-0.481479 -0.2549 6.56853 0.944886 255 0 255 
-0.462117 -0.281387 6.59173 0.99429 255 0 255 
-0.465746 -0.309704 6.59678 0.979816 255 0 255 
-0.445301 -0.307546 6.61277 0.994845 255 0 255 
-0.441335 -0.27704 6.6085 0.991755 255 0 255 
-0.436377 -0.246989 6.60634 0.978693 255 0 255 
-0.424554 -0.301832 6.63 0.989145 255 0 255 
-0.495077 -0.231418 6.54917 0.958005 255 0 255 
-0.498932 -0.257335 6.55334 0.884621 255 0 255 
-0.512715 -0.234637 6.53239 0.935845 255 0 255 
-0.513964 -0.259675 6.53871 0.891712 255 0 255 
-0.498402 -0.283161 6.56177 0.860866 255 0 255 
-0.496316 -0.311918 6.5729 0.866081 255 0 255 
-0.481672 -0.309702 6.58417 0.898692 255 0 255 
-0.482956 -0.282039 6.57514 0.920519 255 0 255 
-0.471408 -0.454422 6.63876 0.992852 255 0 255 
-0.467838 -0.4167 6.62275 0.985882 255 0 255 
-0.462667 -0.377282 6.61128 0.982326 255 0 255 
-0.453351 -0.41446 6.62835 0.985684 255 0 255 
-0.448149 -0.374642 6.62086 0.98887 255 0 255 
-0.456119 -0.451269 6.64264 0.992054 255 0 255 
-0.463501 -0.34216 6.60313 0.988735 255 0 255 
-0.477995 -0.342 6.59189 0.903839 255 0 255 
-0.476907 -0.377697 6.60257 0.937105 255 0 255 
-0.439592 -0.447614 6.64954 0.992365 255 0 255 
-0.437259 -0.41187 6.63664 0.98786 255 0 255 
-0.431058 -0.37257 6.63291 0.993429 255 0 255 
-0.419674 -0.407121 6.64591 0.991189 255 0 255 
-0.414288 -0.368345 6.64381 0.996043 255 0 255 
-0.421828 -0.442893 6.65707 0.993105 255 0 255 
-0.427032 -0.335513 6.63127 0.995879 255 0 255 
-0.445718 -0.339231 6.61664 0.994183 255 0 255 
-0.626934 -0.289583 6.50299 0.798822 255 0 255 
-0.61881 -0.317838 6.52319 0.778259 255 0 255 
-0.599362 -0.349905 6.54509 0.795518 255 0 255 
-0.602707 -0.317524 6.52292 0.810791 255 0 255 
-0.634117 -0.264049 6.48434 0.844295 255 0 255 
-0.591877 -0.413614 6.57804 0.818671 255 0 255 
-0.597079 -0.441262 6.59143 0.827354 255 0 255 
-0.605843 -0.467743 6.60256 0.839818 255 0 255 
-0.58725 -0.382671 6.56192 0.805094 255 0 255 
-0.567267 -0.47857 6.61465 0.883209 255 0 255 
-0.559215 -0.445682 6.59916 0.845631 255 0 255 
-0.560722 -0.413392 6.58174 0.85236 255 0 255 
-0.562741 -0.379692 6.56354 0.818425 255 0 255 
-0.575765 -0.347431 6.54615 0.806236 255 0 255 
-0.579159 -0.444546 6.59513 0.834036 255 0 255 
-0.587533 -0.474272 6.60837 0.857571 255 0 255 
-0.579873 -0.31345 6.52413 0.797449 255 0 255 
-0.598586 -0.286866 6.50272 0.811608 255 0 255 
-0.610272 -0.262265 6.48423 0.853156 255 0 255 
-0.542918 -0.406485 6.58199 0.842614 255 0 255 
-0.540783 -0.441634 6.60219 0.893834 255 0 255 
-0.549478 -0.477383 6.62009 0.911642 255 0 255 
-0.541655 -0.369992 6.56522 0.828234 255 0 255 
-0.54603 -0.335002 6.54919 0.850299 255 0 255 
-0.560201 -0.342219 6.54727 0.817084 255 0 255 
-0.523921 -0.436099 6.60536 0.900735 255 0 255 
-0.521858 -0.39741 6.58539 0.863622 255 0 255 
-0.523158 -0.359265 6.5689 0.865781 255 0 255 
-0.52905 -0.324648 6.55335 0.843985 255 0 255 
-0.563275 -0.249233 6.4935 0.887449 255 0 255 
-0.560344 -0.273829 6.50951 0.858603 255 0 255 
-0.580006 -0.255158 6.4882 0.858016 255 0 255 
-0.554709 -0.302278 6.52796 0.845441 255 0 255 
-0.541356 -0.295628 6.53296 0.853712 255 0 255 
-0.581407 -0.281737 6.50393 0.83819 255 0 255 
-0.591449 -0.508245 6.6152 0.891225 255 0 255 
-0.616187 -0.53703 6.61141 0.912607 255 0 255 
-0.611359 -0.502497 6.60732 0.861679 255 0 255 
-0.640545 -0.564856 6.60417 0.946867 255 0 255 
-0.662932 -0.590541 6.59595 0.970313 255 0 255 
-0.647675 -0.603081 6.59969 0.974674 255 0 255 
-0.626782 -0.576523 6.60728 0.95926 255 0 255 
-0.603891 -0.548304 6.61523 0.934308 255 0 255 
-0.631952 -0.61404 6.60212 0.967572 255 0 255 
-0.638391 -0.519087 6.60246 0.887807 255 0 255 
-0.674832 -0.576067 6.59385 0.956685 255 0 255 
-0.724748 -0.636757 6.56687 0.983985 255 0 255 
-0.7099 -0.614694 6.57565 0.98414 255 0 255 
-0.69532 -0.635246 6.57348 0.979812 255 0 255 
-0.709167 -0.65607 6.56419 0.974004 255 0 255 
-0.68682 -0.602837 6.58556 0.976986 255 0 255 
-0.686659 -0.673704 6.56192 0.966561 255 0 255 
-0.677735 -0.646339 6.57637 0.972483 255 0 255 
-0.674738 -0.686316 6.55869 0.959019 255 0 255 
-0.664998 -0.65898 6.57337 0.967782 255 0 255 
-0.652775 -0.671025 6.57026 0.969474 255 0 255 
-0.662063 -0.696627 6.55196 0.967645 255 0 255 
-0.654886 -0.630481 6.58808 0.973111 255 0 255 
-0.642875 -0.644036 6.58626 0.967345 255 0 255 
-0.672129 -0.619351 6.58574 0.977385 255 0 255 
-0.478176 -0.493285 6.64618 0.992215 255 0 255 
-0.488583 -0.529618 6.6565 0.978552 255 0 255 
-0.487094 -0.560682 6.66768 0.949436 255 0 255 
-0.49389 -0.593674 6.67222 0.90555 255 0 255 
-0.474507 -0.588559 6.67871 0.912259 255 0 255 
-0.468886 -0.556138 6.67263 0.958792 255 0 255 
-0.470046 -0.524871 6.66133 0.982092 255 0 255 
-0.461895 -0.489447 6.65109 0.992137 255 0 255 
-0.506598 -0.624938 6.66213 0.894392 255 0 255 
-0.507409 -0.651642 6.64938 0.912731 255 0 255 
-0.49466 -0.67415 6.63765 0.933804 255 0 255 
-0.473888 -0.66993 6.64716 0.936596 255 0 255 
-0.486287 -0.646693 6.65875 0.914675 255 0 255 
-0.486692 -0.620109 6.67049 0.898288 255 0 255 
-0.427298 -0.662057 6.66654 0.941744 255 0 255 
-0.44129 -0.636845 6.6761 0.925506 255 0 255 
-0.442884 -0.609283 6.6849 0.916032 255 0 255 
-0.453221 -0.582624 6.68565 0.925282 255 0 255 
-0.431689 -0.576962 6.69169 0.934833 255 0 255 
-0.465021 -0.614499 6.6786 0.901332 255 0 255 
-0.464214 -0.64175 6.6677 0.920072 255 0 255 
-0.450254 -0.66574 6.65771 0.939937 255 0 255 
-0.426511 -0.544806 6.68433 0.972164 255 0 255 
-0.430079 -0.513906 6.67223 0.988548 255 0 255 
-0.4247 -0.47936 6.6636 0.99167 255 0 255 
-0.443043 -0.4845 6.65686 0.991745 255 0 255 
-0.4503 -0.519858 6.66642 0.986196 255 0 255 
-0.447292 -0.550141 6.67867 0.966184 255 0 255 
0.0149271 0.00981417 6.4374 0.99784 255 0 255 
0.0348939 0.00966901 6.44578 0.997377 255 0 255 
0.0223741 -0.000995473 6.46842 0.9971 255 0 255 
0.00228881 9.85818e-05 6.46001 0.998135 255 0 255 
0.0427297 -0.0018161 6.47682 0.995856 255 0 255 
0.00962582 -0.00919762 6.49182 0.998642 255 0 255 
0.0298105 -0.0107086 6.50035 0.997495 255 0 255 
0.016875 -0.0181642 6.5242 0.999123 255 0 255 
-0.0108823 -0.00760395 6.48357 0.999306 255 0 255 
-0.0037785 -0.0159527 6.51626 0.998897 255 0 255 
-0.0240954 -0.0146995 6.50768 0.998495 255 0 255 
0.0503241 -0.0123113 6.50842 0.995493 255 0 255 
0.0370976 -0.0195185 6.53268 0.998607 255 0 255 
0.0578419 -0.0215329 6.54078 0.997167 255 0 255 
0.0726316 -0.0150713 6.51712 0.991086 255 0 255 
0.0646981 -0.00272009 6.48597 0.994316 255 0 255 
0.0867136 -0.00374032 6.49527 0.99233 255 0 255 
0.0787364 0.00958939 6.46491 0.995872 255 0 255 
0.0567986 0.00936028 6.45506 0.996313 255 0 255 
0.100826 0.0103941 6.4753 0.995262 255 0 255 
-0.0372395 -0.0258769 6.53061 0.997972 255 0 255 
-0.0188796 -0.0263428 6.53912 0.998166 255 0 255 
-0.0321406 -0.0358515 6.56206 0.995635 255 0 255 
-0.0505075 -0.0354363 6.55316 0.994453 255 0 255 
-0.0135462 -0.0377109 6.56984 0.996964 255 0 255 
-0.0452583 -0.0444501 6.58365 0.988674 255 0 255 
-0.0273185 -0.0460755 6.59188 0.991175 255 0 255 
-0.0404494 -0.0530847 6.61374 0.978952 255 0 255 
-0.0630817 -0.0444935 6.57478 0.989068 255 0 255 
-0.0582032 -0.0536854 6.60413 0.980103 255 0 255 
-0.0758373 -0.0540441 6.59537 0.97933 255 0 255 
-0.0088042 -0.0470249 6.60061 0.99324 255 0 255 
-0.0222714 -0.0547293 6.62268 0.982965 255 0 255 
-0.0039113 -0.0563065 6.63157 0.985439 255 0 255 
0.0113799 -0.0492244 6.60982 0.995642 255 0 255 
0.00661744 -0.0385715 6.57935 0.997778 255 0 255 
0.0268666 -0.0407628 6.5876 0.998871 255 0 255 
0.0223588 -0.0296403 6.55607 0.999164 255 0 255 
0.00157748 -0.0278782 6.54762 0.998936 255 0 255 
0.0425032 -0.0306459 6.56455 0.998912 255 0 255 
0.0683468 -0.0534008 6.63732 0.99774 255 0 255 
0.0865538 -0.0435537 6.61466 0.998221 255 0 255 
0.065348 -0.0421886 6.60566 0.998844 255 0 255 
0.10516 -0.0347917 6.59071 0.995547 255 0 255 
0.0835835 -0.0329393 6.58189 0.997269 255 0 255 
0.1009 -0.0245169 6.55814 0.992731 255 0 255 
0.122763 -0.0262537 6.56626 0.988952 255 0 255 
0.0621633 -0.0314626 6.57311 0.998351 255 0 255 
0.0793692 -0.0231429 6.54945 0.995189 255 0 255 
0.0461161 -0.0418871 6.59634 0.999174 255 0 255 
0.0304736 -0.0508399 6.61887 0.997106 255 0 255 
0.0496622 -0.052043 6.62815 0.997616 255 0 255 
0.0338323 -0.060547 6.65033 0.991483 255 0 255 
0.0151372 -0.0580555 6.64099 0.987793 255 0 255 
0.0526743 -0.0633004 6.65917 0.994511 255 0 255 
0.137685 -0.0150008 6.54494 0.989055 255 0 255 
0.15346 -0.000226769 6.52672 0.994664 255 0 255 
0.130172 -0.00184268 6.51542 0.993567 255 0 255 
0.168207 0.0161268 6.51056 0.992561 255 0 255 
0.14539 0.0141176 6.49824 0.994089 255 0 255 
0.122353 0.0123045 6.48614 0.994971 255 0 255 
0.108344 -0.00301458 6.50521 0.99271 255 0 255 
0.0940711 -0.0149726 6.52653 0.99075 255 0 255 
0.115882 -0.0150733 6.53566 0.989933 255 0 255 
0.21164 0.00157159 6.09813 0.994422 255 0 255 
0.202182 0.0112471 6.11521 0.989181 255 0 255 
0.226203 0.011398 6.12658 0.989181 255 0 255 
0.216455 0.0198078 6.14388 0.985132 255 0 255 
0.192076 0.0195153 6.13261 0.98604 255 0 255 
0.240005 0.0192154 6.15529 0.985419 255 0 255 
0.205718 0.0263597 6.16222 0.984865 255 0 255 
0.229677 0.0261221 6.17312 0.984672 255 0 255 
0.218335 0.0317568 6.19178 0.986204 255 0 255 
0.181201 0.0259866 6.15102 0.986375 255 0 255 
0.194327 0.0317269 6.18116 0.987098 255 0 255 
0.169794 0.031086 6.17026 0.989161 255 0 255 
0.253213 0.0254461 6.18437 0.985182 255 0 255 
0.242366 0.0316001 6.20297 0.98526 255 0 255 
0.266404 0.0311679 6.21451 0.984193 255 0 255 
0.277248 0.0247775 6.19655 0.984894 255 0 255 
0.263433 0.0182979 6.16714 0.986203 255 0 255 
0.287181 0.017161 6.17946 0.987718 255 0 255 
0.272812 0.0100897 6.15047 0.990587 255 0 255 
0.249536 0.010999 6.13852 0.989303 255 0 255 
0.258621 0.00141558 6.1223 0.994956 255 0 255 
0.296581 0.00858014 6.16302 0.992484 255 0 255 
0.281956 0.000422535 6.1344 0.99577 255 0 255 
0.305643 -0.000870164 6.14693 0.996346 255 0 255 
0.235336 0.00168423 6.11011 0.994443 255 0 255 
0.15778 0.0331097 6.19095 0.995278 255 0 255 
0.181487 0.0338634 6.20102 0.993668 255 0 255 
0.169347 0.0358349 6.2219 0.99768 255 0 255 
0.145901 0.0352532 6.2119 0.998221 255 0 255 
0.19295 0.0364251 6.23179 0.996951 255 0 255 
0.157468 0.0383696 6.24261 0.998917 255 0 255 
0.180841 0.0387855 6.25288 0.998687 255 0 255 
0.134594 0.0380732 6.23242 0.999085 255 0 255 
0.204659 0.0390534 6.26343 0.998405 255 0 255 
0.228743 0.0390905 6.27469 0.997955 255 0 255 
0.217276 0.0366435 6.243 0.996132 255 0 255 
0.241236 0.0366032 6.25453 0.995424 255 0 255 
0.229839 0.0343594 6.22281 0.991531 255 0 255 
0.205628 0.0342063 6.21165 0.992644 255 0 255 
0.254017 0.0342012 6.2343 0.990113 255 0 255 
0.304027 0.0394393 6.31277 0.995052 255 0 255 
0.317835 0.0366937 6.29242 0.99086 255 0 255 
0.291574 0.0371155 6.2788 0.991948 255 0 255 
0.331522 0.0333041 6.27241 0.986296 255 0 255 
0.305068 0.0341573 6.25912 0.987158 255 0 255 
0.318412 0.0302391 6.23996 0.981998 255 0 255 
0.344436 0.0289733 6.25345 0.982015 255 0 255 
0.279137 0.0344191 6.24621 0.988145 255 0 255 
0.292302 0.0310298 6.22715 0.982523 255 0 255 
0.266332 0.0370827 6.26647 0.993573 255 0 255 
0.253868 0.0395229 6.28689 0.996873 255 0 255 
0.278796 0.039612 6.29973 0.995971 255 0 255 
0.354914 0.0211436 6.23605 0.986424 255 0 255 
0.365189 0.0122368 6.22 0.991573 255 0 255 
0.339073 0.0143596 6.20591 0.990169 255 0 255 
0.375059 0.00276647 6.20434 0.995993 255 0 255 
0.349006 0.00500618 6.19034 0.995104 255 0 255 
0.358389 -0.00404523 6.1749 0.997223 255 0 255 
0.384758 -0.00656313 6.1887 0.997347 255 0 255 
0.322668 0.00692056 6.17642 0.993807 255 0 255 
0.332027 -0.00230397 6.1608 0.99686 255 0 255 
0.313166 0.0160947 6.19258 0.988406 255 0 255 
0.303009 0.0242175 6.20939 0.984467 255 0 255 
0.329038 0.0228988 6.22255 0.985741 255 0 255 
-0.0585038 -0.885393 6.32367 0.974268 255 0 255 
-0.0717947 -0.876073 6.34766 0.970905 255 0 255 
-0.096656 -0.87206 6.3687 0.977947 255 0 255 
-0.110173 -0.871483 6.39667 0.988766 255 0 255 
-0.135288 -0.874291 6.42078 0.992296 255 0 255 
-0.112824 -0.873079 6.43076 0.989355 255 0 255 
-0.132832 -0.872281 6.38678 0.990343 255 0 255 
-0.157877 -0.874628 6.41023 0.994779 255 0 255 
-0.119087 -0.872341 6.35793 0.97677 255 0 255 
-0.105331 -0.877213 6.3315 0.970038 255 0 255 
-0.0807764 -0.886339 6.31235 0.973994 255 0 255 
-0.103251 -0.886188 6.30072 0.970083 255 0 255 
-0.125895 -0.873453 6.45973 0.981362 255 0 255 
-0.150644 -0.873694 6.48439 0.964788 255 0 255 
-0.163307 -0.871206 6.51348 0.943395 255 0 255 
-0.18768 -0.865671 6.53647 0.928593 255 0 255 
-0.165978 -0.864937 6.54742 0.926227 255 0 255 
-0.185277 -0.871169 6.50313 0.951734 255 0 255 
-0.209506 -0.865467 6.52518 0.937931 255 0 255 
-0.17279 -0.873765 6.47393 0.970431 255 0 255 
-0.159773 -0.874472 6.4449 0.986408 255 0 255 
-0.230251 -0.87171 6.4823 0.95503 255 0 255 
-0.21695 -0.873891 6.45325 0.975073 255 0 255 
-0.192737 -0.874054 6.42925 0.990808 255 0 255 
-0.179933 -0.874914 6.39972 0.996003 255 0 255 
-0.19456 -0.873472 6.46359 0.97435 255 0 255 
-0.207634 -0.871115 6.4922 0.957017 255 0 255 
-0.231497 -0.865919 6.51469 0.939809 255 0 255 
-0.177319 -0.872288 6.36549 0.98872 255 0 255 
-0.163375 -0.872848 6.33678 0.971612 255 0 255 
-0.138448 -0.876667 6.31515 0.963495 255 0 255 
-0.125182 -0.886545 6.28943 0.96766 255 0 255 
-0.141282 -0.872265 6.34733 0.973527 255 0 255 
-0.154951 -0.87227 6.3758 0.989927 255 0 255 
0.105318 -0.817767 6.42393 0.885194 255 0 255 
0.0787733 -0.820734 6.44421 0.91509 255 0 255 
0.0771506 -0.819923 6.47887 0.933721 255 0 255 
0.050222 -0.827796 6.50216 0.967216 255 0 255 
0.0520672 -0.827271 6.46623 0.947612 255 0 255 
0.0251901 -0.835253 6.49032 0.980857 255 0 255 
0.0535906 -0.830315 6.43163 0.934889 255 0 255 
0.0798561 -0.827049 6.41139 0.908904 255 0 255 
0.105603 -0.826988 6.39295 0.900332 255 0 255 
0.0803025 -0.83964 6.38234 0.929483 255 0 255 
0.047145 -0.826458 6.53924 0.968591 255 0 255 
0.0201625 -0.829562 6.56553 0.968877 255 0 255 
0.00556485 -0.826387 6.59676 0.966703 255 0 255 
-0.00889408 -0.820726 6.62732 0.962157 255 0 255 
-0.0326552 -0.828753 6.61714 0.959027 255 0 255 
-0.0182492 -0.834023 6.58585 0.970036 255 0 255 
-0.00348875 -0.837086 6.5537 0.976531 255 0 255 
0.0229998 -0.833412 6.52756 0.978549 255 0 255 
-0.0780185 -0.847465 6.59661 0.923566 255 0 255 
-0.0637631 -0.852281 6.56427 0.950682 255 0 255 
-0.0380802 -0.850388 6.53802 0.975283 255 0 255 
-0.02393 -0.850372 6.50577 0.988763 255 0 255 
0.00157078 -0.845069 6.47989 0.990912 255 0 255 
-0.0215785 -0.85412 6.47034 0.990468 255 0 255 
-0.000805592 -0.841314 6.51634 0.988378 255 0 255 
-0.0411977 -0.843753 6.5761 0.963169 255 0 255 
-0.0553716 -0.838238 6.60718 0.946447 255 0 255 
-0.00798691 -0.851418 6.44074 0.985042 255 0 255 
0.0178035 -0.847543 6.41785 0.959554 255 0 255 
0.0317375 -0.851882 6.39292 0.958028 255 0 255 
0.057245 -0.853108 6.374 0.953802 255 0 255 
0.0337363 -0.86488 6.36537 0.959263 255 0 255 
0.055053 -0.83892 6.40131 0.940442 255 0 255 
0.027707 -0.836582 6.45475 0.961374 255 0 255 
0.00843783 -0.861569 6.38468 0.957913 255 0 255 
-0.00539486 -0.857141 6.40957 0.96332 255 0 255 
-0.0307799 -0.8599 6.43252 0.986342 255 0 255 
-0.0443921 -0.862138 6.46129 0.986184 255 0 255 
-0.0673375 -0.866919 6.451 0.985885 255 0 255 
-0.0537996 -0.864905 6.42216 0.984932 255 0 255 
-0.0283959 -0.863328 6.40021 0.977554 255 0 255 
-0.0147731 -0.867832 6.37446 0.955082 255 0 255 
0.010571 -0.873536 6.35614 0.956138 255 0 255 
-0.0128236 -0.878834 6.34573 0.953962 255 0 255 
-0.0464749 -0.859069 6.49634 0.981049 255 0 255 
-0.0606535 -0.858764 6.52732 0.964907 255 0 255 
-0.085664 -0.860691 6.55345 0.935285 255 0 255 
-0.099968 -0.855903 6.58537 0.904282 255 0 255 
-0.122261 -0.860315 6.57195 0.909533 255 0 255 
-0.107736 -0.865976 6.54133 0.932651 255 0 255 
-0.0827352 -0.865043 6.51632 0.958992 255 0 255 
-0.069161 -0.865357 6.48595 0.977356 255 0 255 
-0.141305 -0.869733 6.5246 0.937862 255 0 255 
-0.127944 -0.872294 6.49498 0.959293 255 0 255 
-0.103062 -0.871154 6.47043 0.977737 255 0 255 
-0.0899901 -0.870656 6.44111 0.987434 255 0 255 
-0.105072 -0.869619 6.50539 0.957651 255 0 255 
-0.143896 -0.863227 6.55977 0.916623 255 0 255 
-0.0877504 -0.869535 6.40718 0.987222 255 0 255 
-0.0740886 -0.870692 6.37946 0.97778 255 0 255 
-0.0491059 -0.873639 6.3591 0.969942 255 0 255 
-0.0355279 -0.882675 6.33497 0.97177 255 0 255 
-0.0511832 -0.867529 6.39015 0.977855 255 0 255 
-0.0801378 -0.829962 6.63173 0.929563 255 0 255 
-0.0812792 -0.809455 6.66436 0.930287 255 0 255 
-0.057384 -0.820396 6.64128 0.948889 255 0 255 
-0.0584895 -0.799263 6.67165 0.953935 255 0 255 
-0.0819899 -0.785884 6.69253 0.93326 255 0 255 
-0.0817644 -0.759722 6.71703 0.937242 255 0 255 
-0.104515 -0.768482 6.71214 0.913795 255 0 255 
-0.104582 -0.793984 6.68455 0.920862 255 0 255 
-0.104103 -0.816768 6.65411 0.915995 255 0 255 
-0.127592 -0.774861 6.70357 0.907889 255 0 255 
-0.034202 -0.811221 6.64934 0.962182 255 0 255 
-0.034979 -0.790799 6.67746 0.964958 255 0 255 
-0.0102993 -0.802927 6.65767 0.964929 255 0 255 
-0.0344671 -0.768221 6.70167 0.968711 255 0 255 
-0.0577844 -0.751626 6.72082 0.955705 255 0 255 
-0.058552 -0.776516 6.69797 0.953529 255 0 255 
-0.0783755 -0.670045 6.76022 0.979586 255 0 255 
-0.0732313 -0.698661 6.74822 0.972907 255 0 255 
-0.0969022 -0.704224 6.74491 0.966083 255 0 255 
-0.102386 -0.675308 6.75652 0.973829 255 0 255 
-0.0783645 -0.72956 6.73344 0.95908 255 0 255 
-0.0539488 -0.722002 6.73669 0.971825 255 0 255 
-0.125842 -0.682418 6.75415 0.960755 255 0 255 
-0.120121 -0.712675 6.74277 0.945562 255 0 255 
-0.142781 -0.717766 6.73813 0.934132 255 0 255 
-0.149075 -0.687811 6.74993 0.947832 255 0 255 
-0.124585 -0.744938 6.72624 0.922307 255 0 255 
-0.101656 -0.736915 6.73052 0.940744 255 0 255 
-0.33956 -0.183591 6.63393 0.940496 255 0 255 
-0.328823 -0.203986 6.65255 0.933657 255 0 255 
-0.325245 -0.167636 6.62244 0.95943 255 0 255 
-0.314314 -0.188818 6.64162 0.95678 255 0 255 
-0.298682 -0.173569 6.62828 0.979239 255 0 255 
-0.303823 -0.20908 6.65966 0.949384 255 0 255 
-0.309518 -0.152334 6.60799 0.981924 255 0 255 
-0.292842 -0.135512 6.59233 0.991018 255 0 255 
-0.323088 -0.12751 6.58605 0.976273 255 0 255 
-0.33908 -0.144875 6.60046 0.959953 255 0 255 
-0.287098 -0.194576 6.64855 0.974288 255 0 255 
-0.277855 -0.214581 6.66713 0.962025 255 0 255 
-0.269392 -0.181173 6.63347 0.989389 255 0 255 
-0.26038 -0.20036 6.65359 0.98425 255 0 255 
-0.241604 -0.186038 6.63788 0.985112 255 0 255 
-0.250918 -0.219338 6.67274 0.977323 255 0 255 
-0.251257 -0.165758 6.6185 0.986379 255 0 255 
-0.233483 -0.146814 6.60538 0.982805 255 0 255 
-0.263102 -0.142294 6.59841 0.992186 255 0 255 
-0.281006 -0.159156 6.61327 0.991297 255 0 255 
-0.211212 -0.0616376 6.53292 0.987769 255 0 255 
-0.227419 -0.0617957 6.52685 0.988571 255 0 255 
-0.232719 -0.0841722 6.54632 0.990243 255 0 255 
-0.248582 -0.0829545 6.54036 0.991615 255 0 255 
-0.243267 -0.060739 6.52028 0.990083 255 0 255 
-0.252933 -0.104769 6.55976 0.989435 255 0 255 
-0.264516 -0.0810788 6.5346 0.993366 255 0 255 
-0.269026 -0.102716 6.55439 0.991588 255 0 255 
-0.2848 -0.0990158 6.54984 0.994296 255 0 255 
-0.259403 -0.0596242 6.51402 0.991729 255 0 255 
-0.280499 -0.0791647 6.52856 0.994235 255 0 255 
-0.275255 -0.0582479 6.507 0.993346 255 0 255 
-0.273119 -0.121926 6.57511 0.992945 255 0 255 
-0.289111 -0.118354 6.57098 0.995023 255 0 255 
-0.243437 -0.126003 6.58287 0.985097 255 0 255 
-0.223597 -0.105808 6.56955 0.98604 255 0 255 
-0.29173 -0.0561515 6.50044 0.993869 255 0 255 
-0.311813 -0.0737637 6.51721 0.995029 255 0 255 
-0.307967 -0.0534908 6.49378 0.993656 255 0 255 
-0.314827 -0.093385 6.54092 0.994331 255 0 255 
-0.328059 -0.0704301 6.51096 0.99381 255 0 255 
-0.331249 -0.0894012 6.53515 0.991665 255 0 255 
-0.324465 -0.0516222 6.48677 0.993774 255 0 255 
-0.333933 -0.107742 6.55913 0.985108 255 0 255 
-0.0878493 -0.0695083 6.6147 0.97325 255 0 255 
-0.0720642 -0.0672192 6.62437 0.970693 255 0 255 
-0.0842167 -0.0832499 6.64371 0.957454 255 0 255 
-0.100054 -0.0869565 6.63341 0.964958 255 0 255 
-0.0684364 -0.0805537 6.65401 0.952224 255 0 255 
-0.0950392 -0.103151 6.661 0.958234 255 0 255 
-0.0799761 -0.0993538 6.67178 0.944421 255 0 255 
-0.0887088 -0.121106 6.6861 0.950748 255 0 255 
-0.110014 -0.107951 6.65018 0.969599 255 0 255 
-0.103332 -0.12582 6.67547 0.965654 255 0 255 
-0.118067 -0.130035 6.66425 0.976992 255 0 255 
-0.0641751 -0.096352 6.68229 0.932708 255 0 255 
-0.0735632 -0.117995 6.6976 0.938269 255 0 255 
-0.0583924 -0.114673 6.70865 0.925871 255 0 255 
-0.0466739 -0.094596 6.69297 0.927728 255 0 255 
-0.0511065 -0.0788665 6.66427 0.945353 255 0 255 
-0.0330885 -0.0790701 6.67387 0.952813 255 0 255 
-0.0369041 -0.0651751 6.64451 0.965338 255 0 255 
-0.0546633 -0.0654665 6.63441 0.965042 255 0 255 
-0.0185661 -0.0662644 6.65336 0.970625 255 0 255 
-0.122318 -0.156253 6.67489 0.982132 255 0 255 
-0.11238 -0.17768 6.69372 0.980988 255 0 255 
-0.115108 -0.20257 6.7021 0.974445 255 0 255 
-0.104301 -0.223086 6.71993 0.974766 255 0 255 
-0.133522 -0.226249 6.70387 0.972443 255 0 255 
-0.0874526 -0.197301 6.72112 0.981123 255 0 255 
-0.0760655 -0.218615 6.7382 0.98048 255 0 255 
-0.0730795 -0.193396 6.7331 0.981319 255 0 255 
-0.0842342 -0.170612 6.71514 0.976934 255 0 255 
-0.0695302 -0.167783 6.72627 0.971075 255 0 255 
-0.0803585 -0.143483 6.70771 0.960218 255 0 255 
-0.0947356 -0.147846 6.69617 0.970856 255 0 255 
-0.0648881 -0.141135 6.71859 0.948184 255 0 255 
-0.0320198 -0.187473 6.76578 0.959826 255 0 255 
-0.0278418 -0.161047 6.76118 0.929 255 0 255 
-0.0417192 -0.162938 6.74913 0.948807 255 0 255 
-0.0205221 -0.135569 6.7532 0.915724 255 0 255 
-0.0354036 -0.136741 6.74183 0.923201 255 0 255 
-0.0264111 -0.111349 6.7314 0.905482 255 0 255 
-0.00973954 -0.111885 6.74115 0.911514 255 0 255 
-0.042245 -0.112712 6.72027 0.91674 255 0 255 
-0.0491159 -0.214559 6.75991 0.980521 255 0 255 
0.00361569 -0.0967217 6.72244 0.937585 255 0 255 
0.0193872 -0.0841862 6.70252 0.966713 255 0 255 
0.000736501 -0.0809405 6.69369 0.9576 255 0 255 
0.0356514 -0.0738913 6.68099 0.986828 255 0 255 
0.0170757 -0.069883 6.67239 0.977805 255 0 255 
-0.00144291 -0.0679969 6.66261 0.974685 255 0 255 
-0.0165174 -0.0786949 6.6846 0.948967 255 0 255 
-0.030168 -0.0937487 6.70385 0.923586 255 0 255 
-0.013289 -0.0944264 6.71384 0.928141 255 0 255 
-0.144246 -0.207139 6.68533 0.964269 255 0 255 
-0.139969 -0.185147 6.67416 0.9699 255 0 255 
-0.150924 -0.163226 6.65535 0.975283 255 0 255 
-0.146808 -0.137907 6.64515 0.98272 255 0 255 
-0.17507 -0.144367 6.62773 0.978429 255 0 255 
-0.178713 -0.168454 6.63994 0.968089 255 0 255 
-0.169059 -0.188782 6.65937 0.962374 255 0 255 
-0.173358 -0.209416 6.67325 0.968214 255 0 255 
-0.163636 -0.227501 6.69297 0.979184 255 0 255 
-0.193836 -0.226282 6.68444 0.983141 255 0 255 
-0.126167 -0.111492 6.64008 0.976005 255 0 255 
-0.116361 -0.0895407 6.62395 0.971479 255 0 255 
-0.13295 -0.0923738 6.61445 0.97676 255 0 255 
-0.104652 -0.0713106 6.60601 0.974797 255 0 255 
-0.121985 -0.0723378 6.59728 0.975658 255 0 255 
-0.110271 -0.0567823 6.57766 0.981661 255 0 255 
-0.0928749 -0.0557362 6.58639 0.980995 255 0 255 
-0.138995 -0.0751477 6.58842 0.980982 255 0 255 
-0.127386 -0.0574161 6.56938 0.981766 255 0 255 
-0.144411 -0.0586395 6.56146 0.983311 255 0 255 
-0.162841 -0.0999036 6.59776 0.984973 255 0 255 
-0.155288 -0.119603 6.62178 0.984344 255 0 255 
-0.203192 -0.0824785 6.55833 0.98847 255 0 255 
-0.194565 -0.103635 6.58215 0.985449 255 0 255 
-0.214368 -0.127058 6.59256 0.981318 255 0 255 
-0.203931 -0.146992 6.6149 0.975619 255 0 255 
-0.185259 -0.123908 6.60537 0.982457 255 0 255 
-0.178846 -0.10196 6.58978 0.985269 255 0 255 
-0.170997 -0.0796853 6.57283 0.985505 255 0 255 
-0.187185 -0.0809564 6.56549 0.986905 255 0 255 
-0.178327 -0.0596947 6.54719 0.983793 255 0 255 
-0.16156 -0.0591107 6.55441 0.984169 255 0 255 
-0.194982 -0.0610042 6.54023 0.986265 255 0 255 
-0.223245 -0.168445 6.62411 0.973523 255 0 255 
-0.213625 -0.188604 6.6445 0.975576 255 0 255 
-0.232407 -0.204659 6.65888 0.985723 255 0 255 
-0.223031 -0.222966 6.67878 0.98382 255 0 255 
-0.20371 -0.208082 6.66458 0.977916 255 0 255 
-0.136694 -0.249146 6.71463 0.976451 255 0 255 
-0.126756 -0.270647 6.73167 0.980886 255 0 255 
-0.132994 -0.291512 6.74521 0.986771 255 0 255 
-0.124595 -0.312748 6.76166 0.980755 255 0 255 
-0.154047 -0.31025 6.75419 0.970599 255 0 255 
-0.102748 -0.29289 6.75252 0.983787 255 0 255 
-0.0946745 -0.314302 6.76765 0.985641 255 0 255 
-0.0962603 -0.270212 6.74224 0.972823 255 0 255 
-0.0920449 -0.246885 6.73388 0.97042 255 0 255 
-0.156042 -0.334578 6.75908 0.977337 255 0 255 
-0.144849 -0.359761 6.76832 0.982293 255 0 255 
-0.1477 -0.384485 6.77295 0.983648 255 0 255 
-0.121401 -0.38447 6.78002 0.985584 255 0 255 
-0.11737 -0.360588 6.77581 0.985388 255 0 255 
-0.113813 -0.337198 6.77026 0.984809 255 0 255 
-0.0673201 -0.385235 6.79366 0.979348 255 0 255 
-0.0612686 -0.362542 6.7898 0.976406 255 0 255 
-0.0699655 -0.339157 6.78091 0.978727 255 0 255 
-0.0649867 -0.315593 6.77648 0.977049 255 0 255 
-0.0891909 -0.361871 6.78198 0.984423 255 0 255 
-0.0941807 -0.385097 6.78685 0.985163 255 0 255 
-0.0440879 -0.293355 6.77502 0.964191 255 0 255 
-0.0394675 -0.267962 6.77212 0.972953 255 0 255 
-0.0501919 -0.242657 6.7605 0.979845 255 0 255 
-0.0666855 -0.269546 6.75537 0.96762 255 0 255 
-0.0721573 -0.293201 6.76214 0.971761 255 0 255 
-0.243058 -0.673669 6.73283 0.947035 255 0 255 
-0.247319 -0.703466 6.71093 0.960093 255 0 255 
-0.265313 -0.675796 6.72296 0.950539 255 0 255 
-0.250526 -0.733359 6.68583 0.969813 255 0 255 
-0.269095 -0.705015 6.69956 0.966902 255 0 255 
-0.2719 -0.734008 6.67306 0.978195 255 0 255 
-0.287708 -0.677549 6.71208 0.95585 255 0 255 
-0.252988 -0.762308 6.658 0.975501 255 0 255 
-0.254156 -0.790019 6.62856 0.977106 255 0 255 
-0.233563 -0.790324 6.64171 0.967971 255 0 255 
-0.231963 -0.761592 6.67072 0.966833 255 0 255 
-0.229164 -0.731538 6.69765 0.961708 255 0 255 
-0.213121 -0.789527 6.6551 0.954808 255 0 255 
-0.290823 -0.706047 6.6875 0.972481 255 0 255 
-0.310215 -0.678894 6.70136 0.958206 255 0 255 
-0.293006 -0.734633 6.66 0.982531 255 0 255 
-0.312892 -0.70643 6.67585 0.97591 255 0 255 
-0.314745 -0.734658 6.64743 0.98455 255 0 255 
-0.332976 -0.680368 6.69054 0.96021 255 0 255 
-0.294771 -0.762019 6.631 0.9876 255 0 255 
-0.296421 -0.789602 6.60287 0.986369 255 0 255 
-0.275047 -0.789569 6.61583 0.982176 255 0 255 
-0.273709 -0.762174 6.64447 0.983085 255 0 255 
-0.253373 -0.850985 6.53364 0.957734 255 0 255 
-0.253048 -0.833443 6.56437 0.969034 255 0 255 
-0.231674 -0.851049 6.54538 0.954098 255 0 255 
-0.231851 -0.833392 6.57681 0.964632 255 0 255 
-0.253688 -0.813028 6.59595 0.974775 255 0 255 
-0.274648 -0.812593 6.5834 0.978265 255 0 255 
-0.274761 -0.833392 6.55241 0.971627 255 0 255 
-0.209811 -0.850931 6.55662 0.949818 255 0 255 
-0.210623 -0.833416 6.58901 0.959997 255 0 255 
-0.18859 -0.850978 6.569 0.944093 255 0 255 
-0.19008 -0.832986 6.60218 0.94894 255 0 255 
-0.211946 -0.813032 6.62212 0.95982 255 0 255 
-0.232625 -0.813249 6.60876 0.968526 255 0 255 
-0.275408 -0.850478 6.52239 0.960645 255 0 255 
-0.296948 -0.833307 6.54054 0.971622 255 0 255 
-0.296277 -0.812601 6.57074 0.980595 255 0 255 
-0.318016 -0.789532 6.58968 0.989293 255 0 255 
-0.318318 -0.812511 6.5581 0.982891 255 0 255 
-0.340247 -0.790137 6.57636 0.991234 255 0 255 
-0.319117 -0.833653 6.52759 0.973666 255 0 255 
-0.297756 -0.850699 6.51011 0.960512 255 0 255 
-0.316154 -0.762095 6.61852 0.99036 255 0 255 
-0.336674 -0.734512 6.63563 0.987877 255 0 255 
-0.33518 -0.707021 6.66419 0.978626 255 0 255 
-0.355605 -0.681678 6.68038 0.960147 255 0 255 
-0.357679 -0.707768 6.65332 0.980842 255 0 255 
-0.377765 -0.683515 6.67007 0.960804 255 0 255 
-0.359025 -0.734795 6.62318 0.989446 255 0 255 
-0.337991 -0.762038 6.60516 0.992621 255 0 255 
-0.403097 -0.71023 6.63088 0.984879 255 0 255 
-0.382413 -0.735223 6.61226 0.990957 255 0 255 
-0.384339 -0.762761 6.58067 0.995518 255 0 255 
-0.363565 -0.790498 6.56325 0.992887 255 0 255 
-0.361038 -0.762036 6.59345 0.993552 255 0 255 
-0.380174 -0.708806 6.64172 0.982874 255 0 255 
-0.400414 -0.685976 6.65983 0.962432 255 0 255 
-0.364393 -0.813643 6.53233 0.986579 255 0 255 
-0.342525 -0.834241 6.51513 0.974761 255 0 255 
-0.34377 -0.852487 6.4849 0.963205 255 0 255 
-0.320849 -0.851436 6.498 0.962475 255 0 255 
-0.341097 -0.813178 6.5448 0.984526 255 0 255 
-0.404349 -0.437673 6.6657 0.994815 255 0 255 
-0.402879 -0.402989 6.65684 0.99507 255 0 255 
-0.395722 -0.365922 6.65573 0.996871 255 0 255 
-0.386326 -0.398671 6.66713 0.996463 255 0 255 
-0.378259 -0.362538 6.66586 0.996239 255 0 255 
-0.386861 -0.432807 6.67526 0.996277 255 0 255 
-0.390074 -0.330659 6.65636 0.991765 255 0 255 
-0.384769 -0.297716 6.65752 0.975157 255 0 255 
-0.40394 -0.299332 6.64486 0.981953 255 0 255 
-0.408632 -0.332492 6.64381 0.994402 255 0 255 
-0.369536 -0.428237 6.68509 0.99676 255 0 255 
-0.368014 -0.395696 6.67755 0.997189 255 0 255 
-0.358918 -0.360886 6.67635 0.996108 255 0 255 
-0.350057 -0.392568 6.68705 0.997063 255 0 255 
-0.341641 -0.35835 6.68533 0.995526 255 0 255 
-0.351424 -0.42426 6.69521 0.996211 255 0 255 
-0.351601 -0.328119 6.6769 0.989287 255 0 255 
-0.345194 -0.297323 6.6777 0.970976 255 0 255 
-0.364802 -0.297162 6.66817 0.973186 255 0 255 
-0.370985 -0.328784 6.66716 0.989872 255 0 255 
-0.360392 -0.221089 6.6475 0.938039 255 0 255 
-0.368331 -0.245025 6.65115 0.95509 255 0 255 
-0.383859 -0.217994 6.63677 0.92984 255 0 255 
-0.391263 -0.243168 6.63868 0.957094 255 0 255 
-0.376211 -0.270801 6.65435 0.967252 255 0 255 
-0.356027 -0.27112 6.66462 0.965526 255 0 255 
-0.347729 -0.245811 6.6609 0.956012 255 0 255 
-0.405716 -0.218499 6.62303 0.944525 255 0 255 
-0.411596 -0.244636 6.62544 0.962555 255 0 255 
-0.429505 -0.219349 6.60662 0.954101 255 0 255 
-0.417507 -0.272608 6.62853 0.977988 255 0 255 
-0.39767 -0.270469 6.6419 0.969383 255 0 255 
-0.225356 -0.700785 6.72186 0.953206 255 0 255 
-0.207748 -0.728842 6.70997 0.950027 255 0 255 
-0.211102 -0.760093 6.68369 0.955998 255 0 255 
-0.192192 -0.78728 6.66925 0.937582 255 0 255 
-0.190161 -0.756967 6.69639 0.942471 255 0 255 
-0.171338 -0.784253 6.68179 0.923617 255 0 255 
-0.186945 -0.726224 6.72057 0.941211 255 0 255 
-0.203838 -0.69843 6.73224 0.943136 255 0 255 
-0.221093 -0.671063 6.74258 0.93822 255 0 255 
-0.199518 -0.667375 6.75029 0.939176 255 0 255 
-0.191264 -0.811646 6.63626 0.946384 255 0 255 
-0.16922 -0.831381 6.61647 0.936777 255 0 255 
-0.167463 -0.85026 6.58202 0.932731 255 0 255 
-0.14594 -0.847601 6.59499 0.920942 255 0 255 
-0.147949 -0.828581 6.62942 0.924045 255 0 255 
-0.17043 -0.809464 6.64954 0.932643 255 0 255 
-0.102364 -0.837749 6.62167 0.914643 255 0 255 
-0.125911 -0.823396 6.64324 0.914103 255 0 255 
-0.126955 -0.80003 6.67482 0.917449 255 0 255 
-0.149698 -0.780343 6.69392 0.911956 255 0 255 
-0.148945 -0.805029 6.66336 0.921287 255 0 255 
-0.124301 -0.84403 6.60817 0.912971 255 0 255 
-0.146881 -0.748741 6.71842 0.92425 255 0 255 
-0.165123 -0.721949 6.73077 0.932472 255 0 255 
-0.171528 -0.692393 6.74435 0.941863 255 0 255 
-0.17716 -0.66338 6.75709 0.942891 255 0 255 
-0.16906 -0.753454 6.70824 0.928124 255 0 255 
-0.167483 -0.248184 6.70645 0.983583 255 0 255 
-0.172138 -0.267968 6.72109 0.986389 255 0 255 
-0.202693 -0.265165 6.71246 0.980968 255 0 255 
-0.198163 -0.245483 6.69908 0.984292 255 0 255 
-0.191705 -0.286678 6.72951 0.975008 255 0 255 
-0.208916 -0.307207 6.73393 0.970222 255 0 255 
-0.182244 -0.309079 6.74557 0.964651 255 0 255 
-0.163155 -0.289104 6.73818 0.981423 255 0 255 
-0.226455 -0.242403 6.69299 0.977278 255 0 255 
-0.229437 -0.262497 6.70475 0.974592 255 0 255 
-0.255864 -0.259403 6.69561 0.970321 255 0 255 
-0.253891 -0.238933 6.6856 0.971479 255 0 255 
-0.244532 -0.28251 6.70949 0.973497 255 0 255 
-0.258251 -0.303911 6.71186 0.978139 255 0 255 
-0.234301 -0.305668 6.72298 0.973467 255 0 255 
-0.219388 -0.284569 6.71935 0.973017 255 0 255 
-0.259231 -0.413188 6.73492 0.994977 255 0 255 
-0.245272 -0.386146 6.7301 0.997264 255 0 255 
-0.235198 -0.412558 6.74343 0.995191 255 0 255 
-0.232449 -0.359116 6.72969 0.994711 255 0 255 
-0.221143 -0.385566 6.74031 0.995596 255 0 255 
-0.208395 -0.359104 6.74096 0.991739 255 0 255 
-0.210931 -0.411802 6.75259 0.993309 255 0 255 
-0.220625 -0.333204 6.73158 0.986493 255 0 255 
-0.244772 -0.331657 6.71958 0.990724 255 0 255 
-0.256772 -0.358782 6.71853 0.995934 255 0 255 
-0.196922 -0.385265 6.75217 0.991506 255 0 255 
-0.186662 -0.410881 6.76381 0.986686 255 0 255 
-0.183782 -0.359637 6.75424 0.983777 255 0 255 
-0.172611 -0.384798 6.7635 0.985722 255 0 255 
-0.183025 -0.334083 6.75016 0.977096 255 0 255 
-0.332819 -0.420734 6.70509 0.994783 255 0 255 
-0.331275 -0.390085 6.69663 0.996695 255 0 255 
-0.320792 -0.35828 6.69418 0.995772 255 0 255 
-0.311866 -0.387536 6.705 0.996988 255 0 255 
-0.301533 -0.357397 6.70224 0.995685 255 0 255 
-0.313141 -0.417593 6.71407 0.99397 255 0 255 
-0.312377 -0.328627 6.69358 0.990307 255 0 255 
-0.303895 -0.300194 6.69378 0.978964 255 0 255 
-0.325122 -0.298939 6.68557 0.976343 255 0 255 
-0.332375 -0.327497 6.6854 0.988961 255 0 255 
-0.292277 -0.415362 6.72242 0.994837 255 0 255 
-0.290682 -0.387075 6.71353 0.997404 255 0 255 
-0.27892 -0.358589 6.71076 0.996297 255 0 255 
-0.268742 -0.386114 6.72156 0.997533 255 0 255 
-0.26822 -0.331195 6.70971 0.992211 255 0 255 
-0.281033 -0.301973 6.70281 0.979538 255 0 255 
-0.29107 -0.329159 6.7015 0.991266 255 0 255 
-0.278762 -0.23487 6.67789 0.964611 255 0 255 
-0.279051 -0.256776 6.68711 0.968887 255 0 255 
-0.30354 -0.252403 6.67839 0.963955 255 0 255 
-0.303557 -0.230509 6.66967 0.955829 255 0 255 
-0.291629 -0.278175 6.69003 0.975823 255 0 255 
-0.268669 -0.280029 6.69927 0.973475 255 0 255 
-0.327238 -0.226877 6.66181 0.947166 255 0 255 
-0.325182 -0.250385 6.66952 0.963187 255 0 255 
-0.334909 -0.273299 6.67367 0.969637 255 0 255 
-0.314221 -0.274947 6.68238 0.969769 255 0 255 
-0.337899 -0.650335 6.70222 0.956469 255 0 255 
-0.353211 -0.621539 6.70757 0.951168 255 0 255 
-0.356297 -0.591564 6.71388 0.949374 255 0 255 
-0.368266 -0.56275 6.71311 0.953773 255 0 255 
-0.34729 -0.558327 6.72149 0.95552 255 0 255 
-0.377653 -0.595212 6.7058 0.947501 255 0 255 
-0.388847 -0.567265 6.70471 0.95167 255 0 255 
-0.375284 -0.624812 6.69917 0.946479 255 0 255 
-0.37193 -0.6538 6.6888 0.949822 255 0 255 
-0.34531 -0.524965 6.71604 0.979254 255 0 255 
-0.353543 -0.492873 6.705 0.991103 255 0 255 
-0.35231 -0.458351 6.69962 0.996154 255 0 255 
-0.370141 -0.462843 6.68927 0.995623 255 0 255 
-0.372467 -0.497752 6.69562 0.991154 255 0 255 
-0.375936 -0.53178 6.7027 0.978579 255 0 255 
-0.405731 -0.473708 6.67055 0.991821 255 0 255 
-0.410666 -0.508438 6.67898 0.989294 255 0 255 
-0.405706 -0.539448 6.69094 0.977095 255 0 255 
-0.410662 -0.571902 6.6983 0.942947 255 0 255 
-0.391424 -0.503158 6.68688 0.99049 255 0 255 
-0.387872 -0.46845 6.67921 0.993874 255 0 255 
-0.420683 -0.604232 6.69127 0.92984 255 0 255 
-0.419372 -0.632394 6.68363 0.93318 255 0 255 
-0.404925 -0.658311 6.67556 0.943421 255 0 255 
-0.397424 -0.628566 6.69134 0.941051 255 0 255 
-0.39905 -0.599758 6.69802 0.939301 255 0 255 
-0.247162 -0.641441 6.74171 0.951977 255 0 255 
-0.262465 -0.610045 6.74463 0.954144 255 0 255 
-0.266881 -0.577422 6.74943 0.954438 255 0 255 
-0.281956 -0.546778 6.74937 0.951463 255 0 255 
-0.259213 -0.542771 6.75632 0.956412 255 0 255 
-0.28963 -0.580617 6.74096 0.95347 255 0 255 
-0.304474 -0.550272 6.74029 0.95325 255 0 255 
-0.285087 -0.612964 6.73544 0.954091 255 0 255 
-0.280882 -0.645 6.72749 0.95813 255 0 255 
-0.259095 -0.509134 6.75094 0.977797 255 0 255 
-0.270472 -0.477138 6.74082 0.989283 255 0 255 
-0.269867 -0.444971 6.73476 0.995082 255 0 255 
-0.292652 -0.447076 6.7265 0.994724 255 0 255 
-0.292714 -0.480092 6.73296 0.98878 255 0 255 
-0.293191 -0.514061 6.73966 0.973879 255 0 255 
-0.333082 -0.453742 6.70875 0.996252 255 0 255 
-0.334114 -0.488167 6.71515 0.989778 255 0 255 
-0.325073 -0.519863 6.72572 0.976131 255 0 255 
-0.326047 -0.554279 6.73121 0.953195 255 0 255 
-0.313769 -0.483762 6.72435 0.988668 255 0 255 
-0.313423 -0.450324 6.71829 0.994493 255 0 255 
-0.334437 -0.587651 6.7227 0.952723 255 0 255 
-0.330629 -0.618524 6.71614 0.954949 255 0 255 
-0.314794 -0.648068 6.71202 0.954614 255 0 255 
-0.307898 -0.615725 6.72558 0.956362 255 0 255 
-0.312084 -0.584251 6.73187 0.952607 255 0 255 
-0.173844 -0.439121 6.76913 0.989713 255 0 255 
-0.185995 -0.469715 6.76703 0.990635 255 0 255 
-0.198009 -0.440581 6.75989 0.992808 255 0 255 
-0.210622 -0.471347 6.75888 0.991347 255 0 255 
-0.198964 -0.501878 6.76672 0.986397 255 0 255 
-0.211592 -0.535892 6.76763 0.972411 255 0 255 
-0.187375 -0.532257 6.77313 0.977788 255 0 255 
-0.174853 -0.498286 6.77286 0.987997 255 0 255 
-0.222346 -0.442537 6.75145 0.994561 255 0 255 
-0.234703 -0.474523 6.752 0.990403 255 0 255 
-0.246429 -0.443648 6.74302 0.995122 255 0 255 
-0.235194 -0.506911 6.7577 0.981205 255 0 255 
-0.235584 -0.539651 6.76265 0.96304 255 0 255 
-0.225006 -0.638644 6.74968 0.952694 255 0 255 
-0.228572 -0.60599 6.75562 0.959868 255 0 255 
-0.205707 -0.601217 6.76044 0.970456 255 0 255 
-0.202734 -0.634171 6.75553 0.959909 255 0 255 
-0.220445 -0.570973 6.76224 0.968704 255 0 255 
-0.243837 -0.574295 6.7566 0.959508 255 0 255 
-0.179811 -0.630318 6.76089 0.967232 255 0 255 
-0.182403 -0.597986 6.76604 0.975418 255 0 255 
-0.173173 -0.562719 6.7719 0.983676 255 0 255 
-0.196737 -0.566725 6.76714 0.977585 255 0 255 
-0.132824 0.0264472 6.35031 0.997923 255 0 255 
-0.152174 0.0280471 6.34217 0.997486 255 0 255 
-0.160896 0.0195141 6.36691 0.998328 255 0 255 
-0.179859 0.021227 6.35801 0.99807 255 0 255 
-0.171605 0.0297491 6.3336 0.997053 255 0 255 
-0.188504 0.0118549 6.38213 0.998186 255 0 255 
-0.199179 0.0227235 6.34867 0.998141 255 0 255 
-0.207709 0.0134278 6.37246 0.998513 255 0 255 
-0.226921 0.0148967 6.36235 0.998788 255 0 255 
-0.191065 0.0312784 6.32465 0.996945 255 0 255 
-0.218481 0.0237464 6.33911 0.998445 255 0 255 
-0.210747 0.0325632 6.31557 0.997031 255 0 255 
-0.216488 0.00403111 6.39582 0.998209 255 0 255 
-0.235395 0.00565992 6.3858 0.998456 255 0 255 
-0.244807 -0.00260964 6.41018 0.997023 255 0 255 
-0.226323 -0.00384695 6.41902 0.99682 255 0 255 
-0.197849 0.00291619 6.4045 0.998102 255 0 255 
-0.207902 -0.00475989 6.42765 0.996287 255 0 255 
-0.179448 0.00168962 6.41301 0.997677 255 0 255 
-0.170004 0.0103523 6.39035 0.998417 255 0 255 
-0.151656 0.00891063 6.39812 0.998694 255 0 255 
-0.189614 -0.00661029 6.43566 0.99677 255 0 255 
-0.161405 0.000328448 6.42092 0.998183 255 0 255 
-0.17146 -0.00809558 6.44339 0.997289 255 0 255 
-0.142395 0.0178157 6.37449 0.998726 255 0 255 
-0.231294 0.0340556 6.30704 0.996904 255 0 255 
-0.238092 0.0252306 6.33085 0.998278 255 0 255 
-0.258294 0.0266548 6.32143 0.998558 255 0 255 
-0.251402 0.0355949 6.29813 0.996954 255 0 255 
-0.265181 0.0176721 6.345 0.998805 255 0 255 
-0.278007 0.0279716 6.31205 0.998712 255 0 255 
-0.284895 0.0188705 6.33555 0.998741 255 0 255 
-0.304491 0.0204499 6.32668 0.998688 255 0 255 
-0.271274 0.0373065 6.28921 0.996738 255 0 255 
-0.297492 0.0293891 6.30278 0.9987 255 0 255 
-0.290952 0.039052 6.28025 0.996411 255 0 255 
-0.292609 0.0109297 6.36063 0.998311 255 0 255 
-0.312113 0.0128254 6.35176 0.998165 255 0 255 
-0.319948 0.00543718 6.37754 0.995993 255 0 255 
-0.301327 0.00352083 6.38559 0.996294 255 0 255 
-0.27353 0.00911793 6.36876 0.998289 255 0 255 
-0.282474 0.00142735 6.39354 0.996677 255 0 255 
-0.254485 0.00737725 6.37715 0.998272 255 0 255 
-0.246178 0.016448 6.35377 0.998734 255 0 255 
-0.263795 -0.000616291 6.4017 0.996885 255 0 255 
-0.318291 -0.0371983 6.46282 0.994901 255 0 255 
-0.302192 -0.0394569 6.47005 0.99488 255 0 255 
-0.295189 -0.0251165 6.44603 0.99529 255 0 255 
-0.285537 -0.0410717 6.47733 0.993986 255 0 255 
-0.27863 -0.0265421 6.45315 0.994742 255 0 255 
-0.261694 -0.0282221 6.45976 0.994621 255 0 255 
-0.269178 -0.0428618 6.4842 0.994211 255 0 255 
-0.270733 -0.0135424 6.42793 0.996489 255 0 255 
-0.253374 -0.0149979 6.43496 0.996403 255 0 255 
-0.288958 -0.0114099 6.41967 0.996673 255 0 255 
-0.307525 -0.00893266 6.41201 0.996066 255 0 255 
-0.31299 -0.0225999 6.43757 0.995537 255 0 255 
-0.33102 -0.0204122 6.42922 0.995329 255 0 255 
-0.325695 -0.0071752 6.40339 0.996069 255 0 255 
-0.335671 -0.0343624 6.45434 0.994491 255 0 255 
-0.251807 -0.0444831 6.49232 0.99275 255 0 255 
-0.235336 -0.0449095 6.49911 0.990882 255 0 255 
-0.226108 -0.0305341 6.47622 0.993401 255 0 255 
-0.218972 -0.0450174 6.50564 0.990181 255 0 255 
-0.209242 -0.0307058 6.48273 0.992702 255 0 255 
-0.192174 -0.0311976 6.48898 0.992591 255 0 255 
-0.202146 -0.044644 6.51159 0.989801 255 0 255 
-0.19882 -0.0189635 6.45934 0.99604 255 0 255 
-0.181472 -0.0195751 6.46546 0.996271 255 0 255 
-0.216945 -0.0176418 6.45169 0.995965 255 0 255 
-0.235322 -0.0164191 6.44362 0.996048 255 0 255 
-0.244214 -0.0293607 6.46824 0.994113 255 0 255 
0.00724446 0.0218713 6.40714 0.9975 255 0 255 
-0.00466454 0.0106526 6.42981 0.998559 255 0 255 
-0.0253229 0.0117792 6.42167 0.999004 255 0 255 
-0.0134098 0.0220275 6.39885 0.997794 255 0 255 
