ply
format ascii 1.0
comment VCGLIB generated
element vertex 1029
property float x
property float y
property float z
property uchar red
property uchar green
property uchar blue
property float quality
end_header
-0.445835 -0.032869 5.781130 142 0 0 0.997841
-0.434910 -0.039688 5.762450 142 0 0 0.997781
-0.413888 -0.036068 5.771880 137 0 0 0.998172
-0.467528 -0.036933 5.771620 142 0 0 0.997567
-0.456917 -0.043817 5.752860 146 0 0 0.997271
-0.478530 -0.048314 5.743720 146 0 0 0.996741
-0.488878 -0.041752 5.761570 146 0 0 0.997119
-0.478211 -0.029697 5.789520 146 0 0 0.997142
-0.499354 -0.034529 5.779430 146 0 0 0.996776
-0.488872 -0.021639 5.807650 146 0 0 0.996927
-0.467412 -0.017070 5.818300 142 0 0 0.997374
-0.510135 -0.026658 5.797330 151 0 0 0.996384
-0.560805 -0.076175 5.714130 155 0 0 0.995552
-0.570207 -0.070036 5.730790 151 0 0 0.995970
-0.551517 -0.062529 5.738500 146 0 0 0.996786
-0.560948 -0.055782 5.755440 146 0 0 0.997000
-0.579674 -0.063634 5.747790 151 0 0 0.996296
-0.540741 -0.048106 5.763750 146 0 0 0.997084
-0.570303 -0.048695 5.772610 146 0 0 0.996837
-0.550703 -0.040634 5.781050 146 0 0 0.996902
-0.560506 -0.032683 5.798390 151 0 0 0.996264
-0.588391 -0.056420 5.764830 151 0 0 0.996245
-0.579413 -0.040851 5.789850 151 0 0 0.996287
-0.597960 -0.048914 5.782040 155 0 0 0.995613
-0.530820 -0.033477 5.789130 146 0 0 0.996708
-0.540867 -0.025108 5.807020 151 0 0 0.996325
-0.520323 -0.041230 5.771220 146 0 0 0.997028
-0.510024 -0.048341 5.753530 146 0 0 0.997127
-0.530814 -0.055197 5.745850 146 0 0 0.997080
-0.520691 -0.061661 5.728130 146 0 0 0.996789
-0.499635 -0.054796 5.735800 146 0 0 0.996925
-0.541543 -0.068798 5.720850 151 0 0 0.996283
-0.608592 -0.042569 5.798060 155 0 0 0.995409
-0.590965 -0.033738 5.807220 151 0 0 0.996082
-0.601428 -0.026791 5.823250 155 0 0 0.995706
-0.618899 -0.036034 5.814060 160 0 0 0.994863
-0.583538 -0.018104 5.832580 155 0 0 0.995888
-0.612022 -0.020114 5.838960 160 0 0 0.995148
-0.594367 -0.010756 5.848450 160 0 0 0.994658
-0.604932 -0.004024 5.863890 169 0 0 0.993936
-0.628742 -0.029435 5.829930 164 0 0 0.994141
-0.622173 -0.013413 5.854580 169 0 0 0.993843
-0.638924 -0.023054 5.845630 178 0 0 0.992508
-0.576317 -0.002045 5.858250 164 0 0 0.994223
-0.586953 0.005237 5.873880 178 0 0 0.992544
-0.564577 -0.009858 5.841410 155 0 0 0.995364
-0.552965 -0.017520 5.824320 155 0 0 0.995591
-0.572115 -0.025509 5.815530 151 0 0 0.996045
-0.900653 -0.048837 6.746060 255 193 0 0.943196
-0.912406 -0.057186 6.718060 255 197 0 0.942296
-0.888336 -0.040393 6.773210 255 238 0 0.933409
-0.909643 -0.050280 6.770980 255 212 0 0.938920
-0.922052 -0.058268 6.742970 255 204 0 0.941221
-0.933757 -0.066326 6.714760 255 219 0 0.937615
-0.886488 -0.037167 6.800130 216 255 32 0.921563
-0.883544 -0.033120 6.828820 155 255 93 0.902682
-0.862927 -0.023928 6.828140 171 255 77 0.908152
-0.866090 -0.027626 6.798390 190 255 58 0.913718
-0.940480 -0.071997 6.741590 255 160 0 0.951082
-0.952565 -0.080308 6.712420 255 164 0 0.950464
-0.927939 -0.063963 6.769800 255 134 0 0.956829
-0.947291 -0.077330 6.766400 255 123 0 0.959107
-0.959484 -0.085203 6.738260 255 138 0 0.955825
-0.971425 -0.093099 6.709490 255 138 0 0.956035
-0.924627 -0.062085 6.797930 255 149 0 0.953401
-0.920786 -0.059409 6.826230 255 223 0 0.936231
-0.901485 -0.046229 6.829020 229 255 19 0.925824
-0.906236 -0.048847 6.799130 255 219 0 0.937075
-0.872387 -0.025905 6.895200 71 255 177 0.873309
-0.878297 -0.029960 6.861470 145 255 103 0.899535
-0.897179 -0.042813 6.860540 132 255 116 0.895020
-0.891846 -0.038060 6.893510 67 255 180 0.872257
-0.838523 -0.010572 6.857410 58 255 190 0.867986
-0.859238 -0.019334 6.859900 122 255 126 0.892343
-0.965377 -0.149912 6.938160 61 255 187 0.870351
-0.976997 -0.155037 6.903400 177 255 71 0.910688
-0.957489 -0.133561 6.936540 71 255 177 0.873735
-0.987753 -0.158973 6.870850 255 197 0 0.942731
-0.969451 -0.138727 6.901920 187 255 61 0.912946
-0.981078 -0.142354 6.868350 255 204 0 0.941337
-0.949615 -0.115520 6.937530 45 255 203 0.863459
-0.998486 -0.162085 6.838860 255 116 0 0.960585
-1.008690 -0.163629 6.808700 255 78 0 0.968492
-1.016710 -0.181999 6.811010 255 116 0 0.960435
-1.006920 -0.180069 6.841150 255 160 0 0.950899
-0.996992 -0.177179 6.871810 255 223 0 0.936518
-1.025320 -0.200636 6.813510 255 175 0 0.947485
-0.959030 -0.120002 6.903690 164 255 84 0.906197
-0.937219 -0.096673 6.941430 42 255 206 0.862161
-0.968102 -0.123215 6.870850 255 204 0 0.940746
-0.947721 -0.101451 6.905890 155 255 93 0.902774
-0.957311 -0.104757 6.872560 255 223 0 0.936392
-0.976572 -0.125253 6.839800 255 116 0 0.960439
-0.984630 -0.126257 6.810120 255 71 0 0.970278
-0.996413 -0.145460 6.808920 255 67 0 0.970759
-0.988943 -0.144394 6.838090 255 101 0 0.963848
-1.036370 -0.161652 6.694490 255 30 0 0.978465
-1.028850 -0.162564 6.724380 255 34 0 0.977419
-1.049880 -0.183092 6.692610 251 16 0 0.981201
-1.021960 -0.163496 6.752500 255 53 0 0.973805
-1.042040 -0.182375 6.724540 255 49 0 0.974304
-1.035580 -0.183103 6.752450 255 71 0 0.969726
-1.063810 -0.204389 6.690940 255 19 0 0.980616
-1.015350 -0.163849 6.780630 255 71 0 0.969992
-1.003480 -0.144956 6.780610 255 64 0 0.971634
-1.010640 -0.144539 6.752040 255 60 0 0.972272
-1.052960 -0.202515 6.725230 255 49 0 0.974158
-1.073290 -0.225521 6.691180 255 34 0 0.977550
-1.043450 -0.201852 6.755180 255 86 0 0.967038
-1.062680 -0.223749 6.725490 255 71 0 0.969690
-1.053300 -0.222146 6.756510 255 134 0 0.956696
-1.083520 -0.246458 6.692250 255 71 0 0.970385
-1.034310 -0.201039 6.784670 255 127 0 0.958224
-1.026050 -0.182608 6.781800 255 90 0 0.966076
-0.973780 -0.092676 6.683570 255 160 0 0.950805
-0.975914 -0.092623 6.656130 255 227 0 0.935490
-0.954825 -0.079179 6.687040 255 216 0 0.938267
-0.956864 -0.078890 6.659350 216 255 32 0.922174
-0.978171 -0.093347 6.625370 255 238 0 0.932622
-0.980279 -0.097681 6.590840 255 234 0 0.933828
-1.002760 -0.111868 6.584890 255 153 0 0.952715
-0.999922 -0.108488 6.616810 255 153 0 0.952852
-0.996675 -0.106402 6.649490 255 164 0 0.950479
-1.025360 -0.123974 6.580620 255 138 0 0.956186
-0.934364 -0.067464 6.690720 248 245 0 0.931420
-0.934539 -0.069018 6.665780 209 255 38 0.920031
-0.913070 -0.057847 6.694300 235 255 13 0.927683
-0.934764 -0.070945 6.639530 203 255 45 0.918292
-0.945094 -0.081234 6.606220 209 255 38 0.920204
-0.956986 -0.081370 6.632280 196 255 51 0.916429
-0.980362 -0.111210 6.528520 255 130 0 0.957916
-0.972742 -0.103581 6.549110 255 164 0 0.950064
-0.998336 -0.111317 6.543520 255 149 0 0.953598
-0.989992 -0.105355 6.564860 255 186 0 0.945336
-0.964926 -0.096053 6.572680 255 223 0 0.936842
-1.016990 -0.120357 6.525440 255 104 0 0.963130
-1.020410 -0.120896 6.543060 255 138 0 0.956280
-1.040940 -0.128632 6.524890 255 101 0 0.963985
-1.044560 -0.130004 6.541970 255 141 0 0.955516
-1.023460 -0.122101 6.561440 255 134 0 0.956450
-1.043500 -0.161525 6.663090 255 23 0 0.979561
-1.020180 -0.142974 6.698720 255 38 0 0.976433
-1.051150 -0.159879 6.632440 255 34 0 0.977119
-1.027010 -0.141482 6.668730 255 38 0 0.976937
-1.034670 -0.140375 6.636300 255 67 0 0.970649
-1.005180 -0.124937 6.701420 255 53 0 0.973956
-1.058390 -0.156581 6.604250 255 67 0 0.970435
-1.064150 -0.151126 6.579810 255 78 0 0.968225
-1.080520 -0.166649 6.581980 255 75 0 0.969608
-1.074970 -0.172948 6.604560 255 45 0 0.975437
-1.068440 -0.177732 6.629790 255 30 0 0.978248
-1.096920 -0.181630 6.584400 255 56 0 0.972823
-1.009700 -0.123321 6.674410 255 75 0 0.969578
-0.988114 -0.109340 6.705500 255 86 0 0.966773
-1.014890 -0.123592 6.643900 255 97 0 0.964952
-0.992492 -0.107741 6.678210 255 134 0 0.956484
-1.020570 -0.124055 6.610540 255 101 0 0.964111
-1.045120 -0.138140 6.579770 255 119 0 0.959684
-1.040710 -0.140351 6.605700 255 104 0 0.963043
-1.063150 -0.137679 6.525880 255 119 0 0.959854
-1.082700 -0.145695 6.508220 255 97 0 0.964643
-1.063980 -0.141911 6.543770 255 101 0 0.963907
-1.083910 -0.148945 6.526710 255 104 0 0.963364
-1.084790 -0.153467 6.544330 255 97 0 0.964606
-1.103760 -0.155964 6.508260 255 104 0 0.962850
-1.064440 -0.146599 6.561640 255 108 0 0.962323
-1.045120 -0.133900 6.560690 255 130 0 0.957983
-1.102850 -0.161525 6.528090 255 97 0 0.965069
-1.122360 -0.169533 6.509750 255 104 0 0.962857
-1.101220 -0.167549 6.547510 255 90 0 0.966376
-1.120780 -0.175296 6.530260 255 97 0 0.964543
-1.119210 -0.181638 6.549600 255 116 0 0.960532
-1.141030 -0.183275 6.510630 255 127 0 0.958136
-1.099340 -0.174426 6.566050 255 71 0 0.970224
-1.083150 -0.159467 6.563150 255 78 0 0.968826
-0.975854 -0.101450 6.734760 255 75 0 0.969089
-0.963514 -0.093375 6.763270 255 75 0 0.969428
-0.980928 -0.109033 6.758560 255 78 0 0.968427
-0.993032 -0.116887 6.730500 255 78 0 0.968316
-0.959144 -0.092575 6.790480 255 78 0 0.968511
-0.954625 -0.090854 6.818090 255 123 0 0.959439
-0.937570 -0.075672 6.822190 255 138 0 0.956102
-0.942642 -0.076716 6.794330 255 116 0 0.960951
-1.007400 -0.135002 6.727400 255 49 0 0.974322
-0.994942 -0.127091 6.755440 255 45 0 0.975007
-0.989791 -0.126877 6.782760 255 64 0 0.971706
-0.969392 -0.108844 6.814050 255 75 0 0.969014
-0.975062 -0.109157 6.786270 255 64 0 0.971638
-0.933509 -0.082789 6.911170 116 255 132 0.890177
-0.941137 -0.086753 6.878730 235 255 13 0.927205
-0.918457 -0.065401 6.917000 71 255 177 0.873396
-0.926891 -0.068851 6.883560 164 255 84 0.905831
-0.948085 -0.089290 6.847500 255 160 0 0.950809
-0.963549 -0.107282 6.842730 255 130 0 0.957369
-0.908760 -0.053465 6.889320 138 255 109 0.898052
-0.915135 -0.057115 6.856580 216 255 32 0.921484
-0.932902 -0.073042 6.851770 255 219 0 0.937203
-1.196110 -0.193862 6.312500 255 56 0 0.972804
-1.210260 -0.207576 6.297850 255 27 0 0.979114
-1.196490 -0.194499 6.290330 255 34 0 0.977144
-1.224900 -0.221300 6.283270 255 27 0 0.978908
-1.210980 -0.207897 6.276060 255 27 0 0.978916
-1.225780 -0.221250 6.261530 255 34 0 0.977093
-1.196340 -0.194835 6.268520 255 38 0 0.976486
-1.239960 -0.234818 6.269060 255 49 0 0.974526
-1.254390 -0.248311 6.255530 255 82 0 0.967645
-1.251750 -0.246369 6.277440 255 82 0 0.967772
-1.237230 -0.232763 6.291710 255 53 0 0.973788
-1.222770 -0.218435 6.306660 255 45 0 0.974931
-1.249230 -0.244036 6.300320 255 97 0 0.964531
-1.210490 -0.209608 6.253440 255 19 0 0.980477
-1.193300 -0.195945 6.245980 246 12 0 0.981586
-1.224950 -0.223786 6.238200 255 23 0 0.979526
-1.207520 -0.210178 6.230820 242 8 0 0.982784
-1.222430 -0.224049 6.215380 255 30 0 0.977968
-1.190110 -0.196389 6.223160 251 16 0 0.981026
-1.239500 -0.238437 6.223390 255 49 0 0.974675
-1.254100 -0.252713 6.208910 255 108 0 0.962413
-1.254690 -0.250738 6.232080 255 90 0 0.965878
-1.240310 -0.235991 6.246550 255 49 0 0.974538
-1.300120 -0.323338 6.210230 255 193 0 0.943474
-1.289840 -0.304476 6.220690 255 138 0 0.956318
-1.298140 -0.319344 6.233080 255 156 0 0.951586
-1.278590 -0.286011 6.231600 255 93 0 0.965676
-1.287260 -0.300509 6.243940 255 101 0 0.963767
-1.275960 -0.281521 6.255700 255 75 0 0.969396
-1.295830 -0.315025 6.256100 255 141 0 0.955431
-1.266640 -0.267326 6.243480 255 75 0 0.969393
-1.266730 -0.269374 6.220300 255 86 0 0.966976
-1.278670 -0.287458 6.208930 255 123 0 0.959508
-1.284620 -0.297437 6.266450 255 90 0 0.966411
-1.290820 -0.311062 6.279010 255 112 0 0.961239
-1.273400 -0.279576 6.276960 255 64 0 0.971536
-1.280040 -0.292924 6.289460 255 86 0 0.967306
-1.268090 -0.274936 6.301450 255 78 0 0.968863
-1.286020 -0.306414 6.302770 255 119 0 0.959634
-1.260860 -0.261915 6.288790 255 67 0 0.971013
-1.264040 -0.263895 6.266470 255 64 0 0.971408
-1.175210 -0.186724 6.239170 205 0 0 0.988106
-1.160290 -0.176637 6.255310 192 0 0 0.990338
-1.178660 -0.185451 6.262070 233 1 0 0.983741
-1.163470 -0.175359 6.278220 214 0 0 0.986548
-1.145490 -0.166415 6.271670 196 0 0 0.989671
-1.131260 -0.156606 6.287630 210 0 0 0.987534
-1.126800 -0.156446 6.265140 192 0 0 0.990203
-1.141060 -0.166127 6.249480 187 0 0 0.990785
-1.155550 -0.176217 6.233820 187 0 0 0.990571
-1.122290 -0.155694 6.243230 196 0 0 0.989831
-1.180720 -0.185334 6.284180 237 4 0 0.983163
-1.164650 -0.175743 6.300160 214 0 0 0.986413
-1.180620 -0.185086 6.305880 242 8 0 0.982808
-1.165130 -0.174957 6.321990 237 4 0 0.983193
-1.149480 -0.166648 6.315420 210 0 0 0.987329
-1.134930 -0.157349 6.330660 228 0 0 0.984763
-1.132970 -0.157366 6.309090 205 0 0 0.988303
-1.147870 -0.166222 6.294330 205 0 0 0.987973
-1.083810 -0.139456 6.323030 169 0 0 0.993297
-1.098950 -0.144940 6.307960 169 0 0 0.993727
-1.117670 -0.151216 6.324740 187 0 0 0.990544
-1.102620 -0.145142 6.340320 201 0 0 0.988814
-1.078370 -0.137736 6.291710 169 0 0 0.993665
-1.092860 -0.143656 6.275740 160 0 0 0.994738
-1.072860 -0.135950 6.271060 164 0 0 0.994044
-1.087510 -0.141698 6.255020 164 0 0 0.993985
-1.107600 -0.149323 6.259660 178 0 0 0.992554
-1.112260 -0.150371 6.281960 178 0 0 0.992380
-1.102960 -0.147072 6.430240 255 49 0 0.974361
-1.127870 -0.158232 6.434650 255 93 0 0.965450
-1.118230 -0.152370 6.416900 255 49 0 0.974228
-1.112580 -0.152720 6.447790 255 67 0 0.970807
-1.144280 -0.165673 6.410930 255 82 0 0.968086
-1.149720 -0.172500 6.432080 255 97 0 0.964647
-1.165760 -0.181167 6.416570 255 108 0 0.962721
-1.182360 -0.190005 6.400590 255 116 0 0.960482
-1.170870 -0.187938 6.438150 255 145 0 0.954751
-1.156110 -0.179820 6.451500 255 130 0 0.957485
-1.134560 -0.164996 6.454280 255 108 0 0.962280
-1.132580 -0.170635 6.483500 255 101 0 0.964314
-1.113750 -0.156904 6.483100 255 101 0 0.964233
-1.153800 -0.184965 6.481640 255 138 0 0.956029
-1.090290 -0.145729 6.485360 255 82 0 0.968053
-1.179220 -0.184246 6.338200 255 30 0 0.978298
-1.163950 -0.174843 6.353370 255 30 0 0.978419
-1.193030 -0.193019 6.343980 255 64 0 0.971394
-1.149340 -0.165603 6.368400 255 41 0 0.976308
-1.135200 -0.157562 6.361720 255 27 0 0.979086
-1.176030 -0.183420 6.370420 255 71 0 0.970084
-1.160560 -0.174320 6.385510 255 60 0 0.972091
-1.133560 -0.157863 6.392880 255 53 0 0.974094
-1.090960 -0.142556 6.412430 255 19 0 0.980620
-1.105530 -0.146827 6.400500 251 16 0 0.980756
-1.090350 -0.140485 6.384460 233 1 0 0.983562
-1.120350 -0.151405 6.377160 251 16 0 0.980882
-1.087640 -0.139943 6.354420 205 0 0 0.988186
-1.104580 -0.145993 6.370680 223 0 0 0.985248
-1.009600 -0.110095 6.186620 192 0 0 0.990292
-0.997158 -0.105525 6.204000 183 0 0 0.991786
-1.021830 -0.115856 6.205740 187 0 0 0.990549
-0.984886 -0.101084 6.221190 178 0 0 0.992238
-1.009680 -0.111401 6.223060 178 0 0 0.991984
-0.997448 -0.107233 6.239960 183 0 0 0.991412
-1.034320 -0.120195 6.225170 183 0 0 0.991419
-0.973014 -0.096884 6.237770 183 0 0 0.991327
-0.961085 -0.093850 6.254460 201 0 0 0.989136
-0.947916 -0.084674 6.239760 201 0 0 0.988639
-0.959730 -0.088799 6.222840 192 0 0 0.990091
-0.971869 -0.093239 6.205330 192 0 0 0.990376
-0.935310 -0.074747 6.225140 210 0 0 0.987179
-1.021480 -0.117087 6.240980 173 0 0 0.992626
-1.043340 -0.124772 6.245170 178 0 0 0.992312
-1.008650 -0.113969 6.256870 173 0 0 0.992870
-1.030540 -0.121596 6.261440 173 0 0 0.993024
-0.977547 -0.104815 6.278310 196 0 0 0.989388
-0.990266 -0.108015 6.263760 187 0 0 0.990899
-0.918754 -0.094096 6.294590 219 0 0 0.986350
-0.936519 -0.096943 6.285360 201 0 0 0.988709
-0.924807 -0.087568 6.273120 201 0 0 0.988866
-0.948750 -0.095545 6.270040 196 0 0 0.989516
-0.901052 -0.077689 6.277070 201 0 0 0.988864
-0.911963 -0.077067 6.260260 192 0 0 0.990293
-0.887765 -0.065279 6.266660 201 0 0 0.988639
-0.898763 -0.064966 6.249600 201 0 0 0.988833
-0.923325 -0.075908 6.242620 196 0 0 0.989779
-0.936270 -0.086032 6.256370 196 0 0 0.989657
-1.065650 -0.133864 6.249430 164 0 0 0.993967
-1.079010 -0.140683 6.232920 160 0 0 0.994727
-1.056600 -0.130776 6.229100 173 0 0 0.992836
-1.069620 -0.137532 6.213020 169 0 0 0.993304
-1.092550 -0.147514 6.216020 169 0 0 0.993611
-1.105490 -0.154855 6.199160 183 0 0 0.991702
-1.113870 -0.155736 6.221070 183 0 0 0.991327
-1.100800 -0.148679 6.237860 169 0 0 0.993868
-1.046450 -0.128297 6.207150 173 0 0 0.993152
-1.058920 -0.136694 6.188990 173 0 0 0.992625
-1.034290 -0.123913 6.187880 178 0 0 0.991961
-1.046600 -0.132120 6.169410 187 0 0 0.991018
-1.071370 -0.145261 6.170530 183 0 0 0.991504
-1.083770 -0.153205 6.153070 205 0 0 0.987913
-1.094440 -0.154663 6.175340 187 0 0 0.990835
-1.081980 -0.146275 6.194340 169 0 0 0.993432
-1.156050 -0.203856 6.127110 251 16 0 0.981087
-1.143680 -0.191618 6.144820 201 0 0 0.988511
-1.166920 -0.201189 6.150630 246 12 0 0.982003
-1.130360 -0.180068 6.162720 173 0 0 0.992949
-1.152800 -0.189624 6.169260 187 0 0 0.990574
-1.139570 -0.176915 6.188820 178 0 0 0.992551
-1.176230 -0.198825 6.175800 242 8 0 0.982167
-1.117500 -0.167674 6.181010 169 0 0 0.993759
-1.107040 -0.167171 6.158380 183 0 0 0.991888
-1.119490 -0.179489 6.140880 192 0 0 0.990467
-1.162220 -0.188224 6.192990 196 0 0 0.989733
-1.183520 -0.197676 6.198910 242 8 0 0.982158
-1.148140 -0.177659 6.210210 178 0 0 0.992568
-1.169180 -0.187139 6.216620 201 0 0 0.988969
-1.134990 -0.166969 6.226900 173 0 0 0.992917
-1.126560 -0.166281 6.204920 173 0 0 0.993138
-0.753009 -0.082407 6.359620 210 0 0 0.987383
-0.760191 -0.067456 6.346070 242 8 0 0.982221
-0.734718 -0.072323 6.353610 223 0 0 0.985061
-0.767193 -0.051855 6.332570 255 71 0 0.970072
-0.775118 -0.034613 6.319250 255 197 0 0.943065
-0.733400 -0.053887 6.338510 255 34 0 0.977191
-0.713780 -0.065058 6.348850 228 0 0 0.984774
-0.739870 -0.037600 6.325120 255 104 0 0.962962
-0.747020 -0.020282 6.311640 255 238 0 0.933163
-0.811727 -0.009011 6.249530 255 186 0 0.945457
-0.802194 -0.014971 6.267660 255 153 0 0.952544
-0.825519 -0.018634 6.255190 255 141 0 0.955020
-0.793177 -0.020552 6.285510 255 171 0 0.948974
-0.816330 -0.024543 6.273630 255 130 0 0.957699
-0.807324 -0.031138 6.291560 255 127 0 0.958575
-0.839208 -0.029258 6.260760 255 97 0 0.964508
-0.783721 -0.028005 6.302740 255 175 0 0.948145
-0.762709 -0.016732 6.297500 255 208 0 0.939889
-0.835482 -0.040919 6.282080 255 60 0 0.972041
-0.825574 -0.047696 6.299150 255 41 0 0.975630
-0.622435 0.025395 6.246720 196 0 0 0.989767
-0.633736 0.035005 6.230720 228 0 0 0.984957
-0.611582 0.016207 6.262670 183 0 0 0.991238
-0.641550 0.008514 6.265750 173 0 0 0.992869
-0.653075 0.018545 6.249680 196 0 0 0.989240
-0.665042 0.028569 6.233390 233 1 0 0.983680
-0.615743 0.003706 6.279590 183 0 0 0.991358
-0.620071 -0.009712 6.295990 187 0 0 0.991007
-0.595104 -0.004650 6.296070 196 0 0 0.989807
-0.589931 0.007175 6.278990 183 0 0 0.991886
-0.679495 0.013802 6.251890 219 0 0 0.986173
-0.693354 0.020666 6.235890 242 8 0 0.982706
-0.666032 0.006619 6.267200 205 0 0 0.988155
-0.694290 -0.000674 6.270480 210 0 0 0.987279
-0.707953 0.006176 6.255230 237 4 0 0.982881
-0.722721 0.012526 6.237920 246 12 0 0.982106
-0.666843 -0.005107 6.283680 205 0 0 0.987827
-0.667927 -0.015803 6.299020 219 0 0 0.986086
-0.643528 -0.013438 6.297730 192 0 0 0.989891
-0.642805 -0.001989 6.281830 187 0 0 0.991162
-0.625548 -0.055978 6.338440 201 0 0 0.988877
-0.609660 -0.067050 6.354540 210 0 0 0.987680
-0.623768 -0.041174 6.324770 196 0 0 0.989834
-0.607305 -0.053520 6.340020 205 0 0 0.988125
-0.605331 -0.039007 6.326040 201 0 0 0.989007
-0.591711 -0.062932 6.357070 205 0 0 0.987870
-0.622104 -0.025843 6.310290 187 0 0 0.990646
-0.645213 -0.029852 6.311820 183 0 0 0.991587
-0.646776 -0.045423 6.325510 187 0 0 0.990783
-0.586228 -0.047968 6.342040 210 0 0 0.987633
-0.571675 -0.059162 6.360600 210 0 0 0.987118
-0.580999 -0.032014 6.327490 196 0 0 0.989572
-0.566206 -0.044059 6.345910 210 0 0 0.987229
-0.575571 -0.015167 6.312040 192 0 0 0.990049
-0.600140 -0.022040 6.311200 187 0 0 0.990619
-0.604465 0.072935 6.082620 255 56 0 0.973270
-0.637440 0.069175 6.069990 255 82 0 0.967440
-0.600988 0.073620 6.106960 255 56 0 0.972888
-0.633835 0.070710 6.095180 255 78 0 0.968283
-0.630037 0.071292 6.119680 255 97 0 0.964778
-0.666480 0.066008 6.082120 255 130 0 0.957427
-0.597565 0.072830 6.131020 255 67 0 0.970608
-0.594768 0.071464 6.154820 255 101 0 0.964207
-0.578878 0.071567 6.148920 255 64 0 0.971242
-0.581808 0.073114 6.125270 255 45 0 0.975482
-0.563186 0.072026 6.142770 255 49 0 0.974767
-0.565980 0.073098 6.119550 255 30 0 0.978293
-0.584738 0.073538 6.101180 255 38 0 0.977045
-0.547643 0.071544 6.137130 255 19 0 0.980203
-0.665007 0.066390 6.102130 255 123 0 0.958901
-0.697005 0.056201 6.086620 255 123 0 0.959169
-0.663240 0.065823 6.122070 255 123 0 0.959170
-0.695512 0.056858 6.106590 255 119 0 0.960348
-0.693623 0.056915 6.126350 255 116 0 0.960499
-0.726830 0.044985 6.091130 255 123 0 0.959614
-0.661564 0.064611 6.141700 255 130 0 0.957285
-0.659967 0.062412 6.161330 255 138 0 0.956338
-0.627583 0.067510 6.157880 255 108 0 0.962041
-0.628907 0.069991 6.139020 255 108 0 0.962670
-0.600734 0.049965 6.210440 255 27 0 0.979240
-0.598504 0.057463 6.191810 255 34 0 0.977788
-0.568604 0.051617 6.209120 242 8 0 0.982527
-0.566026 0.059188 6.190950 255 23 0 0.979343
-0.596276 0.064889 6.173610 255 60 0 0.972103
-0.628972 0.060704 6.177060 255 71 0 0.969678
-0.630318 0.053246 6.195890 255 41 0 0.976126
-0.538653 0.054197 6.202490 233 1 0 0.984071
-0.518524 0.054543 6.199550 219 0 0 0.986099
-0.536206 0.060243 6.179230 223 0 0 0.985580
-0.499202 0.055459 6.196820 205 0 0 0.988256
-0.515875 0.059686 6.176220 210 0 0 0.987365
-0.534014 0.065830 6.155570 223 0 0 0.985559
-0.549250 0.066144 6.161330 237 4 0 0.983002
-0.564612 0.066067 6.167180 255 27 0 0.979036
-0.551184 0.059930 6.185010 242 8 0 0.982229
-0.874338 -0.052837 6.257150 223 0 0 0.985348
-0.884788 -0.053270 6.238500 214 0 0 0.986424
-0.855247 -0.035921 6.245760 255 34 0 0.977573
-0.895727 -0.053675 6.219590 223 0 0 0.985030
-0.906350 -0.054369 6.201170 237 4 0 0.983091
-0.921061 -0.064738 6.212820 223 0 0 0.985584
-0.909827 -0.064769 6.231440 201 0 0 0.988539
-0.840941 -0.024636 6.238360 255 64 0 0.971256
-0.856943 -0.030442 6.221120 255 27 0 0.978771
-0.843202 -0.020817 6.215120 255 41 0 0.975914
-0.827398 -0.014478 6.232210 255 101 0 0.963653
-0.865958 -0.032397 6.201060 246 12 0 0.981529
-0.875375 -0.034356 6.181820 251 16 0 0.981052
-0.891060 -0.043866 6.191180 255 30 0 0.977852
-0.881316 -0.042672 6.211400 237 4 0 0.983222
-0.945746 -0.081899 6.119910 223 0 0 0.985489
-0.935739 -0.074623 6.139460 210 0 0 0.987644
-0.963289 -0.089910 6.134450 219 0 0 0.986151
-0.925521 -0.068009 6.159730 192 0 0 0.990179
-0.952345 -0.083437 6.154800 192 0 0 0.989846
-0.942198 -0.076663 6.174970 196 0 0 0.989309
-0.980016 -0.098055 6.150110 205 0 0 0.987993
-0.915556 -0.060876 6.180220 214 0 0 0.987024
-0.899976 -0.051515 6.169960 219 0 0 0.986276
-0.908884 -0.059196 6.149940 196 0 0 0.989714
-0.968671 -0.091583 6.168120 196 0 0 0.989784
-0.994881 -0.104128 6.167740 205 0 0 0.988347
-0.957243 -0.085828 6.187190 192 0 0 0.990354
-0.983303 -0.098236 6.186560 196 0 0 0.989561
-0.946067 -0.080283 6.206090 196 0 0 0.989747
-0.931643 -0.070694 6.193620 210 0 0 0.987668
-0.742732 0.035489 6.091740 255 75 0 0.969255
-0.726676 0.044083 6.109520 255 93 0 0.965454
-0.742436 0.034956 6.109740 255 53 0 0.973719
-0.758251 0.025710 6.092200 255 34 0 0.977566
-0.726281 0.042688 6.127640 255 64 0 0.971500
-0.758397 0.025540 6.110450 255 19 0 0.980479
-0.742349 0.033694 6.128210 255 38 0 0.976909
-0.758106 0.024455 6.128940 237 4 0 0.982970
-0.773418 0.015701 6.092660 237 4 0 0.983353
-0.773670 0.015883 6.111120 219 0 0 0.985905
-0.788538 0.006456 6.093770 205 0 0 0.987866
-0.726156 0.040603 6.145950 255 60 0 0.972268
-0.742493 0.032181 6.146500 251 16 0 0.981095
-0.726333 0.037958 6.164120 255 49 0 0.974631
-0.709802 0.044753 6.163650 255 67 0 0.970932
-0.709940 0.047493 6.145560 255 78 0 0.968539
-0.693394 0.051041 6.162770 255 90 0 0.965921
-0.693524 0.054265 6.144520 255 108 0 0.962527
-0.710382 0.050276 6.127330 255 104 0 0.963225
-0.676584 0.056808 6.162280 255 116 0 0.960481
-0.802953 -0.003457 6.094590 192 0 0 0.990367
-0.802755 -0.002471 6.112430 178 0 0 0.991962
-0.818111 -0.012823 6.095500 183 0 0 0.991737
-0.787849 0.007964 6.129800 205 0 0 0.988426
-0.817647 -0.012118 6.113330 169 0 0 0.993505
-0.802252 -0.001929 6.130620 183 0 0 0.991759
-0.833025 -0.022850 6.095830 169 0 0 0.993370
-0.848444 -0.032006 6.097070 169 0 0 0.993923
-0.787217 0.007368 6.166600 205 0 0 0.988189
-0.772803 0.016110 6.147440 214 0 0 0.986935
-0.757302 0.023602 6.165060 242 8 0 0.982347
-0.723562 0.019754 6.219580 233 1 0 0.984252
-0.724212 0.026110 6.201370 228 0 0 0.984480
-0.693878 0.028599 6.218290 242 8 0 0.982290
-0.694618 0.035169 6.199910 251 16 0 0.981318
-0.725114 0.032564 6.182840 255 19 0 0.980207
-0.756311 0.018414 6.183880 214 0 0 0.986999
-0.755096 0.012539 6.203200 210 0 0 0.987482
-0.663169 0.037119 6.215050 233 1 0 0.983669
-0.661721 0.045800 6.197130 255 27 0 0.978775
-0.631764 0.043752 6.213150 233 1 0 0.983747
-0.660616 0.054158 6.179450 255 75 0 0.969353
-0.677119 0.048939 6.180380 255 60 0 0.972486
-0.693626 0.043543 6.181470 255 38 0 0.976807
-0.678090 0.040561 6.198620 255 19 0 0.980692
-0.752423 -0.117923 5.779900 137 0 0 0.998608
-0.739349 -0.107096 5.787570 133 0 0 0.998721
-0.716994 -0.099681 5.780470 137 0 0 0.998575
-0.704203 -0.088055 5.788410 142 0 0 0.997842
-0.682109 -0.080403 5.782170 146 0 0 0.996914
-0.700244 -0.071322 5.811240 151 0 0 0.996450
-0.686312 -0.096658 5.759530 137 0 0 0.998287
-0.663928 -0.089802 5.753010 142 0 0 0.997356
-0.700218 -0.107217 5.753160 137 0 0 0.998597
-0.713928 -0.117052 5.747130 137 0 0 0.998610
-0.736029 -0.123671 5.753910 137 0 0 0.998539
-0.719941 -0.130034 5.728130 137 0 0 0.998209
-0.685429 -0.059673 5.819610 151 0 0 0.996047
-0.675956 -0.065127 5.803580 146 0 0 0.996672
-0.660764 -0.053561 5.811970 151 0 0 0.996397
-0.670716 -0.047879 5.827950 155 0 0 0.995827
-0.650970 -0.059469 5.795950 151 0 0 0.996424
-0.645150 -0.041697 5.820650 160 0 0 0.995111
-0.635399 -0.047977 5.804720 155 0 0 0.995914
-0.655009 -0.035659 5.836400 160 0 0 0.994677
-0.625245 -0.053846 5.789090 151 0 0 0.996217
-0.632230 -0.069624 5.767140 146 0 0 0.997214
-0.657616 -0.075009 5.774330 146 0 0 0.997187
-0.579615 -0.085398 5.708570 146 0 0 0.996735
-0.605939 -0.089023 5.718270 142 0 0 0.997622
-0.623255 -0.098267 5.712660 142 0 0 0.997714
-0.647685 -0.101343 5.722640 142 0 0 0.997920
-0.631336 -0.112606 5.692520 142 0 0 0.997445
-0.639430 -0.086383 5.743240 142 0 0 0.997674
-0.623319 -0.076457 5.750320 142 0 0 0.997535
-0.606363 -0.066482 5.757460 146 0 0 0.996964
-0.597302 -0.073393 5.740500 146 0 0 0.996930
-0.646742 -0.122184 5.688210 137 0 0 0.998337
-0.668964 -0.126610 5.696760 133 0 0 0.998657
-0.683511 -0.135238 5.692520 137 0 0 0.998370
-0.705604 -0.139253 5.701350 137 0 0 0.998115
-0.691086 -0.148580 5.675360 142 0 0 0.997693
-0.697995 -0.125922 5.719040 137 0 0 0.998497
-0.683949 -0.116097 5.725140 133 0 0 0.998666
-0.669712 -0.105823 5.731610 137 0 0 0.998616
-0.650498 -0.019121 5.859490 173 0 0 0.992961
-0.635561 -0.008347 5.870050 173 0 0 0.992863
-0.646771 -0.004287 5.883990 178 0 0 0.992536
-0.661986 -0.015401 5.873250 178 0 0 0.992355
-0.631724 0.006699 5.895140 183 0 0 0.991853
-0.658533 -0.000487 5.898040 183 0 0 0.991559
-0.643173 0.010924 5.909320 187 0 0 0.990549
-0.654329 0.014875 5.923600 196 0 0 0.989545
-0.672753 -0.011680 5.887520 178 0 0 0.991991
-0.669523 0.003146 5.912210 187 0 0 0.991036
-0.684117 -0.008308 5.901740 187 0 0 0.991177
-0.627094 0.021903 5.920870 196 0 0 0.989222
-0.638399 0.026163 5.935070 214 0 0 0.986444
-0.621633 0.036748 5.947110 237 4 0 0.983542
-0.608508 0.031821 5.931380 219 0 0 0.986165
-0.614001 0.016586 5.905010 192 0 0 0.990528
-0.595245 0.026153 5.915350 205 0 0 0.988244
-0.600366 0.011089 5.889330 178 0 0 0.992098
-0.618296 0.001511 5.879410 173 0 0 0.992620
-0.581714 0.020171 5.899490 192 0 0 0.990094
-0.682583 0.004460 5.924780 192 0 0 0.990138
-0.707940 -0.008291 5.923850 183 0 0 0.991775
-0.681172 0.017199 5.948170 210 0 0 0.987314
-0.706176 0.004109 5.946520 192 0 0 0.990204
-0.704014 0.016241 5.968860 214 0 0 0.986610
-0.730601 -0.009430 5.945100 178 0 0 0.991930
-0.678520 0.029473 5.971070 242 8 0 0.982252
-0.675233 0.041606 5.994600 255 49 0 0.974271
-0.662271 0.041027 5.982930 255 30 0 0.977984
-0.665517 0.028721 5.959250 228 0 0 0.984793
-0.648995 0.040121 5.971420 255 19 0 0.980501
-0.652076 0.027802 5.947440 223 0 0 0.985150
-0.667808 0.016141 5.935800 205 0 0 0.988095
-0.635677 0.038556 5.959310 246 12 0 0.981858
-0.611141 0.065082 6.031660 255 38 0 0.977015
-0.596645 0.063293 6.018900 255 23 0 0.979785
-0.615324 0.057086 6.003980 255 19 0 0.980179
-0.581365 0.060892 6.005620 251 16 0 0.981415
-0.600244 0.054925 5.990670 246 12 0 0.981462
-0.584321 0.052113 5.976960 233 1 0 0.983739
-0.565424 0.058020 5.991620 237 4 0 0.983271
-0.618802 0.047559 5.975740 242 8 0 0.982291
-0.603339 0.044778 5.961470 233 1 0 0.984116
-0.632613 0.049011 5.987300 255 19 0 0.980042
-0.645708 0.050249 5.998890 255 34 0 0.977124
-0.628442 0.058268 6.014970 255 34 0 0.977335
-0.641984 0.059019 6.026170 255 49 0 0.974230
-0.658803 0.051043 6.010480 255 49 0 0.974614
-0.624955 0.065932 6.041980 255 56 0 0.973170
-0.552538 0.052995 5.975760 223 0 0 0.985413
-0.538125 0.046804 5.957460 210 0 0 0.987653
-0.558455 0.041236 5.944670 201 0 0 0.988575
-0.523408 0.039884 5.939210 196 0 0 0.989322
-0.543527 0.034398 5.926360 192 0 0 0.989906
-0.563554 0.027780 5.913870 187 0 0 0.990791
-0.576979 0.034033 5.929760 201 0 0 0.988705
-0.590316 0.039602 5.945580 214 0 0 0.986707
-0.571489 0.047012 5.960860 219 0 0 0.985732
-0.730489 0.000011 5.963980 192 0 0 0.990068
-0.754768 -0.018727 5.957570 164 0 0 0.994288
-0.729533 0.009282 5.982440 214 0 0 0.987059
-0.754359 -0.009628 5.975980 173 0 0 0.992600
-0.753865 -0.000294 5.994570 196 0 0 0.989683
-0.778870 -0.027860 5.969740 160 0 0 0.994733
-0.728829 0.018612 6.001350 242 8 0 0.982353
-0.727678 0.027719 6.020130 255 41 0 0.975739
-0.701869 0.035328 6.007600 255 45 0 0.974989
-0.703042 0.025994 5.988080 246 12 0 0.981971
-0.792806 -0.029946 5.988850 155 0 0 0.995909
-0.804954 -0.044151 5.976830 142 0 0 0.997483
-0.780674 -0.015410 6.001230 173 0 0 0.992805
-0.806806 -0.032278 6.006600 155 0 0 0.995900
-0.819099 -0.046062 5.994320 146 0 0 0.997199
-0.831299 -0.059207 5.982460 142 0 0 0.997431
-0.794109 -0.018077 6.019010 164 0 0 0.993959
-0.781837 -0.003589 6.031630 201 0 0 0.988737
-0.767937 -0.002032 6.013480 192 0 0 0.989994
-0.755178 0.011871 6.025930 233 1 0 0.984044
-0.727297 0.041238 6.073200 255 93 0 0.965414
-0.727577 0.037116 6.055390 255 67 0 0.970867
-0.697717 0.052944 6.068630 255 97 0 0.964596
-0.698171 0.049039 6.050680 255 78 0 0.968683
-0.727744 0.032664 6.037960 255 49 0 0.974206
-0.755258 0.016666 6.043100 237 4 0 0.983073
-0.754988 0.021382 6.060120 246 12 0 0.981619
-0.668808 0.061283 6.060570 255 97 0 0.964913
-0.670958 0.055669 6.038950 255 71 0 0.970108
-0.686530 0.046037 6.023010 255 56 0 0.972832
-0.965178 -0.098485 6.105960 192 0 0 0.990193
-0.992869 -0.116848 6.102100 192 0 0 0.990235
-1.011620 -0.132526 6.088920 187 0 0 0.990659
-1.039420 -0.149510 6.086040 196 0 0 0.989755
-1.021240 -0.145708 6.067690 183 0 0 0.991638
-1.029130 -0.136517 6.108440 196 0 0 0.989470
-1.056970 -0.153298 6.104820 201 0 0 0.989082
-1.009970 -0.122875 6.119490 187 0 0 0.990700
-0.991052 -0.108134 6.130460 201 0 0 0.989102
-1.039790 -0.166521 6.056810 160 0 0 0.995056
-1.047450 -0.164898 6.070900 164 0 0 0.994551
-1.066120 -0.184925 6.059350 160 0 0 0.995119
-1.058390 -0.186917 6.045820 151 0 0 0.996096
-1.074560 -0.183035 6.072910 164 0 0 0.994404
-1.085680 -0.203969 6.048210 160 0 0 0.994982
-1.093670 -0.201527 6.061320 164 0 0 0.994267
-1.113480 -0.219844 6.049610 183 0 0 0.991434
-1.077410 -0.206518 6.035570 146 0 0 0.996778
-1.104770 -0.223060 6.037340 164 0 0 0.994079
-1.095290 -0.226912 6.025250 146 0 0 0.996807
-1.101670 -0.199631 6.074590 173 0 0 0.992950
-1.121970 -0.217156 6.062650 201 0 0 0.989021
-1.130260 -0.214854 6.075910 210 0 0 0.987510
-1.093130 -0.185114 6.090500 183 0 0 0.991870
-1.065600 -0.168054 6.088420 173 0 0 0.992638
-1.130490 -0.192968 6.122500 196 0 0 0.989375
-1.105240 -0.180907 6.117030 183 0 0 0.991351
-1.094530 -0.167227 6.134450 187 0 0 0.991021
-1.070510 -0.153625 6.128310 201 0 0 0.989026
-1.080950 -0.167546 6.111440 187 0 0 0.990987
-1.118300 -0.197890 6.095360 201 0 0 0.989018
-1.144100 -0.209553 6.100480 237 4 0 0.983546
-1.057450 -0.140865 6.152300 192 0 0 0.990038
-1.031680 -0.127016 6.150960 192 0 0 0.990015
-1.020770 -0.118412 6.167960 192 0 0 0.990112
-1.005850 -0.112829 6.150010 201 0 0 0.988598
-1.044610 -0.140219 6.127770 196 0 0 0.989626
-0.846616 -0.069608 5.984600 137 0 0 0.998250
-0.862022 -0.079796 5.986710 133 0 0 0.998764
-0.837948 -0.052502 6.009150 146 0 0 0.996862
-0.853475 -0.063362 6.011280 142 0 0 0.997877
-0.869100 -0.073534 6.012660 137 0 0 0.998076
-0.878196 -0.089917 5.988760 133 0 0 0.998807
-0.894077 -0.099587 5.990530 133 0 0 0.998935
-0.843458 -0.045845 6.036210 151 0 0 0.996221
-0.827251 -0.035940 6.034780 155 0 0 0.995888
-0.811708 -0.025518 6.033820 160 0 0 0.994634
-0.910277 -0.110618 5.992170 133 0 0 0.999161
-0.927147 -0.121368 5.994170 133 0 0 0.999127
-0.902288 -0.092980 6.015620 146 0 0 0.997264
-0.918718 -0.104092 6.016650 137 0 0 0.997976
-0.935709 -0.115160 6.018100 137 0 0 0.998027
-0.943546 -0.131929 5.996490 133 0 0 0.999015
-0.960913 -0.142908 5.998300 133 0 0 0.998894
-0.909453 -0.086992 6.039810 155 0 0 0.995676
-0.892685 -0.077043 6.039200 151 0 0 0.996311
-0.876330 -0.066992 6.038360 151 0 0 0.996560
-0.885467 -0.083390 6.013720 142 0 0 0.997780
-0.859531 -0.056437 6.037320 146 0 0 0.996633
-0.846382 -0.038648 6.066160 155 0 0 0.995298
-0.830536 -0.029864 6.065130 155 0 0 0.995955
-0.815573 -0.020289 6.064160 160 0 0 0.994949
-0.862223 -0.049635 6.066500 151 0 0 0.996141
-0.878573 -0.060641 6.067480 151 0 0 0.996615
-0.785090 0.001561 6.062050 196 0 0 0.989805
-0.770252 0.011470 6.061110 219 0 0 0.985966
-0.798369 -0.011955 6.047910 169 0 0 0.993349
-0.758453 -0.104464 5.811970 133 0 0 0.998937
-0.770563 -0.115988 5.802980 133 0 0 0.999047
-0.746200 -0.092184 5.821050 133 0 0 0.998706
-0.764178 -0.090063 5.843830 133 0 0 0.998988
-0.776146 -0.102276 5.834790 133 0 0 0.999122
-0.788395 -0.114271 5.825490 133 0 0 0.999248
-0.743195 -0.077982 5.841730 137 0 0 0.998375
-0.740331 -0.063141 5.862500 142 0 0 0.997390
-0.720457 -0.066958 5.836900 146 0 0 0.996876
-0.723011 -0.081621 5.815950 142 0 0 0.997884
-0.797056 -0.105073 5.854560 128 0 0 0.999473
-0.808783 -0.117527 5.844190 128 0 0 0.999573
-0.785709 -0.092051 5.864530 128 0 0 0.999373
-0.805270 -0.095411 5.882500 128 0 0 0.999655
-0.816783 -0.108223 5.872300 128 0 0 0.999674
-0.828818 -0.120788 5.862370 128 0 0 0.999702
-0.784299 -0.080173 5.883630 128 0 0 0.999300
-0.782683 -0.067805 5.902230 133 0 0 0.998843
-0.761594 -0.065238 5.882790 137 0 0 0.998384
-0.763166 -0.078036 5.863350 133 0 0 0.998898
-0.733781 -0.023349 5.924630 160 0 0 0.994892
-0.736388 -0.037019 5.904150 146 0 0 0.996803
-0.710371 -0.022520 5.902710 160 0 0 0.994687
-0.712961 -0.036364 5.881980 151 0 0 0.995997
-0.738651 -0.050419 5.883480 142 0 0 0.997345
-0.759679 -0.052679 5.903070 137 0 0 0.998213
-0.757165 -0.039756 5.922970 142 0 0 0.997349
-0.688774 -0.024951 5.878940 164 0 0 0.993999
-0.677606 -0.028301 5.864670 164 0 0 0.994402
-0.693205 -0.041201 5.856200 155 0 0 0.995757
-0.666574 -0.031944 5.850600 164 0 0 0.994455
-0.682322 -0.044502 5.842060 155 0 0 0.995671
-0.696757 -0.056697 5.833720 151 0 0 0.996517
-0.717083 -0.052170 5.859400 146 0 0 0.996923
-0.839655 -0.116966 5.884760 128 0 0 0.999726
-0.851278 -0.129746 5.874550 128 0 0 0.999727
-0.828371 -0.103660 5.894850 128 0 0 0.999702
-0.850494 -0.112507 5.905880 128 0 0 0.999702
-0.862272 -0.125673 5.896210 128 0 0 0.999705
-0.874014 -0.138342 5.885840 128 0 0 0.999624
-0.828317 -0.094741 5.910400 128 0 0 0.999584
-0.828221 -0.085640 5.926060 128 0 0 0.999337
-0.805485 -0.077022 5.914790 128 0 0 0.999407
-0.805428 -0.086296 5.898440 128 0 0 0.999606
-0.887745 -0.138799 5.904540 128 0 0 0.999635
-0.898611 -0.151170 5.894950 128 0 0 0.999632
-0.877078 -0.126214 5.914150 128 0 0 0.999640
-0.901525 -0.138900 5.922490 128 0 0 0.999538
-0.912419 -0.151423 5.913190 128 0 0 0.999529
-0.923483 -0.163738 5.903500 128 0 0 0.999361
-0.890756 -0.126324 5.931540 128 0 0 0.999559
-0.880045 -0.113146 5.941200 133 0 0 0.999222
-0.865235 -0.113029 5.923910 128 0 0 0.999683
-0.853568 -0.099571 5.933860 128 0 0 0.999588
-0.817342 -0.058696 5.965350 137 0 0 0.998480
-0.829999 -0.072624 5.954420 133 0 0 0.999021
-0.803874 -0.058400 5.947370 133 0 0 0.998679
-0.791342 -0.043488 5.958420 142 0 0 0.997542
-0.816207 -0.072518 5.936560 133 0 0 0.999115
-0.841743 -0.086351 5.944100 128 0 0 0.999311
-0.855805 -0.086987 5.961380 133 0 0 0.999136
-0.867634 -0.100217 5.950820 128 0 0 0.999290
-0.768036 -0.033752 5.946550 146 0 0 0.996710
-0.781483 -0.048335 5.936300 142 0 0 0.997928
-0.782532 -0.058248 5.919730 137 0 0 0.998491
-0.896809 -0.901115 5.854840 173 0 0 0.993253
-0.876816 -0.899718 5.869320 178 0 0 0.992393
-0.889723 -0.887957 5.892070 169 0 0 0.993270
-0.869143 -0.886829 5.904280 192 0 0 0.989847
-0.856713 -0.899437 5.882730 192 0 0 0.990057
-0.882786 -0.875927 5.925660 201 0 0 0.988608
-0.848776 -0.886781 5.916300 219 0 0 0.985733
-0.862181 -0.875467 5.936650 246 12 0 0.982003
-0.841715 -0.876748 5.947370 255 34 0 0.977647
-0.836322 -0.899633 5.895300 210 0 0 0.987679
-0.828390 -0.887407 5.927720 246 12 0 0.981587
-0.816323 -0.900761 5.907610 219 0 0 0.985977
-0.876617 -0.867002 5.956790 251 16 0 0.980818
-0.855975 -0.868538 5.966980 255 38 0 0.976620
-0.871333 -0.862770 5.986760 255 27 0 0.978713
-0.890798 -0.861418 5.974730 242 8 0 0.982446
-0.895792 -0.867445 5.944470 214 0 0 0.986944
-0.909694 -0.860562 5.962730 219 0 0 0.986212
-0.914679 -0.868715 5.931570 187 0 0 0.991041
-0.902043 -0.877679 5.912260 173 0 0 0.992869
-0.920725 -0.881263 5.897600 151 0 0 0.996012
-0.928282 -0.861586 5.950690 187 0 0 0.990913
-0.933294 -0.872470 5.918300 155 0 0 0.995787
-0.946990 -0.863742 5.939080 160 0 0 0.995051
-0.908528 -0.890888 5.876220 160 0 0 0.995181
-0.793253 -0.899411 5.919990 255 23 0 0.979656
-0.805769 -0.885437 5.941390 255 60 0 0.972526
-0.782529 -0.884464 5.953120 255 108 0 0.962363
-0.770500 -0.898765 5.932540 255 53 0 0.973579
-0.796336 -0.874422 5.974060 255 127 0 0.958576
-0.760284 -0.884591 5.965110 255 141 0 0.955229
-0.773742 -0.875146 5.985770 255 160 0 0.951385
-0.748257 -0.898114 5.944690 255 90 0 0.965926
-0.788722 -0.869794 6.007250 255 116 0 0.960611
-0.804207 -0.867874 6.027430 255 49 0 0.974377
-0.810597 -0.868612 5.993410 255 108 0 0.962110
-0.826266 -0.865260 6.013260 255 60 0 0.972631
-0.833127 -0.868064 5.979980 255 78 0 0.968724
-0.818716 -0.874996 5.960690 255 86 0 0.966849
-0.848649 -0.863891 5.999790 255 45 0 0.975319
-0.886773 -0.873585 6.109720 255 60 0 0.972058
-0.865687 -0.874079 6.090220 214 0 0 0.987017
-0.888132 -0.867957 6.074140 183 0 0 0.991317
-0.909749 -0.866479 6.093410 242 8 0 0.982528
-0.867027 -0.867295 6.054740 169 0 0 0.993854
-0.910786 -0.861536 6.058840 173 0 0 0.993004
-0.889396 -0.862406 6.039530 178 0 0 0.992046
-0.911245 -0.857949 6.024930 187 0 0 0.990948
-0.931763 -0.859297 6.078100 196 0 0 0.989664
-0.932063 -0.855783 6.044050 178 0 0 0.992558
-0.952781 -0.853217 6.063240 178 0 0 0.992224
-0.868323 -0.862304 6.020200 223 0 0 0.985191
-0.890959 -0.860267 6.005960 219 0 0 0.986022
-0.845989 -0.865044 6.033970 219 0 0 0.985824
-0.823618 -0.868832 6.048270 196 0 0 0.989544
-0.844300 -0.871413 6.069180 160 0 0 0.994964
-0.969665 -0.846802 6.049970 169 0 0 0.993565
-0.950001 -0.850619 6.032270 178 0 0 0.992553
-0.967031 -0.846505 6.019530 178 0 0 0.992533
-0.986378 -0.841399 6.037230 169 0 0 0.993667
-0.948076 -0.851597 6.001870 187 0 0 0.991095
-0.984364 -0.843388 6.007300 173 0 0 0.992867
-0.965270 -0.849149 5.989160 178 0 0 0.992031
-0.982548 -0.848131 5.976580 169 0 0 0.993728
-1.003760 -0.837444 6.025160 169 0 0 0.993868
-1.001790 -0.840953 5.995470 169 0 0 0.993604
-1.021520 -0.833794 6.013450 169 0 0 0.993459
-0.946793 -0.855149 5.970980 183 0 0 0.991383
-0.964004 -0.855563 5.957640 164 0 0 0.994214
-0.928498 -0.855662 5.982370 201 0 0 0.988868
-0.909945 -0.857246 5.994040 219 0 0 0.986188
-0.929758 -0.853926 6.013150 192 0 0 0.990335
-0.939588 -0.168381 5.920880 128 0 0 0.999483
-0.949383 -0.180153 5.911840 128 0 0 0.999366
-0.930526 -0.156785 5.929750 128 0 0 0.999547
-0.955975 -0.172863 5.937830 128 0 0 0.999296
-0.965911 -0.184981 5.928840 133 0 0 0.999156
-0.976092 -0.197085 5.919890 133 0 0 0.999141
-0.946771 -0.161148 5.946130 128 0 0 0.999462
-0.937679 -0.149592 5.954190 128 0 0 0.999525
-0.919268 -0.144275 5.938520 128 0 0 0.999665
-0.908565 -0.131600 5.947660 128 0 0 0.999624
-0.994419 -0.205141 5.935370 137 0 0 0.998588
-1.013140 -0.212965 5.950290 137 0 0 0.998115
-1.016550 -0.226630 5.929840 137 0 0 0.998080
-0.991828 -0.192155 5.955160 133 0 0 0.998843
-0.981976 -0.179775 5.963670 133 0 0 0.998969
-0.949323 -0.146070 5.976790 128 0 0 0.999323
-0.932554 -0.135529 5.974310 128 0 0 0.999426
-0.916120 -0.124884 5.971860 128 0 0 0.999392
-0.958183 -0.157859 5.968850 128 0 0 0.999329
-0.978819 -0.166225 5.982420 133 0 0 0.999190
-0.969872 -0.154504 5.990510 133 0 0 0.999186
-0.887258 -0.106598 5.965950 133 0 0 0.999255
-0.897999 -0.119152 5.956860 128 0 0 0.999530
-1.137520 -0.191422 6.532690 255 123 0 0.959325
-1.156940 -0.201511 6.513150 255 138 0 0.955754
-1.133550 -0.199568 6.553840 255 97 0 0.964538
-1.153090 -0.209659 6.535730 255 127 0 0.958685
-1.149060 -0.217634 6.556890 255 130 0 0.957919
-1.172770 -0.220849 6.515220 255 145 0 0.954665
-1.129520 -0.208559 6.573520 255 75 0 0.969295
-1.125040 -0.217588 6.593200 255 82 0 0.967624
-1.110750 -0.199674 6.588700 255 56 0 0.972947
-1.115250 -0.190765 6.569260 255 49 0 0.974182
-1.165890 -0.229515 6.539110 255 145 0 0.954761
-1.182700 -0.243530 6.520070 255 141 0 0.955236
-1.158620 -0.238935 6.561780 255 130 0 0.957871
-1.175590 -0.252022 6.543930 255 145 0 0.954512
-1.168210 -0.261262 6.566820 255 156 0 0.951908
-1.192010 -0.267004 6.524160 255 138 0 0.956079
-1.151340 -0.248471 6.583520 255 119 0 0.960388
-1.144020 -0.258887 6.604350 255 145 0 0.954411
-1.134420 -0.237742 6.598860 255 97 0 0.964478
-1.141910 -0.227657 6.578350 255 97 0 0.964506
-1.094530 -0.243115 6.662630 255 45 0 0.974989
-1.105040 -0.235849 6.637970 255 45 0 0.974991
-1.084850 -0.223121 6.659770 255 27 0 0.979161
-1.096070 -0.216091 6.633390 255 34 0 0.977408
-1.115230 -0.226932 6.615060 255 53 0 0.973602
-1.124880 -0.247265 6.620940 255 82 0 0.967452
-1.115260 -0.255924 6.643220 255 82 0 0.967535
-1.072960 -0.202941 6.658680 242 8 0 0.982571
-1.081470 -0.197877 6.631220 255 30 0 0.978290
-1.058940 -0.181767 6.660240 246 12 0 0.981889
-1.089510 -0.190278 6.607150 255 30 0 0.978087
-1.103620 -0.208365 6.610720 255 30 0 0.978541
-1.021330 -0.792482 6.233070 164 0 0 0.993973
-1.008310 -0.806267 6.219780 196 0 0 0.989413
-1.032920 -0.799119 6.205190 196 0 0 0.989644
-1.045470 -0.785760 6.218250 169 0 0 0.993728
-1.019670 -0.812197 6.191050 223 0 0 0.985557
-1.057340 -0.792077 6.190730 205 0 0 0.988057
-1.043530 -0.804718 6.177050 219 0 0 0.986011
-1.067080 -0.797275 6.163750 237 4 0 0.983203
-1.070060 -0.779293 6.204000 187 0 0 0.990852
-1.081360 -0.784633 6.177180 228 0 0 0.984751
-1.094940 -0.772268 6.189920 223 0 0 0.985485
-1.028810 -0.817195 6.162230 242 8 0 0.982438
-1.052220 -0.808905 6.148790 242 8 0 0.982734
-1.036080 -0.819824 6.133130 237 4 0 0.983120
-1.013630 -0.827222 6.147970 251 16 0 0.981044
-1.005590 -0.823997 6.177510 246 12 0 0.981483
-0.990581 -0.834669 6.163050 255 38 0 0.976672
-0.981357 -0.830479 6.193270 255 19 0 0.980042
-0.995238 -0.818434 6.206600 223 0 0 0.985371
-0.966339 -0.842579 6.179030 255 71 0 0.970251
-1.119450 -0.758656 6.174980 210 0 0 0.987411
-1.100670 -0.777720 6.162660 237 4 0 0.983338
-1.126410 -0.762992 6.147710 228 0 0 0.984483
-1.145140 -0.743049 6.159190 201 0 0 0.988782
-1.105810 -0.781935 6.134600 246 12 0 0.981796
-1.153440 -0.746604 6.131670 233 1 0 0.983944
-1.132680 -0.765795 6.119630 233 1 0 0.983742
-1.161700 -0.747516 6.104120 251 16 0 0.981166
-1.172500 -0.726019 6.142390 219 0 0 0.985906
-1.183040 -0.727743 6.114870 255 30 0 0.978168
-1.202110 -0.707702 6.125270 255 60 0 0.972008
-1.110570 -0.784141 6.106390 237 4 0 0.982942
-1.139090 -0.766309 6.092310 228 0 0 0.984406
-1.114420 -0.784716 6.079140 214 0 0 0.986461
-1.092730 -0.795123 6.092110 205 0 0 0.987806
-1.089830 -0.793562 6.120650 233 1 0 0.984187
-1.072630 -0.804166 6.105530 205 0 0 0.988061
-1.070560 -0.801603 6.134790 228 0 0 0.984303
-1.086000 -0.790132 6.149180 237 4 0 0.983222
-1.054010 -0.812067 6.119230 219 0 0 0.986352
-1.025910 -0.829558 6.043110 169 0 0 0.993503
-1.008320 -0.834678 6.055250 169 0 0 0.993814
-1.030190 -0.826948 6.072890 183 0 0 0.991659
-0.991475 -0.840841 6.067790 169 0 0 0.993305
-1.012950 -0.833067 6.085650 183 0 0 0.991421
-0.996004 -0.839848 6.099080 210 0 0 0.987628
-0.974646 -0.847205 6.081060 192 0 0 0.990382
-1.033820 -0.824196 6.102520 210 0 0 0.987366
-1.016710 -0.830469 6.116230 223 0 0 0.985510
-1.051710 -0.815967 6.089490 192 0 0 0.990324
-1.071000 -0.807504 6.076520 183 0 0 0.991387
-1.048560 -0.818727 6.060380 169 0 0 0.993290
-1.067910 -0.810788 6.048440 164 0 0 0.994250
-1.091960 -0.797956 6.064880 183 0 0 0.991422
-1.044470 -0.822493 6.031670 164 0 0 0.994282
-0.952318 -0.855911 6.095790 237 4 0 0.983164
-0.930615 -0.862780 6.111420 255 53 0 0.973748
-0.950568 -0.857171 6.128840 255 78 0 0.968638
-0.907625 -0.870361 6.127600 255 116 0 0.960975
-0.927848 -0.864105 6.145150 255 134 0 0.957155
-0.946909 -0.855347 6.162250 255 123 0 0.959333
-0.971203 -0.846715 6.146060 255 64 0 0.971410
-0.994337 -0.838486 6.130840 255 19 0 0.980076
-0.973664 -0.848062 6.113470 246 12 0 0.981874
-1.199350 -0.656971 6.250410 192 0 0 0.990115
-1.178780 -0.676986 6.248200 178 0 0 0.992256
-1.198610 -0.667911 6.222080 192 0 0 0.990333
-1.159330 -0.697426 6.246140 187 0 0 0.991126
-1.178370 -0.688450 6.220640 183 0 0 0.991722
-1.158800 -0.708277 6.218900 187 0 0 0.990666
-1.198570 -0.679516 6.195790 205 0 0 0.988441
-1.139810 -0.716630 6.244040 192 0 0 0.990222
-1.120270 -0.734468 6.241750 201 0 0 0.988907
-1.125110 -0.720778 6.266790 210 0 0 0.987540
-1.144920 -0.702241 6.269450 196 0 0 0.989624
-1.164680 -0.682703 6.272340 187 0 0 0.990812
-1.130930 -0.707140 6.294260 228 0 0 0.984274
-1.199350 -0.687435 6.178250 223 0 0 0.984999
-1.173300 -0.704319 6.194730 187 0 0 0.990892
-1.172830 -0.712479 6.177620 201 0 0 0.988625
-1.200680 -0.694956 6.160860 251 16 0 0.980751
-1.147290 -0.728274 6.193810 192 0 0 0.989898
-1.173050 -0.719699 6.160450 214 0 0 0.986921
-1.146560 -0.736001 6.176730 201 0 0 0.988640
-1.201620 -0.701743 6.143000 255 41 0 0.975851
-1.121310 -0.750611 6.192520 201 0 0 0.988892
-1.101530 -0.762562 6.203270 214 0 0 0.986694
-1.127500 -0.741180 6.205240 196 0 0 0.989820
-1.108380 -0.753202 6.215780 210 0 0 0.987690
-1.133460 -0.731668 6.217470 192 0 0 0.990117
-1.153090 -0.718516 6.206200 187 0 0 0.990900
-1.114270 -0.743903 6.228300 201 0 0 0.988879
-1.027780 -0.782717 6.246830 160 0 0 0.995237
-1.036130 -0.772287 6.258920 151 0 0 0.996108
-1.058270 -0.767019 6.245290 160 0 0 0.995149
-1.044080 -0.762871 6.271520 151 0 0 0.996274
-1.066040 -0.757340 6.257290 155 0 0 0.995519
-1.073900 -0.747880 6.269640 155 0 0 0.995508
-1.051950 -0.753779 6.284350 155 0 0 0.995812
-1.089090 -0.751694 6.243790 173 0 0 0.992922
-1.096990 -0.741713 6.255700 169 0 0 0.993348
-1.082940 -0.760675 6.230480 173 0 0 0.992695
-1.076350 -0.769747 6.217220 169 0 0 0.993279
-1.052040 -0.776229 6.231830 160 0 0 0.994663
-1.060060 -0.740269 6.310160 164 0 0 0.994131
-1.080070 -0.735502 6.296730 173 0 0 0.992746
-1.090800 -0.719185 6.321900 192 0 0 0.990431
-1.071440 -0.724509 6.335430 192 0 0 0.990460
-1.105380 -0.722013 6.295660 196 0 0 0.989569
-1.169910 -0.223133 6.110420 246 12 0 0.981500
-1.183050 -0.242511 6.095180 251 16 0 0.980730
-1.156840 -0.228744 6.085650 219 0 0 0.986234
-1.168400 -0.248567 6.071490 214 0 0 0.986441
-1.195090 -0.262456 6.080990 255 19 0 0.980178
-1.206470 -0.283410 6.067140 255 34 0 0.977813
