ply
format ascii 1.0
comment VCGLIB generated
element vertex 1042
property float x
property float y
property float z
property uchar red
property uchar green
property uchar blue
property float quality
end_header
-0.795238 -0.004619 6.240760 255 86 0 0.964361
-0.763920 -0.008329 6.271260 255 104 0 0.960469
-0.749095 -0.012478 6.286860 255 112 0 0.958554
-0.734795 -0.016637 6.301700 255 134 0 0.953493
-0.697028 -0.057642 6.339080 192 0 0 0.989323
-0.708331 -0.045065 6.326310 210 0 0 0.986179
-0.712226 -0.029611 6.312780 251 16 0 0.979304
-0.670557 -0.054808 6.336050 173 0 0 0.992237
-0.671256 -0.041132 6.322190 178 0 0 0.991940
-0.652920 -0.053318 6.334980 173 0 0 0.992569
-0.672396 -0.026494 6.308650 196 0 0 0.988927
-0.693641 -0.027435 6.310660 233 1 0 0.982487
-0.845633 -0.027723 6.114820 164 0 0 0.993519
-0.874435 -0.046637 6.101450 164 0 0 0.993699
-0.842644 -0.023666 6.133060 169 0 0 0.992809
-0.871388 -0.043171 6.119060 164 0 0 0.994067
-0.868345 -0.039553 6.137240 169 0 0 0.993025
-0.900842 -0.061023 6.106180 178 0 0 0.991443
-0.840029 -0.019960 6.151370 183 0 0 0.990694
-0.837044 -0.017600 6.169590 196 0 0 0.988746
-0.812892 -0.005495 6.166610 192 0 0 0.989035
-0.815504 -0.008713 6.148260 178 0 0 0.991712
-0.894557 -0.054563 6.124280 178 0 0 0.991798
-0.922844 -0.071814 6.114600 187 0 0 0.989957
-0.888444 -0.048078 6.142790 183 0 0 0.990572
-0.916286 -0.065481 6.132940 187 0 0 0.990477
-0.882823 -0.041835 6.161950 210 0 0 0.986726
-0.857295 -0.025974 6.175260 223 0 0 0.984368
-0.862803 -0.032582 6.156320 187 0 0 0.990156
-0.810572 -0.008777 6.223940 255 34 0 0.975550
-0.826001 -0.013035 6.206480 246 12 0 0.980410
-0.806702 -0.006725 6.203510 210 0 0 0.986612
-0.791156 -0.002298 6.220510 233 1 0 0.982318
-0.831643 -0.014729 6.188110 219 0 0 0.984567
-0.851277 -0.024570 6.193740 237 4 0 0.981564
-0.766332 0.006700 6.218170 228 0 0 0.983191
-0.781896 0.004514 6.200550 205 0 0 0.986894
-0.797714 0.000066 6.183570 201 0 0 0.988085
-0.975422 -0.144468 6.015420 137 0 0 0.998419
-0.988211 -0.159374 6.005600 133 0 0 0.998848
-0.962553 -0.129428 6.025660 142 0 0 0.997504
-0.993216 -0.149072 6.031000 137 0 0 0.997930
-1.003640 -0.169098 6.008240 133 0 0 0.998514
-1.019280 -0.178527 6.011000 137 0 0 0.998296
-0.980068 -0.134423 6.041390 146 0 0 0.996643
-0.966679 -0.119617 6.052520 155 0 0 0.995158
-0.949817 -0.116058 6.036540 146 0 0 0.996610
-0.936855 -0.102787 6.047210 151 0 0 0.995813
-1.037040 -0.189545 6.015550 137 0 0 0.998198
-1.019530 -0.168847 6.025550 146 0 0 0.997044
-1.037200 -0.180192 6.030410 142 0 0 0.997249
-1.055120 -0.200689 6.019840 137 0 0 0.997922
-1.019480 -0.159806 6.040740 155 0 0 0.995188
-1.055170 -0.191151 6.034660 142 0 0 0.997242
-1.037040 -0.171350 6.045280 151 0 0 0.996174
-1.073410 -0.211194 6.024240 142 0 0 0.997455
-1.018910 -0.150924 6.056510 164 0 0 0.993852
-0.992280 -0.130839 6.062630 169 0 0 0.992799
-0.939557 -0.086141 6.100510 178 0 0 0.991892
-0.956208 -0.100600 6.086640 169 0 0 0.992718
-0.933856 -0.090984 6.078220 160 0 0 0.994760
-0.917335 -0.076309 6.091810 160 0 0 0.994179
-0.961549 -0.109932 6.069560 164 0 0 0.994121
-0.986721 -0.121989 6.079380 169 0 0 0.993110
-0.889302 -0.059866 6.087290 160 0 0 0.994352
-0.904669 -0.072690 6.073690 160 0 0 0.994172
-0.906276 -0.078986 6.057790 155 0 0 0.995099
-0.935404 -0.096662 6.062800 155 0 0 0.995399
-1.037010 -0.241577 5.933220 137 0 0 0.998314
-1.037570 -0.229233 5.953710 137 0 0 0.998464
-1.055260 -0.249116 5.945900 137 0 0 0.998236
-1.071830 -0.268317 5.937970 137 0 0 0.998172
-1.055940 -0.236386 5.966170 137 0 0 0.998262
-1.036160 -0.216103 5.973430 133 0 0 0.998576
-1.007700 -0.196578 5.968580 133 0 0 0.998857
-1.092070 -0.280728 5.949300 142 0 0 0.997464
-1.084290 -0.261319 5.968960 142 0 0 0.997513
-1.070990 -0.223853 6.001810 137 0 0 0.997952
-1.052710 -0.212433 5.998150 137 0 0 0.998275
-1.034770 -0.201185 5.993970 133 0 0 0.998623
-1.074850 -0.236841 5.990090 137 0 0 0.998143
-1.006760 -0.182483 5.988810 133 0 0 0.998876
-0.991094 -0.172860 5.986160 133 0 0 0.999104
-1.082640 -0.318813 5.867410 146 0 0 0.996889
-1.096510 -0.324001 5.879680 142 0 0 0.997329
-1.095290 -0.334216 5.859220 151 0 0 0.996275
-1.083560 -0.308896 5.887640 142 0 0 0.997549
-1.068640 -0.291722 5.895360 137 0 0 0.997905
-1.068940 -0.302572 5.875050 142 0 0 0.997708
-1.113440 -0.349468 5.860960 151 0 0 0.996285
-1.116130 -0.342908 5.880780 151 0 0 0.996286
-1.128250 -0.358302 5.871810 146 0 0 0.996507
-1.118280 -0.334886 5.900040 146 0 0 0.996520
-1.097990 -0.316291 5.899070 142 0 0 0.997230
-1.098660 -0.299211 5.929460 142 0 0 0.997415
-1.080710 -0.287768 5.917940 137 0 0 0.998009
-1.055190 -0.261880 5.925080 137 0 0 0.998290
-1.055040 -0.274270 5.903640 137 0 0 0.998209
-1.128620 -0.380530 5.806530 142 0 0 0.997173
-1.118890 -0.368970 5.820790 142 0 0 0.997179
-1.149600 -0.399470 5.799160 151 0 0 0.995880
-1.138580 -0.384274 5.828910 146 0 0 0.996989
-1.126900 -0.364735 5.853630 146 0 0 0.996749
-1.096810 -0.342406 5.842210 146 0 0 0.996411
-1.109290 -0.355775 5.835590 146 0 0 0.996364
-1.160790 -0.409145 5.784040 173 0 0 0.992541
-1.137680 -0.390642 5.783800 151 0 0 0.995883
0.943880 -0.029564 6.440990 183 0 0 0.990996
0.899798 -0.023717 6.435930 160 0 0 0.994367
0.953479 -0.025679 6.421000 214 0 0 0.985450
0.909411 -0.019914 6.416360 178 0 0 0.991696
0.918515 -0.016617 6.396070 205 0 0 0.987162
0.889091 -0.023977 6.453280 164 0 0 0.993773
1.008880 -0.032705 6.349540 255 167 0 0.944874
0.970327 -0.022354 6.350290 255 82 0 0.965154
0.964012 -0.023279 6.374500 255 60 0 0.970300
0.931534 -0.015198 6.351240 255 64 0 0.969368
0.975191 -0.021428 6.323840 255 171 0 0.944340
0.936860 -0.015020 6.327290 255 104 0 0.959705
0.943494 -0.014628 6.302540 255 164 0 0.945775
0.957965 -0.023607 6.396570 237 4 0 0.981656
0.924931 -0.015506 6.374140 242 8 0 0.980837
0.657856 -0.031643 6.320090 255 67 0 0.968756
0.691447 -0.028807 6.338970 255 34 0 0.975548
0.700494 -0.029315 6.320380 255 27 0 0.977448
0.723072 -0.026232 6.356540 242 8 0 0.981060
0.732916 -0.025282 6.337890 214 0 0 0.985593
0.765156 -0.022086 6.355960 183 0 0 0.990943
0.754907 -0.023698 6.374250 205 0 0 0.987370
0.743321 -0.023367 6.319610 187 0 0 0.989955
0.775652 -0.018642 6.336770 160 0 0 0.994240
0.786215 -0.014057 6.316760 160 0 0 0.994399
0.753718 -0.018806 6.300200 160 0 0 0.994711
0.710548 -0.026983 6.301920 223 0 0 0.984131
0.720318 -0.022696 6.282320 173 0 0 0.992220
0.675916 -0.031517 6.282770 255 30 0 0.976409
0.667220 -0.032829 6.302050 255 60 0 0.969646
0.627311 -0.037148 6.280020 255 93 0 0.962674
0.686031 -0.027694 6.263480 210 0 0 0.986192
0.635815 -0.036353 6.260410 255 71 0 0.967224
0.644288 -0.033053 6.239600 255 23 0 0.977949
0.618445 -0.035391 6.298570 255 93 0 0.962443
0.786758 -0.022095 6.392160 183 0 0 0.990826
0.819260 -0.021897 6.411160 173 0 0 0.992605
0.830231 -0.020181 6.393160 160 0 0 0.994808
0.853782 -0.022202 6.431390 169 0 0 0.993093
0.864301 -0.020536 6.413530 160 0 0 0.994848
0.873669 -0.017225 6.393870 164 0 0 0.993563
0.883575 -0.014084 6.374200 196 0 0 0.988426
0.840376 -0.016270 6.373830 155 0 0 0.995194
0.851103 -0.012736 6.354410 183 0 0 0.990900
0.807768 -0.016973 6.354950 155 0 0 0.995335
0.797419 -0.020665 6.374240 164 0 0 0.993630
0.817997 -0.012974 6.334980 164 0 0 0.993455
0.910962 -0.011150 6.281050 255 127 0 0.955026
0.903795 -0.011206 6.305440 255 78 0 0.966005
0.872446 -0.009115 6.285700 255 49 0 0.972088
0.878553 -0.008015 6.261200 255 104 0 0.960278
0.864053 -0.009927 6.308570 246 12 0 0.980380
0.840030 -0.007597 6.267020 255 41 0 0.974008
0.833182 -0.008928 6.290360 228 0 0 0.983215
0.801642 -0.009041 6.273040 219 0 0 0.984582
0.848155 -0.006593 6.242890 255 101 0 0.960587
0.809336 -0.006616 6.249380 255 49 0 0.972709
0.816678 -0.005425 6.226040 255 108 0 0.958823
0.825333 -0.010560 6.312760 187 0 0 0.989758
0.793567 -0.011620 6.295210 173 0 0 0.992043
0.857624 -0.010426 6.331390 219 0 0 0.985121
0.890297 -0.012861 6.351650 223 0 0 0.984351
0.897028 -0.011715 6.329080 255 30 0 0.976014
0.784541 -0.005724 6.209410 255 101 0 0.960939
0.776571 -0.008256 6.232490 255 23 0 0.977769
0.742917 -0.010483 6.215490 223 0 0 0.984169
0.751228 -0.006447 6.192740 255 86 0 0.963968
0.734703 -0.015360 6.238150 164 0 0 0.993449
0.705791 -0.014952 6.195720 169 0 0 0.993122
0.699432 -0.019853 6.219320 151 0 0 0.996227
0.656438 -0.025707 6.193850 155 0 0 0.995126
0.711351 -0.009400 6.170630 255 27 0 0.977129
0.662919 -0.018897 6.168920 151 0 0 0.995681
0.669857 -0.012612 6.144460 233 1 0 0.982480
0.692623 -0.024419 6.241660 173 0 0 0.992573
0.649972 -0.030416 6.217010 210 0 0 0.986356
0.727489 -0.019405 6.260560 155 0 0 0.995356
0.760835 -0.015374 6.278030 160 0 0 0.994752
0.768470 -0.011850 6.255590 192 0 0 0.989296
0.711755 -0.006223 6.140560 255 134 0 0.953627
0.754840 -0.005059 6.166090 255 167 0 0.945005
0.757195 -0.004982 6.138070 255 227 0 0.930654
0.789197 -0.006321 6.184100 255 153 0 0.948925
0.793416 -0.007198 6.157750 255 227 0 0.930570
0.825719 -0.010110 6.175140 255 190 0 0.940017
0.820910 -0.007148 6.200960 255 145 0 0.950717
0.797211 -0.009987 6.130780 219 255 29 0.916513
0.830397 -0.013474 6.149290 248 245 0 0.925084
0.834107 -0.018112 6.122940 177 255 71 0.903196
0.801335 -0.014876 6.104200 158 255 90 0.895989
0.759766 -0.006606 6.108910 174 255 74 0.901326
0.762302 -0.010485 6.079260 74 255 174 0.864062
0.717516 -0.004913 6.081760 135 255 113 0.888163
0.714576 -0.004693 6.111310 242 253 6 0.923350
0.679620 -0.007874 6.090180 255 208 0 0.935422
0.721765 -0.007733 6.053420 13 245 235 0.837552
0.685648 -0.007822 6.062960 151 255 96 0.893216
0.691706 -0.010881 6.037180 38 255 209 0.848952
0.674268 -0.009861 6.117160 255 86 0 0.964614
0.851161 -0.008390 6.217170 255 141 0 0.951237
0.882335 -0.011291 6.235390 255 108 0 0.959452
0.885545 -0.013604 6.208550 255 167 0 0.945166
0.912805 -0.012846 6.254250 255 149 0 0.949364
0.916453 -0.016664 6.227960 255 145 0 0.950177
0.946921 -0.020032 6.247330 255 212 0 0.934520
0.944928 -0.016824 6.275290 255 182 0 0.942059
0.918906 -0.020490 6.200440 255 197 0 0.938103
0.950016 -0.025037 6.219790 255 201 0 0.936713
0.951329 -0.030306 6.193100 235 255 13 0.921657
0.922406 -0.027198 6.174550 248 245 0 0.925213
0.889323 -0.018139 6.183260 255 201 0 0.936700
0.893091 -0.024084 6.156540 229 255 19 0.919434
0.859946 -0.015546 6.165600 255 219 0 0.932706
0.855983 -0.011920 6.192120 255 164 0 0.946223
0.863597 -0.021520 6.139570 206 255 42 0.912459
0.941251 -0.082118 6.086930 206 255 42 0.911871
0.914105 -0.080136 6.071790 196 255 51 0.909515
0.915762 -0.062672 6.094370 206 255 42 0.912486
0.888588 -0.060360 6.078380 174 255 74 0.901754
0.886905 -0.077939 6.056260 161 255 87 0.896610
0.889961 -0.045858 6.103540 171 255 77 0.900561
0.861173 -0.057976 6.062820 145 255 103 0.891947
0.862590 -0.043065 6.087000 138 255 109 0.888990
0.834144 -0.040473 6.071240 148 255 100 0.892261
0.859713 -0.076568 6.040800 151 255 96 0.894045
0.833049 -0.056231 6.046180 138 255 109 0.888635
0.830233 -0.074738 6.022280 84 255 164 0.868448
0.862829 -0.031181 6.112500 161 255 87 0.897075
0.834072 -0.028345 6.096150 158 255 90 0.896285
0.891838 -0.034221 6.129200 196 255 51 0.909620
0.920563 -0.037494 6.146440 225 255 22 0.918139
0.918349 -0.049217 6.120530 203 255 45 0.911733
0.947199 -0.052841 6.137410 255 227 0 0.929966
0.949867 -0.040845 6.165200 251 241 0 0.926660
0.944745 -0.066030 6.112140 248 245 0 0.925599
0.791026 -0.071497 5.994380 0 217 255 0.826906
0.793853 -0.051849 6.018900 38 255 209 0.849257
0.756499 -0.049116 5.993310 0 145 255 0.794988
0.756141 -0.071471 5.973830 0 185 255 0.812971
0.756187 -0.030957 6.017210 0 173 255 0.808699
0.727606 -0.050985 5.978960 0 185 255 0.813335
0.725340 -0.032035 6.000270 0 185 255 0.813039
0.700020 -0.035980 5.989980 19 253 229 0.840115
0.728600 -0.074136 5.962050 3 233 245 0.832055
0.703084 -0.054930 5.969760 13 245 235 0.837082
0.704038 -0.077104 5.953750 35 255 213 0.848152
0.722443 -0.017492 6.024340 0 153 255 0.799048
0.696339 -0.021233 6.012060 0 213 255 0.825234
0.758583 -0.018371 6.047050 0 229 248 0.831965
0.800352 -0.024270 6.076540 103 255 145 0.875576
0.798402 -0.036532 6.047720 55 255 193 0.856262
0.975036 -0.023000 6.295080 255 171 0 0.944121
1.008110 -0.033305 6.320150 255 182 0 0.941846
1.005560 -0.033235 6.286160 255 212 0 0.934574
1.039410 -0.046378 6.313580 255 227 0 0.930723
1.036850 -0.046946 6.281130 251 241 0 0.926643
1.067850 -0.062978 6.275180 222 255 25 0.917643
1.036670 -0.051354 6.250970 213 255 35 0.914405
1.006070 -0.037196 6.258550 235 255 13 0.921997
1.007390 -0.042308 6.229720 229 255 19 0.919980
0.978102 -0.030595 6.238480 248 245 0 0.925798
0.976400 -0.026401 6.266760 255 219 0 0.932654
0.979292 -0.035984 6.210920 229 255 19 0.919447
1.110900 -0.125212 6.187800 216 255 32 0.914984
1.095400 -0.105410 6.204680 235 255 13 0.921161
1.086910 -0.117376 6.172150 232 255 16 0.920282
1.071010 -0.096349 6.188550 235 255 13 0.921780
1.077610 -0.084974 6.219990 213 255 35 0.914117
1.054980 -0.078053 6.205730 255 234 0 0.928078
1.062590 -0.108414 6.156120 229 255 19 0.919834
1.046420 -0.087912 6.172910 216 255 32 0.915794
1.038850 -0.101096 6.142160 213 255 35 0.914814
1.061610 -0.069544 6.239690 229 255 19 0.919731
1.014590 -0.096202 6.128260 242 253 6 0.923576
1.019100 -0.081611 6.154490 222 255 25 0.917540
0.994235 -0.076876 6.139850 255 227 0 0.930202
0.990247 -0.091827 6.114780 255 230 0 0.929492
0.997387 -0.061729 6.166710 229 255 19 0.919142
0.969071 -0.071445 6.125940 255 223 0 0.931248
0.972707 -0.057464 6.152490 245 249 3 0.924964
0.965410 -0.085970 6.100380 232 255 16 0.920130
0.973715 -0.044249 6.178980 222 255 25 0.917718
1.002910 -0.051061 6.197920 229 255 19 0.919859
1.031180 -0.059028 6.215640 216 255 32 0.915071
1.026180 -0.069856 6.185970 232 255 16 0.920513
0.594882 -1.043600 6.487210 201 0 0 0.987816
0.584029 -1.036860 6.509880 173 0 0 0.992554
0.572140 -1.029200 6.499670 155 0 0 0.995621
0.561182 -1.022520 6.522260 142 0 0 0.997534
0.572921 -1.030350 6.532260 155 0 0 0.994903
0.548616 -1.015190 6.511840 137 0 0 0.998242
0.550104 -1.015710 6.544390 137 0 0 0.998375
0.537812 -1.008310 6.534150 133 0 0 0.998905
0.526770 -1.001230 6.556110 133 0 0 0.999026
0.561623 -1.023640 6.554270 151 0 0 0.996004
0.538982 -1.008760 6.566370 137 0 0 0.998398
0.550387 -1.016990 6.576350 151 0 0 0.995715
0.524223 -1.001430 6.523160 133 0 0 0.998799
0.513416 -0.994232 6.545410 133 0 0 0.998910
0.498827 -0.987863 6.534200 133 0 0 0.998570
0.509721 -0.993740 6.511180 137 0 0 0.998382
0.535335 -1.007240 6.500440 137 0 0 0.998498
0.520694 -0.999291 6.488300 137 0 0 0.998428
0.546661 -1.012870 6.477540 137 0 0 0.998140
0.559882 -1.020870 6.488940 142 0 0 0.997598
0.571450 -1.026710 6.466090 151 0 0 0.996135
0.531836 -1.004500 6.465460 137 0 0 0.998112
0.558164 -1.018240 6.454660 142 0 0 0.997587
0.543383 -1.009440 6.442640 137 0 0 0.997960
0.583732 -1.035150 6.476850 169 0 0 0.993376
0.538996 -1.008550 6.596750 146 0 0 0.996524
0.527271 -1.001100 6.587730 137 0 0 0.998317
0.516105 -0.992615 6.608520 137 0 0 0.998327
0.527898 -1.000230 6.617560 146 0 0 0.996881
0.503532 -0.985452 6.599250 133 0 0 0.998559
0.504917 -0.983939 6.629710 137 0 0 0.997879
0.492306 -0.976569 6.620490 142 0 0 0.997325
0.516548 -0.991740 6.638640 146 0 0 0.996925
0.478890 -0.970025 6.610750 146 0 0 0.996886
0.464390 -0.963408 6.599490 146 0 0 0.996468
0.490482 -0.978321 6.588700 137 0 0 0.998051
0.475994 -0.971727 6.577270 137 0 0 0.997794
0.502059 -0.986467 6.566940 133 0 0 0.998672
0.515138 -0.993427 6.577580 133 0 0 0.998924
0.487336 -0.979835 6.555510 137 0 0 0.998402
0.395630 -0.940684 6.552360 160 0 0 0.994472
0.413415 -0.948842 6.565940 151 0 0 0.995819
0.425469 -0.955054 6.542430 151 0 0 0.995732
0.408006 -0.945992 6.528770 160 0 0 0.994782
0.442870 -0.961384 6.555320 142 0 0 0.997533
0.437700 -0.961264 6.519340 155 0 0 0.995541
0.455009 -0.968257 6.532470 142 0 0 0.997345
0.466880 -0.974817 6.509680 146 0 0 0.996842
0.420154 -0.951428 6.505570 155 0 0 0.995102
0.449580 -0.967403 6.496650 160 0 0 0.994883
0.432226 -0.957104 6.482920 155 0 0 0.995215
0.471508 -0.974345 6.544760 137 0 0 0.998288
0.483532 -0.981721 6.522400 137 0 0 0.997958
0.460184 -0.966627 6.566720 137 0 0 0.998284
0.448583 -0.958396 6.588960 142 0 0 0.997460
0.431369 -0.953725 6.577680 142 0 0 0.997697
0.443581 -0.960129 6.459320 151 0 0 0.996339
0.460226 -0.971922 6.473470 160 0 0 0.994664
0.471485 -0.975132 6.450040 155 0 0 0.995380
0.454679 -0.963376 6.435800 146 0 0 0.996822
0.488519 -0.984776 6.463830 151 0 0 0.995965
0.482676 -0.978541 6.426600 155 0 0 0.995179
0.499974 -0.988310 6.440430 151 0 0 0.996260
0.511515 -0.991859 6.416950 151 0 0 0.996222
0.465735 -0.966797 6.412560 146 0 0 0.996902
0.494046 -0.982224 6.403090 160 0 0 0.994862
0.476892 -0.970111 6.389180 151 0 0 0.996228
0.516208 -0.997269 6.453640 146 0 0 0.996872
0.528063 -1.000790 6.430180 142 0 0 0.997418
0.505210 -0.992375 6.476400 142 0 0 0.997359
0.494303 -0.987323 6.499340 142 0 0 0.997658
0.477668 -0.980000 6.486620 146 0 0 0.996577
0.448717 -0.957273 6.400510 146 0 0 0.996586
0.437828 -0.953636 6.423760 142 0 0 0.997273
0.421574 -0.943175 6.411750 137 0 0 0.998135
0.426630 -0.951219 6.447200 151 0 0 0.996072
0.410436 -0.940415 6.434950 137 0 0 0.997826
0.398963 -0.937467 6.458320 146 0 0 0.996731
0.415137 -0.948649 6.470740 160 0 0 0.994172
0.394387 -0.928152 6.422340 133 0 0 0.999024
0.382832 -0.925559 6.445690 133 0 0 0.998658
0.366614 -0.913610 6.433160 137 0 0 0.998313
0.379356 -0.915297 6.409850 146 0 0 0.997001
0.406522 -0.930919 6.399310 137 0 0 0.998395
0.391458 -0.918710 6.387040 151 0 0 0.996028
0.418259 -0.934652 6.376610 142 0 0 0.997787
0.433357 -0.946337 6.388630 137 0 0 0.997854
0.445116 -0.949456 6.365640 142 0 0 0.997337
0.403009 -0.922566 6.364350 155 0 0 0.995442
0.429932 -0.937543 6.353730 142 0 0 0.997104
0.414705 -0.925947 6.341600 160 0 0 0.994770
0.460584 -0.960180 6.377320 146 0 0 0.996532
0.402481 -0.943922 6.493950 169 0 0 0.993337
0.390175 -0.938808 6.517090 169 0 0 0.992815
0.372995 -0.929017 6.505060 164 0 0 0.993950
0.377537 -0.934366 6.540580 178 0 0 0.991380
0.360026 -0.924808 6.528670 173 0 0 0.992611
0.342691 -0.914897 6.516700 160 0 0 0.994521
0.326028 -0.902576 6.503660 142 0 0 0.997331
0.356427 -0.918483 6.492550 151 0 0 0.996249
0.339857 -0.905956 6.479580 137 0 0 0.998331
0.369878 -0.921059 6.468770 137 0 0 0.998078
0.386249 -0.932609 6.481370 151 0 0 0.995895
0.353371 -0.908754 6.455860 137 0 0 0.998430
0.263943 -0.856618 6.458330 242 8 0 0.980904
0.278412 -0.869147 6.469850 173 0 0 0.992066
0.292458 -0.872090 6.445730 187 0 0 0.990112
0.277720 -0.860370 6.434370 255 30 0 0.976243
0.307566 -0.884017 6.457220 146 0 0 0.996584
0.306271 -0.877491 6.422550 183 0 0 0.990637
0.321500 -0.888038 6.433730 155 0 0 0.995408
0.335281 -0.892824 6.410840 164 0 0 0.993951
0.291214 -0.865615 6.411210 255 38 0 0.974404
0.319752 -0.882582 6.399730 187 0 0 0.989827
0.304180 -0.872715 6.388750 251 16 0 0.979512
0.337194 -0.898828 6.445000 142 0 0 0.997696
0.350946 -0.903577 6.422050 142 0 0 0.997147
0.323507 -0.895737 6.468470 137 0 0 0.998413
0.309597 -0.893345 6.492640 137 0 0 0.998310
0.293878 -0.881291 6.481100 142 0 0 0.997325
0.317050 -0.877126 6.365940 255 27 0 0.977202
0.332219 -0.886212 6.376910 205 0 0 0.987301
0.344865 -0.891220 6.354350 233 1 0 0.982708
0.329535 -0.883340 6.343420 255 30 0 0.976058
0.360132 -0.899813 6.365230 183 0 0 0.990565
0.357330 -0.897046 6.332030 223 0 0 0.984416
0.372533 -0.904174 6.342720 201 0 0 0.987849
0.384635 -0.910082 6.320360 196 0 0 0.988798
0.342080 -0.890177 6.321090 255 38 0 0.974835
0.369406 -0.903038 6.309420 214 0 0 0.985997
0.354154 -0.897298 6.298530 255 30 0 0.976393
0.387595 -0.913562 6.353740 164 0 0 0.993749
0.399622 -0.918658 6.331090 160 0 0 0.994349
0.375914 -0.909041 6.376150 169 0 0 0.992975
0.363680 -0.905908 6.398950 155 0 0 0.995300
0.347914 -0.896033 6.387860 183 0 0 0.991086
0.689563 -1.035900 6.254000 255 67 0 0.968255
0.678434 -1.037890 6.286580 214 0 0 0.985865
0.664127 -1.031610 6.274010 233 1 0 0.982831
0.653485 -1.033480 6.306510 173 0 0 0.992002
0.666920 -1.040640 6.317890 178 0 0 0.991268
0.639122 -1.026630 6.294080 192 0 0 0.989594
0.642069 -1.036310 6.337880 169 0 0 0.993321
0.628356 -1.028400 6.326480 160 0 0 0.994341
0.617235 -1.031940 6.357640 160 0 0 0.994416
0.654741 -1.044320 6.348410 183 0 0 0.991178
0.630325 -1.040440 6.368300 178 0 0 0.991856
0.642474 -1.048920 6.378420 210 0 0 0.986059
0.613578 -1.020660 6.314300 164 0 0 0.994030
0.603022 -1.023510 6.346450 155 0 0 0.995211
0.587334 -1.014690 6.334830 155 0 0 0.995496
0.597936 -1.012880 6.303880 164 0 0 0.993598
0.624053 -1.020060 6.283260 205 0 0 0.987225
0.607998 -1.012150 6.271770 219 0 0 0.984790
0.634292 -1.019570 6.250840 255 45 0 0.972875
0.649827 -1.026130 6.262730 255 23 0 0.977966
0.660292 -1.025030 6.230380 255 116 0 0.957454
0.617995 -1.010420 6.238870 255 49 0 0.972563
0.644098 -1.017410 6.217830 255 138 0 0.952488
0.627816 -1.006900 6.205550 255 119 0 0.956383
0.675553 -1.030630 6.242640 255 86 0 0.964286
0.630438 -1.046560 6.405510 183 0 0 0.990897
0.618502 -1.038120 6.394440 155 0 0 0.995217
0.606926 -1.036650 6.421900 151 0 0 0.995942
0.618664 -1.045080 6.432600 178 0 0 0.991935
0.594259 -1.027960 6.411020 137 0 0 0.998067
0.595274 -1.035700 6.449410 151 0 0 0.995979
0.582911 -1.027170 6.438520 137 0 0 0.997869
0.606852 -1.044150 6.459990 173 0 0 0.991970
0.569255 -1.018230 6.427150 133 0 0 0.998767
0.554609 -1.009200 6.416370 133 0 0 0.999027
0.580675 -1.018900 6.400810 133 0 0 0.998895
0.565719 -1.009680 6.389730 133 0 0 0.999070
0.592143 -1.020500 6.373880 137 0 0 0.998338
0.605830 -1.029370 6.384260 142 0 0 0.997426
0.576733 -1.011450 6.362630 133 0 0 0.998614
0.488301 -0.968621 6.363370 133 0 0 0.998700
0.504604 -0.981611 6.376470 146 0 0 0.997056
0.515871 -0.981014 6.350080 137 0 0 0.998324
0.499799 -0.967679 6.337370 133 0 0 0.999044
0.532436 -0.991908 6.363200 137 0 0 0.998090
0.527323 -0.980552 6.323330 133 0 0 0.998731
0.543891 -0.992911 6.336090 142 0 0 0.997683
0.555073 -0.994917 6.308550 155 0 0 0.995188
0.511461 -0.966840 6.310720 133 0 0 0.998751
0.538875 -0.981212 6.295770 137 0 0 0.998254
0.523032 -0.966689 6.283260 133 0 0 0.998658
0.560443 -1.002710 6.349380 137 0 0 0.998074
0.571549 -1.005580 6.321730 155 0 0 0.995008
0.549694 -1.001100 6.376780 133 0 0 0.998962
0.539131 -1.000480 6.403810 133 0 0 0.998719
0.521890 -0.991694 6.390210 142 0 0 0.997538
0.534364 -0.962888 6.253190 142 0 0 0.997754
0.549482 -0.975845 6.264180 133 0 0 0.998873
0.561000 -0.973029 6.233050 137 0 0 0.998125
0.545607 -0.959798 6.221890 142 0 0 0.997507
0.576050 -0.985945 6.244640 151 0 0 0.995881
0.571840 -0.970693 6.201120 151 0 0 0.995754
0.586775 -0.984208 6.212910 192 0 0 0.989347
0.597520 -0.982334 6.180590 255 27 0 0.977316
0.556538 -0.958526 6.189380 146 0 0 0.997007
0.582907 -0.969048 6.168860 201 0 0 0.987617
0.567465 -0.956485 6.156740 173 0 0 0.992555
0.601890 -0.997556 6.224690 246 12 0 0.980411
0.612540 -0.995291 6.192720 255 82 0 0.964779
0.591865 -1.000990 6.258020 196 0 0 0.988578
0.581928 -1.003320 6.290370 169 0 0 0.993300
0.565628 -0.990507 6.277020 146 0 0 0.996404
0.539973 -0.947133 6.179050 146 0 0 0.996899
0.529011 -0.948656 6.211550 146 0 0 0.996355
0.512289 -0.938155 6.201010 160 0 0 0.994492
0.518014 -0.952241 6.242660 146 0 0 0.996666
0.501410 -0.941331 6.232110 160 0 0 0.994616
0.490565 -0.945966 6.261830 146 0 0 0.996654
0.506992 -0.957003 6.272530 137 0 0 0.998157
0.484764 -0.931237 6.221240 173 0 0 0.992107
0.474153 -0.936002 6.250760 155 0 0 0.994921
0.458227 -0.926458 6.239500 178 0 0 0.991782
0.469426 -0.921782 6.211560 205 0 0 0.987070
0.496347 -0.927784 6.192020 183 0 0 0.990927
0.480742 -0.918190 6.182460 210 0 0 0.986256
0.508137 -0.925995 6.161260 160 0 0 0.994206
0.524111 -0.936663 6.170040 160 0 0 0.994849
0.535717 -0.935862 6.138510 173 0 0 0.992618
0.492435 -0.915855 6.152270 205 0 0 0.987010
0.520106 -0.925396 6.129540 178 0 0 0.991825
0.504551 -0.914475 6.121120 192 0 0 0.989016
0.551462 -0.946085 6.147460 169 0 0 0.993141
0.495001 -0.956411 6.299740 137 0 0 0.998040
0.483509 -0.957143 6.326010 137 0 0 0.998489
0.467400 -0.946550 6.314690 142 0 0 0.997292
0.471898 -0.958595 6.351820 133 0 0 0.998540
0.456245 -0.947941 6.340350 137 0 0 0.998002
0.440688 -0.936672 6.328600 146 0 0 0.996391
0.426144 -0.926011 6.317130 173 0 0 0.992523
0.452186 -0.936438 6.303550 155 0 0 0.995047
0.437118 -0.925760 6.291970 173 0 0 0.992062
0.463286 -0.935914 6.277470 160 0 0 0.994375
0.478946 -0.946107 6.288660 146 0 0 0.997070
0.447774 -0.925995 6.266180 178 0 0 0.991834
0.366001 -0.899237 6.274350 255 45 0 0.972822
0.380517 -0.905398 6.285100 237 4 0 0.981967
0.392248 -0.906679 6.260480 255 19 0 0.978343
0.378123 -0.901584 6.250160 255 64 0 0.968862
0.406400 -0.912933 6.270900 223 0 0 0.984172
0.403733 -0.908416 6.235620 255 23 0 0.978062
0.417640 -0.914056 6.245640 237 4 0 0.981986
0.428782 -0.914826 6.219960 223 0 0 0.984003
0.389726 -0.903141 6.225420 255 64 0 0.969464
0.414790 -0.909341 6.210170 251 16 0 0.979253
0.401150 -0.904480 6.200410 255 67 0 0.968698
0.432150 -0.920137 6.255820 196 0 0 0.988858
0.443304 -0.920515 6.229790 205 0 0 0.987275
0.421727 -0.919759 6.281500 196 0 0 0.988632
0.410866 -0.918753 6.306550 178 0 0 0.991590
0.395680 -0.911610 6.295910 205 0 0 0.987369
0.412408 -0.900122 6.174770 255 112 0 0.958334
0.425329 -0.904153 6.183460 255 64 0 0.968897
0.436899 -0.899648 6.156530 255 78 0 0.966185
0.423784 -0.894161 6.148330 255 178 0 0.942539
0.450225 -0.905259 6.164750 255 49 0 0.972496
0.448651 -0.894977 6.129100 255 101 0 0.960791
0.462081 -0.901571 6.136380 255 60 0 0.969703
0.475124 -0.899273 6.107080 255 49 0 0.972180
0.435715 -0.888602 6.121520 255 175 0 0.943737
0.461310 -0.891630 6.100430 255 75 0 0.966394
0.447919 -0.884382 6.093360 255 164 0 0.946409
0.476654 -0.908309 6.143930 237 4 0 0.981432
0.489629 -0.906708 6.113930 228 0 0 0.983595
0.465194 -0.911261 6.173570 246 12 0 0.979882
0.453976 -0.915648 6.202160 214 0 0 0.985552
0.439363 -0.909611 6.192910 255 34 0 0.975190
0.723871 -0.105482 5.950720 171 255 77 0.900138
0.750099 -0.102527 5.959630 116 255 132 0.880575
0.743185 -0.135753 5.950850 255 208 0 0.935558
0.781894 -0.100393 5.974700 84 255 164 0.868528
0.772570 -0.132795 5.961740 238 255 9 0.922127
0.810177 -0.130969 5.980620 225 255 22 0.918851
0.821810 -0.101884 5.999940 161 255 87 0.896962
0.762591 -0.167614 5.954660 255 67 0 0.968062
0.796892 -0.164559 5.967830 255 127 0 0.955140
0.783792 -0.199922 5.960510 187 0 0 0.990144
0.755241 -0.202662 5.952090 155 0 0 0.995395
0.737617 -0.169695 5.947320 251 16 0 0.979184
0.731407 -0.205353 5.944940 155 0 0 0.995500
0.714863 -0.171542 5.940630 228 0 0 0.983209
0.719871 -0.138157 5.944520 255 134 0 0.953063
0.697935 -0.139381 5.937360 255 101 0 0.960739
0.709267 -0.206923 5.937270 164 0 0 0.993916
0.693210 -0.172442 5.932290 223 0 0 0.984157
0.687820 -0.207253 5.927410 164 0 0 0.993743
0.701693 -0.107108 5.944130 193 255 55 0.908019
0.851588 -0.103272 6.017690 171 255 77 0.900368
0.879965 -0.103475 6.034600 203 255 45 0.911294
0.870986 -0.131701 6.014820 232 255 16 0.920082
0.906976 -0.104466 6.049620 229 255 19 0.919453
0.898695 -0.131753 6.029950 255 193 0 0.938549
0.925340 -0.132330 6.044050 255 182 0 0.941597
0.933929 -0.106164 6.064220 251 241 0 0.926783
0.888412 -0.160789 6.012560 255 145 0 0.950480
0.915951 -0.160420 6.026280 255 141 0 0.951672
0.904808 -0.190295 6.011120 255 93 0 0.962193
0.878737 -0.192186 5.999440 255 90 0 0.963553
0.862475 -0.161685 5.999920 255 141 0 0.951177
0.850917 -0.193884 5.987310 255 49 0 0.972582
0.830448 -0.163047 5.983440 255 153 0 0.948520
0.843507 -0.131886 5.999850 255 238 0 0.927433
0.816405 -0.197331 5.972490 242 8 0 0.980698
0.834021 -0.337301 5.969620 169 0 0 0.992803
0.808202 -0.341511 5.959170 178 0 0 0.991852
0.820825 -0.307917 5.971010 183 0 0 0.990729
0.794491 -0.311208 5.961680 210 0 0 0.986451
0.785250 -0.343598 5.948670 173 0 0 0.992552
0.807634 -0.274789 5.970030 173 0 0 0.992553
0.771372 -0.312710 5.952590 223 0 0 0.984252
0.781771 -0.276916 5.961260 201 0 0 0.988014
0.758584 -0.278105 5.953600 233 1 0 0.982313
0.765060 -0.344007 5.939400 164 0 0 0.993514
0.751208 -0.312608 5.943590 214 0 0 0.985355
0.747032 -0.343324 5.929440 146 0 0 0.996366
0.795853 -0.238390 5.966670 146 0 0 0.996907
0.769465 -0.240115 5.958900 164 0 0 0.993460
0.829890 -0.233950 5.978380 151 0 0 0.996020
0.862523 -0.230038 5.991130 178 0 0 0.991748
0.842213 -0.269105 5.982300 146 0 0 0.996412
0.872925 -0.264102 5.993390 146 0 0 0.996833
0.889682 -0.227943 6.002240 196 0 0 0.988452
0.853479 -0.301298 5.983390 160 0 0 0.994299
0.728938 -0.342776 5.919480 142 0 0 0.997484
0.730683 -0.313364 5.932780 196 0 0 0.988679
0.712476 -0.312641 5.922530 178 0 0 0.991966
0.710932 -0.342376 5.908990 133 0 0 0.998604
0.715324 -0.280785 5.933480 228 0 0 0.983399
0.694461 -0.312298 5.912630 155 0 0 0.995182
0.696968 -0.279985 5.923400 201 0 0 0.987933
0.678535 -0.279303 5.913240 178 0 0 0.991608
0.692792 -0.341406 5.898700 137 0 0 0.998492
0.676526 -0.310778 5.900980 137 0 0 0.998056
0.674851 -0.340509 5.887420 142 0 0 0.997210
0.700847 -0.245934 5.932070 214 0 0 0.985243
0.682078 -0.244696 5.922580 201 0 0 0.988135
0.721939 -0.245103 5.942340 219 0 0 0.984702
0.744058 -0.242884 5.950790 201 0 0 0.988074
0.736188 -0.279902 5.943910 242 8 0 0.981312
0.688258 -0.373932 5.887530 146 0 0 0.996592
0.706388 -0.374387 5.898120 137 0 0 0.998046
0.701509 -0.405968 5.887420 155 0 0 0.995476
0.724329 -0.375053 5.909020 133 0 0 0.998607
0.719760 -0.406464 5.897520 142 0 0 0.997295
0.737780 -0.406719 5.907570 137 0 0 0.998268
0.742333 -0.375959 5.918830 137 0 0 0.998261
0.714815 -0.436711 5.886250 169 0 0 0.993360
0.733332 -0.436574 5.895410 160 0 0 0.994828
0.728235 -0.466215 5.883500 205 0 0 0.987329
0.711072 -0.465168 5.875490 214 0 0 0.985955
0.697862 -0.435096 5.877290 178 0 0 0.991630
0.693309 -0.463873 5.869040 214 0 0 0.985877
0.680003 -0.434077 5.869860 178 0 0 0.991371
0.684417 -0.404339 5.878660 164 0 0 0.993946
0.667013 -0.402857 5.870040 169 0 0 0.993080
0.675259 -0.463107 5.861290 210 0 0 0.986195
0.662037 -0.432788 5.861890 192 0 0 0.989703
0.656658 -0.462598 5.854670 210 0 0 0.986497
0.671234 -0.372376 5.878160 160 0 0 0.994573
0.758659 -0.377559 5.927900 142 0 0 0.997211
0.776572 -0.377740 5.938390 160 0 0 0.994465
0.770272 -0.410229 5.925250 137 0 0 0.997908
0.796406 -0.376803 5.948850 178 0 0 0.991924
0.788215 -0.410121 5.935600 146 0 0 0.996459
0.807805 -0.408548 5.947150 169 0 0 0.992844
0.819029 -0.374471 5.959280 183 0 0 0.990865
0.781909 -0.441405 5.920960 137 0 0 0.998120
0.800054 -0.440415 5.931940 137 0 0 0.998096
0.793717 -0.471128 5.915610 160 0 0 0.994276
0.777441 -0.470344 5.907150 173 0 0 0.992457
0.765769 -0.439686 5.912300 142 0 0 0.997428
0.761340 -0.468968 5.898690 192 0 0 0.989193
0.749554 -0.438528 5.903740 151 0 0 0.995990
0.753993 -0.408694 5.916260 137 0 0 0.998411
0.744993 -0.467592 5.890880 205 0 0 0.987455
0.762032 -0.595800 5.882660 255 108 0 0.958808
0.754300 -0.564474 5.884130 255 23 0 0.978295
0.730802 -0.592711 5.873860 255 67 0 0.968031
0.745638 -0.532604 5.885030 219 0 0 0.984650
0.722524 -0.561098 5.874010 242 8 0 0.980832
0.713638 -0.528591 5.873300 214 0 0 0.985521
0.698325 -0.589660 5.865440 255 30 0 0.976336
0.737336 -0.499855 5.884370 205 0 0 0.987410
0.753908 -0.500990 5.891640 201 0 0 0.988156
0.770291 -0.501940 5.898870 196 0 0 0.988668
0.762236 -0.533277 5.891630 210 0 0 0.986371
0.778815 -0.533820 5.898110 223 0 0 0.984208
0.786485 -0.502589 5.906990 183 0 0 0.991146
0.770527 -0.564961 5.890150 255 30 0 0.975974
0.688218 -0.559072 5.863910 219 0 0 0.984622
0.664624 -0.587509 5.857080 251 16 0 0.979316
0.677255 -0.527827 5.862670 201 0 0 0.987568
0.653779 -0.556967 5.854870 205 0 0 0.987229
0.642759 -0.525350 5.851580 192 0 0 0.989005
0.630124 -0.585200 5.849010 233 1 0 0.982481
0.667023 -0.495410 5.858830 187 0 0 0.989927
0.685331 -0.495837 5.865650 192 0 0 0.989262
0.703653 -0.496405 5.871270 205 0 0 0.986997
0.695732 -0.527918 5.868230 210 0 0 0.986628
0.778906 -0.871657 6.002780 255 164 0 0.946366
0.766644 -0.898267 6.030350 255 97 0 0.961458
0.753425 -0.895162 6.018230 255 149 0 0.949621
0.740877 -0.921494 6.047010 255 112 0 0.958489
0.754191 -0.925239 6.058840 255 78 0 0.965848
0.727607 -0.916534 6.034810 255 145 0 0.950601
0.728708 -0.947567 6.075940 255 134 0 0.953149
0.715033 -0.942550 6.064010 255 156 0 0.947838
0.703324 -0.967936 6.093000 255 223 0 0.930976
0.742534 -0.951620 6.087970 255 104 0 0.960255
0.717410 -0.972829 6.105070 255 190 0 0.939727
0.731358 -0.976663 6.116750 255 160 0 0.947352
0.701138 -0.937626 6.052330 255 175 0 0.943541
0.688822 -0.962043 6.082270 255 227 0 0.930620
0.674381 -0.956008 6.070800 255 230 0 0.929197
0.687512 -0.932957 6.043040 255 182 0 0.941233
0.700407 -0.908525 6.016220 255 182 0 0.941723
0.726830 -0.888364 5.999350 255 204 0 0.936412
0.753092 -0.867024 5.983530 255 238 0 0.927574
0.713750 -0.884186 5.990380 255 223 0 0.931708
0.726246 -0.859198 5.965590 209 255 38 0.913161
0.721448 -0.992898 6.151520 255 90 0 0.963667
0.706649 -0.987659 6.136870 255 134 0 0.953356
0.696631 -1.004040 6.171850 255 101 0 0.960777
0.711663 -1.009890 6.185590 255 71 0 0.967470
0.680992 -0.996510 6.158350 255 116 0 0.957518
0.686160 -1.018810 6.207590 255 97 0 0.961545
0.670829 -1.011760 6.194560 255 108 0 0.959229
0.700733 -1.024240 6.220140 255 67 0 0.968261
0.654855 -1.003380 6.181210 255 112 0 0.958128
0.638891 -0.994506 6.171300 255 93 0 0.962347
0.665603 -0.989624 6.147380 255 134 0 0.953386
0.650631 -0.982797 6.136830 255 130 0 0.953901
0.677419 -0.976578 6.114230 255 164 0 0.946078
0.691741 -0.982091 6.125320 255 149 0 0.949270
0.662359 -0.969323 6.103710 255 153 0 0.949230
0.579853 -0.948580 6.123720 205 0 0 0.987348
0.594482 -0.959771 6.133340 242 8 0 0.981267
0.606871 -0.949764 6.101710 255 38 0 0.975103
0.592413 -0.939091 6.091800 251 16 0 0.979618
0.621129 -0.960460 6.111330 255 64 0 0.969219
0.619836 -0.939680 6.069910 255 101 0 0.961302
0.633797 -0.950517 6.079590 255 130 0 0.954050
0.647045 -0.938013 6.049150 255 208 0 0.935152
0.605695 -0.927307 6.061340 255 38 0 0.975173
0.633289 -0.927400 6.039460 255 164 0 0.946168
0.618992 -0.915793 6.030640 255 104 0 0.959720
0.647886 -0.959107 6.090540 255 134 0 0.953594
0.660778 -0.947099 6.059710 255 208 0 0.934710
0.635705 -0.971993 6.123740 255 93 0 0.962785
0.624053 -0.982858 6.158500 255 56 0 0.970421
0.609080 -0.972004 6.145640 255 34 0 0.975552
0.633226 -0.894866 6.006050 255 90 0 0.963104
0.647362 -0.904737 6.012110 255 119 0 0.957053
0.660707 -0.883583 5.988030 255 145 0 0.950514
0.647002 -0.875068 5.981410 255 119 0 0.956802
0.674375 -0.891671 5.995200 255 178 0 0.942721
0.674294 -0.862241 5.964680 255 190 0 0.939985
0.687654 -0.869846 5.971740 255 230 0 0.929786
0.700535 -0.847855 5.948980 190 255 58 0.906759
0.660477 -0.854065 5.957960 255 171 0 0.944416
0.687369 -0.840483 5.942320 213 255 35 0.914424
0.673714 -0.833236 5.935400 232 255 16 0.920784
0.700412 -0.876241 5.979840 255 208 0 0.934803
0.713586 -0.853394 5.957210 209 255 38 0.912993
0.687684 -0.900989 6.005040 255 190 0 0.939562
0.673959 -0.924499 6.031780 255 178 0 0.942908
0.660739 -0.915526 6.021380 255 171 0 0.944407
0.999973 -0.334304 6.021220 146 0 0 0.996664
0.999007 -0.302150 6.028340 160 0 0 0.994226
0.963223 -0.331883 6.011640 137 0 0 0.998085
0.998277 -0.268256 6.034980 205 0 0 0.987143
0.963104 -0.298801 6.018230 151 0 0 0.996155
0.961401 -0.264153 6.023620 183 0 0 0.990612
0.925874 -0.330427 6.001130 137 0 0 0.998053
0.996124 -0.233475 6.040910 255 41 0 0.974288
0.993540 -0.197794 6.048410 255 97 0 0.961524
1.012660 -0.200812 6.055480 255 123 0 0.955534
1.015850 -0.236145 6.048140 255 41 0 0.973767
1.032990 -0.204915 6.062840 255 138 0 0.952305
1.035320 -0.239488 6.054460 255 53 0 0.971884
1.017100 -0.270818 6.041480 201 0 0 0.987907
1.036650 -0.273332 6.047130 223 0 0 0.984443
1.051540 -0.208981 6.070920 255 138 0 0.952770
1.054740 -0.242780 6.061590 255 71 0 0.967552
1.071300 -0.212743 6.079070 255 138 0 0.952031
1.017850 -0.303985 6.034180 169 0 0 0.992770
0.905464 -0.330404 5.994090 137 0 0 0.997902
0.921873 -0.298328 6.006050 142 0 0 0.997307
0.900724 -0.298116 5.998810 142 0 0 0.997411
0.883961 -0.330765 5.986790 146 0 0 0.996768
0.918162 -0.263234 6.008690 160 0 0 0.994259
0.877832 -0.298518 5.991000 142 0 0 0.997093
0.895854 -0.263937 6.001520 151 0 0 0.995763
0.860747 -0.332961 5.979470 160 0 0 0.994660
0.912232 -0.227100 6.010320 219 0 0 0.985173
0.927190 -0.191873 6.020290 255 101 0 0.961100
0.933715 -0.228316 6.018460 233 1 0 0.982567
0.949676 -0.193620 6.030220 255 97 0 0.962101
0.956385 -0.229354 6.027410 246 12 0 0.980602
0.939583 -0.263712 6.016310 173 0 0 0.992417
0.971568 -0.195755 6.039600 255 97 0 0.962062
0.956507 -0.108964 6.074950 255 227 0 0.930677
0.981088 -0.112905 6.088130 255 204 0 0.935603
0.970645 -0.137774 6.064880 255 182 0 0.941702
1.004410 -0.115875 6.100120 255 230 0 0.929628
0.994551 -0.140741 6.076550 255 178 0 0.942455
1.018530 -0.144858 6.089130 255 171 0 0.944145
1.028880 -0.122023 6.113930 255 234 0 0.928362
0.982805 -0.167366 6.055910 255 153 0 0.949138
1.006800 -0.170392 6.067700 255 149 0 0.949612
0.960355 -0.165004 6.046410 255 138 0 0.952690
0.938176 -0.162413 6.036540 255 141 0 0.951353
0.948104 -0.135076 6.055010 255 182 0 0.941900
1.050730 -0.127737 6.125160 251 241 0 0.926621
1.073300 -0.133246 6.137530 245 249 3 0.924262
1.058750 -0.154481 6.107360 255 208 0 0.934818
1.094980 -0.139865 6.150190 232 255 16 0.920808
1.081140 -0.160669 6.119130 255 223 0 0.931488
1.104070 -0.167777 6.133460 255 171 0 0.944356
1.118600 -0.148178 6.164640 245 249 3 0.924710
1.066000 -0.184176 6.093720 255 145 0 0.950976
1.088300 -0.189388 6.104900 255 160 0 0.947312
1.045690 -0.179268 6.084460 255 156 0 0.947580
1.026290 -0.174141 6.074930 255 164 0 0.945880
1.038180 -0.149650 6.098520 255 186 0 0.940390
0.841329 -0.371784 5.969080 187 0 0 0.990217
0.865927 -0.367143 5.978960 187 0 0 0.990441
0.848802 -0.404325 5.966770 192 0 0 0.989453
0.887979 -0.365448 5.986450 173 0 0 0.992648
0.871407 -0.400319 5.976060 192 0 0 0.989377
0.892239 -0.398605 5.983390 183 0 0 0.990798
0.908162 -0.365455 5.993530 164 0 0 0.993560
0.856709 -0.435404 5.960880 164 0 0 0.994070
0.877046 -0.432228 5.969950 169 0 0 0.993114
0.863940 -0.465568 5.953230 146 0 0 0.996869
0.844657 -0.469254 5.943530 142 0 0 0.997323
0.836181 -0.438758 5.951360 155 0 0 0.995046
0.826909 -0.471105 5.933980 142 0 0 0.997164
0.817267 -0.440856 5.940840 142 0 0 0.997100
0.827390 -0.407525 5.956220 178 0 0 0.991961
0.809953 -0.471400 5.925170 146 0 0 0.996711
0.944533 -0.367119 6.005170 155 0 0 0.995088
0.926556 -0.400857 5.994980 178 0 0 0.991745
0.961963 -0.401925 6.006130 164 0 0 0.993575
0.980220 -0.368880 6.015290 146 0 0 0.996838
0.927955 -0.434284 5.987720 164 0 0 0.993881
0.930036 -0.466287 5.978580 146 0 0 0.996542
0.898021 -0.464488 5.967130 151 0 0 0.996040
0.876512 -0.600768 5.936880 255 34 0 0.975743
0.873569 -0.568445 5.941210 219 0 0 0.985033
0.849037 -0.602452 5.922070 255 67 0 0.968301
0.870617 -0.534697 5.945890 183 0 0 0.991145
0.844925 -0.569738 5.925910 228 0 0 0.983599
0.840306 -0.536612 5.929720 183 0 0 0.990955
0.821213 -0.602047 5.907150 255 119 0 0.957091
0.867230 -0.500475 5.950350 160 0 0 0.994569
0.899957 -0.499430 5.963990 169 0 0 0.993179
0.901526 -0.533901 5.959120 187 0 0 0.989978
0.814787 -0.569831 5.910770 242 8 0 0.981072
0.791995 -0.599810 5.893830 255 123 0 0.956222
0.808398 -0.537524 5.913290 196 0 0 0.988680
0.817421 -0.505255 5.923450 160 0 0 0.994363
0.833860 -0.503939 5.932780 155 0 0 0.995498
0.824165 -0.537446 5.921650 183 0 0 0.991004
0.686368 -0.805520 5.922170 255 219 0 0.932062
0.712284 -0.782260 5.914690 255 219 0 0.932423
0.724067 -0.752937 5.903670 255 201 0 0.936567
0.748841 -0.727927 5.899800 255 219 0 0.931886
0.720679 -0.721178 5.888260 255 234 0 0.928341
0.751506 -0.759884 5.915440 255 201 0 0.937213
0.775975 -0.733451 5.911730 255 208 0 0.935463
0.764326 -0.764634 5.923340 255 182 0 0.941936
0.739276 -0.791378 5.928150 255 208 0 0.934724
0.752174 -0.796018 5.936030 255 190 0 0.939438
0.726359 -0.822872 5.941610 242 253 6 0.923839
0.713712 -0.816758 5.934560 251 241 0 0.926022
0.739646 -0.827625 5.950340 255 219 0 0.932067
0.730641 -0.690874 5.886990 255 145 0 0.950376
0.756094 -0.661408 5.889410 255 119 0 0.956268
0.766794 -0.629702 5.888700 255 101 0 0.960842
0.795965 -0.632668 5.900320 255 104 0 0.960426
0.784449 -0.666004 5.901040 255 127 0 0.955158
0.773170 -0.698335 5.902910 255 153 0 0.948515
0.863682 -0.636545 5.935080 255 49 0 0.972757
0.838456 -0.670529 5.928030 255 82 0 0.964973
0.826406 -0.705045 5.929210 255 112 0 0.958644
0.802344 -0.737917 5.925040 255 190 0 0.939562
0.827425 -0.740756 5.939540 255 138 0 0.952512
0.800675 -0.701634 5.915190 255 138 0 0.952154
0.812074 -0.668829 5.914360 255 101 0 0.961110
0.823717 -0.635970 5.913670 255 90 0 0.963381
0.815388 -0.773364 5.953480 255 90 0 0.963280
0.790801 -0.803649 5.959190 255 119 0 0.956739
0.778608 -0.837195 5.975450 255 145 0 0.950556
0.790153 -0.768783 5.937010 255 149 0 0.949687
1.107770 -0.839985 6.146930 214 0 0 0.985337
1.111200 -0.817346 6.130960 214 0 0 0.985517
1.086890 -0.842322 6.141480 196 0 0 0.988837
1.116190 -0.794835 6.115070 228 0 0 0.983313
1.090170 -0.819802 6.125250 201 0 0 0.987721
1.094620 -0.797456 6.108740 214 0 0 0.985522
1.065870 -0.844200 6.136230 183 0 0 0.990950
1.120700 -0.772462 6.098590 255 23 0 0.977963
1.125010 -0.750157 6.081960 255 75 0 0.966842
1.145700 -0.749901 6.088930 255 97 0 0.961735
1.141140 -0.772297 6.105380 255 49 0 0.972093
1.136180 -0.794792 6.121600 255 19 0 0.979056
1.069560 -0.820748 6.118820 183 0 0 0.990814
1.044340 -0.846265 6.130150 164 0 0 0.993507
1.074280 -0.797296 6.101230 192 0 0 0.989404
1.047930 -0.823116 6.112300 173 0 0 0.992511
1.052610 -0.799896 6.094440 187 0 0 0.990033
1.023340 -0.848514 6.123780 160 0 0 0.994218
1.078960 -0.773668 6.083560 223 0 0 0.984430
1.083300 -0.750178 6.065840 255 45 0 0.973033
1.104280 -0.750071 6.073870 255 64 0 0.968887
1.099330 -0.773784 6.091330 255 19 0 0.979024
1.150130 -0.637814 6.041870 255 175 0 0.943750
1.144110 -0.666433 6.051530 255 130 0 0.953937
1.170650 -0.640332 6.049810 255 156 0 0.947801
1.137670 -0.694653 6.061320 255 104 0 0.960137
1.164170 -0.668901 6.059470 255 134 0 0.953373
1.157240 -0.697035 6.069220 255 119 0 0.956602
1.131540 -0.722539 6.071510 255 86 0 0.964310
1.110270 -0.722538 6.063430 255 78 0 0.966282
1.116120 -0.694662 6.053340 255 86 0 0.963975
1.162280 -0.723572 6.082720 255 112 0 0.958272
1.111240 -0.353063 6.048260 223 0 0 0.983842
1.119510 -0.323195 6.061450 242 8 0 0.981379
1.085680 -0.347722 6.041970 219 0 0 0.984895
1.126630 -0.292955 6.074640 255 60 0 0.969869
1.091290 -0.317664 6.053160 242 8 0 0.981008
1.097600 -0.286574 6.065660 255 41 0 0.974002
1.059210 -0.342322 6.035430 178 0 0 0.991368
1.132900 -0.261896 6.088580 255 119 0 0.956865
1.137390 -0.231506 6.104970 255 149 0 0.950012
1.166010 -0.241332 6.116930 255 171 0 0.944733
1.160320 -0.271009 6.099120 255 101 0 0.961328
1.152100 -0.301371 6.082920 255 53 0 0.971918
1.064280 -0.311389 6.045780 201 0 0 0.988153
1.029330 -0.338102 6.028330 160 0 0 0.994516
1.067860 -0.279042 6.055970 255 23 0 0.977642
1.085450 -0.250479 6.072300 255 90 0 0.963122
1.104880 -0.221757 6.091620 255 178 0 0.942978
1.138230 -0.179121 6.149310 255 234 0 0.928895
1.138370 -0.203807 6.125100 255 178 0 0.942231
1.184650 -0.372879 6.068970 233 1 0 0.982790
1.182200 -0.341179 6.080510 255 27 0 0.977296
1.161560 -0.365429 6.061750 246 12 0 0.979943
1.158080 -0.333626 6.072900 255 23 0 0.978254
1.137700 -0.358897 6.055610 214 0 0 0.985286
1.179290 -0.308474 6.092700 255 56 0 0.971171
1.176450 -0.609840 6.048890 255 153 0 0.948929
0.685620 -1.071320 6.550860 255 101 0 0.961027
0.673471 -1.063130 6.572970 255 56 0 0.970854
0.661949 -1.062010 6.563830 255 34 0 0.975504
0.650070 -1.053320 6.586070 237 4 0 0.981652
0.661377 -1.054700 6.595150 255 23 0 0.978246
0.639849 -1.054450 6.578350 255 23 0 0.977797
0.637972 -1.044390 6.608370 214 0 0 0.985345
0.627570 -1.045130 6.600540 223 0 0 0.984249
0.614717 -1.035320 6.622560 201 0 0 0.987710
0.649011 -1.045810 6.617290 242 8 0 0.981318
0.625985 -1.035190 6.630880 205 0 0 0.987376
0.637772 -1.036890 6.640100 228 0 0 0.983476
0.617571 -1.046560 6.593250 255 23 0 0.977784
0.604679 -1.036660 6.615460 223 0 0 0.983881
0.594603 -1.038230 6.608390 255 30 0 0.976628
0.606366 -1.044990 6.586220 255 23 0 0.977990
0.629111 -1.053020 6.571360 255 19 0 0.978703
0.617930 -1.051750 6.564260 255 27 0 0.977317
0.640217 -1.059360 6.549350 255 30 0 0.976393
0.651040 -1.060250 6.556420 255 30 0 0.976530
0.662040 -1.066170 6.534340 255 41 0 0.974245
0.628970 -1.058240 6.542010 255 41 0 0.973783
0.651197 -1.065560 6.527170 255 56 0 0.970507
0.639938 -1.065080 6.519910 255 75 0 0.966982
0.672912 -1.067340 6.541830 255 45 0 0.973359
0.628245 -1.029420 6.658230 223 0 0 0.983874
0.615409 -1.027250 6.650840 201 0 0 0.987848
0.605594 -1.019450 6.668990 196 0 0 0.988581
0.618393 -1.021790 6.676260 228 0 0 0.983490
0.592808 -1.018560 6.662190 192 0 0 0.989721
0.595446 -1.011640 6.687120 192 0 0 0.989348
0.582944 -1.010820 6.680810 192 0 0 0.989733
0.608748 -1.014100 6.694460 205 0 0 0.986755
0.571057 -1.011390 6.675360 201 0 0 0.987505
0.560880 -1.012830 6.668870 223 0 0 0.984299
0.581978 -1.020010 6.655150 210 0 0 0.986293
0.572143 -1.021400 6.648550 237 4 0 0.981979
0.593334 -1.028290 6.635130 219 0 0 0.984977
0.603709 -1.026910 6.642170 192 0 0 0.989307
0.583040 -1.029790 6.628070 251 16 0 0.979396
0.529045 -0.997288 6.647690 155 0 0 0.995413
0.540287 -1.005620 6.626570 155 0 0 0.994992
0.551641 -1.011170 6.635000 178 0 0 0.991538
0.551706 -1.013900 6.605850 160 0 0 0.994584
0.563236 -1.019330 6.614210 183 0 0 0.991167
0.574923 -1.027420 6.593800 183 0 0 0.991135
0.563255 -1.022100 6.585310 160 0 0 0.994337
0.573430 -1.024790 6.621700 214 0 0 0.985924
0.585327 -1.032800 6.601440 210 0 0 0.986003
0.562308 -1.016320 6.642050 205 0 0 0.987406
0.551194 -1.007740 6.662570 196 0 0 0.988932
0.540669 -1.002480 6.655660 169 0 0 0.993214
0.573851 -1.029400 6.562760 164 0 0 0.993806
0.585014 -1.035800 6.540670 169 0 0 0.993017
0.596592 -1.041480 6.548770 192 0 0 0.989131
0.596333 -1.042170 6.518440 183 0 0 0.990682
0.607839 -1.047680 6.526610 201 0 0 0.987895
0.619755 -1.054200 6.504640 228 0 0 0.983369
0.607527 -1.048710 6.495960 205 0 0 0.986837
0.618852 -1.053450 6.534490 242 8 0 0.980766
0.630291 -1.059660 6.512440 255 34 0 0.975833
0.607569 -1.046370 6.556630 219 0 0 0.985162
0.596610 -1.039720 6.579100 205 0 0 0.986804
0.585916 -1.034520 6.571270 183 0 0 0.990930
1.103560 -0.387617 6.043170 169 0 0 0.993313
1.096420 -0.421128 6.036080 160 0 0 0.994739
1.128750 -0.393120 6.049120 178 0 0 0.991771
1.119700 -0.426852 6.041240 169 0 0 0.992914
1.088550 -0.454436 6.026800 160 0 0 0.994205
1.083630 -0.486239 6.016520 214 0 0 0.985564
1.059210 -0.482281 6.010730 192 0 0 0.989620
1.064930 -0.449494 6.021830 142 0 0 0.997074
1.071610 -0.416390 6.031060 137 0 0 0.997954
1.035050 -0.478310 6.005170 164 0 0 0.993579
1.152020 -0.399540 6.055350 183 0 0 0.990830
1.143040 -0.432926 6.047430 169 0 0 0.992732
1.175380 -0.406280 6.061380 205 0 0 0.987285
1.165160 -0.439238 6.052220 205 0 0 0.987359
1.135090 -0.465098 6.037840 201 0 0 0.987513
1.129210 -0.496836 6.027900 255 45 0 0.972919
1.106180 -0.491335 6.021840 251 16 0 0.979171
1.111950 -0.459514 6.032190 196 0 0 0.988900
1.062960 -0.624111 6.007240 255 101 0 0.960834
1.067120 -0.590356 6.008680 255 53 0 0.971413
1.040920 -0.620591 5.998830 255 90 0 0.963830
1.072140 -0.555825 6.010790 255 19 0 0.978416
1.044890 -0.586244 6.001000 255 38 0 0.975120
1.049490 -0.551970 6.003610 246 12 0 0.979908
1.019530 -0.616518 5.990660 255 64 0 0.968909
1.077880 -0.521068 6.013700 233 1 0 0.982747
1.100400 -0.526239 6.019880 255 23 0 0.977901
1.094910 -0.560953 6.017870 255 45 0 0.973113
