ply
format ascii 1.0
comment VCGLIB generated
element vertex 1023
property float x
property float y
property float z
property uchar red
property uchar green
property uchar blue
property float quality
end_header
-0.379705 -0.423134 5.306700 210 0 0 0.987068
-0.360474 -0.431796 5.307940 201 0 0 0.988545
-0.338451 -0.432723 5.313020 223 0 0 0.985488
-0.365911 -0.450032 5.299260 183 0 0 0.991412
-0.385322 -0.440606 5.297460 192 0 0 0.989976
-0.340169 -0.263443 5.393770 255 93 0 0.965827
-0.316225 -0.264876 5.397390 255 78 0 0.968696
-0.328807 -0.276464 5.391000 255 45 0 0.975251
-0.293099 -0.267038 5.403350 255 64 0 0.971629
-0.305454 -0.278583 5.396230 255 27 0 0.978595
-0.282846 -0.281041 5.402060 246 12 0 0.981573
-0.270234 -0.269545 5.409160 255 56 0 0.972923
-0.318074 -0.289691 5.388810 246 12 0 0.981969
-0.294976 -0.292552 5.394530 219 0 0 0.985719
-0.307124 -0.303308 5.386550 210 0 0 0.987586
-0.330435 -0.301971 5.381680 223 0 0 0.985539
-0.341578 -0.288958 5.384300 251 16 0 0.980860
-0.354408 -0.301064 5.377490 237 4 0 0.983484
-0.365269 -0.288495 5.380780 255 27 0 0.979209
-0.352695 -0.275954 5.387190 255 60 0 0.972281
-0.376663 -0.276234 5.384280 255 75 0 0.969354
-0.377425 -0.300826 5.374150 242 8 0 0.982248
-0.388559 -0.288529 5.378060 255 56 0 0.973307
-0.400239 -0.300927 5.370760 255 41 0 0.975882
-0.364437 -0.263492 5.390590 255 108 0 0.962188
-0.249578 -0.276205 5.417570 233 1 0 0.983922
-0.229581 -0.284118 5.425990 192 0 0 0.990387
-0.221616 -0.301447 5.425580 160 0 0 0.994828
-0.243613 -0.322619 5.408960 160 0 0 0.995211
-0.252704 -0.304894 5.409830 164 0 0 0.994054
-0.264044 -0.316317 5.402030 160 0 0 0.995177
-0.273696 -0.298637 5.402490 183 0 0 0.991483
-0.261785 -0.287525 5.410290 201 0 0 0.988965
-0.285321 -0.309570 5.394260 183 0 0 0.991797
-0.284850 -0.362582 5.378490 169 0 0 0.993595
-0.296274 -0.346542 5.379380 164 0 0 0.994094
-0.318766 -0.342005 5.372120 169 0 0 0.993602
-0.330392 -0.326121 5.372870 187 0 0 0.991170
-0.351709 -0.349439 5.357520 169 0 0 0.993541
-0.263599 -0.341466 5.393800 164 0 0 0.994268
-0.375441 -0.349375 5.353600 183 0 0 0.991681
-0.363998 -0.336412 5.360280 187 0 0 0.990585
-0.387335 -0.336512 5.356600 205 0 0 0.987806
-0.398522 -0.349109 5.349070 196 0 0 0.989601
-0.375850 -0.323872 5.363370 214 0 0 0.986760
-0.410891 -0.337127 5.352740 228 0 0 0.984473
-0.399646 -0.324383 5.359990 237 4 0 0.983330
-0.422560 -0.325852 5.357040 255 30 0 0.978047
-0.421656 -0.349657 5.345930 210 0 0 0.987192
-0.433850 -0.338025 5.349750 255 23 0 0.979532
-0.445320 -0.350212 5.342140 255 34 0 0.977365
-0.411867 -0.313393 5.364510 255 34 0 0.977123
-0.645089 -0.202890 5.576420 146 0 0 0.997261
-0.634675 -0.186511 5.590130 142 0 0 0.997340
-0.655987 -0.187503 5.600060 146 0 0 0.997158
-0.624063 -0.170271 5.603900 142 0 0 0.997509
-0.645533 -0.171767 5.614200 142 0 0 0.997486
-0.634648 -0.156025 5.628670 142 0 0 0.997423
-0.666545 -0.172782 5.624040 146 0 0 0.996868
-0.613218 -0.154335 5.617720 146 0 0 0.996972
-0.601809 -0.138153 5.632130 155 0 0 0.995538
-0.589145 -0.153673 5.602970 155 0 0 0.995377
-0.599976 -0.170191 5.589740 146 0 0 0.996992
-0.610848 -0.186952 5.576560 142 0 0 0.997459
-0.575961 -0.169602 5.575020 155 0 0 0.995590
-0.658079 -0.157635 5.640800 142 0 0 0.997617
-0.679069 -0.160213 5.649300 146 0 0 0.997071
-0.649851 -0.142917 5.657610 137 0 0 0.998069
-0.670432 -0.145710 5.666690 137 0 0 0.998058
-0.633845 -0.134359 5.660000 142 0 0 0.997756
-0.617221 -0.125319 5.662300 146 0 0 0.996848
-0.564207 -0.098294 5.675780 151 0 0 0.996104
-0.582761 -0.106961 5.672080 151 0 0 0.996376
-0.555012 -0.104733 5.658560 160 0 0 0.995101
-0.574397 -0.113879 5.654980 155 0 0 0.995876
-0.565258 -0.120471 5.638050 155 0 0 0.995320
-0.546396 -0.111643 5.641150 160 0 0 0.995067
-0.592739 -0.122617 5.651700 151 0 0 0.996476
-0.583767 -0.129427 5.635210 155 0 0 0.995810
-0.607828 -0.110149 5.682290 142 0 0 0.997315
-0.532854 -0.126442 5.609100 164 0 0 0.994402
-0.552858 -0.135050 5.608170 160 0 0 0.994791
-0.525295 -0.134063 5.592870 173 0 0 0.992908
-0.545318 -0.143145 5.592110 164 0 0 0.994606
-0.537807 -0.151162 5.576390 164 0 0 0.994279
-0.517287 -0.141652 5.577150 169 0 0 0.993634
-0.564800 -0.152115 5.591210 155 0 0 0.995397
-0.557093 -0.160453 5.575780 160 0 0 0.995029
-0.471510 -0.134056 5.563220 183 0 0 0.991874
-0.450756 -0.126412 5.566380 178 0 0 0.992074
-0.446005 -0.135827 5.548780 183 0 0 0.991378
-0.430047 -0.119208 5.570650 178 0 0 0.992149
-0.424920 -0.128504 5.552250 183 0 0 0.991725
-0.403245 -0.121519 5.556440 192 0 0 0.990067
-0.408281 -0.112718 5.574710 187 0 0 0.991077
-0.419709 -0.137817 5.534610 196 0 0 0.989506
-0.398067 -0.130765 5.538470 201 0 0 0.988494
-0.393153 -0.140141 5.520910 223 0 0 0.985489
-0.415191 -0.146494 5.519070 205 0 0 0.988434
-0.441516 -0.144541 5.533300 192 0 0 0.990286
-0.437091 -0.153326 5.518050 201 0 0 0.989129
-0.463270 -0.151636 5.532540 192 0 0 0.990367
-0.467487 -0.142701 5.547890 187 0 0 0.991126
-0.487851 -0.149830 5.547480 183 0 0 0.991421
-0.458354 -0.160649 5.517700 192 0 0 0.990042
-0.483315 -0.158824 5.532570 187 0 0 0.991146
-0.478348 -0.167922 5.517790 192 0 0 0.990216
-0.492406 -0.141034 5.562560 183 0 0 0.991794
-0.384707 -0.109395 5.578940 173 0 0 0.993067
-0.361748 -0.105231 5.585190 169 0 0 0.993263
-0.355486 -0.115200 5.564350 178 0 0 0.992375
-0.338747 -0.101553 5.591690 173 0 0 0.992730
-0.332985 -0.111493 5.570740 178 0 0 0.992243
-0.326643 -0.121762 5.550490 192 0 0 0.990328
-0.321658 -0.130917 5.533060 210 0 0 0.987710
-0.350360 -0.124297 5.546080 187 0 0 0.990617
-0.345165 -0.133386 5.528520 210 0 0 0.987732
-0.374386 -0.127281 5.542070 192 0 0 0.990105
-0.379565 -0.118129 5.560260 183 0 0 0.991716
-0.369491 -0.136518 5.524420 210 0 0 0.987506
-0.317605 -0.172482 5.469860 255 71 0 0.969964
-0.317522 -0.162267 5.483360 255 41 0 0.975811
-0.342056 -0.164024 5.480430 255 38 0 0.976399
-0.341727 -0.174214 5.466780 255 71 0 0.970394
-0.342426 -0.154370 5.494540 251 16 0 0.981206
-0.366269 -0.166373 5.478160 255 41 0 0.975777
-0.366805 -0.156646 5.492310 251 16 0 0.980896
-0.391174 -0.159679 5.490870 255 19 0 0.980408
-0.365659 -0.176626 5.464750 255 67 0 0.971127
-0.390600 -0.169455 5.476990 255 41 0 0.975805
-0.389647 -0.179467 5.463480 255 71 0 0.970388
-0.367977 -0.147299 5.506960 223 0 0 0.985055
-0.392314 -0.150091 5.505590 233 1 0 0.983636
-0.343524 -0.143981 5.510950 223 0 0 0.985115
-0.320073 -0.141402 5.515430 228 0 0 0.984718
-0.318691 -0.151737 5.498980 251 16 0 0.980889
-0.412186 -0.185673 5.464300 255 34 0 0.977120
-0.434091 -0.182809 5.477200 233 1 0 0.984117
-0.455140 -0.189954 5.479330 205 0 0 0.987947
-0.476314 -0.187735 5.493430 183 0 0 0.991441
-0.474833 -0.206668 5.470070 196 0 0 0.989245
-0.456489 -0.170928 5.502900 196 0 0 0.989474
-0.435937 -0.163451 5.503410 210 0 0 0.987595
-0.414216 -0.156609 5.504020 219 0 0 0.985798
-0.413724 -0.166520 5.489450 233 1 0 0.983938
-0.458392 -0.209576 5.458650 219 0 0 0.986170
-0.437813 -0.202459 5.456460 246 12 0 0.981628
-0.420420 -0.205850 5.445390 255 45 0 0.975044
-0.398781 -0.199873 5.443720 255 86 0 0.966870
-0.407604 -0.220105 5.425550 255 101 0 0.964224
-0.429431 -0.226615 5.428100 255 49 0 0.974259
-0.446373 -0.223216 5.439170 255 19 0 0.980503
-0.467132 -0.230513 5.442250 219 0 0 0.985929
-0.483237 -0.227740 5.454010 187 0 0 0.990734
-0.491319 -0.248167 5.437590 201 0 0 0.989013
-0.351237 -0.193806 5.443670 255 116 0 0.960738
-0.327435 -0.192082 5.446310 255 112 0 0.961326
-0.337514 -0.212040 5.426760 255 138 0 0.956210
-0.361202 -0.213973 5.425410 255 119 0 0.959624
-0.379918 -0.206510 5.434120 255 97 0 0.964685
-0.365624 -0.242372 5.402600 255 134 0 0.956859
-0.388846 -0.245700 5.403450 255 93 0 0.965159
-0.411696 -0.250062 5.404440 255 64 0 0.971186
-0.425265 -0.243143 5.412280 255 71 0 0.969932
-0.441826 -0.265633 5.399090 255 56 0 0.973091
-0.393348 -0.227082 5.417450 255 104 0 0.962880
-0.462662 -0.272420 5.402270 255 23 0 0.979282
-0.482995 -0.279915 5.405930 228 0 0 0.984309
-0.466491 -0.256282 5.417390 251 16 0 0.981048
-0.486538 -0.264157 5.421610 210 0 0 0.987418
-0.506419 -0.272468 5.426110 173 0 0 0.992681
-0.502938 -0.287401 5.409540 205 0 0 0.988349
-0.522371 -0.295625 5.413080 169 0 0 0.993323
-0.446244 -0.249625 5.414700 255 41 0 0.976192
-0.525770 -0.456595 5.278040 255 38 0 0.976647
-0.550560 -0.474876 5.269210 255 30 0 0.978456
-0.527250 -0.477384 5.266230 233 1 0 0.984159
-0.552201 -0.494730 5.256940 242 8 0 0.982789
-0.575172 -0.493371 5.260890 255 19 0 0.980126
-0.598873 -0.510803 5.250440 255 41 0 0.976210
-0.601141 -0.491025 5.267090 255 49 0 0.974845
-0.577310 -0.472847 5.276500 255 30 0 0.978367
-0.552755 -0.453473 5.284320 255 49 0 0.974734
-0.602513 -0.471736 5.284070 255 53 0 0.973703
-0.523122 -0.498440 5.253160 196 0 0 0.989349
-0.541709 -0.516032 5.241740 201 0 0 0.988503
-0.519530 -0.517909 5.240100 183 0 0 0.991699
-0.566280 -0.522740 5.237790 219 0 0 0.986150
-0.590165 -0.529492 5.233820 251 16 0 0.981377
-0.647870 -0.560049 5.222990 255 56 0 0.972715
-0.668775 -0.570522 5.220320 255 86 0 0.967023
-0.626797 -0.549796 5.226290 255 30 0 0.978470
-0.639835 -0.534047 5.247170 255 30 0 0.977901
-0.659491 -0.545524 5.245170 255 38 0 0.976378
-0.679260 -0.557324 5.242980 255 67 0 0.970911
-0.612732 -0.530930 5.238940 255 23 0 0.979852
-0.603460 -0.548855 5.221410 233 1 0 0.984063
-0.684223 -0.549633 5.256760 255 30 0 0.977820
-0.664868 -0.528865 5.267840 242 8 0 0.982170
-0.689267 -0.542156 5.270390 246 12 0 0.981834
-0.640196 -0.516301 5.265660 255 23 0 0.979904
-0.669496 -0.521185 5.281090 210 0 0 0.987381
-0.646028 -0.507694 5.277810 242 8 0 0.982590
-0.651253 -0.499546 5.290660 219 0 0 0.986079
-0.693419 -0.535532 5.284990 196 0 0 0.989495
-0.674492 -0.513905 5.294980 192 0 0 0.990368
-0.697809 -0.529647 5.300720 160 0 0 0.994774
-0.621702 -0.494683 5.275210 255 23 0 0.979343
-0.627737 -0.485589 5.287150 246 12 0 0.981706
-0.620023 -0.513133 5.257910 255 34 0 0.977545
-0.505543 -0.306866 5.393000 205 0 0 0.988119
-0.485644 -0.299274 5.390290 237 4 0 0.983414
-0.465053 -0.292229 5.387640 255 27 0 0.978883
-0.488706 -0.318791 5.373930 255 30 0 0.978433
-0.508679 -0.326610 5.377040 223 0 0 0.985591
-0.528913 -0.334904 5.379910 192 0 0 0.990323
-0.525203 -0.315413 5.396680 178 0 0 0.991917
-0.544763 -0.324355 5.400620 155 0 0 0.995740
-0.548352 -0.343713 5.383070 160 0 0 0.994786
-0.567577 -0.352609 5.386770 142 0 0 0.997459
-0.409872 -0.269456 5.390400 255 71 0 0.970015
-0.421227 -0.281988 5.384160 255 56 0 0.973033
-0.432677 -0.295308 5.378430 255 38 0 0.976460
-0.444459 -0.308764 5.371980 255 19 0 0.980483
-0.466573 -0.313601 5.372840 251 16 0 0.980843
-0.468782 -0.355591 5.342310 255 27 0 0.978984
-0.492182 -0.361472 5.342400 255 23 0 0.979378
-0.466848 -0.333761 5.356660 255 27 0 0.979035
-0.490219 -0.339980 5.358270 255 23 0 0.979557
-0.512762 -0.347015 5.359520 242 8 0 0.982373
-0.515175 -0.367913 5.343270 255 19 0 0.980524
-0.538187 -0.374548 5.344150 255 19 0 0.980042
-0.558125 -0.383319 5.347650 210 0 0 0.987634
-0.577669 -0.392538 5.351320 178 0 0 0.992341
-0.553153 -0.362728 5.364710 196 0 0 0.989590
-0.572423 -0.372360 5.369150 155 0 0 0.995310
-0.591495 -0.381889 5.373580 142 0 0 0.997739
-0.596773 -0.401975 5.355330 155 0 0 0.995746
-0.615674 -0.411325 5.359350 142 0 0 0.997763
-0.533388 -0.354391 5.361940 223 0 0 0.985426
-0.623682 -0.204387 5.564610 142 0 0 0.997912
-0.602283 -0.205577 5.552650 137 0 0 0.998305
-0.589166 -0.187515 5.563730 142 0 0 0.997454
-0.567288 -0.187503 5.550390 146 0 0 0.996779
-0.580643 -0.205793 5.539580 137 0 0 0.998216
-0.558814 -0.205364 5.526400 142 0 0 0.997800
-0.595313 -0.223192 5.531800 133 0 0 0.998682
-0.616939 -0.222437 5.544160 133 0 0 0.998705
-0.638575 -0.220665 5.555180 137 0 0 0.998183
-0.631655 -0.238719 5.534860 133 0 0 0.998834
-0.552303 -0.170158 5.561410 155 0 0 0.995567
-0.533308 -0.160540 5.561560 160 0 0 0.995018
-0.528289 -0.169669 5.547360 160 0 0 0.994620
-0.513240 -0.150867 5.561850 169 0 0 0.993630
-0.508498 -0.159922 5.547360 169 0 0 0.993426
-0.503817 -0.169084 5.532730 169 0 0 0.993352
-0.520234 -0.187178 5.521930 155 0 0 0.995599
-0.544133 -0.187790 5.536740 146 0 0 0.996785
-0.495768 -0.216420 5.474240 164 0 0 0.994444
-0.516623 -0.217227 5.488250 142 0 0 0.997579
-0.536424 -0.226099 5.492310 133 0 0 0.998753
-0.556512 -0.225236 5.506120 133 0 0 0.998899
-0.555206 -0.244504 5.486080 128 0 0 0.999352
-0.538344 -0.206960 5.512360 142 0 0 0.997723
-0.498390 -0.187657 5.507730 164 0 0 0.994341
-0.574224 -0.253787 5.490680 133 0 0 0.998967
-0.593142 -0.252985 5.502920 137 0 0 0.998614
-0.611907 -0.261002 5.505960 137 0 0 0.998455
-0.630602 -0.259056 5.517200 133 0 0 0.998659
-0.630488 -0.278361 5.499100 137 0 0 0.998529
-0.612547 -0.241812 5.523640 133 0 0 0.998736
-0.576368 -0.224324 5.519240 133 0 0 0.998887
-0.615535 -0.281224 5.489110 137 0 0 0.998333
-0.596596 -0.273131 5.486460 137 0 0 0.998327
-0.581817 -0.274843 5.475530 133 0 0 0.998881
-0.562682 -0.266045 5.471380 128 0 0 0.999435
-0.570428 -0.286798 5.455760 128 0 0 0.999493
-0.589329 -0.295567 5.460340 133 0 0 0.998695
-0.603925 -0.294109 5.471170 137 0 0 0.998231
-0.622899 -0.302271 5.474300 137 0 0 0.998161
-0.637929 -0.299539 5.484410 137 0 0 0.998371
-0.645823 -0.320388 5.468750 137 0 0 0.998469
-0.538926 -0.246404 5.473610 128 0 0 0.999363
-0.519557 -0.236891 5.469860 142 0 0 0.997880
-0.503452 -0.237295 5.457740 155 0 0 0.995830
-0.511306 -0.258105 5.442420 155 0 0 0.995385
-0.527182 -0.257553 5.454370 137 0 0 0.998520
-0.546860 -0.267272 5.459260 128 0 0 0.999530
-0.542014 -0.305501 5.417250 146 0 0 0.997125
-0.561511 -0.315350 5.421180 133 0 0 0.999048
-0.546318 -0.291402 5.434370 133 0 0 0.999053
-0.565687 -0.301160 5.438870 128 0 0 0.999365
-0.584662 -0.310145 5.442700 128 0 0 0.999285
-0.580697 -0.324404 5.425530 128 0 0 0.999350
-0.599482 -0.333470 5.428750 133 0 0 0.999267
-0.526307 -0.281996 5.430370 146 0 0 0.996962
-0.617130 -0.342299 5.432470 133 0 0 0.998632
-0.634921 -0.350249 5.436060 137 0 0 0.997996
-0.622215 -0.328021 5.449580 137 0 0 0.998279
-0.639818 -0.336091 5.452560 142 0 0 0.997812
-0.657839 -0.343597 5.455210 142 0 0 0.997945
-0.652496 -0.358447 5.438970 142 0 0 0.997525
-0.671099 -0.366439 5.441690 142 0 0 0.997779
-0.603630 -0.319429 5.446470 133 0 0 0.998668
-0.889032 -0.911622 5.832070 187 0 0 0.990864
-0.868399 -0.913128 5.844740 187 0 0 0.990848
-0.861743 -0.924978 5.823740 201 0 0 0.988824
-0.882342 -0.921400 5.810340 196 0 0 0.989610
-0.841320 -0.928805 5.836280 201 0 0 0.988838
-0.855783 -0.935731 5.802430 210 0 0 0.987225
-0.835550 -0.941219 5.815770 210 0 0 0.987454
-0.830185 -0.952246 5.795290 223 0 0 0.985281
-0.876116 -0.930596 5.788430 201 0 0 0.988470
-0.849949 -0.945171 5.781420 214 0 0 0.986970
-0.869832 -0.937929 5.766860 196 0 0 0.989180
-0.815700 -0.946742 5.828320 214 0 0 0.986407
-0.810730 -0.959346 5.808800 246 12 0 0.982071
-0.791359 -0.965871 5.821470 255 38 0 0.976967
-0.796585 -0.949683 5.842550 214 0 0 0.986692
-0.821522 -0.930490 5.850030 192 0 0 0.990280
-0.802099 -0.932909 5.863600 183 0 0 0.991395
-0.828262 -0.914374 5.872510 192 0 0 0.989914
-0.848558 -0.913888 5.859090 192 0 0 0.990331
-0.808695 -0.916293 5.885540 187 0 0 0.990787
-0.865737 -0.942746 5.742200 178 0 0 0.992433
-0.845537 -0.952733 5.756310 201 0 0 0.988621
-0.841172 -0.957581 5.732300 183 0 0 0.991887
-0.862133 -0.945878 5.717240 155 0 0 0.995633
-0.821211 -0.969093 5.745680 210 0 0 0.987162
-0.836585 -0.961292 5.708000 160 0 0 0.994949
-0.816048 -0.973339 5.721290 187 0 0 0.991033
-0.810674 -0.977169 5.697120 169 0 0 0.993354
-0.858396 -0.948401 5.692200 142 0 0 0.997826
-0.831913 -0.964581 5.683290 146 0 0 0.996725
-0.854890 -0.951036 5.667180 133 0 0 0.998936
-0.796575 -0.984752 5.733530 242 8 0 0.982422
-0.791078 -0.988604 5.709150 219 0 0 0.986069
-0.772207 -0.998929 5.720080 255 38 0 0.976892
-0.778240 -0.993897 5.746070 255 56 0 0.973101
-0.802235 -0.978581 5.759230 255 23 0 0.979545
-0.783619 -0.987283 5.772090 255 67 0 0.970714
-0.806895 -0.970345 5.784550 255 23 0 0.979612
-0.826082 -0.961747 5.770710 223 0 0 0.985040
-0.788039 -0.978104 5.797300 255 67 0 0.970611
-0.712634 -1.018410 5.789240 255 219 0 0.937461
-0.717629 -1.008470 5.815130 255 208 0 0.940184
-0.739893 -1.003480 5.800760 255 182 0 0.946287
-0.721366 -0.994191 5.839120 255 130 0 0.957617
-0.743885 -0.990269 5.825430 255 127 0 0.958657
-0.747018 -0.973900 5.848770 255 38 0 0.976492
-0.724397 -0.976788 5.861800 255 34 0 0.977219
-0.765898 -0.985478 5.811410 255 108 0 0.961964
-0.769333 -0.970081 5.835300 255 34 0 0.977313
-0.761940 -0.995891 5.786470 255 130 0 0.957840
-0.757019 -1.003060 5.760330 255 112 0 0.961627
-0.735081 -1.011230 5.774910 255 171 0 0.948569
-0.729501 -1.016210 5.748580 255 123 0 0.959101
-0.751209 -1.007800 5.734210 255 75 0 0.969383
-0.706801 -1.023700 5.763120 255 167 0 0.949073
-0.728634 -0.958026 5.881050 183 0 0 0.991471
-0.734301 -0.936983 5.902150 169 0 0 0.993816
-0.756200 -0.936823 5.888750 169 0 0 0.993599
-0.740605 -0.916238 5.923400 233 1 0 0.983574
-0.762756 -0.916808 5.910830 214 0 0 0.986747
-0.785042 -0.917190 5.897460 201 0 0 0.989049
-0.779326 -0.935135 5.876150 178 0 0 0.992383
-0.774080 -0.953089 5.855900 205 0 0 0.988074
-0.751669 -0.956339 5.868870 192 0 0 0.989874
-0.652727 -0.377176 5.422460 142 0 0 0.997311
-0.635353 -0.368749 5.419270 142 0 0 0.997953
-0.617626 -0.360311 5.416010 137 0 0 0.998537
-0.635935 -0.386937 5.402090 137 0 0 0.998066
-0.651412 -0.394657 5.405930 146 0 0 0.997176
-0.667429 -0.402284 5.409750 151 0 0 0.996046
-0.668969 -0.384726 5.426060 151 0 0 0.996543
-0.686463 -0.392473 5.429330 151 0 0 0.996402
-0.684821 -0.410318 5.413590 155 0 0 0.995364
-0.703838 -0.419047 5.417120 155 0 0 0.995386
-0.583494 -0.343208 5.408050 133 0 0 0.999082
-0.564320 -0.334052 5.404460 137 0 0 0.998302
-0.585255 -0.361092 5.390990 133 0 0 0.998629
-0.602106 -0.369957 5.394850 133 0 0 0.998997
-0.600623 -0.352009 5.412080 133 0 0 0.999122
-0.619089 -0.378590 5.398690 133 0 0 0.998718
-0.630557 -0.419215 5.363690 137 0 0 0.998394
-0.644822 -0.427035 5.368180 137 0 0 0.998227
-0.625650 -0.399363 5.380670 133 0 0 0.998764
-0.640013 -0.407075 5.384990 137 0 0 0.998161
-0.655205 -0.415003 5.389510 151 0 0 0.996539
-0.659567 -0.435064 5.372460 142 0 0 0.997312
-0.675205 -0.442980 5.377140 155 0 0 0.995948
-0.608536 -0.390642 5.377220 133 0 0 0.998646
-0.697075 -0.444199 5.392780 169 0 0 0.993428
-0.723112 -0.445843 5.406890 169 0 0 0.993651
-0.724532 -0.464877 5.393140 178 0 0 0.992392
-0.671127 -0.422975 5.393450 155 0 0 0.995701
-0.321338 -0.787429 5.042420 255 30 0 0.978417
-0.300657 -0.791725 5.041750 233 1 0 0.983697
-0.286563 -0.807489 5.041220 201 0 0 0.989106
-0.266320 -0.812282 5.040540 192 0 0 0.990467
-0.278710 -0.833975 5.039290 201 0 0 0.988876
-0.299036 -0.829102 5.039660 214 0 0 0.986619
-0.313085 -0.813236 5.041060 223 0 0 0.985434
-0.333907 -0.808052 5.041370 255 19 0 0.980316
-0.349686 -0.792423 5.043230 255 34 0 0.977410
-0.363155 -0.813376 5.042410 255 34 0 0.977699
-0.234478 -0.807140 5.038810 187 0 0 0.990814
-0.208082 -0.812977 5.035160 187 0 0 0.991102
-0.186027 -0.831055 5.030550 187 0 0 0.990998
-0.198540 -0.852630 5.030740 205 0 0 0.988234
-0.220567 -0.834654 5.035850 187 0 0 0.990635
-0.247219 -0.828599 5.038620 178 0 0 0.992235
-0.216363 -0.897616 5.034370 255 93 0 0.965597
-0.240508 -0.879546 5.037670 251 16 0 0.980962
-0.266954 -0.874156 5.039830 255 27 0 0.978794
-0.287434 -0.857039 5.041010 223 0 0 0.985476
-0.296168 -0.880449 5.041670 255 56 0 0.973197
-0.257952 -0.850763 5.038890 205 0 0 0.988371
-0.231647 -0.856581 5.036300 214 0 0 0.986691
-0.207267 -0.874753 5.033090 242 8 0 0.982131
-0.316414 -0.875685 5.042420 255 56 0 0.972807
-0.332691 -0.858644 5.042810 255 38 0 0.976685
-0.354056 -0.853876 5.044410 255 34 0 0.977088
-0.372234 -0.836881 5.044960 255 34 0 0.977085
-0.381680 -0.860449 5.047170 255 67 0 0.970921
-0.345215 -0.829771 5.042230 255 27 0 0.979127
-0.323724 -0.835368 5.041200 228 0 0 0.984331
-0.307825 -0.852031 5.041190 228 0 0 0.984566
-0.662567 -1.022670 5.594910 146 0 0 0.997126
-0.669015 -1.022020 5.615240 142 0 0 0.997360
-0.691926 -1.017120 5.602100 151 0 0 0.995981
-0.675583 -1.022040 5.636650 146 0 0 0.996842
-0.698643 -1.016520 5.622980 155 0 0 0.995541
-0.705298 -1.016230 5.644530 160 0 0 0.994810
-0.682479 -1.022450 5.658570 155 0 0 0.995723
-0.720986 -1.011240 5.609090 169 0 0 0.993462
-0.727462 -1.010390 5.630320 173 0 0 0.992779
-0.749487 -1.004130 5.615850 192 0 0 0.989907
-0.743024 -1.005540 5.593560 196 0 0 0.989656
-0.714154 -1.012050 5.587170 164 0 0 0.994281
-0.736541 -1.007090 5.572090 192 0 0 0.989962
-0.707271 -1.012690 5.566630 160 0 0 0.994915
-0.684942 -1.017400 5.580540 151 0 0 0.996508
-0.677984 -1.017670 5.559830 151 0 0 0.995975
-0.730228 -1.007480 5.551760 192 0 0 0.990500
-0.700509 -1.012940 5.546120 160 0 0 0.994819
-0.723695 -1.007390 5.531420 187 0 0 0.991200
-0.655443 -1.023300 5.573390 151 0 0 0.996518
-0.689301 -1.024480 5.685690 196 0 0 0.989662
-0.695593 -1.025440 5.711210 255 23 0 0.979526
-0.718188 -1.018660 5.697460 251 16 0 0.980981
-0.701271 -1.025520 5.737120 255 90 0 0.966176
-0.724109 -1.018140 5.722780 255 75 0 0.969634
-0.745708 -1.010310 5.708880 255 41 0 0.976035
-0.766736 -1.000570 5.693450 233 1 0 0.984011
-0.739816 -1.010370 5.682170 228 0 0 0.984918
-0.761282 -1.001530 5.667180 205 0 0 0.987833
-0.733838 -1.010050 5.656140 196 0 0 0.989758
-0.712012 -1.017090 5.670920 187 0 0 0.991031
-0.755509 -1.002390 5.641520 196 0 0 0.989818
-0.852685 -0.951125 5.639110 128 0 0 0.999334
-0.828135 -0.966965 5.656360 142 0 0 0.997419
-0.824982 -0.967819 5.629030 142 0 0 0.997398
-0.851135 -0.952023 5.611700 133 0 0 0.999105
-0.801516 -0.981953 5.643780 164 0 0 0.993939
-0.822035 -0.969202 5.602630 151 0 0 0.996009
-0.797541 -0.982638 5.617430 169 0 0 0.993637
-0.793372 -0.983913 5.591780 178 0 0 0.992031
-0.849385 -0.954085 5.585420 146 0 0 0.997235
-0.819345 -0.970958 5.576710 173 0 0 0.993056
-0.847426 -0.956615 5.560320 183 0 0 0.991846
-0.775579 -0.994176 5.630280 192 0 0 0.990496
-0.770292 -0.994919 5.604470 187 0 0 0.991140
-0.780766 -0.992597 5.656190 187 0 0 0.990816
-0.785856 -0.991004 5.682480 196 0 0 0.989316
-0.805890 -0.979704 5.670440 164 0 0 0.994407
-0.845897 -0.956907 5.532550 223 0 0 0.985392
-0.814256 -0.974603 5.555580 205 0 0 0.987769
-0.810850 -0.973660 5.528530 219 0 0 0.986150
-0.842298 -0.956283 5.505940 251 16 0 0.980936
-0.782139 -0.989341 5.548630 223 0 0 0.985320
-0.805458 -0.971578 5.501500 205 0 0 0.987924
-0.777092 -0.986671 5.522060 201 0 0 0.988684
-0.771229 -0.982773 5.494880 178 0 0 0.992307
-0.837538 -0.954445 5.478340 255 38 0 0.977013
-0.798898 -0.968280 5.473860 192 0 0 0.990125
-0.829749 -0.951458 5.450890 255 30 0 0.978012
-0.752038 -1.000180 5.540310 210 0 0 0.987141
-0.746430 -0.995855 5.514140 178 0 0 0.992091
-0.758179 -0.999199 5.560970 205 0 0 0.988213
-0.764173 -0.997198 5.582360 196 0 0 0.989416
-0.787941 -0.987040 5.569750 201 0 0 0.988564
-0.700501 -0.990163 5.363140 178 0 0 0.992474
-0.686161 -1.000400 5.377960 169 0 0 0.993731
-0.681694 -1.006500 5.405800 173 0 0 0.993044
-0.667712 -1.016570 5.420000 183 0 0 0.991325
-0.663900 -1.022310 5.446760 196 0 0 0.989439
-0.643533 -1.031400 5.420800 223 0 0 0.985284
-0.687918 -1.009330 5.445260 187 0 0 0.991086
-0.684131 -1.015090 5.470490 196 0 0 0.989543
-0.699729 -1.004720 5.455040 183 0 0 0.991882
-0.703718 -0.997929 5.428980 169 0 0 0.993627
-0.715806 -0.994151 5.439210 173 0 0 0.992815
-0.719987 -0.986921 5.412230 164 0 0 0.994009
-0.707900 -0.991433 5.401890 164 0 0 0.994192
-0.724227 -0.979993 5.384470 169 0 0 0.993646
-0.731935 -0.982903 5.421840 164 0 0 0.994071
-0.736789 -0.975827 5.394180 173 0 0 0.992600
-0.749166 -0.972444 5.403530 178 0 0 0.992221
-0.712391 -0.984444 5.374050 169 0 0 0.993554
-0.624242 -1.038750 5.433340 214 0 0 0.986601
-0.613873 -1.041060 5.460280 196 0 0 0.989562
-0.595214 -1.046450 5.471750 187 0 0 0.990895
-0.611721 -1.038930 5.498830 169 0 0 0.993833
-0.632512 -1.032710 5.486300 178 0 0 0.992342
-0.653006 -1.025720 5.473130 183 0 0 0.991440
-0.645375 -1.025830 5.558200 155 0 0 0.995941
-0.668117 -1.020370 5.545130 160 0 0 0.994953
-0.658321 -1.023060 5.530410 164 0 0 0.994273
-0.690785 -1.015310 5.531210 164 0 0 0.994141
-0.681003 -1.017510 5.516460 173 0 0 0.993167
-0.704367 -1.010870 5.501420 187 0 0 0.990599
-0.714075 -1.009210 5.516350 187 0 0 0.990889
-0.671061 -1.020180 5.501300 173 0 0 0.992974
-0.694367 -1.012590 5.486280 187 0 0 0.990831
-0.650532 -1.025340 5.514560 164 0 0 0.994067
-0.629961 -1.030710 5.526730 160 0 0 0.995157
-0.637913 -1.027950 5.542540 155 0 0 0.995427
-0.730064 -0.999742 5.501410 173 0 0 0.993065
-0.753622 -0.986823 5.482830 169 0 0 0.993545
-0.736288 -0.991044 5.470100 169 0 0 0.993819
-0.778959 -0.973251 5.462390 169 0 0 0.993613
-0.760456 -0.978086 5.450390 173 0 0 0.992913
-0.786642 -0.964054 5.428660 210 0 0 0.987550
-0.807693 -0.958682 5.439840 242 8 0 0.982569
-0.742533 -0.981889 5.437640 169 0 0 0.993881
-0.767257 -0.968346 5.416160 187 0 0 0.990607
-0.726204 -0.992666 5.454900 173 0 0 0.993095
-0.709938 -1.002530 5.470850 178 0 0 0.991979
-0.720088 -1.001380 5.486320 173 0 0 0.992891
-0.671828 -0.599516 5.192820 255 112 0 0.961214
-0.697117 -0.607877 5.200280 255 134 0 0.956593
-0.713398 -0.623307 5.196490 255 175 0 0.947731
-0.735910 -0.633692 5.205280 255 204 0 0.940852
-0.721692 -0.644336 5.180490 216 255 32 0.921968
-0.726835 -0.612793 5.221260 255 112 0 0.961214
-0.747854 -0.624672 5.233310 255 75 0 0.969101
-0.709774 -0.595962 5.224530 255 86 0 0.966890
-0.692018 -0.579519 5.228200 255 75 0 0.969185
-0.734499 -0.662699 5.178490 206 255 42 0.918660
-0.754190 -0.676754 5.189670 219 255 29 0.922765
-0.765060 -0.696274 5.189980 203 255 45 0.918423
-0.782887 -0.711163 5.203800 203 255 45 0.917756
-0.767217 -0.720678 5.178470 125 255 122 0.892957
-0.778686 -0.688058 5.217710 255 167 0 0.949246
-0.797043 -0.703155 5.234480 255 149 0 0.953513
-0.767177 -0.668183 5.217480 255 138 0 0.955750
-0.754699 -0.648527 5.217780 255 127 0 0.958063
-0.836141 -0.691121 5.304250 255 49 0 0.974423
-0.822896 -0.672369 5.304430 242 8 0 0.982653
-0.813152 -0.674715 5.287540 251 16 0 0.981008
-0.799830 -0.656721 5.287540 214 0 0 0.986430
-0.809472 -0.653960 5.304400 205 0 0 0.988344
-0.789838 -0.658873 5.268600 210 0 0 0.987376
-0.785984 -0.638372 5.286650 178 0 0 0.992221
-0.776207 -0.640207 5.267830 183 0 0 0.991308
-0.762018 -0.620989 5.266060 187 0 0 0.990575
-0.795452 -0.636409 5.303950 192 0 0 0.990378
-0.770552 -0.619843 5.284380 164 0 0 0.994066
-0.780615 -0.618021 5.302230 183 0 0 0.991696
-0.768077 -0.641779 5.249100 242 8 0 0.982808
-0.754760 -0.622450 5.248880 246 12 0 0.981892
-0.793906 -0.680310 5.251140 255 49 0 0.974159
-0.815467 -0.696489 5.270980 255 75 0 0.969110
-0.759255 -0.597604 5.301730 178 0 0 0.992478
-0.751988 -0.602140 5.282380 160 0 0 0.995160
-0.731318 -0.580045 5.282390 164 0 0 0.994507
-0.737469 -0.575726 5.301480 173 0 0 0.992970
-0.727155 -0.584849 5.264780 183 0 0 0.991372
-0.711722 -0.557768 5.283520 169 0 0 0.993541
-0.707469 -0.563478 5.268010 201 0 0 0.988902
-0.716663 -0.552424 5.300590 160 0 0 0.994888
-0.703170 -0.569781 5.252650 242 8 0 0.982781
-0.720751 -0.587188 5.250800 237 4 0 0.983373
-0.737904 -0.604755 5.249540 228 0 0 0.984732
-0.744449 -0.603124 5.265290 178 0 0 0.992485
-0.763132 -0.884901 5.255420 228 0 0 0.984850
-0.776052 -0.861175 5.254180 228 0 0 0.984935
-0.784147 -0.874614 5.276940 219 0 0 0.985997
-0.790008 -0.836880 5.253080 246 12 0 0.981492
-0.798482 -0.850516 5.276020 246 12 0 0.981952
-0.813850 -0.825503 5.276170 255 53 0 0.973696
-0.808198 -0.864692 5.298750 255 27 0 0.979135
-0.804252 -0.812102 5.252650 255 67 0 0.970980
-0.817956 -0.786921 5.254990 255 164 0 0.950592
-0.798302 -0.797650 5.227640 255 171 0 0.948264
-0.785107 -0.822126 5.227310 255 78 0 0.968281
-0.771585 -0.846546 5.228960 255 45 0 0.975282
-0.779714 -0.807777 5.204080 255 216 0 0.938509
-0.824177 -0.858398 5.309610 255 45 0 0.975398
-0.824740 -0.840184 5.300210 255 49 0 0.974156
-0.842672 -0.832603 5.311430 255 86 0 0.967198
-0.841683 -0.851181 5.320290 255 78 0 0.968137
-0.843095 -0.814544 5.303620 255 116 0 0.960776
-0.858351 -0.826481 5.324040 255 108 0 0.962625
-0.857828 -0.808553 5.316390 255 112 0 0.961567
-0.872334 -0.802544 5.329330 255 130 0 0.957603
-0.858317 -0.844262 5.331640 255 101 0 0.964095
-0.873020 -0.820297 5.336450 255 108 0 0.962127
-0.872947 -0.838429 5.343990 255 108 0 0.962354
-0.857209 -0.790512 5.308820 255 153 0 0.952755
-0.871185 -0.785010 5.321990 255 141 0 0.955463
-0.868639 -0.767045 5.315110 255 156 0 0.951607
-0.855971 -0.771025 5.300620 255 167 0 0.949422
-0.843794 -0.794638 5.294090 255 160 0 0.950743
-0.843702 -0.775185 5.285900 255 164 0 0.949974
-0.829439 -0.800404 5.279680 255 138 0 0.956175
-0.827358 -0.820452 5.289860 255 71 0 0.970343
-0.830413 -0.781009 5.270600 255 145 0 0.954653
-0.834657 -0.713111 5.291200 255 82 0 0.967499
-0.830905 -0.735870 5.277780 255 112 0 0.961608
-0.813461 -0.720102 5.257240 255 108 0 0.962474
-0.820003 -0.739988 5.260320 255 123 0 0.959531
-0.810245 -0.744516 5.242730 255 153 0 0.952413
-0.825888 -0.760803 5.265110 255 153 0 0.952675
-0.838038 -0.755379 5.281780 255 127 0 0.958626
-0.849785 -0.751392 5.296770 255 134 0 0.956527
-0.842259 -0.731794 5.293650 255 97 0 0.964783
-0.853784 -0.727619 5.309000 255 86 0 0.966882
-0.861897 -0.747426 5.311830 255 134 0 0.957013
-0.844461 -0.709428 5.306560 255 71 0 0.970069
-0.795659 -0.728185 5.223410 255 182 0 0.945919
-0.792687 -0.754108 5.213980 255 208 0 0.939832
-0.780369 -0.737217 5.195270 216 255 32 0.921884
-0.776047 -0.763871 5.188220 206 255 42 0.919146
-0.787795 -0.780860 5.207210 255 201 0 0.941551
-0.805276 -0.770755 5.233600 255 164 0 0.950624
-0.620811 -0.650568 5.136000 255 38 0 0.976900
-0.635999 -0.662649 5.133430 255 49 0 0.974257
-0.659949 -0.668853 5.136650 255 104 0 0.963506
-0.674800 -0.681611 5.133630 255 164 0 0.950352
-0.691353 -0.668634 5.145620 255 234 0 0.933493
-0.675545 -0.654874 5.149820 255 156 0 0.952151
-0.652274 -0.649235 5.146910 255 78 0 0.968811
-0.635390 -0.636075 5.150750 255 38 0 0.976641
-0.678762 -0.705229 5.126660 255 156 0 0.952002
-0.689537 -0.722070 5.127450 255 175 0 0.947717
-0.708583 -0.733939 5.134120 255 230 0 0.934679
-0.717449 -0.751373 5.135650 216 255 32 0.922166
-0.735253 -0.741179 5.145920 145 255 103 0.899309
-0.725308 -0.722267 5.144720 187 255 61 0.913514
-0.706841 -0.710133 5.138760 255 227 0 0.936110
-0.695513 -0.692313 5.138840 255 216 0 0.938473
-0.750416 -0.706613 5.168630 148 255 100 0.901208
-0.740075 -0.687266 5.168700 177 255 71 0.909702
-0.720490 -0.674557 5.161090 209 255 38 0.920062
-0.707767 -0.656021 5.162770 229 255 19 0.925735
-0.723801 -0.698606 5.152190 203 255 45 0.918371
-0.752640 -0.730535 5.161620 122 255 126 0.891583
-0.699769 -0.635911 5.175480 255 201 0 0.942204
-0.683092 -0.620970 5.179480 255 138 0 0.955650
-0.659007 -0.614284 5.174990 255 86 0 0.966966
-0.668122 -0.634696 5.161790 255 116 0 0.960803
-0.756050 -0.899197 5.269090 187 0 0 0.991030
-0.767991 -0.893665 5.278210 192 0 0 0.989977
-0.761273 -0.908012 5.291990 173 0 0 0.992917
-0.749516 -0.913406 5.282350 169 0 0 0.993889
-0.773742 -0.902962 5.300860 196 0 0 0.989836
-0.755134 -0.922156 5.305080 173 0 0 0.992672
-0.767575 -0.917677 5.314120 183 0 0 0.991830
-0.761435 -0.932207 5.327670 192 0 0 0.990366
-0.743679 -0.927461 5.295360 164 0 0 0.993933
-0.749655 -0.936534 5.318150 178 0 0 0.992110
-0.738067 -0.941990 5.308270 178 0 0 0.992071
-0.780040 -0.913209 5.323700 192 0 0 0.990314
-0.774172 -0.928322 5.336830 196 0 0 0.989308
-0.787619 -0.924183 5.346030 205 0 0 0.987829
-0.797447 -0.894728 5.321870 210 0 0 0.987729
-0.790189 -0.884318 5.299670 214 0 0 0.986433
-0.728188 -0.953112 5.322580 160 0 0 0.994885
-0.740395 -0.948217 5.332400 164 0 0 0.994383
-0.730647 -0.959859 5.346710 160 0 0 0.994947
-0.718609 -0.965041 5.336350 155 0 0 0.995333
-0.742845 -0.955284 5.356440 164 0 0 0.994216
-0.721331 -0.972108 5.360420 160 0 0 0.995079
-0.733306 -0.967172 5.370720 160 0 0 0.994806
-0.709308 -0.977436 5.350210 160 0 0 0.994987
-0.745738 -0.963284 5.380330 164 0 0 0.994253
-0.758241 -0.959853 5.389490 173 0 0 0.993239
-0.754757 -0.951076 5.366310 164 0 0 0.993961
-0.767523 -0.947301 5.375450 169 0 0 0.993526
-0.764007 -0.939480 5.351690 178 0 0 0.992370
-0.751847 -0.943504 5.342180 169 0 0 0.993643
-0.777579 -0.935512 5.360690 178 0 0 0.992132
-0.838439 -0.937343 5.432950 246 12 0 0.981899
-0.819536 -0.945431 5.425710 219 0 0 0.986270
-0.827243 -0.931597 5.407710 228 0 0 0.984512
-0.845639 -0.923877 5.415680 255 19 0 0.980525
-0.808737 -0.938450 5.399620 201 0 0 0.988509
-0.834343 -0.918296 5.389550 251 16 0 0.981395
-0.815623 -0.924834 5.381470 228 0 0 0.984776
-0.822663 -0.911761 5.363260 255 27 0 0.979158
-0.853544 -0.910082 5.397960 255 38 0 0.976762
-0.842498 -0.904758 5.371410 255 64 0 0.971421
-0.860155 -0.897053 5.380850 255 71 0 0.969878
-0.797542 -0.930797 5.373120 201 0 0 0.988870
-0.803874 -0.918446 5.355090 219 0 0 0.985669
-0.787376 -0.943304 5.387490 187 0 0 0.990693
-0.776704 -0.955834 5.402190 178 0 0 0.992016
-0.797445 -0.951195 5.414280 192 0 0 0.989889
-0.851957 -0.873486 5.350800 255 56 0 0.973143
-0.866815 -0.867638 5.361930 255 56 0 0.973355
-0.834918 -0.880588 5.340090 255 34 0 0.977325
-0.814835 -0.887987 5.331280 228 0 0 0.984859
0.133498 -1.043440 5.131730 255 234 0 0.934038
0.155810 -1.039520 5.113400 193 255 55 0.915579
0.117659 -1.039030 5.112750 255 219 0 0.937083
0.140188 -1.035320 5.094500 203 255 45 0.917854
0.103562 -1.033330 5.094180 255 208 0 0.939857
0.128389 -1.028620 5.077130 184 255 64 0.911869
0.091830 -1.026350 5.076080 232 255 16 0.926287
0.117265 -1.022060 5.058700 119 255 129 0.891422
-0.322723 -1.020780 5.150740 255 30 0 0.978422
-0.348542 -1.011180 5.145140 255 19 0 0.980472
-0.309042 -1.015600 5.135940 255 56 0 0.973146
-0.334699 -1.006710 5.129550 255 60 0 0.972384
-0.321121 -1.001100 5.115060 255 104 0 0.963119
-0.361264 -0.996697 5.124550 255 41 0 0.976095
-0.296233 -1.009540 5.121380 255 86 0 0.966996
-0.283028 -1.002810 5.107470 255 86 0 0.967103
-0.272332 -1.015980 5.126550 255 64 0 0.971475
-0.285396 -1.022670 5.140750 255 64 0 0.971722
-0.298372 -1.028770 5.155160 255 60 0 0.972511
-0.262043 -1.029310 5.145470 255 75 0 0.969049
-0.344649 -0.990945 5.111120 255 78 0 0.968554
-0.370212 -0.977885 5.105920 255 64 0 0.971605
-0.328500 -0.984052 5.098320 255 104 0 0.962961
-0.353223 -0.971337 5.092550 255 112 0 0.961373
-0.336752 -0.963929 5.079880 255 156 0 0.952196
-0.378983 -0.958172 5.087520 255 101 0 0.963512
-0.312815 -0.976119 5.086090 255 123 0 0.959528
-0.296668 -0.968138 5.075060 255 153 0 0.952386
-0.289936 -0.985807 5.091080 255 101 0 0.964138
-0.305689 -0.993793 5.102500 255 104 0 0.963349
-0.188490 -0.977931 5.057650 255 219 0 0.937509
-0.214476 -0.983895 5.071070 255 182 0 0.946502
-0.183372 -0.991979 5.071920 255 190 0 0.944638
-0.238950 -0.990374 5.083700 255 141 0 0.955149
-0.209251 -0.998388 5.084680 255 145 0 0.954457
-0.233581 -1.004880 5.097900 255 116 0 0.961069
-0.177656 -1.006240 5.085320 255 160 0 0.951313
-0.261872 -0.996823 5.095670 255 127 0 0.958761
-0.268780 -0.979635 5.079800 255 156 0 0.952159
-0.246031 -0.972903 5.068330 255 190 0 0.944140
-0.200928 -1.011840 5.100680 255 104 0 0.962854
-0.167762 -1.017110 5.101470 255 112 0 0.961742
-0.223209 -1.017730 5.116170 255 71 0 0.970379
-0.191550 -1.022840 5.117420 255 93 0 0.965811
-0.214221 -1.028900 5.133460 255 71 0 0.970291
-0.157613 -1.027960 5.118280 255 78 0 0.968697
-0.243616 -1.023840 5.131110 255 82 0 0.967443
-0.253921 -1.010500 5.112440 255 90 0 0.966588
0.055375 -0.982870 5.010470 45 255 203 0.863389
0.051670 -0.969623 5.000880 22 255 225 0.853748
0.047449 -0.956739 4.991510 6 237 242 0.847260
0.046629 -0.941165 4.985140 16 249 232 0.850599
0.080977 -1.018270 5.059340 174 255 74 0.909060
0.107707 -1.013140 5.043810 113 255 135 0.888542
0.071482 -1.009150 5.044220 132 255 116 0.895155
0.098442 -1.004380 5.028550 51 255 196 0.865664
0.064157 -0.999041 5.029710 100 255 148 0.883787
-0.158702 -0.972422 5.047450 245 249 3 0.930259
-0.190570 -0.961083 5.048680 255 212 0 0.939448
-0.129544 -0.966329 5.038100 235 255 13 0.927525
-0.160921 -0.955854 5.038310 242 253 6 0.929704
-0.131401 -0.950066 5.028320 248 245 0 0.931197
-0.192306 -0.943942 5.039050 255 230 0 0.935039
-0.101231 -0.959719 5.028960 251 241 0 0.932122
-0.073403 -0.953079 5.019110 255 238 0 0.933093
-0.070927 -0.967302 5.028460 255 227 0 0.936036
-0.098663 -0.974437 5.037690 255 238 0 0.933197
-0.127633 -0.981063 5.047530 255 234 0 0.933815
-0.068433 -0.981947 5.037720 255 227 0 0.935374
-0.160816 -0.938268 5.031440 255 208 0 0.939849
-0.189435 -0.924190 5.034410 255 149 0 0.953770
-0.130188 -0.931886 5.023570 255 178 0 0.946915
-0.158179 -0.918565 5.026500 255 145 0 0.954320
-0.100951 -0.933957 5.018420 255 208 0 0.940237
-0.071924 -0.935583 5.013060 255 208 0 0.939945
0.015581 -0.939958 4.992780 80 255 167 0.877074
-0.014594 -0.938859 4.999750 184 255 64 0.912346
-0.014615 -0.954753 5.006450 184 255 64 0.911662
0.015755 -0.955682 4.999570 84 255 164 0.878781
-0.044300 -0.945893 5.009850 242 253 6 0.929670
-0.043142 -0.928831 5.003600 255 227 0 0.935707
0.019076 -0.969234 5.008950 103 255 145 0.885197
-0.011926 -0.968691 5.016070 190 255 58 0.914171
-0.008414 -0.981944 5.025420 196 255 51 0.916091
0.022766 -0.982381 5.018290 116 255 132 0.889400
-0.040235 -0.974978 5.027060 225 255 22 0.924967
-0.043035 -0.961022 5.017810 242 253 6 0.929713
0.060406 -1.027430 5.083650 255 190 0 0.944281
0.036504 -1.031540 5.099640 255 104 0 0.963160
0.072923 -1.034320 5.101760 255 153 0 0.952826
0.048905 -1.038640 5.117950 255 97 0 0.964787
0.012652 -1.035860 5.115310 255 56 0 0.972770
-0.010486 -1.040100 5.130490 255 38 0 0.976662
-0.024791 -1.032090 5.112640 255 56 0 0.973045
-0.001562 -1.027920 5.097500 255 67 0 0.971054
0.022329 -1.023870 5.081950 255 127 0 0.958271
-0.039233 -1.024950 5.094820 255 97 0 0.964889
0.088451 -1.040640 5.120270 255 160 0 0.951392
0.067163 -1.043730 5.137310 255 93 0 0.965702
0.104207 -1.044830 5.140040 255 175 0 0.947691
0.046624 -1.047040 5.153660 255 53 0 0.973426
0.007827 -1.044970 5.149910 255 19 0 0.980430
0.028588 -1.041910 5.134110 255 41 0 0.975672
-0.066123 -1.050770 5.175620 255 45 0 0.975170
-0.105808 -1.048630 5.171840 255 45 0 0.975154
-0.047444 -1.046940 5.160620 255 30 0 0.978458
-0.086684 -1.045520 5.156490 255 49 0 0.974541
-0.067738 -1.041930 5.141550 255 53 0 0.973917
-0.125553 -1.044140 5.152630 255 60 0 0.972573
-0.029205 -1.043500 5.145800 255 19 0 0.980114
-0.010248 -1.048600 5.165170 255 30 0 0.978227
-0.103645 -1.039420 5.137830 255 49 0 0.974200
-0.141632 -1.036000 5.135300 255 53 0 0.973950
-0.082232 -1.034520 5.123820 255 64 0 0.971816
-0.119250 -1.031490 5.120380 255 60 0 0.972443
-0.097741 -1.026880 5.106270 255 101 0 0.964118
-0.060515 -1.029670 5.109290 255 75 0 0.969389
-0.046337 -1.036900 5.127260 255 41 0 0.976155
0.028972 -0.993889 5.030710 148 255 100 0.900679
-0.002896 -0.994022 5.038040 229 255 19 0.925936
0.003052 -1.005060 5.050990 255 234 0 0.933839
0.034655 -1.004910 5.044120 167 255 80 0.907251
-0.030700 -0.999983 5.050780 255 190 0 0.944202
-0.057703 -1.005850 5.063390 255 160 0 0.950874
-0.063163 -0.993747 5.050260 255 186 0 0.945359
-0.035746 -0.987686 5.037720 255 204 0 0.940559
0.044136 -1.014250 5.059420 238 255 9 0.928704
0.012975 -1.014760 5.066400 255 186 0 0.945243
-0.013177 -1.019940 5.080760 255 116 0 0.960492
-0.048427 -1.015130 5.079050 255 93 0 0.965650
-0.022798 -1.010110 5.065220 255 141 0 0.955520
-0.131427 -1.022970 5.103730 255 97 0 0.965015
-0.106823 -1.017170 5.090340 255 116 0 0.961128
-0.141426 -1.012040 5.087490 255 134 0 0.956645
-0.116310 -1.006770 5.073860 255 193 0 0.943294
-0.082129 -1.011470 5.076910 255 138 0 0.955966
-0.073018 -1.020990 5.092630 255 90 0 0.965992
-0.149391 -1.000570 5.072720 255 201 0 0.942173
-0.121805 -0.994686 5.060970 255 212 0 0.939013
-0.154730 -0.986874 5.059030 255 230 0 0.934658
-0.094769 -0.988212 5.048800 255 216 0 0.938298
-0.089826 -1.000200 5.062120 255 171 0 0.948188
-0.179030 -1.032670 5.134680 255 56 0 0.972881
-0.199450 -1.037750 5.151220 255 45 0 0.974923
-0.163414 -1.041100 5.151510 255 49 0 0.974343
-0.185350 -1.046190 5.169000 255 71 0 0.970162
-0.218474 -1.042500 5.167800 255 71 0 0.970305
-0.235563 -1.046990 5.183660 255 82 0 0.967595
-0.248465 -1.037910 5.164470 255 53 0 0.973660
-0.232214 -1.033600 5.149100 255 75 0 0.969554
-0.145030 -1.047370 5.169530 255 53 0 0.973833
-0.165997 -1.050430 5.188160 255 49 0 0.974845
-0.124034 -1.052220 5.188700 255 60 0 0.972256
-0.185061 -1.053450 5.206020 255 86 0 0.966841
-0.218598 -1.051360 5.203580 255 64 0 0.971174
-0.202936 -1.049030 5.186580 255 78 0 0.968638
-0.273133 -1.051910 5.220910 255 71 0 0.969871
-0.254879 -1.052100 5.215280 255 78 0 0.968385
-0.271443 -1.047320 5.194480 255 82 0 0.967828
-0.289358 -1.047290 5.200070 255 60 0 0.972019
-0.245222 -1.049760 5.199760 255 78 0 0.968147
-0.228805 -1.054110 5.219520 255 82 0 0.968005
-0.303032 -1.037490 5.180750 255 30 0 0.978350
-0.284355 -1.038180 5.175710 255 45 0 0.975096
-0.273151 -1.034010 5.160490 255 64 0 0.971591
-0.260045 -1.042840 5.179420 255 71 0 0.969718
-0.453772 -1.027720 5.219320 164 0 0 0.993975
-0.454998 -1.036330 5.236570 173 0 0 0.992978
-0.434798 -1.051470 5.259840 223 0 0 0.985553
-0.456164 -1.044950 5.253780 192 0 0 0.990475
-0.457200 -1.053590 5.270960 219 0 0 0.985806
-0.478384 -1.037720 5.246630 178 0 0 0.992149
-0.476987 -1.028730 5.229140 164 0 0 0.994258
-0.476182 -1.020650 5.211710 169 0 0 0.993425
-0.499381 -1.022140 5.221550 183 0 0 0.991322
-0.398129 -1.059270 5.277130 242 8 0 0.982528
-0.396941 -1.064000 5.294760 246 12 0 0.981690
-0.418397 -1.066870 5.306180 251 16 0 0.981084
-0.420052 -1.061690 5.288920 246 12 0 0.981932
-0.433192 -1.057330 5.277210 223 0 0 0.985654
-0.457376 -1.070800 5.330300 251 16 0 0.980719
-0.461257 -1.065800 5.312580 233 1 0 0.983583
-0.474480 -1.061300 5.300790 233 1 0 0.984235
-0.477979 -1.055570 5.283130 219 0 0 0.985799
-0.498625 -1.057390 5.294630 242 8 0 0.982385
-0.454125 -1.059400 5.288940 228 0 0 0.984492
-0.440973 -1.063710 5.300550 237 4 0 0.983292
-0.438039 -1.068760 5.318300 246 12 0 0.981497
-0.498713 -1.048380 5.276300 201 0 0 0.988737
-0.520207 -1.040520 5.269080 192 0 0 0.989899
-0.498945 -1.039450 5.258090 183 0 0 0.991502
-0.520937 -1.031980 5.250950 187 0 0 0.990595
-0.520806 -1.023410 5.232460 196 0 0 0.989820
-0.542930 -1.024420 5.243010 219 0 0 0.986345
-0.499545 -1.030670 5.240170 178 0 0 0.992558
-0.478066 -1.046510 5.264870 187 0 0 0.990829
-0.358796 -0.951136 5.077350 255 119 0 0.960142
-0.383040 -0.934540 5.074180 255 86 0 0.967291
-0.339555 -0.943191 5.067830 255 138 0 0.955749
-0.362574 -0.927364 5.064130 255 127 0 0.958552
-0.342656 -0.919065 5.055590 255 153 0 0.953134
-0.386425 -0.910956 5.061170 255 119 0 0.960293
-0.320539 -0.934696 5.060010 255 141 0 0.955083
-0.301779 -0.926294 5.052570 255 145 0 0.954014
-0.299555 -0.947331 5.063790 255 145 0 0.954514
-0.318051 -0.955697 5.071290 255 138 0 0.956191
-0.362689 -0.903953 5.054670 255 112 0 0.961800
-0.384095 -0.885750 5.054100 255 78 0 0.968825
-0.339721 -0.896310 5.049520 255 82 0 0.967634
-0.359986 -0.878508 5.048170 255 67 0 0.970878
-0.319057 -0.899820 5.048010 255 82 0 0.967685
-0.299086 -0.903260 5.047170 255 82 0 0.967775
-0.219508 -0.918730 5.039360 255 123 0 0.959045
-0.247762 -0.914233 5.042720 255 112 0 0.961571
-0.250736 -0.934443 5.047690 255 160 0 0.950933
-0.222393 -0.938706 5.044170 255 178 0 0.947129
-0.275580 -0.920133 5.047970 255 116 0 0.960737
-0.272833 -0.897290 5.042780 255 71 0 0.969925
-0.220041 -0.957737 5.054000 255 175 0 0.947528
-0.248154 -0.955310 5.057830 255 178 0 0.946537
-0.273267 -0.961724 5.066720 255 171 0 0.948300
-0.275763 -0.940649 5.055790 255 153 0 0.952649
-0.590504 -0.787979 5.087340 255 71 0 0.970163
-0.571413 -0.778010 5.082340 255 64 0 0.971783
-0.573427 -0.758781 5.083650 255 60 0 0.972032
-0.553589 -0.749281 5.078640 255 90 0 0.966119
-0.552061 -0.768120 5.076880 255 75 0 0.969044
-0.532752 -0.758608 5.070960 255 101 0 0.963510
-0.547709 -0.785746 5.075170 255 71 0 0.970180
-0.566238 -0.795970 5.080900 255 60 0 0.972329
-0.585073 -0.806132 5.086190 255 75 0 0.969141
-0.560601 -0.814133 5.079520 255 75 0 0.969446
-0.553571 -0.733283 5.082880 255 75 0 0.969535
-0.529472 -0.710360 5.084570 255 78 0 0.968859
-0.500141 -0.725460 5.072800 255 97 0 0.964540
-0.521262 -0.731679 5.075880 255 78 0 0.968585
-0.467769 -0.740296 5.063340 255 101 0 0.963545
-0.489594 -0.746357 5.066100 255 93 0 0.965219
-0.509395 -0.767480 5.065230 255 104 0 0.962910
-0.475826 -0.766096 5.059350 255 104 0 0.963340
-0.491316 -0.789996 5.061210 255 78 0 0.968719
-0.510145 -0.799163 5.066500 255 60 0 0.972380
-0.529769 -0.808308 5.071880 255 60 0 0.972071
-0.508905 -0.829677 5.067960 255 60 0 0.972395
-0.528523 -0.776638 5.070250 255 82 0 0.967654
-0.390144 -0.966926 5.100980 255 78 0 0.968677
-0.401875 -0.974542 5.114550 255 30 0 0.978000
-0.381207 -0.985429 5.119340 255 38 0 0.976716
-0.392363 -0.992777 5.132760 246 12 0 0.981550
-0.413542 -0.981890 5.127970 242 8 0 0.982774
-0.425775 -0.989158 5.141990 214 0 0 0.986805
-0.434930 -0.969740 5.123360 228 0 0 0.984444
-0.422307 -0.962232 5.109280 255 27 0 0.979116
-0.410269 -0.954303 5.095790 255 75 0 0.969053
-0.443649 -0.950153 5.104220 255 34 0 0.977087
-0.369885 -1.002400 5.139390 246 12 0 0.982100
-0.379205 -1.008190 5.154380 214 0 0 0.986978
-0.357309 -1.017350 5.160080 219 0 0 0.985899
-0.412396 -1.004760 5.162860 192 0 0 0.989927
-0.402206 -0.998533 5.147990 205 0 0 0.987850
-0.451915 -1.002890 5.175410 178 0 0 0.992072
-0.452011 -0.987492 5.150060 205 0 0 0.988293
-0.471596 -0.994094 5.168260 187 0 0 0.990555
-0.432136 -1.011840 5.182000 178 0 0 0.992499
-0.482627 -0.975638 5.147890 210 0 0 0.987657
-0.473685 -0.966821 5.134940 219 0 0 0.986343
-0.465181 -0.957699 5.121640 233 1 0 0.983965
-0.490866 -0.955468 5.129030 228 0 0 0.984566
-0.482220 -0.946902 5.115610 251 16 0 0.980902
-0.443502 -0.978493 5.136680 219 0 0 0.985867
-0.699413 -0.972923 5.319210 155 0 0 0.995454
-0.709297 -0.960680 5.305930 160 0 0 0.994956
-0.719263 -0.949506 5.291980 178 0 0 0.991984
-0.699992 -0.958193 5.274940 205 0 0 0.988195
-0.680110 -0.981013 5.301450 169 0 0 0.993497
-0.680425 -0.989089 5.323250 173 0 0 0.993191
-0.681109 -0.997540 5.345000 192 0 0 0.990519
-0.661469 -1.005700 5.326530 219 0 0 0.985860
-0.732388 -0.920704 5.265680 173 0 0 0.992779
-0.739054 -0.906764 5.252120 196 0 0 0.989512
-0.746154 -0.892755 5.238770 246 12 0 0.981871
-0.728605 -0.901238 5.222410 255 45 0 0.975131
-0.720769 -0.915072 5.236150 219 0 0 0.985814
-0.713132 -0.929110 5.249450 192 0 0 0.990354
-0.715956 -0.939021 5.270770 173 0 0 0.992760
-0.692436 -0.914973 5.195260 255 90 0 0.965948
-0.683989 -0.928686 5.208800 255 27 0 0.978960
-0.686569 -0.939189 5.228260 223 0 0 0.985418
-0.679429 -0.953156 5.240560 223 0 0 0.985607
-0.682209 -0.964437 5.260190 223 0 0 0.985305
-0.663222 -0.970466 5.244740 255 19 0 0.980001
-0.697748 -0.946998 5.255370 196 0 0 0.989549
-0.703179 -0.921807 5.222430 242 8 0 0.982733
-0.711154 -0.907914 5.209050 255 64 0 0.971779
-0.662620 -0.978749 5.265420 210 0 0 0.987338
-0.643095 -0.992488 5.270320 210 0 0 0.987660
-0.661935 -0.987539 5.285960 192 0 0 0.990455
-0.642833 -1.001770 5.290750 210 0 0 0.987402
-0.642888 -1.011180 5.311030 233 1 0 0.984239
-0.623955 -1.016050 5.295140 246 12 0 0.981738
-0.661348 -0.996421 5.306450 192 0 0 0.990123
-0.681059 -0.972714 5.280930 187 0 0 0.991200
-0.599379 -0.934748 5.150500 255 64 0 0.971803
-0.603191 -0.918723 5.141300 255 41 0 0.975772
-0.594227 -0.904798 5.129830 251 16 0 0.980716
-0.598402 -0.888443 5.120760 255 27 0 0.978981
-0.588958 -0.874909 5.108710 255 45 0 0.974932
-0.614756 -0.869305 5.115330 255 67 0 0.971014
-0.572450 -0.893859 5.114130 251 16 0 0.980954
