ply
format ascii 1.0
comment VCGLIB generated
element vertex 987
property float x
property float y
property float z
property uchar red
property uchar green
property uchar blue
property float quality
end_header
0.560691 -0.029638 6.949200 132 255 116 0.067621
0.539468 -0.034075 6.974850 174 255 74 0.100055
0.521761 -0.036710 6.953000 151 255 96 0.081599
0.622206 -0.017838 6.869680 19 253 229 0.019334
0.561094 -0.026605 6.899730 61 255 187 0.032939
0.531476 -0.032968 6.914910 96 255 151 0.047027
0.501352 -0.039180 6.930410 119 255 129 0.060132
0.592050 -0.021947 6.885030 32 255 216 0.022887
0.566831 -0.970135 6.912050 135 255 113 0.070736
0.546793 -0.967078 6.902400 119 255 129 0.059500
0.560464 -0.973811 6.882570 103 255 145 0.050525
0.541301 -0.972832 6.874300 100 255 148 0.049144
0.527647 -0.966389 6.894600 119 255 129 0.059871
0.554999 -0.979428 6.854280 93 255 155 0.046010
0.522855 -0.972851 6.866800 113 255 135 0.056318
0.536725 -0.979140 6.846680 100 255 148 0.048929
0.517832 -0.978585 6.838310 109 255 138 0.053899
0.508870 -0.966364 6.887200 135 255 113 0.069870
0.503821 -0.972366 6.858690 129 255 119 0.065832
0.490041 -0.966050 6.879270 155 255 93 0.082680
0.550512 -0.985372 6.826230 84 255 164 0.042237
0.532033 -0.984903 6.818010 93 255 155 0.046477
0.546038 -0.990949 6.797430 84 255 164 0.041337
0.563960 -0.989013 6.803220 51 255 196 0.029377
0.568142 -0.983400 6.831490 61 255 187 0.032923
0.581408 -0.987085 6.808720 35 255 213 0.024239
0.586441 -0.982212 6.837450 51 255 196 0.029345
0.573503 -0.978021 6.860030 74 255 174 0.038094
0.592557 -0.978790 6.867010 87 255 161 0.042594
0.599883 -0.986462 6.815080 32 255 216 0.022849
0.605717 -0.983170 6.844710 61 255 187 0.031981
0.619020 -0.987297 6.822350 48 255 200 0.028362
0.579767 -0.974461 6.889630 109 255 138 0.054851
0.474586 -0.960520 6.870740 135 255 113 0.069464
0.487670 -0.967363 6.850070 116 255 132 0.057079
0.472691 -0.961762 6.841230 96 255 151 0.047356
0.459131 -0.954547 6.861720 119 255 129 0.060094
0.486102 -0.968902 6.821020 84 255 164 0.040993
0.457449 -0.955619 6.832080 80 255 167 0.039777
0.471195 -0.962971 6.811830 61 255 187 0.032339
0.443657 -0.948187 6.852470 106 255 142 0.051804
0.484328 -0.970081 6.791400 48 255 200 0.028052
0.498517 -0.976564 6.770820 29 255 219 0.022381
0.500456 -0.975272 6.800610 61 255 187 0.032596
0.514748 -0.981624 6.780170 48 255 200 0.027529
0.516396 -0.980097 6.809490 77 255 171 0.038334
0.502051 -0.973781 6.829790 93 255 155 0.045824
0.530765 -0.986413 6.789160 64 255 184 0.033231
0.545054 -0.994480 6.688790 0 197 255 0.010220
0.533404 -0.990595 6.709160 0 209 255 0.012290
0.549883 -0.994683 6.719040 0 225 251 0.014676
0.561451 -0.998478 6.698730 0 213 255 0.012848
0.538127 -0.990818 6.739250 16 249 232 0.018512
0.565904 -0.998430 6.728340 13 245 235 0.018314
0.554185 -0.994631 6.748470 29 255 219 0.022208
0.569456 -0.998347 6.757290 48 255 200 0.027695
0.577541 -1.002090 6.708200 3 233 245 0.016002
0.581230 -1.002030 6.737270 29 255 219 0.022280
0.592997 -1.005740 6.717170 16 249 232 0.019014
0.542151 -0.990761 6.768470 48 255 200 0.028231
0.557610 -0.994588 6.777190 64 255 184 0.033339
0.526552 -0.986320 6.759820 25 255 222 0.021550
0.510202 -0.981300 6.750310 19 253 229 0.019244
0.521855 -0.985995 6.729740 3 233 245 0.015827
0.609774 -1.003200 6.724810 13 245 235 0.017997
0.599200 -1.000120 6.743410 19 253 229 0.019543
0.615322 -0.997890 6.750620 6 237 242 0.016577
0.626282 -1.001110 6.732350 6 237 242 0.016416
0.604591 -0.994731 6.769000 16 249 232 0.018483
0.632580 -0.997092 6.758930 13 245 235 0.018145
0.622208 -0.993908 6.777380 16 249 232 0.018979
0.639895 -0.994277 6.786120 32 255 216 0.023101
0.643430 -1.000330 6.740810 6 237 242 0.016693
0.650448 -0.997686 6.768020 25 255 222 0.021041
0.661146 -1.001000 6.750050 19 253 229 0.019549
0.611511 -0.990475 6.795480 29 255 219 0.022015
0.629446 -0.990873 6.804260 42 255 206 0.025506
0.593121 -0.990953 6.788930 22 255 225 0.020515
0.575954 -0.992823 6.783470 45 255 203 0.027244
0.587678 -0.996602 6.763610 32 255 216 0.023022
0.529623 -0.046859 7.010770 209 255 38 0.132470
0.511973 -0.061767 7.035590 232 255 16 0.159916
0.486377 -0.079420 7.049240 242 253 6 0.169673
0.468978 -0.096885 7.072560 255 238 0 0.189788
0.450810 -0.097208 7.052470 245 249 3 0.175291
0.503150 -0.078493 7.069270 255 227 0 0.200199
0.486408 -0.097353 7.091600 255 219 0 0.213118
0.528882 -0.061352 7.056090 251 241 0 0.185001
0.554759 -0.044956 7.042340 229 255 19 0.155411
0.431534 -0.123118 7.064600 229 255 19 0.153848
0.421378 -0.149594 7.085710 222 255 25 0.145842
0.402078 -0.176953 7.096830 219 255 29 0.143428
0.393186 -0.205173 7.116520 222 255 25 0.146846
0.374026 -0.203344 7.098720 203 255 45 0.125831
0.420924 -0.178551 7.114480 232 255 16 0.157174
0.412466 -0.207216 7.133350 235 255 13 0.160840
0.439466 -0.151150 7.103970 245 249 3 0.174391
0.458539 -0.123721 7.093360 251 241 0 0.183437
0.451611 -0.212278 7.165830 248 245 0 0.177884
0.469236 -0.184072 7.157140 251 241 0 0.184506
0.477268 -0.154877 7.139200 255 234 0 0.193933
0.495286 -0.127332 7.129730 255 216 0 0.214000
0.504802 -0.099077 7.110570 255 219 0 0.210303
0.477180 -0.124922 7.111540 255 219 0 0.211631
0.458372 -0.152656 7.121860 255 234 0 0.193017
0.439995 -0.180400 7.131760 245 249 3 0.174646
0.432088 -0.209721 7.149940 235 255 13 0.164446
0.519926 -0.079235 7.088700 255 227 0 0.202355
0.439729 -0.246114 7.169250 216 255 32 0.139506
0.439696 -0.280146 7.179950 184 255 64 0.108640
0.428838 -0.313726 7.183510 161 255 87 0.087443
0.428800 -0.347460 7.193050 142 255 106 0.075128
0.407028 -0.346784 7.180470 145 255 103 0.076933
0.450815 -0.314153 7.197060 164 255 84 0.091003
0.451014 -0.347831 7.206680 148 255 100 0.078328
0.460790 -0.281888 7.193870 190 255 58 0.113315
0.471260 -0.249457 7.191120 216 255 32 0.138956
0.471747 -0.215212 7.180740 245 249 3 0.174882
0.491892 -0.218184 7.195480 245 249 3 0.174817
0.403183 -0.382548 7.179950 113 255 135 0.055515
0.411409 -0.416595 7.185870 84 255 164 0.042142
0.408378 -0.451701 7.185580 74 255 174 0.036852
0.416205 -0.485486 7.191480 87 255 161 0.043715
0.393724 -0.488849 7.179230 90 255 158 0.043832
0.430859 -0.448585 7.198000 77 255 171 0.038820
0.438495 -0.482163 7.203800 87 255 161 0.043338
0.433771 -0.415178 7.198570 96 255 151 0.047259
0.436683 -0.381497 7.199100 119 255 129 0.059314
0.476126 -0.442663 7.222160 93 255 155 0.046169
0.478440 -0.411085 7.222620 106 255 142 0.052594
0.470263 -0.379490 7.217800 125 255 122 0.063412
0.472935 -0.347641 7.218890 151 255 96 0.080159
0.456399 -0.413126 7.211140 103 255 145 0.050335
0.453249 -0.446551 7.210250 90 255 158 0.044887
0.461511 -0.477968 7.215640 93 255 155 0.046316
0.493726 -0.315329 7.222380 164 255 84 0.091093
0.503232 -0.284416 7.220460 200 255 48 0.123833
0.502595 -0.252053 7.211680 219 255 29 0.145097
0.482258 -0.283105 7.207620 187 255 61 0.110490
0.471622 -0.315703 7.209640 164 255 84 0.091936
0.351252 -0.236111 7.096180 158 255 90 0.086580
0.353965 -0.202173 7.080090 190 255 58 0.113275
0.328760 -0.269067 7.093610 129 255 119 0.065631
0.331030 -0.234854 7.077790 148 255 100 0.078560
0.308786 -0.267376 7.076040 119 255 129 0.060006
0.334843 -0.201409 7.060880 167 255 80 0.093865
0.306523 -0.301891 7.091770 116 255 132 0.057286
0.284403 -0.334986 7.089830 125 255 122 0.063815
0.305777 -0.337042 7.107200 122 255 126 0.061122
0.327352 -0.304087 7.108870 116 255 132 0.058310
0.349849 -0.270909 7.111810 138 255 109 0.071691
0.326531 -0.339531 7.123430 119 255 129 0.059165
0.310807 -0.232839 7.058590 142 255 106 0.073652
0.313933 -0.200355 7.040590 151 255 96 0.082048
0.286971 -0.264374 7.056510 125 255 122 0.063265
0.289977 -0.231610 7.038630 132 255 116 0.067228
0.263347 -0.296282 7.054400 129 255 119 0.064628
0.262223 -0.331607 7.071580 132 255 116 0.068100
0.285411 -0.299346 7.073680 119 255 129 0.059375
0.249941 -0.444807 7.078180 100 255 148 0.048528
0.248212 -0.484374 7.080730 116 255 132 0.058599
0.252869 -0.405482 7.075640 93 255 155 0.046421
0.276232 -0.410877 7.093500 84 255 164 0.040922
0.273307 -0.449601 7.095010 84 255 164 0.042110
0.270788 -0.488812 7.096470 100 255 148 0.049970
0.268535 -0.369804 7.082520 100 255 148 0.048486
0.295046 -0.451432 7.110840 77 255 171 0.038215
0.292729 -0.490312 7.112110 93 255 155 0.046509
0.297803 -0.412904 7.109420 71 255 177 0.036259
0.319432 -0.415351 7.125610 64 255 184 0.033329
0.317128 -0.453616 7.127060 64 255 184 0.033943
0.314898 -0.492179 7.127780 87 255 161 0.043319
0.312137 -0.376048 7.116820 84 255 164 0.042095
0.290850 -0.373677 7.100190 87 255 161 0.043517
0.370714 -0.238203 7.113350 177 255 71 0.100334
0.369053 -0.273054 7.127350 151 255 96 0.081754
0.348054 -0.306128 7.125640 125 255 122 0.063052
0.346900 -0.341447 7.138760 122 255 126 0.062264
0.367465 -0.308348 7.140420 138 255 109 0.071315
0.366386 -0.343868 7.153120 135 255 113 0.068748
0.388941 -0.275365 7.143650 167 255 80 0.093956
0.390797 -0.240169 7.130450 193 255 55 0.117813
0.332784 -0.377689 7.132250 84 255 164 0.041737
0.339713 -0.415819 7.140210 64 255 184 0.033674
0.336873 -0.454045 7.140370 61 255 187 0.032027
0.334330 -0.492443 7.140430 80 255 167 0.039596
0.354248 -0.492165 7.154730 84 255 164 0.041584
0.356607 -0.455008 7.153860 64 255 184 0.033437
0.359377 -0.417912 7.153340 61 255 187 0.032852
0.353139 -0.379562 7.146670 90 255 158 0.044270
0.387025 -0.452739 7.173490 77 255 171 0.038117
0.389872 -0.417285 7.173260 84 255 164 0.042203
0.383001 -0.381010 7.166710 103 255 145 0.050948
0.386899 -0.345163 7.166890 142 255 106 0.073101
0.373923 -0.490452 7.166790 84 255 164 0.041057
0.407881 -0.311957 7.169700 158 255 90 0.086334
0.418876 -0.278368 7.165730 180 255 67 0.103869
0.420489 -0.243298 7.154140 203 255 45 0.127523
0.387858 -0.310248 7.155600 145 255 103 0.077008
0.465712 -0.055671 6.934490 106 255 142 0.052926
0.439301 -0.071212 6.949370 103 255 145 0.050181
0.422559 -0.085351 6.975490 135 255 113 0.070475
0.395922 -0.102103 6.989970 158 255 90 0.084839
0.415526 -0.099599 7.011600 184 255 64 0.108191
0.442688 -0.083169 6.997450 171 255 77 0.096295
0.459906 -0.068819 6.971800 145 255 103 0.075277
0.484844 -0.052634 6.957030 142 255 106 0.073794
0.365092 -0.126587 6.992630 122 255 126 0.062195
0.344223 -0.150393 7.005400 113 255 135 0.056173
0.333999 -0.175186 7.028420 135 255 113 0.070157
0.354195 -0.175242 7.048720 164 255 84 0.091624
0.364492 -0.150155 7.026450 148 255 100 0.078303
0.385238 -0.125183 7.013900 158 255 90 0.086959
0.383136 -0.175977 7.078290 200 255 48 0.123121
0.402176 -0.149431 7.066580 209 255 38 0.132283
0.413088 -0.123617 7.044700 206 255 42 0.129306
0.433898 -0.098135 7.032550 222 255 25 0.145681
0.384125 -0.149440 7.047110 177 255 71 0.101590
0.468370 -0.080357 7.028830 222 255 25 0.148415
0.495471 -0.064071 7.014800 203 255 45 0.127685
0.513405 -0.049201 6.989790 180 255 67 0.105475
0.477429 -0.066106 6.993620 184 255 64 0.106589
0.514381 -0.129590 7.146960 255 212 0 0.222641
0.496350 -0.157453 7.155760 255 219 0 0.209375
0.489059 -0.186874 7.172520 255 234 0 0.190094
0.508468 -0.190584 7.187800 255 219 0 0.213394
0.389606 -0.790946 7.065300 132 255 116 0.066827
0.380224 -0.791889 7.058150 138 255 109 0.071026
0.396813 -0.818838 7.041160 116 255 132 0.058357
0.387340 -0.819851 7.032960 122 255 126 0.061113
0.370685 -0.792597 7.049970 138 255 109 0.071213
0.404240 -0.846764 7.015640 113 255 135 0.056665
0.377627 -0.820569 7.023910 122 255 126 0.060906
0.394615 -0.847564 7.006730 116 255 132 0.058094
0.385075 -0.848307 6.997060 119 255 129 0.060015
0.360836 -0.793211 7.040970 135 255 113 0.070458
0.367985 -0.821303 7.014360 122 255 126 0.062325
0.351006 -0.793804 7.031230 138 255 109 0.071301
0.411663 -0.873909 6.988750 122 255 126 0.062112
0.402367 -0.874843 6.979620 125 255 122 0.064304
0.419517 -0.900742 6.961530 145 255 103 0.076140
0.430697 -0.900295 6.970980 138 255 109 0.072957
0.423120 -0.873548 6.997980 116 255 132 0.057135
0.442075 -0.899797 6.980200 135 255 113 0.069127
0.434214 -0.872543 7.005930 106 255 142 0.052873
0.415507 -0.846084 7.023900 106 255 142 0.052822
0.426913 -0.845306 7.031420 96 255 151 0.047535
0.453152 -0.898697 6.988360 125 255 122 0.063900
0.445572 -0.871654 7.013920 100 255 148 0.048614
0.464530 -0.897689 6.996670 119 255 129 0.060492
0.408296 -0.818419 7.048680 109 255 138 0.053587
0.340279 -0.789446 7.022030 125 255 122 0.064373
0.354877 -0.815399 7.005350 113 255 135 0.056378
0.343636 -0.810982 6.995070 96 255 151 0.047947
0.329046 -0.784999 7.011700 113 255 135 0.056669
0.358257 -0.836451 6.978010 96 255 151 0.047718
0.332176 -0.806226 6.984200 84 255 164 0.041420
0.347112 -0.831780 6.967400 84 255 164 0.041662
0.317528 -0.780156 7.000840 96 255 151 0.048418
0.361977 -0.856956 6.950090 90 255 158 0.045027
0.379116 -0.883243 6.932430 109 255 138 0.054480
0.375545 -0.863176 6.960500 103 255 145 0.050847
0.393076 -0.889519 6.942890 122 255 126 0.061006
0.388925 -0.869155 6.970260 113 255 135 0.056880
0.371839 -0.842584 6.987950 109 255 138 0.054184
0.406087 -0.895213 6.952310 132 255 116 0.068689
0.425639 -0.931576 6.872830 93 255 155 0.045569
0.441645 -0.938247 6.882440 106 255 142 0.052039
0.423680 -0.921695 6.902960 100 255 148 0.050021
0.457191 -0.944557 6.891570 119 255 129 0.060160
0.439613 -0.928216 6.912080 113 255 135 0.056113
0.454766 -0.934016 6.920550 129 255 119 0.065446
0.472398 -0.950251 6.899860 135 255 113 0.069100
0.421659 -0.911455 6.932670 116 255 132 0.058719
0.437275 -0.917577 6.941140 129 255 119 0.066113
0.408453 -0.905770 6.922910 103 255 145 0.051506
0.394686 -0.899689 6.912610 90 255 158 0.045249
0.410353 -0.915774 6.892740 87 255 161 0.043428
0.483579 -0.949702 6.909700 129 255 119 0.065893
0.502501 -0.949572 6.916860 109 255 138 0.054187
0.477206 -0.932776 6.939540 116 255 132 0.057914
0.521541 -0.949324 6.923640 93 255 155 0.046402
0.496200 -0.932239 6.945760 93 255 155 0.045866
0.516408 -0.933308 6.953750 84 255 164 0.042113
0.541741 -0.951570 6.932830 103 255 145 0.050707
0.470716 -0.915260 6.968260 109 255 138 0.054725
0.490665 -0.915554 6.975160 93 255 155 0.046287
0.459580 -0.916328 6.959660 119 255 129 0.059224
0.448382 -0.917221 6.950700 125 255 122 0.063249
0.466194 -0.933659 6.930370 122 255 126 0.060760
0.304798 -0.744203 7.012680 64 255 184 0.033380
0.316522 -0.749056 7.023650 77 255 171 0.039171
0.303680 -0.712678 7.035250 61 255 187 0.031999
0.327902 -0.753682 7.033920 93 255 155 0.045706
0.315128 -0.717512 7.045340 74 255 174 0.037472
0.326278 -0.722258 7.054680 87 255 161 0.042671
0.338873 -0.758027 7.043470 106 255 142 0.052003
0.301947 -0.681048 7.056600 74 255 174 0.036910
0.313533 -0.685815 7.065960 84 255 164 0.041182
0.300237 -0.649458 7.076960 96 255 151 0.048006
0.289692 -0.646221 7.068700 90 255 158 0.044561
0.291448 -0.677783 7.047440 64 255 184 0.033617
0.278802 -0.642864 7.059530 87 255 161 0.043321
0.280194 -0.674255 7.037510 55 255 193 0.029754
0.292819 -0.709352 7.025190 51 255 196 0.028993
0.267283 -0.639265 7.049690 77 255 171 0.038655
0.357584 -0.757130 7.060620 103 255 145 0.051484
0.344246 -0.721350 7.070590 87 255 161 0.043462
0.367142 -0.756642 7.068630 106 255 142 0.052483
0.354109 -0.721150 7.078680 87 255 161 0.043474
0.364325 -0.721045 7.087020 87 255 161 0.043320
0.376731 -0.756168 7.076120 103 255 145 0.050203
0.341113 -0.685496 7.088790 84 255 164 0.040930
0.351608 -0.685630 7.097450 87 255 161 0.042457
0.338940 -0.649915 7.108070 100 255 148 0.048659
0.319105 -0.649747 7.092350 96 255 151 0.047678
0.309337 -0.530868 7.114300 61 255 187 0.032636
0.304712 -0.569887 7.101520 51 255 196 0.029393
0.287686 -0.529278 7.099440 67 255 180 0.035397
0.284432 -0.569192 7.087630 64 255 184 0.033759
0.301870 -0.609778 7.089300 67 255 180 0.034537
0.322147 -0.610283 7.105040 64 255 184 0.033366
0.326495 -0.571044 7.118070 55 255 193 0.029939
0.265653 -0.525267 7.083840 80 255 167 0.040112
0.261811 -0.561939 7.070600 64 255 184 0.033819
0.270176 -0.602313 7.065430 64 255 184 0.033906
0.281471 -0.605953 7.074250 71 255 177 0.035849
0.273192 -0.565633 7.079670 64 255 184 0.033366
0.394780 -0.748382 7.092800 90 255 158 0.044390
0.407447 -0.781305 7.083450 119 255 129 0.059060
0.382041 -0.715304 7.101870 77 255 171 0.038440
0.400684 -0.706519 7.120830 80 255 167 0.040391
0.413298 -0.739459 7.111960 93 255 155 0.045554
0.425758 -0.772297 7.102920 116 255 132 0.058515
0.378847 -0.677604 7.120230 77 255 171 0.038988
0.376027 -0.639986 7.138560 100 255 148 0.048960
0.357153 -0.644932 7.122930 96 255 151 0.046864
0.431452 -0.729110 7.127720 80 255 167 0.040156
0.443757 -0.759768 7.120610 106 255 142 0.052388
0.419570 -0.698476 7.135380 67 255 180 0.035334
0.437686 -0.686422 7.152550 74 255 174 0.037280
0.449424 -0.716963 7.145240 80 255 167 0.040788
0.461579 -0.747635 7.138330 109 255 138 0.053518
0.416620 -0.661671 7.150930 74 255 174 0.036876
0.413811 -0.624935 7.166430 93 255 155 0.046454
0.394863 -0.632293 7.152110 90 255 158 0.044406
0.397673 -0.669407 7.136540 77 255 171 0.038807
0.388919 -0.526176 7.168560 58 255 190 0.031108
0.384436 -0.563777 7.158330 48 255 200 0.028129
0.369367 -0.528213 7.156500 58 255 190 0.031375
0.365110 -0.566241 7.146530 58 255 190 0.030671
0.379969 -0.601688 7.148290 64 255 184 0.033170
0.399297 -0.594497 7.162340 64 255 184 0.033606
0.403493 -0.557080 7.172280 55 255 193 0.030654
0.349862 -0.531150 7.142910 58 255 190 0.031013
0.345583 -0.570295 7.130960 48 255 200 0.028120
0.330103 -0.531481 7.129170 61 255 187 0.032022
0.341781 -0.609990 7.119450 61 255 187 0.032862
0.360908 -0.605331 7.134620 64 255 184 0.033698
0.469895 -0.707357 7.158690 74 255 174 0.036916
0.481256 -0.736560 7.152550 96 255 151 0.047586
0.458534 -0.678265 7.165020 61 255 187 0.032814
0.478258 -0.667620 7.179070 67 255 180 0.035008
0.489539 -0.696746 7.173190 77 255 171 0.039148
0.501173 -0.726091 7.167720 103 255 145 0.051144
0.457244 -0.643807 7.178170 64 255 184 0.034019
0.456574 -0.609650 7.191700 84 255 164 0.041841
0.435338 -0.617123 7.178870 84 255 164 0.041806
0.436379 -0.651684 7.165760 67 255 180 0.035450
0.510575 -0.688183 7.185530 77 255 171 0.038532
0.521340 -0.716383 7.179880 96 255 151 0.048154
0.500146 -0.660134 7.191400 74 255 174 0.036919
0.520595 -0.650705 7.203640 74 255 174 0.037998
0.530528 -0.678803 7.197760 84 255 164 0.041936
0.540904 -0.707107 7.192270 103 255 145 0.051417
0.500155 -0.627433 7.203370 74 255 174 0.037493
0.500512 -0.594918 7.215660 84 255 164 0.041385
0.478491 -0.602157 7.203410 77 255 171 0.039425
0.478106 -0.634814 7.191050 64 255 184 0.033556
0.476888 -0.507492 7.217920 74 255 174 0.037860
0.469818 -0.541415 7.208830 67 255 180 0.034645
0.454201 -0.511878 7.206110 71 255 177 0.035925
0.447296 -0.546003 7.197090 61 255 187 0.032481
0.462923 -0.575511 7.199980 67 255 180 0.035403
0.485081 -0.568198 7.211920 67 255 180 0.035353
0.492274 -0.534184 7.220930 67 255 180 0.034421
0.431947 -0.517543 7.193810 67 255 180 0.034497
0.425798 -0.553193 7.184610 58 255 190 0.031560
0.409755 -0.521082 7.181610 61 255 187 0.032608
0.419599 -0.588958 7.175300 67 255 180 0.034380
0.441084 -0.581469 7.187720 64 255 184 0.033957
0.550316 -0.671146 7.208950 100 255 148 0.048913
0.560459 -0.698654 7.203550 106 255 142 0.053115
0.540605 -0.643890 7.214700 80 255 167 0.039783
0.559988 -0.635230 7.225590 90 255 158 0.043971
0.569776 -0.662576 7.220170 93 255 155 0.046051
0.579502 -0.690115 7.214850 109 255 138 0.054448
0.540921 -0.612423 7.225980 90 255 158 0.043836
0.541160 -0.581100 7.237220 90 255 158 0.044226
0.520782 -0.588009 7.226130 90 255 158 0.044695
0.520456 -0.619299 7.214770 77 255 171 0.038939
0.588526 -0.655569 7.231570 109 255 138 0.054829
0.597445 -0.682493 7.225980 122 255 126 0.061551
0.579238 -0.628830 7.237300 106 255 142 0.052512
0.579405 -0.598341 7.248550 109 255 138 0.054062
0.570335 -0.571288 7.254190 109 255 138 0.054366
0.560153 -0.604803 7.236950 96 255 151 0.047643
0.552857 -0.518271 7.254180 96 255 151 0.047824
0.539415 -0.491532 7.251520 93 255 155 0.046225
0.533383 -0.522800 7.242660 80 255 167 0.040336
0.546834 -0.549661 7.245540 90 255 158 0.045142
0.519315 -0.497173 7.240590 87 255 161 0.043294
0.513078 -0.529616 7.232050 77 255 171 0.038861
0.498470 -0.501764 7.229340 84 255 164 0.041054
0.506475 -0.562237 7.223590 74 255 174 0.037815
0.526829 -0.555357 7.234140 87 255 161 0.042988
0.116783 -0.467191 6.956650 96 255 151 0.047266
0.101947 -0.432578 6.950830 122 255 126 0.062229
0.107837 -0.493665 6.938580 64 255 184 0.033719
0.092934 -0.458879 6.933100 87 255 161 0.043608
0.083594 -0.485182 6.915470 64 255 184 0.033228
0.078618 -0.424651 6.926940 106 255 142 0.053354
0.098662 -0.520322 6.920680 48 255 200 0.028248
0.089508 -0.547269 6.903250 48 255 200 0.027698
0.102642 -0.553439 6.914320 42 255 206 0.025703
0.111547 -0.526481 6.932250 48 255 200 0.028327
0.115712 -0.559564 6.925830 45 255 203 0.026914
0.124822 -0.532592 6.943920 42 255 206 0.025494
0.120831 -0.499549 6.950390 64 255 184 0.033837
0.129195 -0.565672 6.937110 45 255 203 0.026506
0.068753 -0.450945 6.910440 80 255 167 0.040209
0.055595 -0.418817 6.904460 100 255 148 0.049202
0.058686 -0.477559 6.894340 71 255 177 0.035600
0.045739 -0.445111 6.887960 77 255 171 0.038212
0.035748 -0.471629 6.872640 74 255 174 0.037167
0.032888 -0.413569 6.881870 96 255 151 0.047120
0.048829 -0.504211 6.878300 64 255 184 0.034151
0.039038 -0.531393 6.862890 67 255 180 0.035223
0.064074 -0.539272 6.882960 61 255 187 0.032993
0.073699 -0.512026 6.899220 61 255 187 0.032045
0.071710 -0.620941 6.838360 45 255 203 0.027080
0.085694 -0.625146 6.847480 35 255 213 0.023985
0.077602 -0.595753 6.859610 42 255 206 0.025814
0.099889 -0.629353 6.856770 29 255 219 0.021895
0.091577 -0.599986 6.869340 29 255 219 0.022297
0.105763 -0.604462 6.879040 16 249 232 0.018899
0.114188 -0.633377 6.866340 19 253 229 0.019790
0.083472 -0.571219 6.881330 38 255 209 0.025041
0.097357 -0.575564 6.891430 25 255 222 0.020803
0.057926 -0.563281 6.861590 58 255 190 0.030793
0.052104 -0.587940 6.840650 61 255 187 0.032296
0.127836 -0.639439 6.877170 9 241 238 0.017485
0.142851 -0.646742 6.888190 3 233 245 0.016075
0.132795 -0.616630 6.900830 0 229 248 0.015361
0.158248 -0.654008 6.899300 0 221 255 0.013699
0.147907 -0.623898 6.912120 0 221 255 0.014033
0.137912 -0.594049 6.924740 16 249 232 0.018468
0.124118 -0.588003 6.913340 16 249 232 0.018596
0.110538 -0.581843 6.902110 16 249 232 0.018515
0.119190 -0.610505 6.889810 6 237 242 0.016761
0.169166 -0.226542 6.929510 122 255 126 0.060928
0.144117 -0.252189 6.927440 135 255 113 0.069619
0.143297 -0.225924 6.906480 116 255 132 0.057994
0.118898 -0.251385 6.903730 132 255 116 0.067357
0.119814 -0.277908 6.924550 148 255 100 0.077999
0.096805 -0.304698 6.919910 151 255 96 0.081295
0.119890 -0.308381 6.944210 161 255 87 0.087642
0.143527 -0.281536 6.947830 145 255 103 0.075774
0.117944 -0.223755 6.884220 119 255 129 0.059864
0.094152 -0.248373 6.881790 132 255 116 0.067645
0.091090 -0.222345 6.862300 125 255 122 0.063433
0.068106 -0.247567 6.858990 119 255 129 0.059955
0.071632 -0.273659 6.877910 129 255 119 0.066214
0.050347 -0.300016 6.872920 125 255 122 0.062939
0.073435 -0.302167 6.896560 142 255 106 0.073012
0.095536 -0.276291 6.900700 135 255 113 0.070522
0.048931 -0.386096 6.890870 90 255 158 0.044879
0.064476 -0.358723 6.900800 103 255 145 0.051491
0.071719 -0.391482 6.913740 96 255 151 0.047925
0.087305 -0.364020 6.923840 113 255 135 0.055422
0.080381 -0.331589 6.910750 129 255 119 0.064862
0.057984 -0.329438 6.886280 113 255 135 0.055531
0.042186 -0.356511 6.876790 93 255 155 0.045672
0.094367 -0.396296 6.937770 113 255 135 0.055425
0.109755 -0.367830 6.949150 122 255 126 0.061410
0.117609 -0.403906 6.962060 122 255 126 0.062300
0.126434 -0.339582 6.959230 148 255 100 0.078230
0.103121 -0.335931 6.934670 138 255 109 0.072062
0.021969 -0.440256 6.868130 80 255 167 0.040873
0.009266 -0.410551 6.861910 93 255 155 0.045883
0.011232 -0.467536 6.854420 84 255 164 0.040999
-0.001635 -0.437524 6.848720 87 255 161 0.042439
-0.012604 -0.464679 6.836100 84 255 164 0.041736
-0.014338 -0.407887 6.842810 87 255 161 0.042431
0.000299 -0.495024 6.841500 84 255 164 0.042137
-0.010456 -0.523300 6.829220 84 255 164 0.041236
0.014151 -0.527114 6.845460 77 255 171 0.038308
0.024752 -0.499138 6.858900 77 255 171 0.038366
-0.025799 -0.435279 6.832060 84 255 164 0.041127
-0.038634 -0.406890 6.826640 80 255 167 0.039518
-0.037418 -0.463269 6.822100 84 255 164 0.041035
-0.050351 -0.434134 6.816860 74 255 174 0.037460
-0.062171 -0.462330 6.807930 77 255 171 0.038462
-0.064455 -0.405588 6.811840 80 255 167 0.040224
-0.048762 -0.491591 6.812490 80 255 167 0.040316
-0.060356 -0.520868 6.803760 84 255 164 0.042059
-0.035009 -0.522132 6.816100 84 255 164 0.041836
-0.023960 -0.493097 6.825460 87 255 161 0.043316
-0.039484 -0.638392 6.770300 84 255 164 0.041880
-0.032444 -0.608818 6.784920 74 255 174 0.037899
-0.013730 -0.638836 6.780580 80 255 167 0.040451
-0.025012 -0.579538 6.799200 74 255 174 0.037584
-0.006489 -0.609371 6.795450 74 255 174 0.036869
0.000814 -0.580212 6.810540 74 255 174 0.037840
0.012181 -0.639255 6.791220 74 255 174 0.037441
-0.017633 -0.550837 6.813740 77 255 171 0.039173
-0.042571 -0.549973 6.801700 74 255 174 0.037907
-0.050159 -0.578805 6.787640 71 255 177 0.036630
0.019114 -0.611339 6.808090 71 255 177 0.035728
0.038819 -0.643088 6.804480 64 255 184 0.033212
0.025742 -0.583890 6.825420 67 255 180 0.035076
0.045545 -0.615177 6.821820 61 255 187 0.032210
0.032345 -0.557173 6.843630 64 255 184 0.034207
0.007578 -0.553153 6.827430 74 255 174 0.037596
-0.828740 -0.787219 6.384930 0 189 255 0.009515
-0.848713 -0.789586 6.368270 0 165 255 0.006797
-0.834948 -0.800305 6.353250 0 149 255 0.005554
-0.855267 -0.803478 6.336960 0 153 255 0.005888
-0.869048 -0.792742 6.351860 0 161 255 0.006685
-0.841380 -0.814232 6.322100 0 161 255 0.006659
-0.875609 -0.807164 6.320980 0 173 255 0.007745
-0.861626 -0.817959 6.306320 0 185 255 0.009001
-0.882229 -0.822177 6.290680 0 225 251 0.014710
-0.889383 -0.796227 6.335770 0 177 255 0.007943
-0.895986 -0.811198 6.305310 0 213 255 0.012804
-0.909851 -0.800215 6.319900 0 209 255 0.012210
-0.847616 -0.828662 6.291540 0 209 255 0.011792
-0.868074 -0.832790 6.275900 13 245 235 0.018071
-0.853794 -0.843280 6.261210 32 255 216 0.023160
-0.833521 -0.840955 6.275900 16 249 232 0.018406
-0.827363 -0.826586 6.306450 0 197 255 0.010410
-0.813275 -0.838825 6.290700 3 233 245 0.015779
-0.807153 -0.824891 6.321470 0 197 255 0.010312
-0.821148 -0.812592 6.337290 0 165 255 0.006896
-0.801042 -0.811382 6.352660 0 185 255 0.009100
-0.793190 -0.837089 6.305650 3 233 245 0.015549
-0.787153 -0.823666 6.336730 0 209 255 0.011930
-0.773170 -0.835838 6.320810 9 241 238 0.016964
-0.815009 -0.799222 6.368760 0 181 255 0.008341
-0.932009 -0.798382 6.303670 0 197 255 0.010474
-0.918481 -0.809413 6.289020 0 205 255 0.011379
-0.941138 -0.808257 6.273210 0 213 255 0.012793
-0.954490 -0.797250 6.287630 0 205 255 0.011408
-0.927462 -0.819186 6.258610 0 229 248 0.015070
-0.963753 -0.807498 6.257410 6 237 242 0.016672
-0.950326 -0.818521 6.243050 19 253 229 0.019790
-0.972924 -0.817549 6.227420 42 255 206 0.025756
-0.977075 -0.796263 6.271700 0 225 251 0.014169
-0.986576 -0.806644 6.241740 32 255 216 0.022699
-0.999812 -0.795582 6.255940 22 255 225 0.020350
-0.936321 -0.829064 6.228320 32 255 216 0.022751
-0.959060 -0.828294 6.212740 51 255 196 0.029104
-0.944795 -0.838530 6.197820 64 255 184 0.033875
-0.921796 -0.839567 6.213600 48 255 200 0.028111
-0.913196 -0.829999 6.244090 16 249 232 0.018631
-0.898805 -0.840488 6.229330 35 255 213 0.023665
-0.890498 -0.831198 6.259910 9 241 238 0.016931
-0.904705 -0.820392 6.274550 0 217 255 0.013186
-0.876179 -0.841651 6.245150 29 255 219 0.021746
-0.874912 -0.868527 6.128120 16 249 232 0.019027
-0.852894 -0.870210 6.143230 13 245 235 0.017763
-0.870542 -0.864598 6.161820 38 255 209 0.025220
-0.848469 -0.866202 6.176980 32 255 216 0.023204
-0.831220 -0.872383 6.158350 13 245 235 0.018148
-0.865449 -0.858862 6.195190 45 255 203 0.026529
-0.826484 -0.868009 6.192150 38 255 209 0.024490
-0.843276 -0.860478 6.210420 42 255 206 0.026148
-0.821300 -0.862216 6.225680 48 255 200 0.028081
-0.809375 -0.874195 6.173530 19 253 229 0.019867
-0.804648 -0.869969 6.207360 45 255 203 0.027345
-0.787808 -0.876427 6.188840 32 255 216 0.023300
-0.859757 -0.851513 6.228410 38 255 209 0.024510
-0.837683 -0.853186 6.243640 42 255 206 0.026125
-0.882312 -0.850257 6.212520 42 255 206 0.026050
-0.905138 -0.849134 6.196700 51 255 196 0.029386
-0.888016 -0.857471 6.179420 51 255 196 0.028773
-0.910567 -0.856034 6.163520 61 255 187 0.032588
-0.928070 -0.848013 6.180880 67 255 180 0.035103
-0.892928 -0.862915 6.145950 45 255 203 0.027166
-0.768398 -0.876125 6.201930 25 255 222 0.021326
-0.784854 -0.867979 6.222150 32 255 216 0.022936
-0.765246 -0.867782 6.235360 29 255 219 0.022319
-0.749095 -0.875948 6.215250 25 255 222 0.021565
-0.781226 -0.857976 6.255220 22 255 225 0.020262
-0.745798 -0.867746 6.248910 32 255 216 0.022663
-0.761626 -0.858039 6.268590 25 255 222 0.020909
-0.742304 -0.858553 6.282190 35 255 213 0.023475
-0.729973 -0.876192 6.228900 29 255 219 0.021930
-0.726554 -0.868520 6.262620 42 255 206 0.025770
-0.710767 -0.876893 6.242480 38 255 209 0.025249
-0.777212 -0.847037 6.288020 13 245 235 0.017827
-0.757713 -0.847464 6.301560 19 253 229 0.019855
-0.797295 -0.848778 6.273080 16 249 232 0.018531
-0.817488 -0.850959 6.258340 25 255 222 0.021247
-0.801144 -0.859959 6.240360 32 255 216 0.023187
-0.606837 -0.868806 6.317770 42 255 206 0.026122
-0.603251 -0.877626 6.284510 16 249 232 0.018668
-0.629653 -0.871032 6.301580 42 255 206 0.025678
-0.599453 -0.885076 6.250780 0 205 255 0.011495
-0.625996 -0.880146 6.268300 22 255 225 0.020360
-0.622108 -0.887629 6.234650 0 217 255 0.012967
-0.652560 -0.873751 6.285470 42 255 206 0.026303
-0.595439 -0.891319 6.216630 0 149 255 0.005694
-0.591293 -0.897765 6.182580 0 117 255 0.003416
-0.570464 -0.897637 6.195740 0 117 255 0.003589
-0.574415 -0.891317 6.229880 0 161 255 0.006689
-0.578391 -0.885244 6.264160 0 221 255 0.013689
-0.549531 -0.897553 6.208900 0 121 255 0.003703
-0.667085 -0.874051 6.274530 38 255 209 0.024836
-0.651111 -0.880749 6.251290 9 241 238 0.017195
-0.665537 -0.881223 6.240490 9 241 238 0.017398
-0.681587 -0.874998 6.263810 38 255 209 0.024453
-0.649326 -0.886527 6.216720 0 193 255 0.010094
-0.679915 -0.881814 6.229810 9 241 238 0.017181
-0.663606 -0.886596 6.206020 0 185 255 0.008979
-0.678002 -0.887451 6.195470 0 185 255 0.008911
-0.696140 -0.875784 6.253060 38 255 209 0.024393
-0.694476 -0.882951 6.219220 9 241 238 0.017309
-0.647368 -0.891208 6.181940 0 133 255 0.004342
-0.661627 -0.891666 6.171370 0 129 255 0.004129
-0.645203 -0.895721 6.147110 0 201 255 0.010712
-0.618169 -0.896724 6.164760 0 109 255 0.003135
-0.620196 -0.891743 6.199640 0 145 255 0.005247
-0.585746 -0.924537 6.044560 45 255 203 0.026811
-0.586541 -0.914031 6.077790 45 255 203 0.026760
-0.558767 -0.924667 6.059650 38 255 209 0.025237
-0.587800 -0.906553 6.112080 22 255 225 0.019968
-0.559699 -0.914684 6.093180 35 255 213 0.024025
-0.561111 -0.907709 6.127850 0 197 255 0.010211
-0.532009 -0.925800 6.075100 32 255 216 0.022840
-0.589471 -0.901331 6.147160 0 145 255 0.005267
-0.616396 -0.900614 6.129530 0 225 251 0.014663
-0.614715 -0.906506 6.094790 25 255 222 0.021503
-0.535827 -0.915051 6.107520 0 229 248 0.014770
-0.511303 -0.925456 6.086650 0 221 255 0.013602
-0.540170 -0.906988 6.140830 0 189 255 0.009660
-0.515164 -0.914881 6.119260 0 221 255 0.013594
-0.519662 -0.907285 6.152680 0 181 255 0.008561
-0.490634 -0.925336 6.098290 0 213 255 0.012863
-0.544798 -0.901454 6.174760 0 129 255 0.004071
-0.565641 -0.901810 6.161660 0 133 255 0.004467
-0.743513 -0.916521 5.954400 32 255 216 0.022881
-0.722131 -0.917175 5.966450 42 255 206 0.025958
-0.736054 -0.905583 5.989900 55 255 193 0.030172
-0.714914 -0.907150 6.002010 58 255 190 0.031691
-0.701057 -0.918198 5.978440 48 255 200 0.028162
-0.729685 -0.897967 6.025710 51 255 196 0.029417
-0.694022 -0.908591 6.013930 61 255 187 0.032747
-0.708739 -0.899890 6.037840 55 255 193 0.029796
-0.687992 -0.902199 6.050030 48 255 200 0.027988
-0.680173 -0.919723 5.990430 51 255 196 0.028870
-0.673316 -0.910721 6.026000 58 255 190 0.031355
-0.659260 -0.921523 6.002600 48 255 200 0.027876
-0.723988 -0.893371 6.062240 29 255 219 0.022437
-0.703252 -0.895912 6.074490 22 255 225 0.020763
-0.718849 -0.891180 6.099340 0 217 255 0.013401
-0.739409 -0.888500 6.085430 0 225 251 0.014601
-0.744603 -0.891453 6.048650 35 255 213 0.023558
-0.760081 -0.886289 6.071640 3 233 245 0.015442
-0.765367 -0.889596 6.035020 35 255 213 0.023490
-0.750431 -0.896573 6.012220 51 255 196 0.028798
-0.771456 -0.895671 5.998750 45 255 203 0.026434
-0.780934 -0.884166 6.057960 6 237 242 0.016385
-0.786444 -0.888220 6.021430 29 255 219 0.022175
-0.802110 -0.882824 6.044430 3 233 245 0.015836
-0.757048 -0.905099 5.976500 45 255 203 0.026622
-0.640928 -0.921943 6.012990 51 255 196 0.029038
-0.655059 -0.910842 6.037380 61 255 187 0.032506
-0.636633 -0.911627 6.047840 58 255 190 0.031456
-0.622539 -0.922494 6.023380 55 255 193 0.029564
-0.651422 -0.903368 6.073170 45 255 203 0.026715
-0.618325 -0.913003 6.058580 51 255 196 0.029266
-0.633026 -0.904721 6.083870 38 255 209 0.024664
-0.604094 -0.923333 6.033940 51 255 196 0.028491
-0.648270 -0.898629 6.109820 6 237 242 0.016819
-0.663634 -0.894237 6.135030 0 205 255 0.011566
-0.666513 -0.897308 6.097920 19 253 229 0.019131
-0.682008 -0.892997 6.123070 0 213 255 0.012377
-0.684903 -0.896601 6.086110 22 255 225 0.020167
-0.669737 -0.902549 6.061510 48 255 200 0.027960
-0.700570 -0.891790 6.111010 0 217 255 0.012940
-0.713265 -0.881672 6.206930 0 229 248 0.015206
-0.732181 -0.880323 6.193210 0 213 255 0.012518
-0.715317 -0.884349 6.171030 0 153 255 0.006059
-0.751246 -0.880168 6.179850 0 209 255 0.012248
-0.734244 -0.883835 6.157550 0 145 255 0.005274
-0.753165 -0.884280 6.144500 0 153 255 0.005887
-0.770406 -0.880324 6.166700 0 213 255 0.012624
-0.717202 -0.887413 6.134980 0 197 255 0.010507
-0.735896 -0.887585 6.121980 0 197 255 0.010641
-0.698607 -0.888426 6.146990 0 117 255 0.003434
-0.680156 -0.889805 6.159110 0 117 255 0.003391
-0.696713 -0.885561 6.183190 0 169 255 0.007134
-0.791827 -0.878301 6.152700 0 201 255 0.010806
-0.813179 -0.876043 6.137460 0 185 255 0.008783
-0.795192 -0.878957 6.116500 0 117 255 0.003538
-0.834691 -0.873994 6.122420 0 181 255 0.008487
-0.816407 -0.876784 6.101360 0 113 255 0.003249
-0.838075 -0.875621 6.086360 0 121 255 0.003811
-0.856560 -0.872515 6.107360 0 189 255 0.009672
-0.798428 -0.880064 6.080300 0 125 255 0.003851
-0.819750 -0.878319 6.065250 0 133 255 0.004308
-0.777466 -0.882424 6.094120 0 197 255 0.010570
-0.756661 -0.884844 6.107960 0 197 255 0.010277
-0.774129 -0.881638 6.130420 0 133 255 0.004439
-0.624856 -0.296125 6.872620 255 212 0 0.219097
-0.626378 -0.304487 6.857090 255 219 0 0.212123
-0.622816 -0.282785 6.848210 255 230 0 0.198714
-0.623367 -0.291002 6.833190 245 249 3 0.173755
-0.626369 -0.312405 6.841340 255 234 0 0.192922
-0.620752 -0.268641 6.824780 235 255 13 0.161940
-0.624203 -0.298843 6.817980 238 255 9 0.165740
-0.621373 -0.276649 6.809550 229 255 19 0.153949
-0.622053 -0.283936 6.794190 222 255 25 0.147061
-0.627267 -0.320403 6.825970 255 234 0 0.191133
-0.625435 -0.306600 6.802430 229 255 19 0.154545
-0.629004 -0.328714 6.811400 251 241 0 0.184701
-0.619164 -0.253782 6.801810 219 255 29 0.142922
-0.620103 -0.260524 6.785700 219 255 29 0.143384
-0.618942 -0.236886 6.779010 206 255 42 0.130087
-0.618227 -0.231230 6.795500 209 255 38 0.134402
-0.618949 -0.247566 6.818130 225 255 22 0.149741
-0.617473 -0.225938 6.812450 225 255 22 0.150572
-0.618388 -0.241954 6.835330 229 255 19 0.155224
-0.620463 -0.262831 6.841500 242 253 6 0.171683
-0.619709 -0.256816 6.858220 255 227 0 0.201379
-0.617261 -0.221160 6.829520 232 255 16 0.156911
-0.617968 -0.235873 6.852060 251 241 0 0.181983
-0.622231 -0.276832 6.865290 255 230 0 0.198794
-0.630755 -0.335317 6.796910 248 245 0 0.177519
-0.627062 -0.312295 6.787320 222 255 25 0.146070
-0.629052 -0.318815 6.772650 209 255 38 0.134397
-0.632960 -0.342384 6.782620 232 255 16 0.158162
-0.626086 -0.295134 6.763420 200 255 48 0.121840
-0.631419 -0.325595 6.758580 203 255 45 0.125831
-0.628231 -0.301365 6.748830 190 255 58 0.112534
-0.630642 -0.307701 6.734520 177 255 71 0.103017
-0.635381 -0.349457 6.768450 222 255 25 0.145611
-0.633879 -0.332341 6.744060 187 255 61 0.109881
-0.637921 -0.356857 6.754180 206 255 42 0.129871
-0.625995 -0.276605 6.739840 193 255 55 0.116633
-0.628416 -0.282444 6.725360 190 255 58 0.112535
-0.627621 -0.257713 6.717100 206 255 42 0.130911
-0.624935 -0.253028 6.732430 216 255 32 0.140436
-0.623688 -0.271495 6.755210 193 255 55 0.116862
-0.622644 -0.247833 6.747850 203 255 45 0.126670
-0.621757 -0.266681 6.770880 206 255 42 0.130582
-0.623977 -0.289187 6.778360 209 255 38 0.132227
-0.620913 -0.242910 6.763230 200 255 48 0.124240
-0.662427 -0.155883 6.693260 206 255 42 0.130010
-0.657493 -0.151808 6.710010 216 255 32 0.138552
-0.648313 -0.175204 6.712590 200 255 48 0.122244
-0.643799 -0.171923 6.729150 213 255 35 0.134818
-0.652694 -0.148004 6.726830 219 255 29 0.143149
-0.635954 -0.196724 6.732880 190 255 58 0.112061
-0.639968 -0.167934 6.746190 209 255 38 0.133490
-0.632742 -0.192482 6.749860 196 255 51 0.118672
-0.629491 -0.188426 6.767170 203 255 45 0.124476
-0.648478 -0.143908 6.743790 222 255 25 0.146220
-0.636543 -0.164284 6.763130 216 255 32 0.140049
-0.644519 -0.139986 6.760440 229 255 19 0.156143
-0.626616 -0.217813 6.755240 193 255 55 0.115903
-0.623813 -0.213165 6.772330 200 255 48 0.124237
-0.628679 -0.221684 6.739710 190 255 58 0.113012
-0.631013 -0.227202 6.724120 196 255 51 0.118995
-0.638916 -0.200647 6.717360 187 255 61 0.109837
-0.642161 -0.205352 6.701660 177 255 71 0.101416
-0.633840 -0.231944 6.708610 187 255 61 0.111530
-0.651776 -0.180181 6.696590 196 255 51 0.118647
-0.642141 -0.135829 6.778060 229 255 19 0.154312
-0.634763 -0.158448 6.780380 219 255 29 0.142406
-0.633239 -0.155393 6.797930 219 255 29 0.143854
-0.639944 -0.132395 6.795780 225 255 22 0.149646
-0.627268 -0.178263 6.801360 225 255 22 0.151033
-0.625985 -0.174234 6.819000 235 255 13 0.163833
-0.621349 -0.196823 6.823300 232 255 16 0.159494
-0.621820 -0.201987 6.806080 213 255 35 0.136739
-0.622427 -0.207679 6.789470 209 255 38 0.134097
-0.628119 -0.182937 6.784240 209 255 38 0.131745
-0.695489 -0.377661 6.912610 255 182 0 0.263571
-0.692153 -0.367899 6.928090 255 178 0 0.270791
-0.699967 -0.362214 6.946530 255 175 0 0.278475
-0.723294 -0.369125 6.951890 255 178 0 0.271150
-0.728359 -0.378781 6.935720 255 193 0 0.248764
-0.720676 -0.385040 6.917200 255 190 0 0.252368
-0.745924 -0.391408 6.922640 255 197 0 0.241455
-0.771770 -0.372707 6.959380 255 193 0 0.249310
-0.778661 -0.381989 6.942640 255 201 0 0.236476
-0.772571 -0.391759 6.924460 255 216 0 0.216067
-0.798723 -0.391316 6.927540 255 223 0 0.204794
-0.752862 -0.382076 6.940250 255 193 0 0.249779
-0.747021 -0.372656 6.956180 255 182 0 0.261344
-0.803155 -0.378781 6.945270 255 216 0 0.213933
-0.795837 -0.369318 6.961960 255 193 0 0.246411
-0.819376 -0.363187 6.963550 255 204 0 0.229520
-0.827670 -0.372663 6.946020 255 230 0 0.198519
-0.823903 -0.385129 6.928230 245 249 3 0.174200
-0.848396 -0.379393 6.928840 242 253 6 0.172087
-0.862451 -0.344768 6.964540 255 230 0 0.194919
-0.872141 -0.354827 6.945560 242 253 6 0.170566
-0.870698 -0.369383 6.927620 235 255 13 0.163667
-0.893016 -0.360319 6.925900 232 255 16 0.158376
-0.850105 -0.364661 6.946990 255 238 0 0.187731
-0.841419 -0.354725 6.964880 255 212 0 0.219479
-0.903883 -0.370054 6.906070 203 255 45 0.127531
-0.902639 -0.384044 6.888870 187 255 61 0.109026
-0.913487 -0.393798 6.869090 164 255 84 0.091470
-0.912109 -0.407598 6.852140 142 255 106 0.073350
-0.936846 -0.399539 6.847220 155 255 93 0.083509
-0.888944 -0.402679 6.873870 167 255 80 0.094685
-0.887531 -0.416630 6.856590 151 255 96 0.081603
-0.878976 -0.393052 6.892200 190 255 58 0.113871
-0.869110 -0.383693 6.910300 213 255 35 0.136054
-0.947740 -0.409679 6.827220 138 255 109 0.072377
-0.945410 -0.423581 6.810700 122 255 126 0.061372
-0.956001 -0.433746 6.789800 122 255 126 0.060760
-0.953413 -0.447405 6.772640 119 255 129 0.060196
-0.979684 -0.440836 6.763810 135 255 113 0.069727
-0.929854 -0.441137 6.797900 125 255 122 0.063169
-0.927032 -0.454925 6.780910 125 255 122 0.064566
-0.919837 -0.431206 6.817220 125 255 122 0.063391
-0.909819 -0.421427 6.836190 129 255 119 0.065872
-0.868470 -0.463521 6.794470 132 255 116 0.067085
-0.859176 -0.454346 6.812110 142 255 106 0.073175
-0.864218 -0.442784 6.827230 129 255 119 0.065372
-0.855229 -0.433293 6.844690 142 255 106 0.074820
-0.859987 -0.421572 6.859630 158 255 90 0.085775
-0.832171 -0.427595 6.862460 184 255 64 0.107028
-0.882903 -0.428542 6.841070 135 255 113 0.070527
-0.892768 -0.437561 6.822830 122 255 126 0.061442
-0.902919 -0.446929 6.803960 116 255 132 0.058696
-0.897999 -0.458407 6.787920 116 255 132 0.058320
-0.823586 -0.418083 6.879250 200 255 48 0.123388
-0.827934 -0.406381 6.895410 216 255 32 0.138127
-0.819641 -0.397439 6.911300 235 255 13 0.164200
-0.844599 -0.391550 6.912040 229 255 19 0.156528
-0.854137 -0.400561 6.894160 190 255 58 0.114346
-0.863790 -0.409777 6.876310 180 255 67 0.103719
-0.630154 -0.300237 6.893880 255 201 0 0.237544
-0.644530 -0.325998 6.905610 255 190 0 0.254084
-0.638861 -0.322613 6.884100 255 216 0 0.218010
-0.653585 -0.347732 6.895860 255 190 0 0.251180
-0.678666 -0.351492 6.939390 255 171 0 0.284816
-0.671378 -0.353879 6.919430 255 182 0 0.261564
-0.674287 -0.363385 6.903790 255 193 0 0.249670
-0.792582 -0.400825 6.911120 255 230 0 0.195215
-0.800788 -0.409799 6.895070 232 255 16 0.157529
-0.794677 -0.419408 6.878620 219 255 29 0.143676
-0.803143 -0.428044 6.863320 200 255 48 0.121324
-0.773469 -0.429190 6.863200 229 255 19 0.154735
-0.765745 -0.420070 6.877530 251 241 0 0.181656
-0.772501 -0.410663 6.893610 248 245 0 0.180672
-0.765881 -0.401487 6.908130 255 216 0 0.213905
-0.834637 -0.445547 6.831440 148 255 100 0.079381
-0.828188 -0.455049 6.816230 151 255 96 0.080892
-0.837707 -0.463528 6.799300 148 255 100 0.079118
-0.806258 -0.464540 6.803590 177 255 71 0.100321
-0.797888 -0.455317 6.819620 174 255 74 0.099750
-0.804671 -0.445893 6.834490 177 255 71 0.101110
-0.796245 -0.437246 6.848820 187 255 61 0.109904
-0.742755 -0.453777 6.802080 216 255 32 0.140715
-0.735655 -0.444651 6.815860 232 255 16 0.157812
-0.728139 -0.435726 6.828660 242 253 6 0.171347
-0.757863 -0.442003 6.832020 213 255 35 0.137516
-0.751012 -0.432704 6.845560 232 255 16 0.157133
-0.744305 -0.423416 6.859400 245 249 3 0.172856
-0.721446 -0.426233 6.842350 255 238 0 0.189324
-0.715254 -0.416736 6.855680 255 219 0 0.212862
-0.766424 -0.450649 6.817670 196 255 51 0.120355
-0.775126 -0.459239 6.803340 184 255 64 0.108528
-0.709519 -0.406953 6.869500 255 204 0 0.232247
-0.717447 -0.400949 6.886340 255 204 0 0.232661
-0.725574 -0.394884 6.902770 255 201 0 0.234372
-0.699572 -0.387669 6.897900 255 186 0 0.261271
-0.744718 -0.407713 6.890440 255 212 0 0.219479
-0.737313 -0.414022 6.873820 255 230 0 0.196968
-0.692122 -0.390007 6.879210 255 193 0 0.245229
-0.684646 -0.392174 6.860530 255 204 0 0.232063
-0.689710 -0.401749 6.846720 255 223 0 0.205137
-0.664463 -0.385710 6.838210 255 212 0 0.221408
-0.661800 -0.376206 6.852500 255 193 0 0.247677
-0.669182 -0.374717 6.870850 255 197 0 0.242736
-0.666157 -0.365652 6.885190 255 201 0 0.235574
-0.698863 -0.419726 6.819740 245 249 3 0.176118
-0.705420 -0.429280 6.806560 229 255 19 0.153886
-0.712684 -0.438624 6.793220 213 255 35 0.136224
-0.682067 -0.421335 6.784230 232 255 16 0.159941
-0.677020 -0.412283 6.797570 248 245 0 0.179832
-0.672665 -0.403300 6.810920 255 227 0 0.203458
-0.681214 -0.402716 6.828670 255 234 0 0.194027
-0.651002 -0.372967 6.796530 242 253 6 0.169999
-0.648378 -0.365676 6.810430 251 241 0 0.182959
-0.646271 -0.358245 6.824920 255 230 0 0.197091
-0.654883 -0.381636 6.782790 222 255 25 0.147568
-0.659255 -0.390326 6.769270 196 255 51 0.119662
-0.641366 -0.339527 6.853450 255 219 0 0.209709
-0.640402 -0.331203 6.868800 255 204 0 0.229281
-0.643665 -0.348765 6.839160 255 227 0 0.202176
-0.677154 -0.137583 6.691130 196 255 51 0.120454
-0.670894 -0.134256 6.708460 206 255 42 0.130591
-0.685658 -0.116130 6.707010 206 255 42 0.130823
-0.692470 -0.119848 6.689760 193 255 55 0.114927
-0.679867 -0.112341 6.724680 222 255 25 0.147861
-0.701290 -0.098986 6.706890 209 255 38 0.131913
-0.694821 -0.094710 6.724150 225 255 22 0.149330
-0.709809 -0.078010 6.723830 232 255 16 0.157022
-0.708251 -0.103182 6.689250 196 255 51 0.118052
-0.716925 -0.082809 6.706720 222 255 25 0.145966
-0.724217 -0.087787 6.689330 203 255 45 0.126378
-0.688768 -0.090929 6.741400 229 255 19 0.154429
-0.703606 -0.073645 6.741710 245 249 3 0.176427
-0.697618 -0.069338 6.759250 255 238 0 0.187535
-0.683822 -0.086147 6.758290 238 255 9 0.166905
-0.675067 -0.108133 6.741430 229 255 19 0.156000
-0.670387 -0.103829 6.758220 238 255 9 0.167350
-0.661649 -0.125817 6.742050 225 255 22 0.149986
-0.665947 -0.130046 6.725230 225 255 22 0.150504
-0.657153 -0.121387 6.758620 229 255 19 0.154412
-0.748978 -0.064800 6.706660 219 255 29 0.142839
-0.756991 -0.070480 6.687380 209 255 38 0.132036
-0.741050 -0.059386 6.724960 235 255 13 0.162662
-0.772456 -0.042787 6.724190 245 249 3 0.176012
-0.780600 -0.048439 6.705370 242 253 6 0.170523
-0.788519 -0.055220 6.685400 225 255 22 0.149863
-0.749351 -0.045465 6.743390 248 245 0 0.178098
-0.757639 -0.031602 6.762770 255 227 0 0.203653
-0.727690 -0.049488 6.760570 255 234 0 0.191592
-0.707668 -0.054518 6.779200 255 230 0 0.196021
-0.737313 -0.034842 6.781820 255 208 0 0.225732
-0.663455 -0.096398 6.794210 255 234 0 0.193862
-0.653874 -0.117796 6.776930 232 255 16 0.158790
-0.666599 -0.099986 6.776130 235 255 13 0.162465
-0.679639 -0.082340 6.776290 245 249 3 0.176031
-0.809642 -0.043613 6.703820 242 253 6 0.169310
-0.818766 -0.050417 6.683640 222 255 25 0.146082
-0.800881 -0.037545 6.724020 255 238 0 0.187420
-0.829929 -0.031963 6.721840 255 227 0 0.200692
-0.838687 -0.038439 6.700410 251 241 0 0.185220
-0.847622 -0.046204 6.679900 235 255 13 0.161577
-0.807006 -0.028602 6.743090 255 238 0 0.188084
-0.812876 -0.019556 6.763240 255 208 0 0.228141
-0.785323 -0.025229 6.763330 255 219 0 0.212477
-0.779034 -0.033895 6.743410 255 238 0 0.187229
-0.865060 -0.043051 6.699780 242 253 6 0.169469
-0.874029 -0.050374 6.677260 222 255 25 0.147462
-0.855688 -0.035891 6.721250 255 234 0 0.192950
-0.881423 -0.038872 6.718370 255 230 0 0.199192
-0.890662 -0.046433 6.696480 248 245 0 0.178347
-0.899858 -0.053840 6.673750 219 255 29 0.142732
-0.859256 -0.030850 6.741910 255 223 0 0.206670
-0.863024 -0.025786 6.763180 255 201 0 0.238478
-0.838236 -0.022749 6.763540 255 204 0 0.231968
-0.834081 -0.027307 6.742320 255 219 0 0.211169
-0.817474 -0.014422 6.786430 255 197 0 0.239483
-0.842397 -0.017136 6.786790 255 190 0 0.251820
-0.764882 -0.022443 6.784030 255 204 0 0.230914
-0.792258 -0.015760 6.784960 255 197 0 0.243439
0.359900 0.031808 6.541700 48 255 200 0.027722
0.376364 0.033876 6.524930 38 255 209 0.024884
0.353292 0.036881 6.512940 48 255 200 0.027924
0.393050 0.035486 6.507980 42 255 206 0.025898
0.369895 0.038439 6.495760 48 255 200 0.027976
0.386591 0.039654 6.478600 51 255 196 0.028691
0.409953 0.036837 6.491100 42 255 206 0.026242
0.347053 0.040785 6.483710 55 255 193 0.030456
0.363718 0.041969 6.466460 51 255 196 0.028870
0.340796 0.043726 6.454040 51 255 196 0.028878
0.325719 0.041870 6.472080 48 255 200 0.027838
0.332058 0.038491 6.501490 48 255 200 0.028437
0.310733 0.039526 6.489840 48 255 200 0.028433
0.317317 0.035552 6.518770 55 255 193 0.030086
0.338574 0.034020 6.530330 55 255 193 0.030154
0.323948 0.030606 6.547410 61 255 187 0.031857
0.295955 0.036471 6.507150 51 255 196 0.029388
0.302654 0.031881 6.535850 58 255 190 0.031596
0.281372 0.032864 6.524180 58 255 190 0.031741
0.345205 0.028656 6.558880 58 255 190 0.030722
