ply
format ascii 1.0
comment VCGLIB generated
element vertex 972
property float x
property float y
property float z
property uchar red
property uchar green
property uchar blue
property float quality
end_header
-1.181430 -0.726392 6.111890 93 255 155 0.045983
-1.200610 -0.706459 6.125300 109 255 138 0.054569
-1.111480 -0.780260 6.100350 45 255 203 0.026781
-1.138780 -0.764846 6.084270 58 255 190 0.031565
-1.115890 -0.782989 6.069370 42 255 206 0.026327
-1.094710 -0.791528 6.085060 25 255 222 0.021450
-1.090990 -0.788272 6.116320 32 255 216 0.023237
-1.074770 -0.799262 6.100540 19 253 229 0.019142
-1.071560 -0.795642 6.132130 25 255 222 0.021349
-1.086870 -0.784020 6.147570 32 255 216 0.023231
-1.055640 -0.806400 6.116050 16 249 232 0.018924
-1.034000 -0.827936 6.035690 0 221 255 0.013835
-1.015520 -0.832328 6.050210 0 209 255 0.011740
-1.035370 -0.823366 6.067620 0 229 248 0.014892
-0.997770 -0.837247 6.064940 0 201 255 0.010701
-1.017420 -0.828556 6.082560 0 225 251 0.014727
-0.999663 -0.833857 6.097730 6 237 242 0.016547
-0.980131 -0.842293 6.080010 0 209 255 0.011846
-1.036580 -0.818857 6.099650 16 249 232 0.018342
-1.018730 -0.824240 6.115000 19 253 229 0.019834
-1.055120 -0.811728 6.084320 6 237 242 0.016556
-1.074580 -0.804438 6.069030 13 245 235 0.017934
-1.054220 -0.816436 6.052600 0 229 248 0.014839
-1.073910 -0.809324 6.037760 6 237 242 0.016575
-1.095320 -0.796417 6.054070 25 255 222 0.021602
-1.053060 -0.821334 6.021210 0 225 251 0.014494
-0.957755 -0.849037 6.096160 0 229 248 0.015334
-0.936138 -0.853714 6.112490 13 245 235 0.017593
-0.954279 -0.847346 6.130040 35 255 213 0.024299
-0.914311 -0.858827 6.129030 35 255 213 0.023536
-0.932404 -0.852279 6.146650 51 255 196 0.029277
-0.949920 -0.844271 6.163940 61 255 187 0.032328
-0.973032 -0.837433 6.147310 38 255 209 0.025006
-0.996010 -0.830804 6.131030 25 255 222 0.021223
-0.977019 -0.840452 6.113700 16 249 232 0.018499
-1.204000 -0.652617 6.263700 51 255 196 0.029402
-1.183290 -0.671555 6.260660 29 255 219 0.021677
-1.203390 -0.663990 6.233840 48 255 200 0.028433
-1.163580 -0.690673 6.257820 22 255 225 0.019970
-1.182680 -0.683210 6.230990 29 255 219 0.022111
-1.162360 -0.702123 6.228210 19 253 229 0.019627
-1.202580 -0.675716 6.204660 64 255 184 0.033712
-1.143610 -0.709470 6.254930 22 255 225 0.020356
-1.123490 -0.727393 6.251810 25 255 222 0.021610
-1.129410 -0.713043 6.278390 32 255 216 0.022603
-1.149140 -0.694725 6.281370 25 255 222 0.021184
-1.169060 -0.675816 6.284520 29 255 219 0.021624
-1.135590 -0.698792 6.305790 45 255 203 0.026896
-1.202340 -0.684097 6.185160 77 255 171 0.038684
-1.176370 -0.699312 6.202090 32 255 216 0.023393
-1.175090 -0.707707 6.182620 42 255 206 0.026324
-1.202280 -0.691960 6.165460 90 255 158 0.044675
-1.149580 -0.722261 6.199250 19 253 229 0.019675
-1.174240 -0.715497 6.162920 55 255 193 0.030640
-1.148130 -0.730339 6.179770 25 255 222 0.021442
-1.201760 -0.699411 6.145330 103 255 145 0.050189
-1.122930 -0.744412 6.196420 19 253 229 0.019124
-1.103330 -0.756286 6.207930 29 255 219 0.022316
-1.129760 -0.734754 6.211100 16 249 232 0.018345
-1.110520 -0.746819 6.222600 29 255 219 0.021696
-1.136340 -0.724830 6.225460 16 249 232 0.018444
-1.156100 -0.712305 6.213910 19 253 229 0.019768
-1.116990 -0.737101 6.237070 25 255 222 0.021494
-1.030630 -0.779140 6.254880 0 229 248 0.014932
-1.039490 -0.768956 6.268160 0 221 255 0.013627
-1.061250 -0.762524 6.253990 0 225 251 0.014190
-1.048330 -0.759048 6.281490 0 221 255 0.013508
-1.069770 -0.752102 6.266960 0 213 255 0.012852
-1.078420 -0.742077 6.280250 0 221 255 0.013920
-1.056920 -0.749186 6.294920 0 225 251 0.014330
-1.092370 -0.745536 6.253060 6 237 242 0.016641
-1.100800 -0.735008 6.266010 9 241 238 0.017079
-1.085490 -0.754942 6.238270 6 237 242 0.016656
-1.078360 -0.764113 6.223330 6 237 242 0.016584
-1.054250 -0.771665 6.238830 0 225 251 0.014156
-1.066100 -0.734403 6.320660 13 245 235 0.017604
-1.085340 -0.728848 6.307810 16 249 232 0.018490
-1.096560 -0.711470 6.331650 22 255 225 0.020588
-1.077680 -0.717543 6.344560 25 255 222 0.021560
-1.110400 -0.714233 6.306940 29 255 219 0.021841
-1.160520 -0.210881 6.127380 55 255 193 0.030002
-1.173200 -0.230389 6.111290 90 255 158 0.044955
-1.147710 -0.216720 6.100310 74 255 174 0.038046
-1.159160 -0.236722 6.085430 67 255 180 0.035246
-1.185350 -0.250430 6.096310 96 255 151 0.047972
-1.196990 -0.271618 6.081500 103 255 145 0.051421
-1.209140 -0.262002 6.108030 106 255 142 0.052816
-1.196720 -0.241629 6.123350 93 255 155 0.045910
-1.183470 -0.222121 6.139590 74 255 174 0.037610
-1.219570 -0.253195 6.135590 132 255 116 0.066808
-1.135630 -0.225149 6.074140 55 255 193 0.030406
-1.126770 -0.228646 6.059850 38 255 209 0.025330
-1.149480 -0.248606 6.059060 45 255 203 0.026699
-1.117730 -0.232616 6.045390 25 255 222 0.021287
-1.139470 -0.253069 6.045050 25 255 222 0.021253
-1.129590 -0.258127 6.030650 9 241 238 0.017450
-1.108260 -0.237118 6.031040 13 245 235 0.018016
-1.161740 -0.273779 6.044070 35 255 213 0.024079
-1.151350 -0.278880 6.030050 19 253 229 0.019485
-1.173650 -0.299663 6.029410 35 255 213 0.023937
-1.186020 -0.284880 6.055190 71 255 177 0.036656
-1.172680 -0.260222 6.070240 64 255 184 0.034179
-1.236700 -0.379812 6.037420 87 255 161 0.043650
-1.227530 -0.351939 6.047800 74 255 174 0.037154
-1.247900 -0.365932 6.064070 116 255 132 0.057880
-1.217670 -0.324417 6.059020 61 255 187 0.032926
-1.238740 -0.338261 6.074740 106 255 142 0.053081
-1.229090 -0.311303 6.085330 103 255 145 0.050901
-1.258810 -0.353059 6.091270 148 255 100 0.078729
-1.207810 -0.297441 6.070120 100 255 148 0.049368
-1.195990 -0.311768 6.043840 61 255 187 0.032698
-1.205900 -0.339487 6.032450 29 255 219 0.022207
-1.250990 -0.326747 6.101390 138 255 109 0.072383
-1.269800 -0.342539 6.117150 177 255 71 0.101904
-1.241700 -0.301379 6.112030 135 255 113 0.068792
-1.260990 -0.316547 6.127590 171 255 77 0.096394
-1.250880 -0.291524 6.138670 161 255 87 0.088415
-1.278580 -0.332503 6.143720 196 255 51 0.119216
-1.231560 -0.276679 6.123500 135 255 113 0.069185
-1.219810 -0.286145 6.096460 103 255 145 0.050633
-1.286610 -0.521340 6.201450 96 255 151 0.047098
-1.291300 -0.498167 6.193510 106 255 142 0.052683
-1.292470 -0.480139 6.172460 113 255 135 0.056365
-1.295900 -0.456536 6.164120 135 255 113 0.070664
-1.294880 -0.438115 6.142400 155 255 93 0.083834
-1.301530 -0.428206 6.169260 171 255 77 0.097113
-1.289630 -0.466873 6.137380 125 255 122 0.063098
-1.287600 -0.447791 6.115190 142 255 106 0.074097
-1.287490 -0.489963 6.144930 103 255 145 0.050504
-1.284970 -0.513026 6.152420 93 255 155 0.046213
-1.283880 -0.530983 6.173780 93 255 155 0.046739
-1.281150 -0.540586 6.145490 100 255 148 0.049170
-1.298320 -0.403568 6.162000 184 255 64 0.107102
-1.289260 -0.384608 6.142150 177 255 71 0.102131
-1.282570 -0.360790 6.136040 184 255 64 0.108601
-1.272860 -0.371090 6.109770 161 255 87 0.087623
-1.280630 -0.394355 6.115590 158 255 90 0.085947
-1.286650 -0.418537 6.122130 155 255 93 0.082315
-1.247270 -0.401145 6.041350 106 255 142 0.053277
-1.261680 -0.417309 6.060330 125 255 122 0.063409
-1.269530 -0.440193 6.065720 125 255 122 0.063768
-1.280310 -0.458060 6.085870 135 255 113 0.070163
-1.271680 -0.469713 6.057190 125 255 122 0.064146
-1.278250 -0.429689 6.094700 132 255 116 0.067530
-1.271300 -0.405634 6.088460 132 255 116 0.068606
-1.263120 -0.382100 6.082750 135 255 113 0.068727
-1.273480 -0.491594 6.063360 113 255 135 0.056959
-1.277300 -0.509122 6.085390 113 255 135 0.056812
-1.277030 -0.531250 6.091660 106 255 142 0.053023
-1.278350 -0.548682 6.113710 103 255 145 0.051205
-1.273640 -0.557339 6.082140 106 255 142 0.053216
-1.281060 -0.522988 6.123450 96 255 151 0.047042
-1.282720 -0.499654 6.115920 100 255 148 0.049280
-1.284020 -0.475989 6.108090 122 255 126 0.062393
-1.194710 -0.200689 6.222500 87 255 161 0.043014
-1.208190 -0.214805 6.209160 100 255 148 0.048649
-1.187770 -0.200989 6.200340 84 255 164 0.041867
-1.200720 -0.215166 6.187290 100 255 148 0.049267
-1.221600 -0.229293 6.196170 122 255 126 0.060722
-1.234700 -0.244121 6.183440 148 255 100 0.078453
-1.239220 -0.242192 6.205420 142 255 106 0.074731
-1.225780 -0.227315 6.218290 119 255 129 0.059018
-1.180470 -0.203028 6.177290 80 255 167 0.040085
-1.193590 -0.219563 6.163250 87 255 161 0.043142
-1.170730 -0.205417 6.153460 71 255 177 0.036355
-1.206560 -0.236331 6.149400 103 255 145 0.050754
-1.227630 -0.248647 6.159160 138 255 109 0.072379
-1.214320 -0.231774 6.173220 113 255 135 0.056755
-1.269170 -0.309360 6.152440 187 255 61 0.109482
-1.283950 -0.326191 6.166180 200 255 48 0.123542
-1.258380 -0.287005 6.162270 171 255 77 0.096163
-1.273940 -0.303257 6.175430 184 255 64 0.107857
-1.262610 -0.281109 6.185740 167 255 80 0.093977
-1.288070 -0.320215 6.189150 196 255 51 0.118796
-1.246840 -0.265252 6.172610 158 255 90 0.085417
-1.239270 -0.269886 6.148710 148 255 100 0.077964
-1.277630 -0.299505 6.198350 177 255 71 0.102509
-1.289460 -0.315939 6.210670 190 255 58 0.113006
-1.266800 -0.279349 6.207730 161 255 87 0.088666
-1.279080 -0.295294 6.219840 167 255 80 0.093083
-1.255380 -0.259363 6.217540 151 255 96 0.080180
-1.251270 -0.261509 6.195350 151 255 96 0.081878
-1.278090 -0.544482 6.194640 74 255 174 0.037776
-1.269980 -0.567601 6.187390 80 255 167 0.039479
-1.275510 -0.554409 6.166830 84 255 164 0.041026
-1.267200 -0.577917 6.159390 80 255 167 0.040489
-1.261480 -0.591056 6.180020 77 255 171 0.039412
-1.253100 -0.614808 6.172640 93 255 155 0.045476
-1.253440 -0.604642 6.202120 77 255 171 0.038972
-1.261610 -0.581245 6.209380 64 255 184 0.033487
-1.269690 -0.558198 6.216760 58 255 190 0.031702
-1.253920 -0.594327 6.231160 71 255 177 0.036221
-1.274780 -0.562520 6.135400 103 255 145 0.050543
-1.268970 -0.584289 6.125010 103 255 145 0.051232
-1.272270 -0.570738 6.103470 103 255 145 0.050766
-1.265650 -0.592993 6.093780 100 255 148 0.049241
-1.263030 -0.606259 6.114930 109 255 138 0.053927
-1.255880 -0.628875 6.105250 125 255 122 0.063524
-1.255670 -0.625825 6.122370 122 255 126 0.062032
-1.261780 -0.603524 6.132300 100 255 148 0.048566
-1.254870 -0.622362 6.139290 106 255 142 0.053303
-1.260990 -0.599853 6.149110 93 255 155 0.045415
-1.268130 -0.581149 6.142100 90 255 158 0.044816
-1.253730 -0.618750 6.156100 100 255 148 0.048888
-1.214930 -0.683935 6.137050 100 255 148 0.049581
-1.214830 -0.676845 6.157400 93 255 155 0.045447
-1.227760 -0.661136 6.148760 87 255 161 0.042568
-1.214970 -0.669066 6.177450 71 255 177 0.036554
-1.227460 -0.653394 6.168850 67 255 180 0.035459
-1.227180 -0.645232 6.188820 51 255 196 0.029441
-1.214830 -0.660609 6.196960 51 255 196 0.029173
-1.240380 -0.638034 6.160650 80 255 167 0.040763
-1.240350 -0.629871 6.180770 64 255 184 0.033483
-1.241120 -0.641876 6.144090 90 255 158 0.044894
-1.241620 -0.645590 6.127590 103 255 145 0.050122
-1.228140 -0.664855 6.132360 93 255 155 0.045615
-1.228200 -0.668055 6.115750 96 255 151 0.047828
-1.242280 -0.648435 6.110640 109 255 138 0.053503
-1.214510 -0.687136 6.120380 96 255 151 0.046871
-1.215090 -0.649491 6.225940 38 255 209 0.024977
-1.228110 -0.634722 6.218040 51 255 196 0.028465
-1.227940 -0.623511 6.247430 35 255 213 0.023693
-1.215510 -0.638216 6.255560 38 255 209 0.024718
-1.240740 -0.614478 6.224560 55 255 193 0.029924
-0.927988 -0.289891 6.960780 255 208 0 0.227240
-0.939879 -0.300917 6.938040 255 234 0 0.193160
-0.944268 -0.318808 6.917740 248 245 0 0.177893
-0.959190 -0.305296 6.913340 255 238 0 0.186969
-0.925415 -0.315278 6.941560 255 234 0 0.190416
-0.929502 -0.332962 6.921940 238 255 9 0.166429
-0.914158 -0.304054 6.962970 255 223 0 0.208312
-0.891140 -0.341166 6.946700 245 249 3 0.175222
-0.881103 -0.330721 6.965750 255 230 0 0.197385
-0.898340 -0.317792 6.964660 255 230 0 0.194786
-0.909358 -0.328358 6.943850 255 238 0 0.189685
-0.911109 -0.345078 6.924750 229 255 19 0.154393
-1.114370 -0.455779 6.595790 58 255 190 0.031311
-1.115120 -0.438533 6.608040 64 255 184 0.033664
-1.108230 -0.430921 6.624000 84 255 164 0.041803
-1.108550 -0.414049 6.635680 96 255 151 0.046966
-1.093730 -0.432960 6.643340 103 255 145 0.050410
-1.123510 -0.412106 6.616360 87 255 161 0.043427
-1.123910 -0.395277 6.628000 109 255 138 0.053616
-1.131370 -0.418740 6.600010 67 255 180 0.034572
-1.139350 -0.425595 6.583200 51 255 196 0.029433
-1.138740 -0.442891 6.570640 25 255 222 0.020768
-1.156730 -0.422248 6.561740 38 255 209 0.024895
-1.085220 -0.424647 6.662470 113 255 135 0.056472
-1.082820 -0.407467 6.678420 125 255 122 0.063087
-1.073050 -0.397728 6.699030 135 255 113 0.070240
-1.069090 -0.378299 6.717960 142 255 106 0.074140
-1.056500 -0.394983 6.725350 142 255 106 0.074593
-1.086110 -0.380901 6.691640 129 255 119 0.065370
-1.081870 -0.361803 6.710410 148 255 100 0.078238
-1.096690 -0.389542 6.670860 122 255 126 0.062144
-1.106690 -0.397199 6.651160 113 255 135 0.055985
-1.097980 -0.324228 6.697580 148 255 100 0.077573
-1.110720 -0.332647 6.673860 145 255 103 0.076073
-1.117680 -0.350340 6.656790 129 255 119 0.066533
-1.129150 -0.356402 6.636780 122 255 126 0.062341
-1.134810 -0.373500 6.620670 106 255 142 0.052350
-1.145680 -0.351697 6.613080 116 255 132 0.058278
-1.118620 -0.378267 6.644340 122 255 126 0.060921
-1.108250 -0.370366 6.663740 125 255 122 0.063999
-1.097500 -0.362207 6.684240 135 255 113 0.069350
-1.089930 -0.342818 6.704060 138 255 109 0.072243
-1.155400 -0.356849 6.596620 109 255 138 0.054300
-1.158240 -0.374429 6.583950 87 255 161 0.043157
-1.167770 -0.379832 6.566240 71 255 177 0.036561
-1.170250 -0.397816 6.552770 48 255 200 0.028380
-1.184170 -0.373317 6.543410 74 255 174 0.037691
-1.154340 -0.404345 6.575070 67 255 180 0.035307
-1.145820 -0.397478 6.592100 77 255 171 0.038773
-1.137590 -0.390898 6.608610 90 255 158 0.044189
-0.994559 -0.244669 6.894680 255 212 0 0.220538
-0.981941 -0.233942 6.919290 255 197 0 0.241892
-0.986189 -0.209943 6.912610 255 193 0 0.247965
-0.997426 -0.228552 6.889600 255 201 0 0.235973
-1.000350 -0.212503 6.884860 255 212 0 0.219254
-0.985446 -0.176587 6.903600 255 186 0 0.255883
-0.998622 -0.195351 6.880200 255 212 0 0.223382
-0.987185 -0.193499 6.907960 255 178 0 0.269916
-0.975258 -0.249473 6.923730 255 197 0 0.242629
-0.987700 -0.259976 6.899310 255 223 0 0.207932
-0.980889 -0.275838 6.903980 255 230 0 0.196143
-0.968352 -0.264821 6.928070 255 204 0 0.230071
-0.955773 -0.253338 6.952520 255 175 0 0.274938
-0.952416 -0.286872 6.934630 255 223 0 0.205554
-0.940412 -0.275309 6.957580 255 208 0 0.225123
-0.969984 -0.290364 6.908610 255 238 0 0.188729
-1.084830 -0.314093 6.723690 155 255 93 0.083252
-1.073330 -0.296103 6.745090 158 255 90 0.086880
-1.060430 -0.286744 6.769070 161 255 87 0.089328
-1.048940 -0.268884 6.789890 174 255 74 0.098420
-1.046290 -0.285981 6.795710 177 255 71 0.102308
-1.063270 -0.269608 6.763150 164 255 84 0.090555
-1.051750 -0.251855 6.784190 180 255 67 0.104126
-1.076110 -0.277799 6.739050 155 255 93 0.083341
-1.089050 -0.286168 6.714550 151 255 96 0.081517
-1.100900 -0.304771 6.691550 148 255 100 0.078034
-1.104080 -0.285388 6.685250 151 255 96 0.080480
-1.033580 -0.276069 6.819950 196 255 51 0.119970
-1.022200 -0.257736 6.841880 229 255 19 0.156368
-1.009150 -0.247401 6.866850 248 245 0 0.180691
-1.012220 -0.231209 6.861640 255 234 0 0.190542
-1.025050 -0.241226 6.836530 225 255 22 0.149929
-1.037730 -0.250807 6.811690 200 255 48 0.122969
-1.011110 -0.197106 6.851830 255 234 0 0.193045
-1.024890 -0.215488 6.828800 229 255 19 0.154555
-1.035990 -0.215638 6.801570 196 255 51 0.120121
-1.049380 -0.233634 6.779200 171 255 77 0.096947
-1.038380 -0.233752 6.806370 200 255 48 0.123895
-1.012670 -0.214121 6.856650 255 230 0 0.196298
-1.061220 -0.232918 6.752130 155 255 93 0.082762
-1.075260 -0.250081 6.730380 148 255 100 0.078485
-1.086470 -0.247626 6.703500 145 255 103 0.076436
-1.101150 -0.265017 6.680310 142 255 106 0.074697
-1.089370 -0.267493 6.708740 151 255 96 0.081241
-1.063320 -0.251098 6.757520 164 255 84 0.090404
-0.971638 -0.316464 6.890200 235 255 13 0.163424
-0.976417 -0.333915 6.870480 206 255 42 0.130177
-0.988927 -0.344955 6.847560 177 255 71 0.101920
-0.993372 -0.362433 6.828180 158 255 90 0.085083
-1.009460 -0.349526 6.820720 164 255 84 0.090159
-0.973165 -0.358313 6.854500 180 255 67 0.105197
-0.977492 -0.375922 6.835240 158 255 90 0.086305
-0.960960 -0.347500 6.876280 200 255 48 0.122767
-0.948865 -0.336834 6.897850 222 255 25 0.145371
-1.021570 -0.360397 6.798120 158 255 90 0.086441
-1.025010 -0.377714 6.779960 151 255 96 0.080939
-1.036290 -0.389079 6.756440 148 255 100 0.078626
-1.039350 -0.407968 6.735020 129 255 119 0.066591
-1.019600 -0.402091 6.765720 138 255 109 0.072151
-1.022190 -0.421082 6.744490 145 255 103 0.075535
-1.008540 -0.390888 6.788370 148 255 100 0.079025
-0.997089 -0.380008 6.810170 151 255 96 0.080920
-0.979678 -0.423669 6.783330 138 255 109 0.072241
-0.968943 -0.413072 6.804600 135 255 113 0.068939
-0.968260 -0.397116 6.821860 138 255 109 0.071478
-0.957114 -0.386383 6.842290 148 255 100 0.079091
-0.989762 -0.402564 6.796800 145 255 103 0.076232
-1.000840 -0.413593 6.774110 138 255 109 0.072945
-1.000980 -0.429885 6.755150 135 255 113 0.068962
-0.935291 -0.381628 6.866620 171 255 77 0.096222
-0.924000 -0.371510 6.886520 193 255 55 0.115359
-0.922346 -0.355459 6.904370 213 255 35 0.135182
-0.943317 -0.359769 6.882030 200 255 48 0.123911
-0.955348 -0.370403 6.860400 171 255 77 0.095544
-1.004360 -0.263717 6.871950 248 245 0 0.180056
-1.017320 -0.274091 6.847150 225 255 22 0.149023
-1.026640 -0.292405 6.825770 196 255 51 0.118291
-1.039230 -0.302455 6.801630 167 255 80 0.094430
-1.032330 -0.318910 6.807630 171 255 77 0.096287
-1.019620 -0.308458 6.831390 193 255 55 0.115140
-1.010290 -0.290024 6.852720 219 255 29 0.143685
-0.997381 -0.279089 6.876860 245 249 3 0.173515
-1.055380 -0.304332 6.775470 161 255 87 0.089580
-1.068110 -0.313676 6.751820 164 255 84 0.090984
-1.077080 -0.332552 6.730300 148 255 100 0.077687
-1.069300 -0.350393 6.736980 151 255 96 0.082029
-1.060870 -0.331164 6.757940 155 255 93 0.084435
-1.048350 -0.320895 6.781430 158 255 90 0.086830
-1.050780 -0.374926 6.748460 151 255 96 0.081200
-1.039200 -0.363492 6.772020 148 255 100 0.079658
-1.033060 -0.344889 6.791680 161 255 87 0.087825
-1.020850 -0.334048 6.814160 167 255 80 0.092277
-1.051090 -0.347734 6.764960 158 255 90 0.085067
-1.002580 -0.331247 6.841100 190 255 58 0.113265
-0.989848 -0.320070 6.864350 206 255 42 0.128386
-0.982725 -0.301700 6.885030 232 255 16 0.160182
-1.001080 -0.305340 6.858590 222 255 25 0.145423
-1.057960 -0.413224 6.707240 135 255 113 0.069295
-1.067440 -0.422870 6.686260 129 255 119 0.065001
-1.067520 -0.438965 6.670880 109 255 138 0.054595
-1.075970 -0.447496 6.651570 106 255 142 0.052284
-1.058310 -0.462187 6.659810 113 255 135 0.056598
-1.049930 -0.453206 6.679170 116 255 132 0.058637
-1.049890 -0.436867 6.695020 132 255 116 0.067927
-1.040580 -0.426418 6.716430 135 255 113 0.070227
-1.091200 -0.448092 6.631800 87 255 161 0.043689
-1.097970 -0.455783 6.615930 71 255 177 0.036136
-1.095130 -0.471319 6.604180 55 255 193 0.030518
-1.076720 -0.486510 6.612160 74 255 174 0.037403
-1.079700 -0.470885 6.624170 84 255 164 0.041775
-1.073490 -0.462749 6.639990 96 255 151 0.047068
-1.043040 -0.502831 6.624280 77 255 171 0.039172
-1.048140 -0.489161 6.636350 80 255 167 0.040699
-1.042540 -0.480817 6.652270 103 255 145 0.050924
-1.036540 -0.472592 6.668390 113 255 135 0.055883
-1.017150 -0.468682 6.692980 119 255 129 0.060057
-1.008380 -0.458860 6.713680 122 255 126 0.061355
-1.010100 -0.442730 6.731160 129 255 119 0.064671
-1.030250 -0.448748 6.704090 125 255 122 0.063103
-1.155540 -0.528052 6.490690 3 233 245 0.015468
-1.172920 -0.524748 6.475280 19 253 229 0.019254
-1.145600 -0.544309 6.488450 0 229 248 0.015230
-1.162750 -0.540775 6.473270 9 241 238 0.017427
-1.152750 -0.556908 6.471300 13 245 235 0.017684
-1.180270 -0.537252 6.457710 25 255 222 0.020953
-1.135740 -0.560483 6.486300 13 245 235 0.018159
-1.125990 -0.577047 6.484240 32 255 216 0.022717
-1.120270 -0.563322 6.500540 25 255 222 0.021166
-1.168760 -0.553737 6.456160 16 249 232 0.018427
-1.185460 -0.549912 6.440500 25 255 222 0.021547
-1.157300 -0.570297 6.454710 19 253 229 0.019144
-1.173730 -0.566421 6.439120 22 255 225 0.020218
-1.162070 -0.582945 6.437890 22 255 225 0.020670
-1.190550 -0.562262 6.423500 35 255 213 0.023832
-1.145890 -0.586839 6.453260 25 255 222 0.021506
-1.134490 -0.603528 6.451740 45 255 203 0.026447
-1.130290 -0.590354 6.467970 35 255 213 0.024173
-1.141570 -0.573715 6.469610 22 255 225 0.020230
-1.085210 -0.615433 6.481770 38 255 209 0.024596
-1.098990 -0.602793 6.482580 32 255 216 0.023114
-1.082030 -0.602125 6.496820 32 255 216 0.022814
-1.095460 -0.589300 6.497820 25 255 222 0.021237
-1.112570 -0.589911 6.483420 29 255 219 0.021965
-1.116680 -0.603169 6.467320 32 255 216 0.022908
-1.102960 -0.615914 6.466600 38 255 209 0.024546
-1.075650 -0.581283 6.519900 25 255 222 0.021355
-1.087800 -0.568466 6.521540 19 253 229 0.019372
-1.105060 -0.569295 6.507350 16 249 232 0.019093
-1.177620 -0.356055 6.557690 93 255 155 0.045942
-1.167880 -0.350509 6.575680 103 255 145 0.051116
-1.161030 -0.333693 6.588870 119 255 129 0.059628
-1.150940 -0.328869 6.605340 125 255 122 0.062800
-1.155980 -0.306162 6.597410 142 255 106 0.073287
-1.166540 -0.309284 6.579950 135 255 113 0.069016
-1.174000 -0.325900 6.566770 113 255 135 0.056010
-1.184380 -0.329856 6.548070 109 255 138 0.053901
-1.191450 -0.347121 6.533770 90 255 158 0.043986
-1.198420 -0.320911 6.523650 109 255 138 0.053567
-1.136550 -0.335784 6.629920 132 255 116 0.068168
-1.124660 -0.329716 6.649790 135 255 113 0.069389
-1.113940 -0.312947 6.667960 138 255 109 0.071039
-1.117680 -0.292030 6.660650 138 255 109 0.072196
-1.128660 -0.308422 6.642830 138 255 109 0.070903
-1.141200 -0.313159 6.621970 132 255 116 0.067508
-1.113770 -0.261802 6.652690 132 255 116 0.067294
-1.128630 -0.276851 6.633290 138 255 109 0.072225
-1.140420 -0.268916 6.608130 145 255 103 0.075673
-1.154290 -0.283184 6.590450 145 255 103 0.075583
-1.142660 -0.291458 6.615140 142 255 106 0.074556
-1.164280 -0.274561 6.569330 142 255 106 0.073230
-1.175960 -0.289550 6.554900 129 255 119 0.066641
-1.185930 -0.279144 6.530700 132 255 116 0.066675
-1.197600 -0.294761 6.514940 113 255 135 0.055234
-1.187220 -0.304914 6.539700 119 255 129 0.060337
-1.266190 -0.280497 6.326600 132 255 116 0.067752
-1.270580 -0.293576 6.339250 135 255 113 0.070225
-1.260170 -0.277398 6.347030 125 255 122 0.064243
-1.249830 -0.261344 6.354710 125 255 122 0.063420
-1.264340 -0.290450 6.359710 132 255 116 0.068281
-1.244650 -0.248688 6.342130 122 255 126 0.061159
-1.233650 -0.233283 6.350110 132 255 116 0.066718
-1.253870 -0.275403 6.367260 122 255 126 0.062053
-1.255930 -0.287515 6.380440 125 255 122 0.062767
-1.243030 -0.260730 6.375120 119 255 129 0.059789
-1.245540 -0.272477 6.388270 125 255 122 0.062714
-1.235120 -0.257544 6.396210 122 255 126 0.062434
-1.247540 -0.284414 6.401380 125 255 122 0.062891
-1.232310 -0.246060 6.382880 125 255 122 0.063737
-1.221580 -0.231328 6.390750 129 255 119 0.065279
-1.227680 -0.232528 6.370220 125 255 122 0.064490
-1.238590 -0.247045 6.362480 122 255 126 0.062379
-1.193160 -0.200604 6.381190 109 255 138 0.054890
-1.206450 -0.211297 6.370900 113 255 135 0.055635
-1.198910 -0.200013 6.352230 103 255 145 0.050747
-1.225230 -0.222975 6.331660 109 255 138 0.053735
-1.212110 -0.211416 6.341890 106 255 142 0.052099
-1.183810 -0.391067 6.535610 45 255 203 0.026520
-1.197710 -0.382960 6.518050 58 255 190 0.031407
-1.183710 -0.408894 6.527550 29 255 219 0.022226
-1.197460 -0.400805 6.509880 32 255 216 0.023272
-1.197610 -0.418669 6.501900 22 255 225 0.020094
-1.212060 -0.392938 6.492100 48 255 200 0.028387
-1.183390 -0.426759 6.519550 16 249 232 0.019031
-1.183490 -0.444645 6.511780 19 253 229 0.019853
-1.169750 -0.433307 6.536780 29 255 219 0.021668
-1.169880 -0.415433 6.544880 32 255 216 0.022648
-1.210100 -0.410744 6.486910 32 255 216 0.023177
-1.222510 -0.401992 6.472000 45 255 203 0.026840
-1.208300 -0.428651 6.481980 22 255 225 0.020604
-1.220990 -0.419931 6.467040 35 255 213 0.023694
-1.219180 -0.437820 6.462190 25 255 222 0.021111
-1.233780 -0.411049 6.452040 51 255 196 0.029428
-1.206820 -0.446771 6.476980 22 255 225 0.019943
-1.205290 -0.465041 6.472310 22 255 225 0.020418
-1.194060 -0.454579 6.492160 19 253 229 0.019296
-1.195670 -0.436516 6.496940 16 249 232 0.018887
-1.169850 -0.494595 6.497380 0 225 251 0.014566
-1.174050 -0.477478 6.502280 0 229 248 0.015213
-1.164190 -0.466541 6.521490 0 229 248 0.014803
-1.178660 -0.460896 6.506920 3 233 245 0.015541
-1.189390 -0.471193 6.487280 6 237 242 0.016605
-1.185010 -0.488200 6.482680 0 229 248 0.015391
-1.141890 -0.465528 6.550630 9 241 238 0.016861
-1.153870 -0.438570 6.553780 22 255 225 0.020520
-1.166820 -0.449814 6.529150 13 245 235 0.017690
-1.216020 -0.627315 6.278510 35 255 213 0.023475
-1.204130 -0.641578 6.286470 48 255 200 0.028242
-1.228140 -0.613126 6.270520 35 255 213 0.023705
-1.228360 -0.602450 6.293230 35 255 213 0.023675
-1.216110 -0.616458 6.301480 38 255 209 0.024409
-1.204380 -0.630738 6.309470 55 255 193 0.029854
-1.240490 -0.593846 6.273730 42 255 206 0.026140
-1.253440 -0.574490 6.276930 64 255 184 0.034138
-1.253460 -0.584471 6.253850 64 255 184 0.033689
-1.240720 -0.603697 6.250670 48 255 200 0.027952
-1.214890 -0.605972 6.321230 32 255 216 0.023296
-1.203340 -0.619876 6.328850 45 255 203 0.026795
-1.227090 -0.592165 6.313300 29 255 219 0.022443
-1.225580 -0.581618 6.332880 32 255 216 0.022814
-1.213780 -0.595176 6.340970 32 255 216 0.022952
-1.202200 -0.609170 6.348750 45 255 203 0.026831
-1.238890 -0.573062 6.315090 42 255 206 0.025825
-1.250950 -0.554395 6.316990 61 255 187 0.032632
-1.252360 -0.564322 6.296740 61 255 187 0.032555
-1.240140 -0.583301 6.294940 38 255 209 0.025071
-1.288960 -0.486389 6.286730 116 255 132 0.057249
-1.280170 -0.508220 6.283800 87 255 161 0.042850
-1.290190 -0.494879 6.265940 113 255 135 0.056062
-1.271000 -0.530166 6.281380 67 255 180 0.034791
-1.280720 -0.517029 6.263720 80 255 167 0.040571
-1.271540 -0.539051 6.261520 64 255 184 0.033452
-1.290430 -0.503473 6.246080 113 255 135 0.055760
-1.262040 -0.552250 6.279250 58 255 190 0.031642
-1.260730 -0.542303 6.299140 55 255 193 0.030539
-1.269420 -0.520317 6.301660 64 255 184 0.033749
-1.280950 -0.525848 6.242370 80 255 167 0.040339
-1.288600 -0.512427 6.223660 100 255 148 0.049453
-1.271380 -0.548714 6.238780 64 255 184 0.033421
-1.279440 -0.535024 6.220100 74 255 174 0.037818
-1.262520 -0.571299 6.234800 58 255 190 0.031786
-1.261950 -0.561715 6.257850 55 255 193 0.030268
-1.270040 -0.448294 6.371420 80 255 167 0.040652
-1.270750 -0.426261 6.374510 74 255 174 0.037579
-1.262040 -0.438871 6.391660 71 255 177 0.036770
-1.271480 -0.404181 6.377560 77 255 171 0.038462
-1.262350 -0.416991 6.395010 64 255 184 0.033664
-1.262540 -0.394984 6.398310 64 255 184 0.034189
-1.253910 -0.429469 6.412090 67 255 180 0.034956
-1.271050 -0.382314 6.381030 84 255 164 0.041477
-1.270430 -0.360379 6.384210 96 255 151 0.048406
-1.279180 -0.366858 6.363080 106 255 142 0.053176
-1.279620 -0.388781 6.360010 93 255 155 0.046531
-1.279370 -0.410897 6.357090 87 255 161 0.042721
-1.287290 -0.373148 6.342470 119 255 129 0.060103
-1.253540 -0.409193 6.415230 58 255 190 0.031778
-1.243740 -0.420246 6.431980 58 255 190 0.031086
-1.252670 -0.388693 6.418680 61 255 187 0.032095
-1.242810 -0.399949 6.435580 51 255 196 0.028675
-1.242200 -0.379580 6.439100 55 255 193 0.030489
-1.251410 -0.368261 6.422190 67 255 180 0.034452
-1.250460 -0.347907 6.425660 84 255 164 0.041866
-1.260320 -0.354244 6.404920 87 255 161 0.043713
-1.261510 -0.374675 6.401580 77 255 171 0.038367
-1.253970 -0.303151 6.396950 109 255 138 0.054067
-1.259940 -0.322079 6.392680 103 255 145 0.050407
-1.262380 -0.306234 6.376200 113 255 135 0.056956
-1.268440 -0.325206 6.372120 106 255 142 0.052393
-1.265460 -0.341175 6.388360 96 255 151 0.047720
-1.255350 -0.335091 6.409350 90 255 158 0.045168
-1.249800 -0.315990 6.413930 96 255 151 0.047472
-1.270860 -0.310774 6.355280 122 255 126 0.060975
-1.276990 -0.331378 6.350850 116 255 132 0.058018
-1.277490 -0.314029 6.334730 125 255 122 0.064085
-1.284040 -0.334646 6.330340 125 255 122 0.063306
-1.282790 -0.352244 6.346440 116 255 132 0.057129
-1.274230 -0.345901 6.367520 103 255 145 0.051623
-1.196680 -0.209614 6.402440 116 255 132 0.058015
-1.212480 -0.230104 6.413600 129 255 119 0.065829
-1.198320 -0.218668 6.424980 122 255 126 0.060947
-1.185880 -0.208616 6.434950 129 255 119 0.064741
-1.183200 -0.199319 6.413100 113 255 135 0.055875
-1.224420 -0.254228 6.419300 122 255 126 0.061869
-1.235870 -0.269286 6.410430 122 255 126 0.062007
-1.236460 -0.281078 6.424480 119 255 129 0.060402
-1.225380 -0.265880 6.433280 119 255 129 0.060135
-1.226040 -0.277562 6.447290 125 255 122 0.063315
-1.209800 -0.240396 6.439040 125 255 122 0.064610
-1.198020 -0.258564 6.489210 129 255 119 0.064942
-1.200170 -0.248193 6.471840 132 255 116 0.067442
-1.188150 -0.235481 6.483850 145 255 103 0.076414
-1.189690 -0.225570 6.466340 135 255 113 0.069281
-1.212960 -0.262773 6.459680 125 255 122 0.062992
-1.210440 -0.272921 6.477290 125 255 122 0.063349
-1.174330 -0.214537 6.480060 142 255 106 0.074406
-1.172160 -0.206218 6.464740 132 255 116 0.066708
-1.158160 -0.196465 6.477250 135 255 113 0.069551
-1.169960 -0.197936 6.449280 132 255 116 0.067630
-1.187780 -0.217141 6.450760 135 255 113 0.068881
-1.204150 -0.285117 6.497110 119 255 129 0.058947
-1.212050 -0.301551 6.488000 103 255 145 0.050515
-1.218930 -0.289528 6.467980 106 255 142 0.052550
-1.227500 -0.306161 6.458260 103 255 145 0.050715
-1.219960 -0.318105 6.478610 96 255 151 0.047190
-1.228040 -0.335005 6.468780 93 255 155 0.045796
-1.212820 -0.327869 6.496640 93 255 155 0.045422
-1.205260 -0.311265 6.505920 106 255 142 0.052350
-1.232490 -0.294905 6.441890 109 255 138 0.054321
-1.238660 -0.312379 6.436690 93 255 155 0.046383
-1.243300 -0.298492 6.419090 109 255 138 0.054358
-1.244540 -0.330110 6.431250 87 255 161 0.043280
-1.238790 -0.341486 6.447380 84 255 164 0.041911
-1.233260 -0.323729 6.452830 84 255 164 0.042194
-1.232550 -0.392148 6.455860 45 255 203 0.027238
-1.231220 -0.373076 6.460190 55 255 193 0.030146
-1.221350 -0.383003 6.476200 51 255 196 0.028651
-1.220400 -0.364190 6.480410 58 255 190 0.031548
-1.229760 -0.354011 6.464690 67 255 180 0.035352
-1.240700 -0.360571 6.443190 64 255 184 0.033717
-1.208610 -0.374776 6.500260 55 255 193 0.030441
-1.205500 -0.356766 6.508160 71 255 177 0.035947
-1.194420 -0.364920 6.526100 71 255 177 0.035844
-1.202000 -0.338817 6.516030 87 255 161 0.043309
-1.216640 -0.345973 6.488710 77 255 171 0.038488
-1.261460 -0.463617 6.377760 61 255 187 0.032289
-1.249250 -0.473517 6.393720 42 255 206 0.025741
-1.240600 -0.489039 6.400330 38 255 209 0.024471
-1.229260 -0.499048 6.416150 42 255 206 0.025384
-1.235740 -0.510360 6.397560 48 255 200 0.027670
-1.234020 -0.477782 6.419050 32 255 216 0.023084
-1.222770 -0.487532 6.435000 38 255 209 0.024807
-1.237990 -0.458245 6.423480 35 255 213 0.024366
-1.249580 -0.448565 6.407650 48 255 200 0.027836
-1.221160 -0.517053 6.412570 25 255 222 0.020887
-1.212310 -0.535881 6.410600 19 253 229 0.019616
-1.207010 -0.523731 6.427740 13 245 235 0.017859
-1.198670 -0.542978 6.425540 19 253 229 0.019108
-1.193410 -0.530538 6.442790 13 245 235 0.017629
-1.201000 -0.512176 6.446200 13 245 235 0.018260
-1.214880 -0.505576 6.431100 22 255 225 0.020008
-1.179070 -0.506040 6.478600 0 229 248 0.015363
-1.193100 -0.499734 6.464180 3 233 245 0.016023
-1.199130 -0.482184 6.468180 13 245 235 0.017603
-1.213840 -0.476189 6.453630 32 255 216 0.022627
-1.207710 -0.493537 6.449620 16 249 232 0.018530
-1.186570 -0.518499 6.460960 9 241 238 0.016931
-1.216710 -0.456136 6.457300 19 253 229 0.019708
-1.228570 -0.447296 6.442330 29 255 219 0.021835
-1.231140 -0.429096 6.447180 38 255 209 0.024490
-1.240870 -0.438387 6.427220 42 255 206 0.025521
-1.225680 -0.467251 6.438510 25 255 222 0.020888
-1.293290 -0.461325 6.289200 116 255 132 0.058154
-1.285780 -0.476983 6.307550 103 255 145 0.051147
-1.296630 -0.436341 6.291910 122 255 126 0.061699
-1.289450 -0.452279 6.310500 103 255 145 0.051077
-1.292090 -0.427365 6.313750 109 255 138 0.054157
-1.281920 -0.467607 6.329150 100 255 148 0.048594
-1.298900 -0.411432 6.295000 132 255 116 0.068589
-1.300030 -0.386522 6.298510 145 255 103 0.076082
-1.304210 -0.393310 6.276480 158 255 90 0.086146
-1.302670 -0.418281 6.273560 145 255 103 0.075938
-1.299560 -0.443584 6.270840 132 255 116 0.067999
-1.307410 -0.400223 6.255150 174 255 74 0.098255
-1.284540 -0.443945 6.331940 93 255 155 0.046732
-1.276100 -0.458092 6.349970 84 255 164 0.042171
-1.286120 -0.420323 6.335230 93 255 155 0.046636
-1.278230 -0.434441 6.353330 84 255 164 0.041883
-1.287050 -0.396612 6.338890 103 255 145 0.050168
-1.293370 -0.379970 6.320590 125 255 122 0.062925
-1.293060 -0.403561 6.317040 113 255 135 0.055872
-1.284280 -0.318735 6.313100 135 255 113 0.070400
-1.290300 -0.341152 6.308080 132 255 116 0.067691
-1.289160 -0.322308 6.291530 148 255 100 0.077930
-1.295240 -0.344737 6.286720 148 255 100 0.077616
-1.295620 -0.363718 6.303170 135 255 113 0.070479
-1.289070 -0.357270 6.325340 119 255 129 0.060328
-1.293220 -0.327245 6.269900 158 255 90 0.086774
-1.299110 -0.351227 6.264650 158 255 90 0.086376
-1.295480 -0.331332 6.248320 171 255 77 0.097389
-1.301450 -0.355300 6.243060 174 255 74 0.098556
-1.304080 -0.375496 6.259510 167 255 80 0.093131
-1.300220 -0.368957 6.281500 151 255 96 0.080674
-1.178120 -0.578741 6.421950 25 255 222 0.021378
-1.194100 -0.574180 6.405600 35 255 213 0.023647
-1.165760 -0.595403 6.420410 29 255 219 0.022101
-1.181510 -0.590879 6.403950 29 255 219 0.022175
-1.168830 -0.607510 6.402630 29 255 219 0.022486
-1.197580 -0.586191 6.387530 42 255 206 0.025364
-1.153440 -0.611944 6.418950 38 255 209 0.024533
-1.141240 -0.628493 6.417220 55 255 193 0.029564
-1.137890 -0.616092 6.434490 45 255 203 0.027030
-1.149850 -0.599532 6.436330 32 255 216 0.022739
-1.184120 -0.602622 6.386170 32 255 216 0.022599
-1.199800 -0.597619 6.368250 38 255 209 0.024924
-1.170700 -0.619099 6.384760 32 255 216 0.022946
-1.186200 -0.614146 6.366740 32 255 216 0.022643
-1.172620 -0.630603 6.365510 35 255 213 0.023643
-1.157590 -0.635663 6.383290 42 255 206 0.026209
-1.144510 -0.652031 6.381800 61 255 187 0.032118
-1.142910 -0.640315 6.399480 55 255 193 0.030117
-1.155910 -0.623903 6.400990 38 255 209 0.025051
-1.094370 -0.664161 6.418430 51 255 196 0.029079
-1.109840 -0.652384 6.418200 48 255 200 0.027771
-1.093690 -0.652544 6.433980 48 255 200 0.027868
-1.109010 -0.640729 6.433730 45 255 203 0.026571
-1.125490 -0.640520 6.417620 48 255 200 0.027400
-1.127150 -0.652295 6.400000 48 255 200 0.027822
-1.111390 -0.664073 6.400500 48 255 200 0.028282
-1.091620 -0.640612 6.450150 45 255 203 0.026729
-1.105850 -0.628451 6.450800 38 255 209 0.025156
-1.088600 -0.628353 6.465970 42 255 206 0.026247
-1.120230 -0.616036 6.451300 38 255 209 0.025274
-1.123400 -0.628517 6.434150 45 255 203 0.026402
-1.267030 -0.474164 6.357050 64 255 184 0.033629
-1.257580 -0.490344 6.364420 48 255 200 0.027599
-1.263080 -0.500127 6.343310 55 255 193 0.030184
-1.272630 -0.483869 6.336040 74 255 174 0.036894
-1.251600 -0.511536 6.361050 45 255 203 0.027223
-1.245030 -0.532984 6.358060 55 255 193 0.029571
-1.240610 -0.521693 6.377740 48 255 200 0.027891
-1.246640 -0.500382 6.380890 42 255 206 0.025454
-1.276010 -0.493937 6.314970 77 255 171 0.038275
-1.266890 -0.510708 6.322310 64 255 184 0.033141
-1.258800 -0.532422 6.319570 58 255 190 0.030767
-1.248100 -0.543608 6.337280 55 255 193 0.029941
-1.255540 -0.521875 6.340160 48 255 200 0.028131
-1.211350 -0.583965 6.360800 29 255 219 0.021642
-1.223110 -0.570593 6.353320 25 255 222 0.020819
-1.220300 -0.559101 6.372780 22 255 225 0.020151
-1.208750 -0.572648 6.380170 25 255 222 0.021102
-1.233890 -0.551542 6.355580 32 255 216 0.023048
-1.236620 -0.562342 6.334970 35 255 213 0.023743
-1.216330 -0.547984 6.392270 19 253 229 0.019728
-1.203060 -0.554898 6.408170 22 255 225 0.020112
-1.226010 -0.529199 6.394850 29 255 219 0.022031
-1.230420 -0.540401 6.375150 29 255 219 0.022297
-1.187010 -0.625558 6.348570 35 255 213 0.023723
-1.171910 -0.641928 6.348280 35 255 213 0.023891
-1.187880 -0.636343 6.328460 38 255 209 0.024604
-1.172780 -0.652719 6.328180 35 255 213 0.024341
-1.157190 -0.658240 6.347900 45 255 203 0.026941
-1.142600 -0.674505 6.347450 61 255 187 0.031961
-1.143540 -0.663248 6.364660 58 255 190 0.031621
-1.158080 -0.647063 6.365070 45 255 203 0.026713
-1.186970 -0.647876 6.308510 38 255 209 0.024519
-1.169510 -0.664977 6.307620 29 255 219 0.022091
-1.186640 -0.658713 6.285490 35 255 213 0.024259
-1.152260 -0.682049 6.306850 35 255 213 0.023502
-1.139050 -0.686636 6.326420 48 255 200 0.028170
-1.155710 -0.669772 6.327480 38 255 209 0.024671
-1.083040 -0.705174 6.363570 38 255 209 0.024568
-1.100480 -0.699671 6.352590 38 255 209 0.024432
-1.107210 -0.686499 6.369570 45 255 203 0.027215
-1.089680 -0.692086 6.380670 48 255 200 0.027452
-1.121440 -0.687183 6.350080 45 255 203 0.027320
-1.117620 -0.699091 6.329230 35 255 213 0.023555
-1.091770 -0.681144 6.396110 51 255 196 0.028704
-1.126200 -0.663813 6.384390 51 255 196 0.029094
-1.125310 -0.674976 6.367210 51 255 196 0.028471
-1.294040 -0.489498 6.215360 113 255 135 0.056802
-1.298750 -0.466729 6.207040 132 255 116 0.066665
-1.300400 -0.458623 6.229910 135 255 113 0.069397
-1.295640 -0.481068 6.237960 119 255 129 0.060713
-1.304130 -0.439635 6.210080 158 255 90 0.085713
-1.307970 -0.413120 6.213510 180 255 67 0.105540
-1.305270 -0.420595 6.191240 180 255 67 0.103622
-1.300770 -0.447530 6.188220 148 255 100 0.078423
-1.295530 -0.473356 6.257910 122 255 126 0.061964
-1.300910 -0.451671 6.249880 138 255 109 0.072100
-1.304810 -0.425914 6.252250 155 255 93 0.083403
-1.308000 -0.406788 6.234030 177 255 71 0.102571
-1.304830 -0.432716 6.231670 155 255 93 0.083747
-1.296910 -0.336224 6.226510 180 255 67 0.105821
-1.302600 -0.361347 6.221250 190 255 58 0.112206
-1.296170 -0.340618 6.205090 190 255 58 0.112413
-1.301540 -0.365737 6.200660 187 255 61 0.111690
-1.306090 -0.386996 6.217130 184 255 64 0.107449
-1.305770 -0.380751 6.238080 177 255 71 0.102723
-1.294420 -0.346074 6.183110 196 255 51 0.119636
-1.298600 -0.372829 6.177630 190 255 58 0.114614
-1.289530 -0.352629 6.160250 193 255 55 0.117740
-1.302790 -0.396576 6.184090 187 255 61 0.110136
-1.112100 -0.301841 5.940960 0 165 255 0.006935
-1.124920 -0.316651 5.941540 0 189 255 0.009559
-1.138020 -0.323858 5.952360 0 197 255 0.010576
-1.151710 -0.338354 5.952690 0 217 255 0.013149
-1.164740 -0.345598 5.963560 0 225 251 0.014420
-1.165020 -0.360380 5.942660 6 237 242 0.016267
-1.151200 -0.323782 5.973420 0 205 255 0.011435
-1.164250 -0.331038 5.984290 0 217 255 0.013417
-1.135170 -0.307917 5.972950 0 181 255 0.008667
-1.120030 -0.291680 5.971800 0 157 255 0.006153
-1.107440 -0.284186 5.961050 0 141 255 0.005077
-1.102010 -0.266487 5.981420 0 133 255 0.004516
-1.178170 -0.377122 5.942760 19 253 229 0.019247
-1.192970 -0.388514 5.954150 42 255 206 0.026294
-1.206410 -0.405635 5.954640 71 255 177 0.036149
-1.220930 -0.417680 5.966800 96 255 151 0.046868
-1.218020 -0.428943 5.944030 100 255 148 0.050047
-1.209240 -0.394572 5.977380 61 255 187 0.032074
-1.223750 -0.406384 5.989430 84 255 164 0.041133
-1.194340 -0.375449 5.975740 38 255 209 0.025149
-1.179450 -0.356813 5.974960 16 249 232 0.018660
-1.219420 -0.367234 6.023400 58 255 190 0.030972
-1.201440 -0.354885 6.009960 32 255 216 0.022548
-1.187900 -0.327111 6.019440 51 255 196 0.029269
-1.169630 -0.315162 6.006590 42 255 206 0.025354
-1.182800 -0.342878 5.997030 9 241 238 0.016951
-1.212260 -0.380379 5.999610 58 255 190 0.031552
-1.230260 -0.393081 6.013360 90 255 158 0.044034
-1.155310 -0.291500 6.017440 25 255 222 0.020848
-1.133250 -0.270449 6.018260 9 241 238 0.017244
-1.137180 -0.283359 6.005360 13 245 235 0.018059
-1.111960 -0.249399 6.018620 6 237 242 0.016746
-1.115520 -0.261825 6.006330 6 237 242 0.016232
-1.094840 -0.240463 6.006520 6 237 242 0.016657
-1.090910 -0.227924 6.019190 13 245 235 0.017956
-1.119150 -0.275143 5.993440 6 237 242 0.016781
-1.098300 -0.253200 5.994120 6 237 242 0.016168
-1.150790 -0.307283 5.994750 25 255 222 0.020763
-1.227730 -0.446914 5.945240 119 255 129 0.059681
-1.238680 -0.461879 5.960100 132 255 116 0.066875
-1.246660 -0.480882 5.962050 148 255 100 0.078817
-1.255730 -0.497035 5.977720 151 255 96 0.082045
-1.251760 -0.504343 5.951790 164 255 84 0.090448
-1.250730 -0.473639 5.987830 135 255 113 0.068766
-1.259120 -0.490089 6.003420 135 255 113 0.070357
-1.242230 -0.452203 5.983990 119 255 129 0.059572
-1.232670 -0.431824 5.980930 106 255 142 0.052345
-1.256630 -0.520966 5.969340 148 255 100 0.078224
-1.256640 -0.541766 5.957960 161 255 87 0.087709
-1.259920 -0.537894 5.987160 135 255 113 0.068755
-1.259340 -0.558886 5.975960 145 255 103 0.077073
-1.261100 -0.575768 5.993720 138 255 109 0.072289
-1.258250 -0.579493 5.964580 155 255 93 0.082392
-1.261990 -0.554817 6.004800 122 255 126 0.061795
-1.263550 -0.571518 6.022370 116 255 132 0.057519
-1.262800 -0.530786 6.012900 119 255 129 0.059033
-1.259980 -0.513912 5.995340 132 255 116 0.068285
-1.271750 -0.540543 6.062470 106 255 142 0.051955
-1.271580 -0.518748 6.056380 109 255 138 0.053642
-1.267670 -0.501755 6.036650 116 255 132 0.058127
-1.265840 -0.479939 6.030310 129 255 119 0.065366
-1.266550 -0.547516 6.032580 119 255 129 0.058891
-1.269400 -0.564293 6.052230 106 255 142 0.052876
-1.262500 -0.452748 6.039310 125 255 122 0.063296
-1.253850 -0.429714 6.034130 116 255 132 0.057013
-1.240940 -0.414171 6.017430 103 255 145 0.050488
-1.247220 -0.441424 6.008690 113 255 135 0.056667
-1.255410 -0.462969 6.012540 125 255 122 0.064108
-1.268970 -0.577704 6.071590 100 255 148 0.049823
-1.263260 -0.598220 6.061010 106 255 142 0.053247
-1.263590 -0.584930 6.041720 103 255 145 0.051578
-1.257340 -0.605622 6.031460 103 255 145 0.050763
-1.256860 -0.618940 6.050730 113 255 135 0.055235
-1.250240 -0.638962 6.039840 119 255 129 0.059071
-1.254320 -0.634002 6.072750 122 255 126 0.062172
-1.260150 -0.613415 6.083150 113 255 135 0.056741
-1.259930 -0.589747 6.011040 116 255 132 0.058045
-1.255700 -0.607987 5.999660 122 255 126 0.062078
-1.257170 -0.593827 5.982200 132 255 116 0.067732
-1.252750 -0.611605 5.970420 142 255 106 0.073993
-1.251420 -0.625686 5.987830 122 255 126 0.061913
-1.245810 -0.643653 5.976340 135 255 113 0.070217
-1.248760 -0.641450 6.008140 119 255 129 0.060602
-1.253300 -0.623524 6.019730 113 255 135 0.055736
-1.216790 -0.701562 5.975420 109 255 138 0.054231
-1.226410 -0.686140 5.991740 109 255 138 0.054064
-1.216750 -0.701530 6.008040 109 255 138 0.054305
-1.235110 -0.670593 6.007910 113 255 135 0.055463
-1.225680 -0.685908 6.024030 106 255 142 0.052726
-1.233940 -0.670038 6.039920 103 255 145 0.051682
-1.215400 -0.701430 6.040350 100 255 148 0.049831
-1.243180 -0.654817 6.023930 119 255 129 0.059889
-1.240700 -0.657177 5.992190 119 255 129 0.060203
-1.231530 -0.672986 5.976070 116 255 132 0.058618
-1.213490 -0.702217 6.061760 106 255 142 0.052413
-1.227520 -0.683481 6.056610 113 255 135 0.055421
-1.224740 -0.684265 6.078300 109 255 138 0.054878
-1.210780 -0.703018 6.082980 109 255 138 0.054055
-1.238170 -0.665515 6.073150 119 255 129 0.059500
-1.220360 -0.685491 6.099470 103 255 145 0.050883
-1.234050 -0.666444 6.094410 109 255 138 0.054377
-1.206860 -0.704406 6.104330 113 255 135 0.056689
-1.247570 -0.647400 6.089230 125 255 122 0.062643
-1.244590 -0.652073 6.056430 113 255 135 0.055440
-1.200530 -0.718110 5.984130 87 255 161 0.042536
-1.192030 -0.730654 5.963700 90 255 158 0.043776
-1.184420 -0.734351 5.992480 67 255 180 0.034560
-1.175970 -0.746541 5.971850 67 255 180 0.034930
-1.160090 -0.762223 5.979780 58 255 190 0.031502
-1.167060 -0.758691 5.951120 67 255 180 0.034515
-1.168450 -0.750253 6.000510 51 255 196 0.029030
-1.152380 -0.766170 6.008510 55 255 193 0.030451
-1.184760 -0.734298 6.024860 67 255 180 0.035382
-1.201170 -0.717780 6.016500 77 255 171 0.039035
-1.152890 -0.771118 5.940560 48 255 200 0.027472
-1.130440 -0.786744 5.941270 16 249 232 0.018487
-1.116810 -0.798333 5.930080 13 245 235 0.017641
-1.095060 -0.812945 5.929990 3 233 245 0.015492
-1.111540 -0.806669 5.907240 16 249 232 0.018603
-1.100180 -0.805009 5.953000 3 233 245 0.015734
-1.078810 -0.819313 5.952710 0 229 248 0.014967
-1.118720 -0.791693 5.967230 13 245 235 0.017720
-1.137320 -0.778134 5.980990 35 255 213 0.023677
-1.061760 -0.818082 6.006900 0 213 255 0.012851
-1.083320 -0.805570 6.023770 6 237 242 0.016726
-1.091550 -0.801716 6.008510 0 225 251 0.014617
-1.104750 -0.792267 6.039730 25 255 222 0.021446
-1.113330 -0.788241 6.024460 16 249 232 0.018986
-1.135010 -0.774058 6.039830 45 255 203 0.026879
-1.126040 -0.778145 6.055200 45 255 203 0.026532
-1.122020 -0.784376 6.008960 16 249 232 0.018700
-1.144090 -0.769901 6.024210 48 255 200 0.027981
-1.103170 -0.797780 5.995130 6 237 242 0.016361
-1.084910 -0.810558 5.980810 0 225 251 0.014570
-1.073320 -0.814249 5.994020 0 221 255 0.013566
-1.055680 -0.826429 5.979200 0 221 255 0.013544
-1.067320 -0.822959 5.966110 0 225 251 0.014463
-1.044150 -0.829954 5.991840 0 221 255 0.013823
-1.141220 -0.762964 6.063690 35 255 213 0.023770
-1.164400 -0.743847 6.077460 58 255 190 0.031591
-1.166490 -0.742544 6.056340 42 255 206 0.025735
-1.186290 -0.724354 6.091070 87 255 161 0.042609
-1.189150 -0.723040 6.069850 77 255 171 0.038990
-1.191580 -0.721844 6.048300 67 255 180 0.034587
-1.175780 -0.738384 6.040560 55 255 193 0.030346
-1.160010 -0.754412 6.032570 48 255 200 0.028137
-1.150630 -0.758629 6.048340 38 255 209 0.024832
-1.028570 -0.838046 5.975830 0 205 255 0.011346
-1.040170 -0.834979 5.963310 0 209 255 0.011749
-1.024910 -0.843589 5.947090 0 189 255 0.009477
-1.051660 -0.831927 5.950250 0 209 255 0.011953
-1.036510 -0.840718 5.934060 0 193 255 0.010067
-1.047970 -0.837187 5.920900 0 189 255 0.009633
-1.063260 -0.828259 5.937000 0 209 255 0.011935
-1.021690 -0.849510 5.917560 0 185 255 0.008816
-1.033310 -0.846390 5.904340 0 181 255 0.008709
-1.018950 -0.855272 5.887530 0 173 255 0.007761
-1.004810 -0.858895 5.898660 0 169 255 0.007476
-1.007610 -0.852849 5.928560 0 177 255 0.008126
-0.990726 -0.862289 5.909740 0 173 255 0.007523
-0.993483 -0.855550 5.939280 0 165 255 0.007046
-1.010870 -0.846794 5.957750 0 181 255 0.008500
-0.976760 -0.864721 5.920730 0 165 255 0.006814
-1.082360 -0.821327 5.916240 0 217 255 0.013428
-1.070000 -0.829518 5.902070 0 205 255 0.011299
-1.086330 -0.823730 5.879280 16 249 232 0.018863
-1.098650 -0.815334 5.893480 29 255 219 0.021766
-1.066090 -0.835030 5.876220 9 241 238 0.017497
-1.062600 -0.840543 5.850060 9 241 238 0.016836
-1.040760 -0.847986 5.868820 0 229 248 0.015183
-1.022980 -0.865522 5.782500 0 213 255 0.012497
-1.021390 -0.863517 5.808900 0 217 255 0.013049
-0.998249 -0.874760 5.798360 0 213 255 0.012349
-1.020300 -0.861245 5.835420 0 221 255 0.013761
-0.996894 -0.872276 5.824620 0 217 255 0.013256
-0.995866 -0.869800 5.850990 0 161 255 0.006529
-0.973767 -0.883652 5.813920 0 153 255 0.005837
-1.019590 -0.858424 5.861580 0 169 255 0.007373
-1.041250 -0.850783 5.842780 0 225 251 0.014442
-1.042210 -0.853514 5.816380 0 217 255 0.013448
-0.958057 -0.888185 5.823610 0 157 255 0.006368
-0.970498 -0.880612 5.843930 0 161 255 0.006657
-0.955017 -0.884496 5.853480 0 165 255 0.006807
-0.942600 -0.892294 5.832980 0 161 255 0.006628
-0.967521 -0.876586 5.873470 0 161 255 0.006714
-0.939507 -0.887982 5.862860 0 157 255 0.006370
-0.952036 -0.879810 5.882880 0 157 255 0.006152
-0.927248 -0.896167 5.842810 0 165 255 0.006997
-0.965022 -0.871652 5.903130 0 161 255 0.006479
-0.978969 -0.869374 5.891660 0 165 255 0.007103
-0.993092 -0.866205 5.880550 0 165 255 0.006821
-0.981724 -0.873478 5.862320 0 165 255 0.006953
-0.702618 -0.147374 5.686680 0 161 255 0.006662
-0.709361 -0.159870 5.672750 0 165 255 0.006975
-0.722545 -0.152727 5.693980 0 157 255 0.006277
-0.729638 -0.165273 5.680000 0 165 255 0.007097
-0.749887 -0.170800 5.687260 0 169 255 0.007344
