ply
format ascii 1.0
comment VCGLIB generated
element vertex 973
property float x
property float y
property float z
property uchar red
property uchar green
property uchar blue
property float quality
end_header
0.031826 -0.868531 5.586860 225 255 22 0.150029
0.022815 -0.901430 5.605790 193 255 55 0.116257
0.014568 -0.933247 5.625010 177 255 71 0.102060
0.049304 -0.862435 5.597280 216 255 32 0.141162
0.006637 -0.962380 5.645770 177 255 71 0.101861
-0.012486 -0.969496 5.635970 177 255 71 0.100727
0.044400 -0.894227 5.617390 190 255 58 0.113038
0.039922 -0.924146 5.637930 184 255 64 0.106989
0.065013 -0.857298 5.607510 209 255 38 0.132361
0.061247 -0.888235 5.627420 193 255 55 0.117662
0.033696 -0.951947 5.659010 187 255 61 0.110697
-0.078127 -1.023070 5.799320 113 255 135 0.055905
-0.107127 -1.024190 5.818900 71 255 177 0.036311
-0.126885 -1.025640 5.845060 45 255 203 0.026795
-0.154823 -1.030060 5.865590 38 255 209 0.025090
-0.136581 -1.028060 5.876810 48 255 200 0.028047
-0.144847 -1.028080 5.833600 42 255 206 0.026181
-0.173298 -1.031360 5.854620 25 255 222 0.021301
-0.124011 -1.027750 5.807720 71 255 177 0.035914
-0.102082 -1.031640 5.782940 125 255 122 0.063695
-0.155340 -1.026310 5.904700 48 255 200 0.028630
-0.183526 -1.024680 5.927140 64 255 184 0.033301
-0.201971 -1.023390 5.954140 93 255 155 0.046350
-0.221945 -1.024730 5.944180 90 255 158 0.044145
-0.202866 -1.026620 5.916580 55 255 193 0.030855
-0.183582 -1.028200 5.888710 32 255 216 0.022969
-0.267394 -1.027590 5.920800 71 255 177 0.035984
-0.239478 -1.028040 5.897530 29 255 219 0.022710
-0.218948 -1.029300 5.868940 0 229 248 0.015132
-0.190160 -1.031910 5.844790 9 241 238 0.017618
-0.207285 -1.032270 5.834740 0 225 251 0.014654
-0.202038 -1.028950 5.878600 16 249 232 0.018769
-0.221578 -1.027520 5.906770 42 255 206 0.026248
-0.240503 -1.025700 5.934520 80 255 167 0.040090
-0.184974 -1.031750 5.807830 22 255 225 0.020458
-0.154918 -1.033560 5.787140 67 255 180 0.035673
-0.131980 -1.039450 5.763350 129 255 119 0.066107
-0.117483 -1.035940 5.772580 125 255 122 0.064184
-0.139786 -1.030840 5.797080 67 255 180 0.034839
-0.160801 -1.029530 5.823030 35 255 213 0.024253
-0.366892 -1.034000 5.879360 77 255 171 0.038550
-0.367021 -1.036130 5.847140 25 255 222 0.021401
-0.395721 -1.035700 5.869480 87 255 161 0.043137
-0.396126 -1.037930 5.837230 38 255 209 0.025372
-0.367357 -1.036740 5.814440 0 193 255 0.010081
-0.367195 -1.037540 5.780510 0 145 255 0.005588
-0.329132 -1.034490 5.787840 0 153 255 0.006084
-0.330319 -1.032680 5.821950 0 169 255 0.007684
-0.330667 -1.032210 5.854830 0 229 248 0.015325
-0.291605 -1.033670 5.795480 0 157 255 0.006627
-0.432250 -1.038870 5.859830 113 255 135 0.055866
-0.450419 -1.039050 5.853800 119 255 129 0.060618
-0.441352 -1.041460 5.827690 80 255 167 0.039973
-0.468679 -1.039980 5.847680 132 255 116 0.067641
-0.459404 -1.042220 5.821610 93 255 155 0.045760
-0.449668 -1.042680 5.794830 42 255 206 0.025734
-0.435007 -1.040820 5.766540 0 197 255 0.010699
-0.427397 -1.040310 5.799560 13 245 235 0.018311
-0.412690 -1.039240 5.771480 0 177 255 0.008255
-0.404845 -1.038540 5.804110 0 217 255 0.013198
-0.418769 -1.039280 5.832610 58 255 190 0.031018
-0.390219 -1.038110 5.775830 0 157 255 0.006508
-0.408432 -1.046620 5.693310 0 141 255 0.005278
-0.381884 -1.046790 5.697530 0 153 255 0.006128
-0.394770 -1.042530 5.722470 0 141 255 0.005366
-0.354791 -1.048230 5.701520 0 173 255 0.007774
-0.368305 -1.041830 5.725970 0 153 255 0.006022
-0.340994 -1.042580 5.729890 0 157 255 0.006377
-0.327384 -1.050300 5.705770 0 201 255 0.011051
-0.381144 -1.039260 5.751510 0 145 255 0.005474
-0.354418 -1.038280 5.754950 0 145 255 0.005523
-0.403848 -1.039770 5.746810 0 149 255 0.005842
-0.426254 -1.040800 5.742150 0 153 255 0.006270
-0.417470 -1.042640 5.717870 0 137 255 0.005044
-0.277332 -1.051610 5.709630 32 255 216 0.023101
-0.302465 -1.043500 5.737190 0 185 255 0.009045
-0.247148 -1.053110 5.710200 71 255 177 0.036448
-0.272104 -1.042990 5.736990 0 221 255 0.014058
-0.241767 -1.043370 5.736740 32 255 216 0.023159
-0.217180 -1.054900 5.710750 116 255 132 0.058092
-0.296812 -1.037340 5.765860 0 169 255 0.007580
-0.267133 -1.035330 5.764990 0 201 255 0.010994
0.028062 -0.992323 5.827180 135 255 113 0.069786
0.007659 -0.993901 5.854200 96 255 151 0.047399
-0.024268 -0.999950 5.874400 58 255 190 0.031190
-0.043292 -1.005320 5.900190 35 255 213 0.024504
-0.072371 -1.014810 5.918280 45 255 203 0.026693
-0.049691 -1.009860 5.932400 42 255 206 0.026161
-0.066054 -1.011700 5.885870 35 255 213 0.024552
-0.094857 -1.019690 5.903990 45 255 203 0.026882
-0.046953 -1.007030 5.860110 58 255 190 0.030981
-0.027180 -1.004300 5.833750 90 255 158 0.044676
0.004874 -0.999464 5.814290 135 255 113 0.069137
-0.017799 -1.007140 5.800820 138 255 109 0.072736
-0.067506 -1.010620 5.958540 58 255 190 0.032034
-0.096297 -1.014030 5.977810 80 255 167 0.039755
-0.112996 -1.014870 6.003010 109 255 138 0.054729
-0.136204 -1.017300 5.990570 106 255 142 0.053243
-0.119001 -1.017420 5.964470 77 255 171 0.038518
-0.101614 -1.017350 5.937830 58 255 190 0.031025
-0.181082 -1.021470 5.965880 100 255 148 0.049272
-0.162773 -1.022640 5.939100 71 255 177 0.035877
-0.133871 -1.022440 5.918260 55 255 193 0.029930
-0.115584 -1.024150 5.890390 45 255 203 0.027632
-0.140939 -1.020180 5.951770 77 255 171 0.038610
-0.158622 -1.019740 5.977480 106 255 142 0.052406
-0.108005 -1.022030 5.857940 42 255 206 0.025691
-0.088639 -1.019000 5.831950 61 255 187 0.032162
-0.059209 -1.014770 5.813270 96 255 151 0.048266
-0.037608 -1.016110 5.788040 151 255 96 0.081518
-0.068521 -1.013400 5.845780 58 255 190 0.031531
-0.086981 -1.017670 5.871430 42 255 206 0.025925
0.097989 -0.623263 5.597640 16 249 232 0.018870
0.097227 -0.651171 5.597080 25 255 222 0.021063
0.105395 -0.679063 5.604030 42 255 206 0.025845
0.105505 -0.711234 5.602160 100 255 148 0.049876
0.119518 -0.706955 5.619080 45 255 203 0.026930
0.090948 -0.682573 5.586790 93 255 155 0.046164
0.091208 -0.714424 5.585460 142 255 106 0.074933
0.082902 -0.653593 5.578370 77 255 171 0.039555
0.074954 -0.626120 5.570190 45 255 203 0.027261
0.121178 -0.737443 5.629550 48 255 200 0.028265
0.116773 -0.772510 5.631070 106 255 142 0.053403
0.118796 -0.805298 5.640520 142 255 106 0.073921
0.113990 -0.840267 5.643000 190 255 58 0.114018
0.128440 -0.834586 5.657120 184 255 64 0.107505
0.104315 -0.811024 5.626610 164 255 84 0.090948
0.098136 -0.845699 5.630490 196 255 51 0.119370
0.102508 -0.777477 5.615890 145 255 103 0.076579
0.100919 -0.744408 5.604820 125 255 122 0.064542
0.071235 -0.820737 5.598530 206 255 42 0.128196
0.077566 -0.784675 5.590770 196 255 51 0.118275
0.076601 -0.749911 5.577520 193 255 55 0.116678
0.079352 -0.716703 5.572110 158 255 90 0.085908
0.068358 -0.717761 5.557600 193 255 55 0.117958
0.087678 -0.748011 5.590380 158 255 90 0.085394
0.089008 -0.781718 5.603060 164 255 84 0.090810
0.090479 -0.815171 5.614400 184 255 64 0.106589
0.084569 -0.850735 5.620630 203 255 45 0.126914
0.060225 -0.685920 5.547230 174 255 74 0.098158
0.057461 -0.656486 5.545350 148 255 100 0.079001
0.047673 -0.628730 5.536350 116 255 132 0.057821
0.060777 -0.627880 5.553180 96 255 151 0.047368
0.069584 -0.655421 5.561170 106 255 142 0.053312
0.077598 -0.684557 5.569830 129 255 119 0.066627
-0.035980 -0.681323 5.432600 255 204 0 0.234128
-0.023075 -0.702463 5.447300 255 190 0 0.255422
-0.012336 -0.727634 5.464660 255 167 0 0.288069
-0.002986 -0.753710 5.485620 255 175 0 0.274248
-0.026003 -0.671957 5.443450 255 216 0 0.214726
-0.013269 -0.695256 5.459190 255 204 0 0.229155
0.001072 -0.719262 5.480060 255 193 0 0.245592
0.012245 -0.746481 5.501400 255 208 0 0.228369
-0.005838 -0.879334 5.562680 251 241 0 0.182863
-0.003749 -0.846257 5.545610 255 212 0 0.220339
-0.002802 -0.814137 5.527400 255 193 0 0.247253
-0.019635 -0.878366 5.547180 255 223 0 0.204452
-0.017501 -0.845494 5.530260 255 190 0 0.252819
-0.002167 -0.782618 5.506960 255 186 0 0.261078
0.009633 -0.777224 5.519340 255 201 0 0.238099
-0.031880 -0.875053 5.531410 255 201 0 0.236237
-0.017850 -0.815530 5.509300 255 167 0 0.286274
0.009996 -0.807968 5.538150 255 216 0 0.214177
0.022115 -0.770212 5.528400 255 216 0 0.216958
0.023958 -0.738795 5.511290 255 219 0 0.209378
0.022970 -0.802944 5.547780 255 230 0 0.199198
0.014155 -0.840126 5.559860 255 227 0 0.202633
0.008403 -0.876318 5.573200 235 255 13 0.162618
-0.003936 -0.684728 5.470640 255 219 0 0.210842
-0.017016 -0.660919 5.454830 255 230 0 0.197015
-0.005648 -0.649550 5.467740 238 255 9 0.166251
0.007031 -0.675697 5.482090 251 241 0 0.185858
0.015206 -0.707330 5.494610 255 219 0 0.209490
0.009424 -0.637391 5.485200 213 255 35 0.135797
0.017614 -0.667023 5.493850 232 255 16 0.158532
0.029171 -0.696895 5.507770 245 249 3 0.174740
0.035122 -0.731536 5.519790 255 234 0 0.190865
0.041742 -0.760785 5.542300 251 241 0 0.182287
0.035604 -0.796831 5.555280 251 241 0 0.182750
0.032091 -0.832993 5.570270 245 249 3 0.174730
-0.025097 -0.912655 5.576770 213 255 35 0.137420
-0.046632 -0.942252 5.580990 180 255 67 0.105413
-0.064996 -0.973829 5.594120 158 255 90 0.085549
-0.085435 -1.001400 5.598370 155 255 93 0.084502
-0.077020 -1.007650 5.616350 174 255 74 0.098394
-0.072479 -0.967114 5.576190 164 255 84 0.090055
-0.093971 -0.993418 5.579860 148 255 100 0.079146
-0.059586 -0.937636 5.560530 209 255 38 0.134497
-0.037248 -0.909504 5.557100 242 253 6 0.169736
-0.101293 -1.032040 5.633300 196 255 51 0.119142
-0.101703 -1.025150 5.614570 180 255 67 0.105393
-0.127677 -1.046130 5.631930 203 255 45 0.126959
-0.129438 -1.049320 5.651290 216 255 32 0.140482
-0.127478 -1.040720 5.612610 200 255 48 0.123255
-0.156144 -1.062460 5.649060 232 255 16 0.159843
-0.154985 -1.058330 5.629980 222 255 25 0.145716
-0.159961 -1.061320 5.668180 222 255 25 0.147801
-0.153516 -1.054840 5.610180 213 255 35 0.137081
-0.136764 -1.034240 5.593900 164 255 84 0.090450
-0.111153 -1.018560 5.596290 158 255 90 0.086759
-0.139442 -1.019930 5.569700 138 255 109 0.072114
-0.118446 -1.003920 5.565710 145 255 103 0.077224
-0.097558 -0.985379 5.561430 161 255 87 0.087677
-0.159433 -1.045370 5.589160 171 255 77 0.097205
-0.063369 -0.928275 5.543750 232 255 16 0.158800
-0.080571 -0.958010 5.552650 190 255 58 0.112313
0.078342 -0.881741 5.636340 200 255 48 0.121512
0.070205 -0.912599 5.653060 196 255 51 0.119453
0.085483 -0.907290 5.661870 203 255 45 0.125966
0.092607 -0.876413 5.645690 200 255 48 0.123418
0.067753 -0.938928 5.676330 216 255 32 0.139695
0.063019 -0.962105 5.700990 248 245 0 0.178338
0.043773 -0.969336 5.691780 232 255 16 0.157474
0.048906 -0.946250 5.666680 203 255 45 0.127461
0.109509 -0.869924 5.658230 203 255 45 0.126937
0.104643 -0.899976 5.674030 225 255 22 0.151262
0.119992 -0.893882 5.686270 232 255 16 0.160315
0.124859 -0.864730 5.671050 209 255 38 0.131942
0.105336 -0.925451 5.697930 255 234 0 0.191446
0.103666 -0.947309 5.723060 255 216 0 0.215007
0.083771 -0.954992 5.711740 255 227 0 0.200653
0.086081 -0.932778 5.685960 238 255 9 0.165559
0.037581 -0.987067 5.795310 167 255 80 0.093207
0.047409 -0.981438 5.764130 203 255 45 0.124750
0.014606 -0.994489 5.783470 167 255 80 0.092797
0.023861 -0.989101 5.752480 193 255 55 0.116914
0.055576 -0.973875 5.732210 232 255 16 0.158967
0.077050 -0.966758 5.742910 238 255 9 0.167587
0.068263 -0.974792 5.774910 203 255 45 0.125261
-0.005905 -1.002070 5.771900 171 255 77 0.095879
0.005338 -0.996642 5.741910 193 255 55 0.117333
-0.026749 -1.011060 5.759450 174 255 74 0.099803
0.016181 -0.988312 5.711760 216 255 32 0.140785
0.034656 -0.981171 5.721710 216 255 32 0.141647
0.392331 -0.155423 5.800630 171 255 77 0.096426
0.411853 -0.152450 5.811800 171 255 77 0.097465
0.414349 -0.181416 5.802390 135 255 113 0.069902
0.431672 -0.149635 5.822880 180 255 67 0.103338
0.434136 -0.178872 5.814010 138 255 109 0.073202
0.453893 -0.176222 5.825770 135 255 113 0.070950
0.451865 -0.146658 5.834090 180 255 67 0.105550
0.436490 -0.208794 5.803760 90 255 158 0.045273
0.456351 -0.206256 5.816190 90 255 158 0.045488
0.458612 -0.236334 5.804070 61 255 187 0.032875
0.439661 -0.239300 5.792830 64 255 184 0.034040
0.417945 -0.211271 5.792630 96 255 151 0.047859
0.420463 -0.242482 5.782360 61 255 187 0.032435
0.399193 -0.214294 5.781960 96 255 151 0.047741
0.395954 -0.184161 5.791730 129 255 119 0.066869
0.377530 -0.187399 5.781310 129 255 119 0.065977
0.400562 -0.246387 5.772260 51 255 196 0.029366
0.379918 -0.217640 5.771660 93 255 155 0.045723
0.380333 -0.250695 5.762670 45 255 203 0.026765
0.373912 -0.158895 5.790500 167 255 80 0.094540
0.472624 -0.143268 5.843980 187 255 61 0.110158
0.495147 -0.139596 5.854880 196 255 51 0.121202
0.494460 -0.170215 5.847010 148 255 100 0.077856
0.518076 -0.135667 5.865620 206 255 42 0.128963
0.516608 -0.167112 5.858720 151 255 96 0.081711
0.516466 -0.197797 5.850300 100 255 148 0.049640
0.518401 -0.228447 5.839560 42 255 206 0.025997
0.496033 -0.200826 5.838820 100 255 148 0.050211
0.498573 -0.230855 5.827070 48 255 200 0.028210
0.476055 -0.203601 5.827320 100 255 148 0.049216
0.473931 -0.173350 5.836370 145 255 103 0.077033
0.478613 -0.233432 5.815160 58 255 190 0.031059
0.505083 -0.359748 5.804060 22 255 225 0.020360
0.508791 -0.328637 5.809520 16 249 232 0.019191
0.488392 -0.332004 5.801500 3 233 245 0.016281
0.486168 -0.361883 5.795450 22 255 225 0.020535
0.492958 -0.298543 5.806130 16 249 232 0.018746
0.469150 -0.334281 5.792600 3 233 245 0.016118
0.472910 -0.301877 5.797720 9 241 238 0.017243
0.453290 -0.305075 5.789410 0 229 248 0.015490
0.466615 -0.365723 5.787290 16 249 232 0.019299
0.449558 -0.338190 5.784250 0 229 248 0.015212
0.446768 -0.369966 5.779260 9 241 238 0.017453
0.476432 -0.267439 5.804310 25 255 222 0.021183
0.456954 -0.270827 5.795330 19 253 229 0.019413
0.497164 -0.264308 5.815310 19 253 229 0.019627
0.517349 -0.261387 5.827140 9 241 238 0.017457
0.514647 -0.294246 5.816100 19 253 229 0.019595
0.429046 -0.372827 5.769950 13 245 235 0.018082
0.429508 -0.342571 5.774440 0 229 248 0.015471
0.411597 -0.345776 5.764870 3 233 245 0.016320
0.411146 -0.376778 5.760900 9 241 238 0.017320
0.413007 -0.313469 5.769970 0 225 251 0.014368
0.393537 -0.349229 5.755200 6 237 242 0.016703
0.394435 -0.317480 5.760590 0 221 255 0.014338
0.376287 -0.321128 5.751280 0 225 251 0.014997
0.393067 -0.380851 5.752150 6 237 242 0.016885
0.375204 -0.353939 5.746640 0 229 248 0.015222
0.375498 -0.384593 5.742830 9 241 238 0.017673
0.397217 -0.282891 5.765570 9 241 238 0.017310
0.378006 -0.287625 5.757130 0 229 248 0.015452
0.417486 -0.278471 5.775290 13 245 235 0.018057
0.437431 -0.274201 5.785160 22 255 225 0.020199
0.433299 -0.309279 5.779720 0 229 248 0.015512
0.246395 -0.010365 6.094880 0 169 255 0.007573
0.269626 -0.010662 6.107050 0 177 255 0.008582
0.278570 -0.022150 6.090600 0 229 248 0.015139
0.292952 -0.011405 6.119170 0 189 255 0.009661
0.301721 -0.022483 6.102920 6 237 242 0.016910
0.325698 -0.023441 6.115460 16 249 232 0.019275
0.316836 -0.012882 6.131900 0 201 255 0.011181
0.310811 -0.032433 6.085220 45 255 203 0.027125
0.334789 -0.033191 6.097750 55 255 193 0.030226
0.344622 -0.040517 6.079030 71 255 177 0.036264
0.321108 -0.040502 6.066160 67 255 180 0.034679
0.288257 -0.032717 6.072700 42 255 206 0.025747
0.298573 -0.040766 6.054030 61 255 187 0.033200
0.265653 -0.033186 6.060630 35 255 213 0.024588
0.255864 -0.022490 6.078360 0 221 255 0.013914
0.232719 -0.022464 6.066350 0 209 255 0.012144
0.275898 -0.041280 6.041930 58 255 190 0.031693
0.242486 -0.033360 6.048800 29 255 219 0.022599
0.252801 -0.041619 6.030010 51 255 196 0.029735
0.223164 -0.010322 6.082810 0 157 255 0.006469
0.342861 -0.013746 6.145840 0 213 255 0.012591
0.369608 -0.015257 6.160020 0 225 251 0.014484
0.378041 -0.025507 6.143330 35 255 213 0.024141
0.396451 -0.017833 6.173780 6 237 242 0.017069
0.404881 -0.027606 6.157220 51 255 196 0.028799
0.413938 -0.035900 6.139440 80 255 167 0.040443
0.423986 -0.041640 6.120290 93 255 155 0.045898
0.387186 -0.034610 6.125530 67 255 180 0.035680
0.397109 -0.041094 6.106360 84 255 164 0.042411
0.360874 -0.033629 6.111570 61 255 187 0.032361
0.351614 -0.024215 6.129290 25 255 222 0.021457
0.370667 -0.040755 6.092590 77 255 171 0.039244
0.453445 -0.042755 6.053930 61 255 187 0.032559
0.426930 -0.044204 6.041300 55 255 193 0.030254
0.415706 -0.047261 6.064100 67 255 180 0.035723
0.401139 -0.045979 6.028690 51 255 196 0.029558
0.390075 -0.048020 6.051020 67 255 180 0.034545
0.364937 -0.049174 6.038380 64 255 184 0.034253
0.376062 -0.047122 6.016010 45 255 203 0.026669
0.379563 -0.046565 6.072220 84 255 164 0.041778
0.354429 -0.046842 6.059330 80 255 167 0.040346
0.406030 -0.046143 6.085980 87 255 161 0.043937
0.433168 -0.046051 6.099790 90 255 158 0.045440
0.442868 -0.046324 6.077560 71 255 177 0.036132
0.352744 -0.047823 6.003820 35 255 213 0.024166
0.330566 -0.048468 5.991670 32 255 216 0.023362
0.318666 -0.050138 6.013970 51 255 196 0.029648
0.308392 -0.048969 5.979730 29 255 219 0.021905
0.296572 -0.050557 6.001980 45 255 203 0.027632
0.274108 -0.051474 5.990140 42 255 206 0.026108
0.285767 -0.050510 5.968030 22 255 225 0.020669
0.285463 -0.047901 6.022610 64 255 184 0.034225
0.263151 -0.048701 6.010670 61 255 187 0.032766
0.308340 -0.047303 6.034690 71 255 177 0.035784
0.330955 -0.046898 6.046830 74 255 174 0.037416
0.341421 -0.049371 6.026300 58 255 190 0.031465
-0.055717 -0.896191 6.293710 93 255 155 0.046211
-0.052766 -0.910143 6.264880 74 255 174 0.037049
-0.077841 -0.896440 6.282430 96 255 151 0.047775
-0.075073 -0.910401 6.253600 74 255 174 0.037264
-0.050094 -0.927159 6.236790 58 255 190 0.031079
-0.046700 -0.947726 6.210080 71 255 177 0.036760
-0.025059 -0.944811 6.221870 71 255 177 0.036852
-0.028519 -0.924812 6.249030 51 255 196 0.029452
-0.031501 -0.908233 6.277200 64 255 184 0.033277
-0.003518 -0.941719 6.233450 80 255 167 0.040843
-0.099199 -0.896687 6.270450 100 255 148 0.050119
-0.095477 -0.911810 6.241410 67 255 180 0.035165
-0.121127 -0.896429 6.259140 109 255 138 0.053742
-0.092276 -0.930780 6.213720 25 255 222 0.021221
-0.067825 -0.949633 6.198250 51 255 196 0.028803
-0.071393 -0.928826 6.225660 48 255 200 0.027647
-0.030348 -0.992746 6.122170 145 255 103 0.076489
-0.003577 -0.999967 6.103430 164 255 84 0.091477
-0.035613 -0.981215 6.152810 122 255 126 0.062813
-0.008817 -0.990256 6.134720 155 255 93 0.083952
-0.014873 -0.977460 6.165240 129 255 119 0.066845
0.018077 -0.997903 6.116170 180 255 67 0.103799
-0.041413 -0.964736 6.181970 84 255 164 0.042389
-0.062694 -0.968435 6.170580 87 255 161 0.043985
0.013059 -0.988130 6.146800 167 255 80 0.093182
0.039139 -0.995714 6.128360 196 255 51 0.118502
0.007252 -0.974517 6.176290 142 255 106 0.073679
0.034037 -0.985020 6.158820 177 255 71 0.103290
0.028429 -0.971857 6.188110 155 255 93 0.082518
0.060449 -0.994166 6.140310 213 255 35 0.136887
0.001899 -0.959480 6.204960 116 255 132 0.057971
-0.020028 -0.961896 6.193590 93 255 155 0.046618
0.117169 -0.834059 6.368330 238 255 9 0.167133
0.129895 -0.844649 6.345820 222 255 25 0.146653
0.106353 -0.859722 6.337520 158 255 90 0.087182
0.092552 -0.848443 6.359070 184 255 64 0.106731
0.131153 -0.867403 6.320940 148 255 100 0.077900
0.132715 -0.893395 6.295500 67 255 180 0.035507
0.155770 -0.877007 6.304860 132 255 116 0.067507
0.154234 -0.851289 6.329550 213 255 35 0.137969
0.070321 -0.863349 6.351160 125 255 122 0.063076
0.084135 -0.875762 6.329320 93 255 155 0.046455
0.061153 -0.887614 6.320810 58 255 190 0.031927
0.046926 -0.875380 6.342650 84 255 164 0.042225
0.087124 -0.898301 6.304400 42 255 206 0.026590
0.089684 -0.922816 6.277990 64 255 184 0.034401
0.111253 -0.909626 6.287330 45 255 203 0.027311
0.108251 -0.883055 6.312330 84 255 164 0.041793
0.148976 -0.981610 6.182080 242 253 6 0.170854
0.143992 -0.962951 6.211140 184 255 64 0.106676
0.169606 -0.972033 6.191070 219 255 29 0.142032
0.139386 -0.941348 6.239940 113 255 135 0.056917
0.164288 -0.951112 6.220420 158 255 90 0.085175
0.159524 -0.926311 6.248870 84 255 164 0.041127
0.190055 -0.958262 6.200060 180 255 67 0.104223
0.135752 -0.917459 6.268250 58 255 190 0.031739
0.114409 -0.932087 6.259140 84 255 164 0.042199
0.118176 -0.952279 6.230510 148 255 100 0.077847
0.185211 -0.934886 6.228980 122 255 126 0.061831
0.211832 -0.941890 6.209130 145 255 103 0.077120
0.182605 -0.909849 6.257900 96 255 151 0.047771
0.207850 -0.918326 6.239200 122 255 126 0.061776
0.168588 -0.893568 6.281870 96 255 151 0.048434
0.024054 -0.884001 6.332800 67 255 180 0.035741
0.038021 -0.896722 6.310630 48 255 200 0.028028
0.014057 -0.902028 6.300080 58 255 190 0.031158
0.000266 -0.889019 6.322250 71 255 177 0.035797
0.040552 -0.915763 6.283340 55 255 193 0.030171
0.042969 -0.934842 6.255930 87 255 161 0.042906
0.066547 -0.930241 6.267000 80 255 167 0.039875
0.063886 -0.909355 6.294130 45 255 203 0.026756
-0.022315 -0.892903 6.311020 77 255 171 0.039689
-0.008619 -0.906677 6.288410 64 255 184 0.033521
-0.006053 -0.923120 6.260550 58 255 190 0.031476
0.019753 -0.938775 6.244920 87 255 161 0.043165
0.016698 -0.919769 6.272350 58 255 190 0.031303
0.056202 -0.983146 6.169860 196 255 51 0.119253
0.083094 -0.992720 6.151350 232 255 16 0.157165
0.051824 -0.969385 6.198750 171 255 77 0.096763
0.078243 -0.979862 6.180930 203 255 45 0.126599
0.074264 -0.965084 6.210160 174 255 74 0.097858
0.104806 -0.990473 6.162100 242 253 6 0.171594
0.047426 -0.952539 6.227540 129 255 119 0.065813
0.023889 -0.956258 6.216430 122 255 126 0.062856
0.101300 -0.977369 6.191500 213 255 35 0.136628
0.126875 -0.987324 6.172290 248 245 0 0.178542
0.097001 -0.959937 6.220290 167 255 80 0.092511
0.123201 -0.972294 6.201750 206 255 42 0.130308
0.093346 -0.942193 6.249010 116 255 132 0.057373
0.070195 -0.947728 6.238560 122 255 126 0.061450
0.164903 -0.987251 6.155880 255 238 0 0.188798
0.191759 -0.987870 6.134960 255 227 0 0.200698
0.207852 -0.988633 6.108520 255 219 0 0.211689
0.234792 -0.983751 6.087880 255 219 0 0.210533
0.213567 -0.990440 6.076030 255 212 0 0.221404
0.228937 -0.979571 6.118620 251 241 0 0.182988
0.255870 -0.968867 6.097880 235 255 13 0.161765
0.212649 -0.977406 6.143840 242 253 6 0.169230
0.196361 -0.973523 6.169760 225 255 22 0.150437
0.227791 -0.981134 6.049950 255 230 0 0.195059
0.253966 -0.968428 6.031680 251 241 0 0.182568
0.269745 -0.956061 6.007650 242 253 6 0.171769
0.292664 -0.942931 6.022160 219 255 29 0.143638
0.277285 -0.956346 6.044830 229 255 19 0.154096
0.261774 -0.967461 6.068320 238 255 9 0.168185
0.333879 -0.905468 6.051090 180 255 67 0.105001
0.319564 -0.919751 6.071410 177 255 71 0.103304
0.293762 -0.941148 6.086140 187 255 61 0.109883
0.278253 -0.951135 6.109050 196 255 51 0.120011
0.298807 -0.938563 6.057660 196 255 51 0.120288
0.313806 -0.924389 6.036500 190 255 58 0.114367
0.272457 -0.943976 6.138760 174 255 74 0.100369
0.255364 -0.943865 6.163170 167 255 80 0.094455
0.227694 -0.950086 6.183220 174 255 74 0.097872
0.233318 -0.961807 6.152930 196 255 51 0.121347
0.250233 -0.962673 6.127660 206 255 42 0.130210
0.175067 -0.573689 5.662800 29 255 219 0.022293
0.171771 -0.554277 5.656040 22 255 225 0.020996
0.180479 -0.533891 5.657270 16 249 232 0.018769
0.177082 -0.510549 5.651140 13 245 235 0.017849
0.202236 -0.510028 5.666970 6 237 242 0.017079
0.204624 -0.532465 5.672170 16 249 232 0.018696
0.195451 -0.553460 5.670550 22 255 225 0.020327
0.197177 -0.572790 5.676750 25 255 222 0.021821
0.188543 -0.592004 5.675300 32 255 216 0.023571
0.209309 -0.590202 5.690660 32 255 216 0.022835
0.158508 -0.488300 5.642390 0 225 251 0.014622
0.152690 -0.463928 5.638850 0 209 255 0.012236
0.167471 -0.464161 5.648610 0 209 255 0.012349
0.147149 -0.439089 5.634110 0 197 255 0.010429
0.162632 -0.438090 5.643960 0 189 255 0.009659
0.158638 -0.412260 5.636720 0 189 255 0.009716
0.142712 -0.412603 5.628270 0 181 255 0.008730
0.177987 -0.437935 5.652300 0 189 255 0.009742
0.174427 -0.411506 5.645350 0 189 255 0.009803
0.189702 -0.411193 5.652950 0 197 255 0.010499
0.194785 -0.462651 5.663400 0 201 255 0.011360
0.184974 -0.487495 5.658570 0 221 255 0.014233
0.249989 -0.406457 5.679750 6 237 242 0.016410
0.250920 -0.432965 5.685500 0 217 255 0.013184
0.237668 -0.460454 5.684390 0 205 255 0.011863
0.238419 -0.484938 5.687740 0 213 255 0.012852
0.227765 -0.509010 5.680890 3 233 245 0.016139
0.253273 -0.506845 5.696640 0 229 248 0.015021
0.211877 -0.487429 5.673600 0 217 255 0.013550
0.209471 -0.462305 5.670370 0 201 255 0.011430
0.207740 -0.436397 5.665670 0 197 255 0.010580
0.222684 -0.435340 5.672690 0 201 255 0.011187
0.220430 -0.409854 5.665950 0 221 255 0.013744
0.205574 -0.410398 5.659390 0 205 255 0.011991
0.235548 -0.408152 5.672800 0 225 251 0.014986
0.253726 -0.530196 5.700390 13 245 235 0.017920
0.242903 -0.553334 5.696500 22 255 225 0.020785
0.243714 -0.572316 5.701660 22 255 225 0.020995
0.232149 -0.589993 5.702870 25 255 222 0.021707
0.255221 -0.590033 5.714550 29 255 219 0.021931
0.220472 -0.572429 5.690120 25 255 222 0.021022
0.219366 -0.553433 5.683340 19 253 229 0.019872
0.229382 -0.531958 5.686380 13 245 235 0.018116
0.391568 -0.412239 5.751120 9 241 238 0.017194
0.409290 -0.408978 5.759750 9 241 238 0.017463
0.408086 -0.439126 5.760490 6 237 242 0.017078
0.426720 -0.405693 5.769440 6 237 242 0.016552
0.424987 -0.436508 5.769230 6 237 242 0.016508
0.441925 -0.434550 5.779030 0 229 248 0.015103
0.443960 -0.402543 5.778480 3 233 245 0.016368
0.424047 -0.465432 5.771550 6 237 242 0.016565
0.441200 -0.463659 5.780060 3 233 245 0.016350
0.440791 -0.491807 5.782090 13 245 235 0.018194
0.424300 -0.492503 5.775120 13 245 235 0.018522
0.407930 -0.467146 5.763390 13 245 235 0.018312
0.407533 -0.493657 5.767160 19 253 229 0.019814
0.391326 -0.468684 5.756370 9 241 238 0.017765
0.391762 -0.441220 5.752870 13 245 235 0.018054
0.375156 -0.444034 5.745360 6 237 242 0.016879
0.390738 -0.494258 5.760410 13 245 235 0.018363
0.374706 -0.470628 5.750010 9 241 238 0.017125
0.373564 -0.495253 5.753730 13 245 235 0.017981
0.375265 -0.415236 5.743000 9 241 238 0.017376
0.461836 -0.399958 5.786140 9 241 238 0.017132
0.480908 -0.396072 5.794270 16 249 232 0.018602
0.477198 -0.428971 5.793780 9 241 238 0.017570
0.499998 -0.393092 5.802090 19 253 229 0.020096
0.496211 -0.425357 5.801090 16 249 232 0.019052
0.493005 -0.457619 5.801210 13 245 235 0.017928
0.492124 -0.487471 5.802500 13 245 235 0.018557
0.475613 -0.460023 5.794240 9 241 238 0.017537
0.475239 -0.488798 5.795490 16 249 232 0.019031
0.458420 -0.461947 5.787250 6 237 242 0.016841
0.459767 -0.431794 5.786170 6 237 242 0.017040
0.458057 -0.490267 5.789130 13 245 235 0.017939
0.483574 -0.570874 5.819690 29 255 219 0.022688
0.463693 -0.592141 5.818050 35 255 213 0.023809
0.469232 -0.545334 5.808310 13 245 235 0.018305
0.449585 -0.568371 5.808130 22 255 225 0.020830
0.435679 -0.543193 5.796110 6 237 242 0.017013
0.429553 -0.590695 5.804510 29 255 219 0.022556
0.454603 -0.519130 5.796290 6 237 242 0.016737
0.472430 -0.518121 5.802800 9 241 238 0.017149
0.489632 -0.517876 5.808570 9 241 238 0.017454
0.486616 -0.545531 5.815060 16 249 232 0.019080
0.415317 -0.567381 5.793490 19 253 229 0.019421
0.397464 -0.589898 5.787620 35 255 213 0.023895
0.400699 -0.542243 5.781750 3 233 245 0.015763
0.381889 -0.566876 5.778910 9 241 238 0.017270
0.367867 -0.542795 5.767800 0 225 251 0.014534
0.365358 -0.588827 5.771000 29 255 219 0.021918
0.386401 -0.518152 5.768700 0 229 248 0.015394
0.404412 -0.518320 5.774660 6 237 242 0.016721
0.421557 -0.518941 5.781500 9 241 238 0.017609
0.418061 -0.542751 5.789350 3 233 245 0.016123
0.349388 -0.566370 5.761900 3 233 245 0.016167
0.335865 -0.588137 5.755020 29 255 219 0.022700
0.335622 -0.544611 5.751010 0 225 251 0.014415
0.320373 -0.568037 5.745260 13 245 235 0.017893
0.307096 -0.547384 5.735170 3 233 245 0.016214
0.306859 -0.588500 5.740260 25 255 222 0.021527
0.321751 -0.522692 5.738790 0 217 255 0.013535
0.310105 -0.500683 5.725710 0 221 255 0.014331
0.341572 -0.496685 5.738930 3 233 245 0.015758
0.353547 -0.520804 5.754540 0 221 255 0.014135
0.292743 -0.569025 5.728790 19 253 229 0.019769
0.280061 -0.589260 5.726810 25 255 222 0.021669
0.279913 -0.549404 5.717490 16 249 232 0.019339
0.267662 -0.570909 5.714630 22 255 225 0.020337
0.279968 -0.527497 5.715050 3 233 245 0.016023
0.280986 -0.503734 5.711090 0 225 251 0.014492
0.265373 -0.404404 5.686200 13 245 235 0.018446
0.280989 -0.429144 5.696830 9 241 238 0.017480
0.280647 -0.402296 5.693310 19 253 229 0.019975
0.279844 -0.455053 5.702020 0 229 248 0.015306
0.296247 -0.427363 5.704100 9 241 238 0.017504
0.295536 -0.453718 5.709200 3 233 245 0.015728
0.311515 -0.451971 5.716750 3 233 245 0.016316
0.295536 -0.399639 5.700780 22 255 225 0.020396
0.311467 -0.425031 5.711570 9 241 238 0.017535
0.310904 -0.397190 5.708750 19 253 229 0.020075
0.294651 -0.478319 5.713750 0 221 255 0.014136
0.310519 -0.477251 5.721990 0 221 255 0.014335
0.265731 -0.481911 5.700320 0 221 255 0.014365
0.326423 -0.394342 5.716200 22 255 225 0.020704
0.342790 -0.419953 5.725320 19 253 229 0.019965
0.342477 -0.391298 5.724500 19 253 229 0.019653
0.342559 -0.447448 5.728580 16 249 232 0.018741
0.358938 -0.418056 5.734080 13 245 235 0.018171
0.358602 -0.445361 5.736790 16 249 232 0.018649
0.358780 -0.388168 5.733680 13 245 235 0.018266
0.357508 -0.472307 5.741940 6 237 242 0.016769
0.377869 -0.611693 5.784680 35 255 213 0.024389
0.389919 -0.632972 5.797000 55 255 193 0.030190
0.409237 -0.612776 5.799980 42 255 206 0.026601
0.421259 -0.634762 5.812230 61 255 187 0.033246
0.402135 -0.654330 5.807670 80 255 167 0.040670
0.413812 -0.674001 5.817910 109 255 138 0.055167
0.384401 -0.671385 5.806090 93 255 155 0.046968
0.372799 -0.651373 5.793700 71 255 177 0.036251
0.360529 -0.630387 5.781920 51 255 196 0.028842
0.354286 -0.667871 5.797100 61 255 187 0.033254
0.441033 -0.613679 5.816590 48 255 200 0.027808
0.451917 -0.637048 5.827350 67 255 180 0.035685
0.474191 -0.615712 5.831060 61 255 187 0.032285
0.463166 -0.658250 5.836650 96 255 151 0.047112
0.444016 -0.676631 5.830560 113 255 135 0.056931
0.432487 -0.655954 5.822320 90 255 158 0.044421
0.420965 -0.728587 5.860130 132 255 116 0.067444
0.428097 -0.711253 5.848030 132 255 116 0.067492
0.399980 -0.708358 5.839210 109 255 138 0.054697
0.393945 -0.726465 5.852390 122 255 126 0.061825
0.421137 -0.692050 5.833680 119 255 129 0.059616
0.451619 -0.695451 5.843760 129 255 119 0.065322
0.366856 -0.724600 5.846690 116 255 132 0.057705
0.371719 -0.706054 5.832580 96 255 151 0.047462
0.343923 -0.703213 5.826700 93 255 155 0.046701
0.340186 -0.723400 5.840430 116 255 132 0.058218
0.362509 -0.686746 5.816000 74 255 174 0.038016
0.392189 -0.689866 5.823120 103 255 145 0.051456
0.195191 -0.964512 5.921480 235 255 13 0.164736
0.179699 -0.973111 5.948060 219 255 29 0.142527
0.152650 -0.982018 5.969420 193 255 55 0.115901
0.135399 -0.989415 5.997650 187 255 61 0.109507
0.107686 -0.996796 6.019880 177 255 71 0.103214
0.127869 -0.996323 6.031720 209 255 38 0.131868
0.114554 -0.989796 5.985760 158 255 90 0.085702
0.086308 -0.996178 6.008190 148 255 100 0.078128
0.132687 -0.983125 5.957270 167 255 80 0.092755
0.150821 -0.975951 5.929470 190 255 58 0.115128
0.177045 -0.967254 5.908090 222 255 25 0.148033
0.157453 -0.969853 5.895580 213 255 35 0.137105
0.110464 -0.997764 6.060000 206 255 42 0.128783
0.082712 -0.998830 6.081790 196 255 51 0.120830
0.066604 -0.997397 6.108700 200 255 48 0.124359
0.045144 -0.998779 6.096620 177 255 71 0.102584
0.061630 -0.999104 6.069960 171 255 77 0.097493
0.079388 -0.997251 6.042680 161 255 87 0.088909
-0.008836 -1.003270 6.064090 138 255 109 0.072659
0.018619 -1.001090 6.044710 125 255 122 0.064096
0.035590 -0.999037 6.017730 106 255 142 0.052346
0.064382 -0.996232 5.996310 122 255 126 0.062240
0.042360 -0.997168 5.983950 93 255 155 0.045981
0.057750 -0.998053 6.030440 135 255 113 0.069390
0.040190 -0.999635 6.057830 145 255 103 0.075818
0.023840 -0.999970 6.084110 161 255 87 0.087533
0.060826 -0.990135 5.956880 90 255 158 0.044253
0.090457 -0.984284 5.934280 119 255 129 0.060808
0.108787 -0.978933 5.906090 148 255 100 0.079770
0.137499 -0.972840 5.883050 200 255 48 0.122528
0.116188 -0.975522 5.871480 184 255 64 0.108245
0.130037 -0.977442 5.917690 171 255 77 0.096130
0.111925 -0.983590 5.945970 142 255 106 0.075110
0.093393 -0.989722 5.974220 125 255 122 0.063911
-0.031414 -1.005880 6.050170 125 255 122 0.064533
-0.014942 -1.004920 6.024100 103 255 145 0.051450
-0.038300 -1.007060 6.010680 90 255 158 0.044753
-0.054592 -1.008350 6.036330 119 255 129 0.060263
-0.009506 -1.003300 5.991340 74 255 174 0.037466
-0.003708 -1.001940 5.958830 58 255 190 0.031115
0.019335 -0.999273 5.971600 74 255 174 0.037244
0.013402 -1.000920 6.004660 90 255 158 0.044724
-0.077877 -1.011570 6.022480 116 255 132 0.058160
-0.061452 -1.010730 5.996630 90 255 158 0.044204
-0.044721 -1.007590 5.971510 61 255 187 0.032619
-0.027105 -1.005590 5.945490 45 255 203 0.027011
0.030650 -0.988912 5.865600 96 255 151 0.048668
0.050668 -0.987116 5.838230 148 255 100 0.077745
0.011011 -0.992346 5.893180 64 255 184 0.033931
0.033893 -0.988192 5.905640 77 255 171 0.039221
0.053283 -0.984717 5.877690 113 255 135 0.056313
0.072767 -0.982319 5.849350 158 255 90 0.087154
0.003229 -0.995878 5.926160 48 255 200 0.028702
-0.020291 -1.000060 5.913450 35 255 213 0.024209
0.076168 -0.982127 5.888460 132 255 116 0.066920
0.094806 -0.978914 5.860150 171 255 77 0.095631
0.057379 -0.986026 5.916890 96 255 151 0.047268
0.037958 -0.991688 5.944690 64 255 184 0.034458
0.133037 -0.799597 5.656360 116 255 132 0.059023
0.131546 -0.767081 5.646960 67 255 180 0.035080
0.136713 -0.732797 5.646880 29 255 219 0.022237
0.134021 -0.702244 5.637160 22 255 225 0.020563
0.148146 -0.697043 5.655180 19 253 229 0.019405
0.150660 -0.726489 5.664300 22 255 225 0.020469
0.146721 -0.761541 5.663820 58 255 190 0.031186
0.148194 -0.793546 5.672220 106 255 142 0.052811
0.142881 -0.828867 5.672290 174 255 74 0.099763
0.157443 -0.822661 5.688370 161 255 87 0.088355
0.119558 -0.675815 5.622780 16 249 232 0.018879
0.112143 -0.648012 5.615940 16 249 232 0.018706
0.114750 -0.621390 5.617690 19 253 229 0.020143
0.131257 -0.618645 5.635490 29 255 219 0.022270
0.128385 -0.644902 5.634450 22 255 225 0.020868
0.134423 -0.671241 5.640550 16 249 232 0.019207
0.167548 -0.613278 5.671060 51 255 196 0.028981
0.161223 -0.637724 5.671620 51 255 196 0.028946
0.164679 -0.661798 5.678680 48 255 200 0.027809
0.162616 -0.690903 5.674390 25 255 222 0.021569
0.177014 -0.684696 5.693450 45 255 203 0.026919
0.150034 -0.666928 5.660380 29 255 219 0.022341
0.144293 -0.641369 5.653110 35 255 213 0.023986
0.149071 -0.616578 5.654410 42 255 206 0.026207
0.178958 -0.711682 5.702490 38 255 209 0.024855
0.175280 -0.747164 5.700700 32 255 216 0.023532
0.177184 -0.778952 5.707980 64 255 184 0.034122
0.172158 -0.815948 5.705660 135 255 113 0.070919
0.185269 -0.807547 5.724120 109 255 138 0.055324
0.163202 -0.786520 5.690420 87 255 161 0.042957
0.161732 -0.754768 5.681820 42 255 206 0.026058
0.165164 -0.719455 5.683800 25 255 222 0.021176
0.198622 -0.971367 5.960640 235 255 13 0.161592
0.213537 -0.961620 5.935190 245 249 3 0.173267
0.183097 -0.980246 5.986810 229 255 19 0.156155
0.202113 -0.978509 5.998890 245 249 3 0.174714
0.217217 -0.968090 5.973470 245 249 3 0.174343
0.232062 -0.957708 5.949150 251 241 0 0.182403
0.176445 -0.988212 6.020100 242 253 6 0.169512
0.170163 -0.995688 6.053850 255 230 0 0.196734
0.149279 -0.996281 6.042670 235 255 13 0.162305
0.155778 -0.989093 6.009130 216 255 32 0.141590
0.236749 -0.964191 5.987130 245 249 3 0.174276
0.251496 -0.953380 5.963090 248 245 0 0.180632
0.222552 -0.975737 6.011360 251 241 0 0.185554
0.207171 -0.985607 6.037880 255 230 0 0.198658
0.191646 -0.994607 6.064490 255 212 0 0.220017
0.143708 -0.991998 6.146070 255 234 0 0.191468
0.159667 -0.994721 6.119170 255 227 0 0.202834
0.137420 -0.997496 6.108970 255 238 0 0.190297
0.121141 -0.994890 6.135890 248 245 0 0.180418
0.164569 -0.996722 6.086610 255 227 0 0.203868
0.186674 -0.993801 6.097510 255 216 0 0.215459
0.099398 -0.996633 6.125080 235 255 13 0.163445
0.115816 -0.998464 6.097790 238 255 9 0.165632
0.132277 -0.998046 6.070430 235 255 13 0.162646
0.349053 -0.610063 5.768580 38 255 209 0.025386
0.331508 -0.628965 5.769420 35 255 213 0.023895
0.343209 -0.648534 5.782820 48 255 200 0.028183
0.325906 -0.664933 5.789270 51 255 196 0.029709
0.314001 -0.645577 5.774180 42 255 206 0.025870
0.297486 -0.662556 5.781330 67 255 180 0.034628
0.301152 -0.626603 5.758970 29 255 219 0.022479
0.318525 -0.608849 5.754900 25 255 222 0.021859
0.335081 -0.683778 5.809150 77 255 171 0.038689
0.317580 -0.703080 5.819240 106 255 142 0.053167
0.315616 -0.724819 5.831810 122 255 126 0.062762
0.314965 -0.750417 5.841290 122 255 126 0.061562
0.291277 -0.754968 5.829820 122 255 126 0.061030
0.290722 -0.727199 5.821310 135 255 113 0.069344
0.291000 -0.702556 5.810870 132 255 116 0.067350
0.307208 -0.681978 5.801220 93 255 155 0.046558
0.248823 -0.769238 5.798880 100 255 148 0.049277
0.247712 -0.738350 5.792130 119 255 129 0.059311
0.256123 -0.707696 5.792200 142 255 106 0.074345
0.256023 -0.683058 5.781460 142 255 106 0.073879
0.271115 -0.662220 5.772160 93 255 155 0.046877
0.246919 -0.663001 5.761430 116 255 132 0.058979
0.280614 -0.681695 5.792730 122 255 126 0.061300
0.268839 -0.732435 5.807890 132 255 116 0.067856
0.269779 -0.761713 5.815650 113 255 135 0.056775
0.247050 -0.642718 5.751500 100 255 148 0.049079
0.261895 -0.625087 5.744370 51 255 196 0.029741
0.264259 -0.607368 5.732320 32 255 216 0.022929
0.290635 -0.607938 5.743330 22 255 225 0.020890
0.285342 -0.642949 5.766380 58 255 190 0.032060
0.191179 -0.770543 5.727230 55 255 193 0.030889
0.189082 -0.738673 5.719960 42 255 206 0.025774
0.193816 -0.704715 5.721730 67 255 180 0.035489
0.192305 -0.678641 5.712100 67 255 180 0.035513
0.207922 -0.672477 5.729860 100 255 148 0.049334
0.208652 -0.697582 5.739570 100 255 148 0.049237
0.203567 -0.730015 5.738780 67 255 180 0.035718
0.205143 -0.760564 5.746060 61 255 187 0.032808
0.198719 -0.798130 5.743370 93 255 155 0.045565
0.213562 -0.788395 5.762010 77 255 171 0.039329
0.180916 -0.656887 5.697980 71 255 177 0.036955
0.178593 -0.633591 5.689550 64 255 184 0.034442
0.187347 -0.610846 5.687760 55 255 193 0.030596
0.207258 -0.608562 5.702150 55 255 193 0.030472
0.196608 -0.630074 5.706170 80 255 167 0.040719
0.197462 -0.651730 5.714560 93 255 155 0.046403
0.240844 -0.607384 5.721930 42 255 206 0.026191
0.238172 -0.625508 5.733740 74 255 174 0.037449
0.225517 -0.645070 5.739200 113 255 135 0.055598
0.225866 -0.667060 5.746780 116 255 132 0.057483
0.216461 -0.626353 5.721330 84 255 164 0.042166
0.234763 -0.687618 5.767420 142 255 106 0.074175
0.236067 -0.713978 5.776060 132 255 116 0.067084
0.229124 -0.746676 5.774800 96 255 151 0.048322
0.230439 -0.778743 5.780890 84 255 164 0.041228
0.218646 -0.721487 5.757770 103 255 145 0.051048
0.122484 -0.965282 5.839440 196 255 51 0.120942
0.128424 -0.955399 5.807850 229 255 19 0.154340
0.101730 -0.970048 5.828050 190 255 58 0.114775
0.108562 -0.961171 5.796320 216 255 32 0.140453
0.134158 -0.945075 5.777120 251 241 0 0.182502
0.139167 -0.932470 5.748000 255 216 0 0.214989
0.155834 -0.925606 5.760960 255 219 0 0.211163
0.151566 -0.938447 5.790020 248 245 0 0.178826
0.146931 -0.950161 5.820490 229 255 19 0.154347
0.170957 -0.918141 5.775720 255 234 0 0.192745
0.080800 -0.974672 5.816990 187 255 61 0.109571
0.089727 -0.967668 5.785230 213 255 35 0.138026
0.059104 -0.980552 5.806330 171 255 77 0.096677
0.097743 -0.959026 5.754210 242 253 6 0.172024
0.121883 -0.939931 5.735660 255 216 0 0.216388
0.116029 -0.952155 5.765390 248 245 0 0.180493
0.140107 -0.858716 5.685600 206 255 42 0.130172
0.136093 -0.886810 5.700600 232 255 16 0.160505
0.151210 -0.881283 5.715070 229 255 19 0.154356
0.154875 -0.853111 5.700640 196 255 51 0.121018
0.138372 -0.910749 5.723510 255 234 0 0.190866
0.122182 -0.918441 5.709930 255 234 0 0.194432
0.169274 -0.845543 5.717720 177 255 71 0.101015
0.165992 -0.873788 5.730600 213 255 35 0.135289
0.179636 -0.866597 5.748020 190 255 58 0.113160
0.182034 -0.837409 5.736200 155 255 93 0.083186
0.168967 -0.896860 5.752400 235 255 13 0.164353
0.153844 -0.904583 5.737570 251 241 0 0.182687
0.198651 -0.949131 5.892130 225 255 22 0.150146
0.200616 -0.934507 5.863060 222 255 25 0.147850
0.180438 -0.953546 5.877940 222 255 25 0.149204
0.182943 -0.939592 5.848480 229 255 19 0.156804
0.201122 -0.919401 5.835590 222 255 25 0.146585
0.201331 -0.903729 5.808820 222 255 25 0.146169
0.216763 -0.895944 5.826850 196 255 51 0.120780
0.217371 -0.913174 5.852420 209 255 38 0.133948
0.217331 -0.928944 5.879250 216 255 32 0.139252
0.233172 -0.887540 5.845350 177 255 71 0.100673
0.161803 -0.957786 5.863900 222 255 25 0.147474
0.165394 -0.944737 5.833930 232 255 16 0.160677
0.142276 -0.961422 5.851440 213 255 35 0.138109
0.168509 -0.931694 5.804130 242 253 6 0.171637
0.186204 -0.910992 5.791500 242 253 6 0.171534
0.184833 -0.925564 5.819660 235 255 13 0.164425
0.195469 -0.827973 5.755150 125 255 122 0.064811
0.192874 -0.857379 5.766030 161 255 87 0.089073
0.207039 -0.848461 5.785550 142 255 106 0.073473
0.210331 -0.819197 5.774360 109 255 138 0.054456
0.197430 -0.880949 5.786920 193 255 55 0.115380
0.183373 -0.889357 5.769150 213 255 35 0.137729
0.227237 -0.809456 5.793160 100 255 148 0.049247
0.223354 -0.838702 5.804800 125 255 122 0.064000
0.241783 -0.829956 5.823300 113 255 135 0.056933
0.245979 -0.799520 5.811480 100 255 148 0.049476
0.227986 -0.862979 5.825580 145 255 103 0.077675
0.211816 -0.872280 5.806640 167 255 80 0.092621
0.322597 -0.773145 5.862240 135 255 113 0.070157
0.317957 -0.799139 5.876990 142 255 106 0.074529
0.300897 -0.832176 5.883560 135 255 113 0.070938
0.294844 -0.861928 5.895380 155 255 93 0.083864
0.272250 -0.870819 5.879970 155 255 93 0.084693
0.278265 -0.841236 5.868730 132 255 116 0.067078
0.295547 -0.807123 5.864390 129 255 119 0.066403
0.300686 -0.779675 5.849810 125 255 122 0.064598
0.295999 -0.882012 5.919390 167 255 80 0.092598
0.285146 -0.905702 5.935830 187 255 61 0.110319
0.263668 -0.933485 5.944250 222 255 25 0.146807
0.243168 -0.938685 5.929260 225 255 22 0.151001
0.263347 -0.913893 5.919730 193 255 55 0.117521
0.273498 -0.890252 5.903710 167 255 80 0.094669
0.215836 -0.945441 5.907350 225 255 22 0.149789
0.234957 -0.924663 5.895510 209 255 38 0.133934
0.234135 -0.906397 5.869950 193 255 55 0.117580
0.251927 -0.879342 5.863360 164 255 84 0.090826
0.252898 -0.898680 5.887210 184 255 64 0.106582
0.246862 -0.854949 5.844140 135 255 113 0.069040
0.262856 -0.821890 5.840740 116 255 132 0.058561
0.266500 -0.790628 5.829240 113 255 135 0.056287
0.220751 -0.160913 5.713130 180 255 67 0.105637
0.225064 -0.193016 5.706750 125 255 122 0.062913
0.207327 -0.198385 5.696470 119 255 129 0.060555
0.210982 -0.230945 5.691080 67 255 180 0.035007
0.228446 -0.226069 5.700960 71 255 177 0.036889
0.193076 -0.235845 5.681140 61 255 187 0.032850
0.214211 -0.262175 5.685470 22 255 225 0.020996
0.196931 -0.266196 5.675440 19 253 229 0.019770
0.202080 -0.295170 5.669390 0 225 251 0.014705
0.231334 -0.257846 5.695220 29 255 219 0.022301
0.218970 -0.291581 5.679030 0 225 251 0.014491
0.235380 -0.288270 5.688980 0 225 251 0.014496
0.179543 -0.269343 5.665630 9 241 238 0.017724
0.185047 -0.297648 5.659480 0 229 248 0.015299
0.167738 -0.299957 5.650050 0 225 251 0.015009
0.161243 -0.271589 5.655750 6 237 242 0.017033
0.174423 -0.239378 5.670740 58 255 190 0.032053
0.155728 -0.242504 5.660270 58 255 190 0.031520
0.169343 -0.207207 5.675100 116 255 132 0.057285
0.188523 -0.202984 5.685890 116 255 132 0.058916
0.183232 -0.169803 5.691470 171 255 77 0.097652
0.150370 -0.210956 5.664560 113 255 135 0.055508
0.163820 -0.174481 5.680570 167 255 80 0.094364
0.144664 -0.179404 5.669470 158 255 90 0.087204
0.202317 -0.165158 5.702370 177 255 71 0.100786
0.238683 -0.320348 5.684920 0 205 255 0.011499
0.223613 -0.323849 5.676520 0 205 255 0.011650
0.227940 -0.354158 5.673600 0 205 255 0.011942
0.242621 -0.351052 5.682020 0 205 255 0.011726
0.213307 -0.356314 5.665300 0 205 255 0.011934
0.232027 -0.382364 5.672000 0 221 255 0.013891
0.217340 -0.384189 5.664790 0 213 255 0.012811
0.247028 -0.379433 5.679260 0 229 248 0.015382
0.201877 -0.386242 5.657770 0 201 255 0.010935
0.185557 -0.386247 5.650350 0 193 255 0.010403
0.196884 -0.358091 5.656530 0 201 255 0.011384
0.180137 -0.358958 5.648580 0 193 255 0.010395
0.190604 -0.328723 5.657930 0 201 255 0.011257
0.207134 -0.326637 5.667160 0 205 255 0.011701
0.173709 -0.330319 5.648800 0 205 255 0.011598
0.120773 -0.386651 5.617200 0 169 255 0.007490
0.138088 -0.387255 5.626370 0 169 255 0.007706
0.131489 -0.360736 5.622990 0 185 255 0.009386
0.114240 -0.360441 5.613960 0 181 255 0.008919
0.148619 -0.360841 5.632450 0 189 255 0.009617
0.123902 -0.332894 5.621050 0 209 255 0.012367
0.140796 -0.332498 5.630670 0 205 255 0.011668
0.133292 -0.303095 5.630280 3 233 245 0.015848
0.106758 -0.334042 5.611340 0 209 255 0.012118
0.115919 -0.305127 5.620340 3 233 245 0.016209
0.098602 -0.306075 5.610390 3 233 245 0.016150
0.157834 -0.332246 5.640210 0 205 255 0.011529
0.150484 -0.301404 5.640160 0 229 248 0.015267
0.164524 -0.360262 5.640290 0 193 255 0.010336
0.170016 -0.386963 5.642450 0 189 255 0.009491
0.153900 -0.387401 5.634310 0 181 255 0.008849
0.090760 -0.279847 5.613920 29 255 219 0.022391
0.108845 -0.278770 5.624900 29 255 219 0.022013
0.101535 -0.251107 5.627740 64 255 184 0.033412
0.083157 -0.252655 5.617530 61 255 187 0.033159
0.120033 -0.249272 5.638660 58 255 190 0.031555
0.094534 -0.222608 5.630790 106 255 142 0.053056
0.113387 -0.219375 5.641880 106 255 142 0.053265
0.106203 -0.188977 5.646020 155 255 93 0.082828
0.076068 -0.224986 5.620330 106 255 142 0.053408
0.087513 -0.192884 5.634160 158 255 90 0.085628
0.068907 -0.196196 5.622750 155 255 93 0.084511
0.132230 -0.215884 5.653390 109 255 138 0.053893
0.125133 -0.184657 5.657760 155 255 93 0.083263
0.137851 -0.246119 5.649190 58 255 190 0.031842
0.143734 -0.274436 5.644910 13 245 235 0.018035
0.126286 -0.276937 5.634900 19 253 229 0.019418
0.356494 -0.162316 5.779840 164 255 84 0.091036
0.359687 -0.191108 5.770590 129 255 119 0.066615
0.341294 -0.195032 5.760240 125 255 122 0.064428
0.360982 -0.222250 5.761340 84 255 164 0.041738
0.341812 -0.226992 5.751280 67 255 180 0.035737
0.341934 -0.260200 5.742630 38 255 209 0.024804
0.361075 -0.255652 5.752560 45 255 203 0.026700
0.322648 -0.232115 5.741680 58 255 190 0.031190
0.322868 -0.265018 5.733250 29 255 219 0.022556
0.304342 -0.269754 5.724430 22 255 225 0.020307
0.302696 -0.237472 5.732010 51 255 196 0.028767
0.321388 -0.199346 5.749240 119 255 129 0.060313
0.301506 -0.204585 5.739170 113 255 135 0.055519
0.318585 -0.169327 5.757760 167 255 80 0.094536
0.337745 -0.165512 5.768770 167 255 80 0.093535
0.332958 -0.137220 5.776930 206 255 42 0.130895
0.299205 -0.173610 5.747210 161 255 87 0.088806
0.314001 -0.140935 5.766080 206 255 42 0.129999
0.294777 -0.144656 5.755270 203 255 45 0.125533
0.351596 -0.133722 5.787970 206 255 42 0.130479
0.359709 -0.291851 5.748050 0 225 251 0.014587
0.358595 -0.326039 5.742210 0 229 248 0.015084
0.341314 -0.330357 5.733170 0 225 251 0.014551
