ply
format ascii 1.0
comment VCGLIB generated
element vertex 975
property float x
property float y
property float z
property uchar red
property uchar green
property uchar blue
property float quality
end_header
0.783381 -0.761822 5.925250 209 255 38 0.133849
1.089150 -0.824502 6.115610 167 255 80 0.092551
1.094730 -0.800183 6.102590 174 255 74 0.099919
1.067140 -0.825945 6.111080 161 255 87 0.087712
1.101780 -0.776308 6.089350 193 255 55 0.116203
1.072250 -0.802375 6.097290 171 255 77 0.096180
1.078800 -0.778824 6.083460 187 255 61 0.109509
1.044840 -0.826855 6.106560 145 255 103 0.077128
1.107720 -0.752636 6.075480 209 255 38 0.133980
1.113620 -0.729374 6.061680 229 255 19 0.156564
1.135860 -0.728887 6.067870 232 255 16 0.158593
1.129770 -0.752457 6.081660 216 255 32 0.139922
1.123370 -0.776318 6.095220 203 255 45 0.124954
1.050880 -0.802663 6.091550 161 255 87 0.089415
1.022870 -0.827514 6.101600 135 255 113 0.070217
1.057640 -0.778370 6.076550 180 255 67 0.105741
1.028610 -0.804072 6.085810 151 255 96 0.081134
1.035230 -0.780602 6.070090 167 255 80 0.092527
1.001650 -0.828182 6.096510 119 255 129 0.060043
1.064000 -0.754029 6.061760 203 255 45 0.125610
1.070100 -0.729963 6.047060 222 255 25 0.148768
1.091640 -0.729549 6.054400 222 255 25 0.148187
1.085190 -0.754082 6.068850 206 255 42 0.128649
1.147500 -0.616742 6.032810 245 249 3 0.175947
1.139000 -0.645061 6.039770 245 249 3 0.176954
1.168800 -0.619070 6.039400 248 245 0 0.178754
1.130620 -0.673211 6.046980 242 253 6 0.171260
1.160360 -0.647308 6.046430 245 249 3 0.176250
1.151390 -0.675400 6.053570 245 249 3 0.174599
1.122350 -0.701237 6.054320 235 255 13 0.161653
1.099800 -0.701576 6.047180 232 255 16 0.157399
1.107870 -0.673559 6.040030 235 255 13 0.160937
1.155270 -0.702068 6.063900 242 253 6 0.172399
1.135970 -0.349414 6.067020 148 255 100 0.079647
1.148930 -0.321646 6.081690 187 255 61 0.110701
1.110730 -0.343084 6.059570 135 255 113 0.070431
1.160650 -0.292707 6.096820 206 255 42 0.130291
1.120740 -0.313871 6.070430 151 255 96 0.082036
1.132090 -0.282725 6.083190 209 255 38 0.132767
1.084520 -0.336459 6.052260 90 255 158 0.044440
1.172060 -0.262402 6.113610 242 253 6 0.172745
1.180690 -0.232790 6.132810 255 204 0 0.231136
1.207620 -0.248933 6.153900 255 190 0 0.250711
1.198010 -0.275960 6.131000 255 234 0 0.193794
1.185240 -0.303633 6.109910 222 255 25 0.148390
1.094160 -0.305414 6.061150 145 255 103 0.076970
1.054600 -0.330883 6.044830 61 255 187 0.032761
1.102640 -0.271974 6.070500 203 255 45 0.126809
1.124560 -0.243760 6.087730 251 241 0 0.184198
1.148400 -0.216819 6.110420 255 201 0 0.238876
1.187250 -0.183578 6.183270 255 149 0 0.318842
1.185160 -0.204916 6.154760 255 171 0 0.282106
1.208250 -0.371983 6.094550 187 255 61 0.111034
1.210000 -0.343601 6.110190 203 255 45 0.125911
1.186050 -0.364002 6.085480 177 255 71 0.101237
1.187000 -0.334841 6.099430 193 255 55 0.117031
1.162490 -0.356517 6.076460 164 255 84 0.090769
1.211580 -0.313928 6.125510 225 255 22 0.150086
1.177200 -0.589333 6.041000 238 255 9 0.165656
0.649377 -1.069470 6.513470 138 255 109 0.072408
0.637118 -1.062530 6.537140 125 255 122 0.063123
0.627183 -1.058380 6.528220 109 255 138 0.055081
0.615188 -1.050540 6.551480 93 255 155 0.046168
0.625196 -1.054980 6.560700 106 255 142 0.053198
0.606332 -1.049200 6.543660 96 255 151 0.048676
0.603279 -1.042670 6.574630 77 255 171 0.039251
0.594335 -1.040720 6.566630 80 255 167 0.040217
0.581842 -1.031440 6.589730 58 255 190 0.031744
0.613156 -1.046910 6.583870 90 255 158 0.044948
0.591425 -1.034020 6.598350 64 255 184 0.033688
0.601645 -1.038760 6.607910 77 255 171 0.038770
0.585655 -1.039730 6.559160 84 255 164 0.041547
0.573337 -1.030650 6.582490 64 255 184 0.033821
0.564774 -1.030080 6.575350 71 255 177 0.036873
0.576404 -1.035980 6.552430 74 255 174 0.037641
0.597074 -1.045400 6.536730 87 255 161 0.043230
0.587898 -1.041740 6.529800 77 255 171 0.038701
0.608366 -1.050730 6.514050 90 255 158 0.044551
0.617717 -1.053900 6.520930 96 255 151 0.047971
0.628608 -1.058940 6.497630 103 255 145 0.051607
0.598946 -1.047310 6.506920 84 255 164 0.041901
0.619301 -1.055930 6.490720 100 255 148 0.049615
0.609928 -1.053140 6.483850 96 255 151 0.048030
0.638058 -1.062590 6.504780 113 255 135 0.056947
0.592379 -1.031740 6.627660 64 255 184 0.033619
0.581294 -1.026750 6.620110 51 255 196 0.029713
0.571602 -1.019110 6.639930 38 255 209 0.025593
0.582507 -1.024300 6.647500 51 255 196 0.029593
0.560207 -1.015380 6.632750 38 255 209 0.024981
0.561021 -1.011210 6.659980 32 255 216 0.023088
0.549517 -1.007650 6.653250 29 255 219 0.022564
0.572440 -1.016560 6.667360 42 255 206 0.026554
0.538910 -1.005800 6.647720 35 255 213 0.024448
0.530078 -1.005450 6.641150 45 255 203 0.026611
0.550192 -1.014470 6.625170 45 255 203 0.027023
0.541984 -1.014030 6.618540 51 255 196 0.029246
0.562107 -1.022680 6.603640 51 255 196 0.029766
0.571103 -1.023590 6.610900 48 255 200 0.027847
0.553341 -1.022130 6.596440 61 255 187 0.032649
0.504888 -0.983915 6.621500 0 181 255 0.008729
0.517143 -0.992054 6.598470 0 181 255 0.008670
0.525621 -0.999748 6.606030 0 213 255 0.012706
0.529317 -0.999862 6.576100 0 177 255 0.008364
0.537818 -1.007710 6.583660 0 217 255 0.013727
0.549792 -1.015180 6.561910 3 233 245 0.015963
0.541112 -1.007490 6.554190 0 185 255 0.009310
0.545393 -1.015110 6.590260 25 255 222 0.021704
0.557559 -1.022580 6.568810 32 255 216 0.023572
0.533735 -1.006890 6.612230 19 253 229 0.019634
0.521924 -0.998335 6.634830 13 245 235 0.017976
0.513849 -0.991097 6.628550 0 201 255 0.011431
0.552087 -1.014170 6.531120 0 193 255 0.010369
0.563249 -1.019880 6.508450 0 201 255 0.011240
0.572381 -1.027330 6.515860 9 241 238 0.017464
0.574859 -1.025880 6.485660 0 217 255 0.013571
0.583690 -1.032790 6.492980 19 253 229 0.019514
0.595411 -1.038630 6.470480 32 255 216 0.022884
0.586148 -1.032060 6.462780 6 237 242 0.016947
0.591518 -1.040530 6.500070 55 255 193 0.030060
0.603031 -1.045900 6.477410 64 255 184 0.033482
0.580306 -1.034340 6.522990 42 255 206 0.026453
0.569041 -1.028750 6.545880 38 255 209 0.025106
0.561410 -1.021270 6.538890 3 233 245 0.016051
1.123720 -0.381997 6.060840 109 255 138 0.054232
1.111960 -0.412739 6.052190 100 255 148 0.049253
1.148760 -0.387964 6.067680 129 255 119 0.066572
1.135130 -0.418447 6.056910 119 255 129 0.060183
1.100290 -0.443030 6.040020 106 255 142 0.052961
1.092020 -0.472156 6.026350 135 255 113 0.070800
1.068110 -0.468947 6.021580 109 255 138 0.054583
1.076980 -0.438612 6.036010 77 255 171 0.039229
1.087430 -0.407982 6.047470 74 255 174 0.037281
1.044610 -0.465873 6.016930 87 255 161 0.043631
1.171790 -0.394673 6.075170 145 255 103 0.077373
1.158190 -0.424228 6.062760 132 255 116 0.067349
1.194790 -0.401656 6.081640 158 255 90 0.085271
1.180210 -0.430109 6.066870 155 255 93 0.082845
1.146440 -0.452696 6.048980 145 255 103 0.075985
1.137080 -0.481797 6.035170 171 255 77 0.095566
1.114240 -0.476632 6.030460 151 255 96 0.082057
1.123580 -0.447880 6.044630 122 255 126 0.062824
1.058580 -0.605657 6.002210 229 255 19 0.155843
1.065910 -0.572655 6.006740 206 255 42 0.128115
1.037070 -0.603429 5.994140 219 255 29 0.144560
1.073990 -0.538640 6.012510 180 255 67 0.105827
1.044190 -0.569449 6.000070 193 255 55 0.117332
1.051880 -0.536025 6.006210 164 255 84 0.091762
1.016650 -0.600610 5.986480 209 255 38 0.133254
1.083110 -0.505225 6.019510 155 255 93 0.082613
1.105060 -0.509320 6.024030 171 255 77 0.096560
1.096480 -0.543154 6.018520 196 255 51 0.120357
1.023210 -0.567381 5.992880 180 255 67 0.104309
0.995453 -0.598598 5.978400 187 255 61 0.110559
1.029900 -0.533923 6.000210 151 255 96 0.080199
1.001960 -0.564942 5.985880 167 255 80 0.094402
1.007650 -0.531017 5.994440 132 255 116 0.067102
0.974164 -0.597274 5.969950 177 255 71 0.102039
1.037160 -0.499828 6.008880 116 255 132 0.057737
1.059720 -0.502637 6.014070 135 255 113 0.070101
1.050140 -0.637505 6.007930 225 255 22 0.151958
1.080680 -0.608405 6.010650 232 255 16 0.158236
1.042090 -0.668835 6.014430 222 255 25 0.148809
1.072110 -0.639966 6.016970 229 255 19 0.155908
1.063390 -0.671369 6.023640 229 255 19 0.153611
1.102700 -0.611300 6.018360 238 255 9 0.167843
1.034380 -0.700037 6.021340 225 255 22 0.149417
1.026790 -0.730620 6.029360 216 255 32 0.140379
1.005790 -0.729935 6.019940 209 255 38 0.132990
1.013400 -0.699907 6.011480 219 255 29 0.142911
1.020250 -0.669165 6.004260 216 255 32 0.139646
0.985031 -0.729847 6.009780 187 255 61 0.110114
1.094340 -0.641140 6.025070 238 255 9 0.165150
1.125100 -0.613741 6.025830 242 253 6 0.172149
1.086550 -0.670726 6.032260 235 255 13 0.161095
1.116750 -0.643721 6.032780 235 255 13 0.163970
1.078580 -0.700533 6.039680 229 255 19 0.154273
1.048150 -0.730162 6.038570 216 255 32 0.138480
1.055550 -0.700965 6.030700 222 255 25 0.145720
1.007640 -0.803784 6.079650 135 255 113 0.069650
0.977907 -0.828069 6.090890 74 255 174 0.037511
1.014260 -0.779430 6.062620 161 255 87 0.088166
0.984681 -0.804617 6.073130 125 255 122 0.063667
0.991383 -0.781159 6.055070 148 255 100 0.079418
0.955861 -0.828029 6.085370 45 255 203 0.026812
1.020650 -0.755071 6.045840 187 255 61 0.112025
1.041830 -0.755288 6.054260 190 255 58 0.113853
0.963317 -0.803599 6.066460 71 255 177 0.036996
0.934533 -0.827483 6.079550 35 255 213 0.024317
0.970975 -0.779622 6.046620 109 255 138 0.054866
0.941556 -0.803880 6.059710 64 255 184 0.033478
0.948554 -0.780470 6.039210 100 255 148 0.049089
0.912982 -0.827925 6.072960 32 255 216 0.023576
0.978595 -0.755090 6.027780 151 255 96 0.080988
0.998900 -0.755962 6.037110 177 255 71 0.101059
0.956291 -0.630573 5.968120 177 255 71 0.100700
0.929287 -0.661943 5.963780 171 255 77 0.095735
0.913465 -0.693194 5.965280 167 255 80 0.094373
0.887535 -0.723355 5.964580 161 255 87 0.087874
0.908478 -0.723922 5.973960 161 255 87 0.089526
0.892135 -0.692703 5.956690 161 255 87 0.089145
0.866585 -0.725456 5.954930 161 255 87 0.088929
0.908067 -0.661314 5.955060 164 255 84 0.090632
0.924049 -0.628773 5.955280 164 255 84 0.091982
0.952046 -0.595847 5.961850 164 255 84 0.090141
0.929368 -0.594986 5.953580 151 255 96 0.081561
0.891450 -0.751413 5.988830 119 255 129 0.060386
0.864536 -0.779628 5.998980 80 255 167 0.040996
0.849801 -0.809822 6.014300 51 255 196 0.028917
0.829383 -0.844503 6.024620 55 255 193 0.030249
0.844980 -0.839149 6.036390 25 255 222 0.021534
0.832952 -0.815218 6.002590 74 255 174 0.037958
0.811199 -0.852911 6.010590 113 255 135 0.056272
0.846771 -0.784016 5.987430 100 255 148 0.049180
0.860993 -0.753114 5.973290 122 255 126 0.061154
0.791776 -0.825634 5.971280 174 255 74 0.099176
0.805363 -0.791869 5.959810 161 255 87 0.087882
0.830353 -0.758677 5.954390 161 255 87 0.087697
0.845019 -0.729534 5.942430 180 255 67 0.105224
0.827120 -0.788428 5.973620 135 255 113 0.069008
0.813721 -0.821850 5.987380 125 255 122 0.064207
0.790090 -0.858272 5.993570 174 255 74 0.099873
0.847611 -0.698501 5.934160 177 255 71 0.101493
0.863031 -0.664873 5.933460 171 255 77 0.096729
0.889533 -0.628245 5.941290 161 255 87 0.089606
0.905222 -0.594638 5.944010 148 255 100 0.080001
0.885614 -0.660893 5.945800 164 255 84 0.089961
0.870369 -0.694763 5.946660 164 255 84 0.091085
0.977171 -0.631950 5.976810 190 255 58 0.113875
0.959979 -0.664098 5.976770 190 255 58 0.112575
0.980660 -0.666192 5.985590 196 255 51 0.121257
0.998120 -0.634153 5.985410 209 255 38 0.131746
0.953109 -0.695839 5.982940 184 255 64 0.106870
0.946003 -0.726848 5.991570 174 255 74 0.100347
0.927171 -0.724820 5.982990 164 255 84 0.090371
0.933514 -0.694024 5.974560 174 255 74 0.098244
1.017860 -0.635345 5.994350 216 255 32 0.140584
0.999908 -0.667082 5.994920 209 255 38 0.133628
0.992287 -0.698873 6.001330 206 255 42 0.130560
0.965944 -0.728214 6.000640 184 255 64 0.107656
0.973424 -0.697684 5.992140 193 255 55 0.116290
0.922033 -0.802893 6.052340 58 255 190 0.031213
0.894821 -0.828031 6.066290 35 255 213 0.023696
0.931168 -0.778211 6.031340 93 255 155 0.046567
0.902921 -0.803049 6.045410 55 255 193 0.029807
0.911338 -0.778512 6.023860 80 255 167 0.040641
0.876621 -0.830594 6.057700 29 255 219 0.022232
0.939224 -0.753072 6.010610 135 255 113 0.069922
0.956863 -0.754714 6.019070 142 255 106 0.073445
0.884796 -0.803731 6.036110 51 255 196 0.028768
0.860744 -0.833602 6.047650 22 255 225 0.020622
0.893649 -0.777552 6.014050 80 255 167 0.039950
0.867397 -0.806225 6.025900 48 255 200 0.027917
0.910785 -0.751519 5.997830 122 255 126 0.061937
1.030340 -0.364582 6.040360 0 225 251 0.014689
1.008430 -0.396617 6.031810 0 229 248 0.015453
1.035650 -0.399845 6.037290 42 255 206 0.026327
1.058890 -0.368714 6.046490 19 253 229 0.020021
1.001830 -0.428826 6.021540 0 225 251 0.014666
0.996432 -0.460130 6.007100 9 241 238 0.017193
0.968998 -0.459032 5.998860 0 217 255 0.013508
0.973637 -0.426788 6.014300 9 241 238 0.017294
1.086310 -0.373609 6.052490 84 255 164 0.041572
1.062430 -0.403798 6.042610 55 255 193 0.029961
1.052540 -0.435257 6.031330 61 255 187 0.032988
1.021130 -0.462569 6.012610 67 255 180 0.034784
1.027670 -0.432108 6.026740 45 255 203 0.026667
0.979727 -0.563318 5.978550 135 255 113 0.070714
0.985255 -0.529128 5.987990 93 255 155 0.046228
0.956771 -0.561931 5.970960 116 255 132 0.057522
0.961089 -0.528054 5.979750 67 255 180 0.035576
0.990331 -0.494783 5.997910 45 255 203 0.027232
1.014250 -0.496854 6.004020 96 255 151 0.047581
0.932754 -0.561598 5.962580 106 255 142 0.052462
0.935855 -0.527483 5.971720 58 255 190 0.031027
0.907069 -0.561328 5.952750 100 255 148 0.049262
0.938751 -0.492610 5.981270 13 245 235 0.018469
0.964811 -0.493753 5.989590 32 255 216 0.023024
1.192170 -0.463930 6.058990 171 255 77 0.097511
1.183130 -0.492418 6.045550 190 255 58 0.114570
1.160120 -0.486881 6.040490 180 255 67 0.106103
1.169220 -0.458320 6.053800 158 255 90 0.086301
1.155770 -0.585570 6.034780 235 255 13 0.161618
1.165140 -0.554706 6.038040 219 255 29 0.141980
1.132750 -0.582668 6.028140 222 255 25 0.148109
1.141900 -0.551599 6.031670 209 255 38 0.133721
1.173670 -0.523085 6.041050 203 255 45 0.127528
1.111070 -0.579095 6.021710 225 255 22 0.149266
1.119970 -0.546371 6.025940 203 255 45 0.125908
1.088630 -0.575837 6.014480 213 255 35 0.136371
1.128500 -0.513536 6.030290 184 255 64 0.107244
1.151290 -0.518778 6.035860 196 255 51 0.119856
0.752676 -1.030190 6.243930 129 255 119 0.065036
0.738987 -1.038960 6.273970 109 255 138 0.055093
0.731605 -1.039060 6.272060 119 255 129 0.059857
0.717375 -1.045730 6.303090 96 255 151 0.048147
0.724816 -1.046010 6.304660 90 255 158 0.045495
0.709878 -1.045470 6.302090 100 255 148 0.049090
0.702791 -1.051660 6.334990 84 255 164 0.041264
0.695288 -1.051290 6.334290 87 255 161 0.043864
0.680451 -1.057140 6.366970 87 255 161 0.043886
0.710838 -1.052460 6.336340 80 255 167 0.040266
0.688518 -1.058240 6.367550 87 255 161 0.042833
0.696573 -1.059450 6.368340 84 255 164 0.042452
0.687251 -1.050490 6.333770 90 255 158 0.044602
0.672226 -1.055600 6.366790 87 255 161 0.042834
0.663716 -1.053840 6.366390 87 255 161 0.042959
0.678878 -1.048670 6.334400 87 255 161 0.043054
0.702444 -1.045040 6.302680 103 255 145 0.051084
0.694042 -1.043440 6.303260 100 255 148 0.049429
0.717160 -1.039250 6.272380 122 255 126 0.061092
0.724545 -1.039120 6.272110 119 255 129 0.060168
0.738217 -1.031550 6.242470 135 255 113 0.070566
0.708819 -1.038240 6.272510 122 255 126 0.061098
0.730985 -1.032620 6.242140 145 255 103 0.075735
0.722045 -1.032490 6.241870 145 255 103 0.076587
0.745248 -1.030570 6.243010 129 255 119 0.066047
0.685266 -1.058050 6.404790 48 255 200 0.027937
0.675889 -1.058020 6.397310 64 255 184 0.033309
0.662917 -1.057320 6.432890 51 255 196 0.028986
0.673317 -1.059200 6.441040 48 255 200 0.028331
0.653322 -1.056460 6.426030 61 255 187 0.032805
0.650611 -1.058750 6.469020 71 255 177 0.036599
0.640762 -1.056780 6.461730 74 255 174 0.037476
0.660952 -1.063220 6.477280 87 255 161 0.042961
0.631669 -1.055430 6.455430 77 255 171 0.039554
0.623467 -1.051990 6.455220 71 255 177 0.035944
0.645053 -1.054390 6.426110 61 255 187 0.032403
0.636235 -1.051480 6.426000 55 255 193 0.030829
0.658513 -1.054310 6.396500 61 255 187 0.033164
0.667037 -1.056090 6.396820 61 255 187 0.032850
0.649856 -1.052000 6.396410 61 255 187 0.032814
0.598505 -1.032140 6.433370 0 221 255 0.013801
0.611269 -1.032870 6.406450 0 213 255 0.013031
0.621190 -1.038880 6.412580 6 237 242 0.017025
0.624425 -1.034250 6.379070 3 233 245 0.015904
0.634490 -1.040380 6.385110 22 255 225 0.020277
0.647721 -1.042830 6.357080 55 255 193 0.030346
0.637394 -1.036920 6.351360 38 255 209 0.024930
0.642716 -1.046270 6.390030 42 255 206 0.025935
0.656290 -1.048440 6.361980 71 255 177 0.036607
0.629353 -1.045260 6.419750 32 255 216 0.022816
0.616291 -1.045140 6.448790 38 255 209 0.025496
0.608198 -1.038380 6.441490 13 245 235 0.018004
0.651220 -1.033030 6.319390 51 255 196 0.029143
0.664680 -1.030210 6.289130 74 255 174 0.038313
0.676188 -1.034420 6.293120 84 255 164 0.042463
0.677275 -1.028010 6.258510 119 255 129 0.059083
0.689577 -1.030960 6.263270 113 255 135 0.056739
0.701954 -1.028290 6.232790 151 255 96 0.081338
0.689440 -1.026510 6.226490 158 255 90 0.087266
0.700015 -1.034760 6.267090 116 255 132 0.058554
0.712932 -1.030290 6.237490 148 255 100 0.077747
0.686148 -1.039280 6.298500 93 255 155 0.045590
0.671453 -1.043920 6.330040 74 255 174 0.037257
0.662196 -1.038370 6.324890 61 255 187 0.032685
0.700450 -1.014410 6.191510 171 255 77 0.096776
0.710696 -0.998999 6.158140 174 255 74 0.100193
0.722684 -0.996930 6.166860 148 255 100 0.079319
0.719457 -0.983305 6.124740 190 255 58 0.112687
0.731759 -0.980029 6.134700 151 255 96 0.082250
0.740627 -0.964597 6.101810 171 255 77 0.097542
0.728447 -0.968229 6.090960 216 255 32 0.139302
0.743561 -0.977379 6.143500 129 255 119 0.065052
0.752390 -0.960891 6.111730 138 255 109 0.071235
0.762973 -0.957304 6.120450 106 255 142 0.053130
0.754009 -0.976296 6.152320 103 255 145 0.051586
0.735256 -0.997185 6.175100 132 255 116 0.067744
0.745107 -0.996394 6.182720 116 255 132 0.057971
0.724929 -1.014730 6.206890 142 255 106 0.073324
0.713838 -1.014650 6.199630 155 255 93 0.083728
0.734217 -1.015510 6.212410 129 255 119 0.065663
0.762847 -0.912959 6.044570 155 255 93 0.083247
0.776150 -0.885594 6.018160 158 255 90 0.087097
0.797510 -0.880264 6.037060 80 255 167 0.040739
0.774117 -0.910051 6.054470 116 255 132 0.057763
0.784634 -0.906115 6.064810 71 255 177 0.036701
0.761948 -0.936171 6.083080 125 255 122 0.063254
0.750786 -0.940424 6.072170 167 255 80 0.094200
0.771988 -0.932535 6.092630 90 255 158 0.044504
0.830980 -0.865494 6.062310 9 241 238 0.017384
0.809678 -0.894486 6.083090 13 245 235 0.017847
0.798119 -0.920973 6.109110 29 255 219 0.021909
0.781644 -0.950817 6.130210 64 255 184 0.033763
0.795793 -0.946466 6.136810 42 255 206 0.026481
0.815406 -0.871268 6.050960 25 255 222 0.021689
0.786432 -0.967259 6.164880 58 255 190 0.031419
0.778860 -0.968985 6.162400 64 255 184 0.033517
0.768820 -0.990350 6.189390 77 255 171 0.039105
0.775992 -0.988895 6.191490 71 255 177 0.036874
0.761644 -0.992101 6.187850 87 255 161 0.043856
0.757591 -1.010930 6.216490 100 255 148 0.049875
0.750428 -1.012550 6.215160 109 255 138 0.054260
0.764677 -1.009720 6.217970 93 255 155 0.047018
0.789337 -0.982203 6.193470 51 255 196 0.029448
0.800510 -0.960248 6.167790 42 255 206 0.026075
0.810874 -0.939065 6.140600 32 255 216 0.023078
0.827423 -0.932675 6.145080 25 255 222 0.021825
0.818301 -0.953547 6.169900 32 255 216 0.022955
0.808473 -0.975328 6.193540 42 255 206 0.025946
0.788602 -0.999807 6.217690 64 255 184 0.034364
0.769156 -1.023820 6.241890 100 255 148 0.049972
0.787640 -1.017860 6.240790 87 255 161 0.042631
0.812110 -0.915522 6.116760 25 255 222 0.021340
0.823204 -0.888536 6.092220 16 249 232 0.019324
0.844886 -0.859302 6.072130 22 255 225 0.020811
0.861995 -0.853935 6.081140 42 255 206 0.026063
0.838934 -0.881959 6.099760 42 255 206 0.025702
0.828103 -0.908615 6.121880 35 255 213 0.023926
0.898674 -0.848288 6.094900 38 255 209 0.024922
0.876320 -0.871897 6.113840 55 255 193 0.030156
0.865077 -0.896062 6.132650 45 255 203 0.026975
0.845871 -0.924832 6.148750 25 255 222 0.021438
0.864995 -0.919343 6.151500 19 253 229 0.019704
0.845962 -0.902416 6.128640 45 255 203 0.027222
0.857158 -0.876298 6.107560 55 255 193 0.030582
0.879553 -0.850342 6.089590 48 255 200 0.028554
0.856767 -0.939681 6.172730 22 255 225 0.020406
0.837829 -0.964391 6.194530 29 255 219 0.022102
0.829733 -0.986201 6.215310 45 255 203 0.026914
0.809669 -1.010920 6.238000 74 255 174 0.037760
0.832407 -1.005420 6.234680 77 255 171 0.039205
0.807630 -0.993505 6.218010 48 255 200 0.028253
0.836711 -0.946601 6.172280 29 255 219 0.021994
0.851358 -0.980735 6.215490 38 255 209 0.025128
0.859017 -0.958378 6.194920 22 255 225 0.020342
0.876268 -0.934518 6.175970 16 249 232 0.019220
0.884789 -0.914140 6.155460 16 249 232 0.018724
0.905523 -0.911525 6.158050 6 237 242 0.016696
0.897062 -0.930698 6.177550 9 241 238 0.017670
0.879332 -0.953408 6.196630 19 253 229 0.020041
0.871684 -0.974658 6.215590 35 255 213 0.024522
0.853389 -0.999667 6.234440 74 255 174 0.037236
0.874430 -0.994670 6.234330 77 255 171 0.038994
0.885113 -0.892572 6.137680 35 255 213 0.023875
0.896798 -0.869266 6.119120 42 255 206 0.026109
0.920235 -0.847727 6.101450 25 255 222 0.021618
0.942002 -0.847342 6.105930 19 253 229 0.019480
0.917674 -0.868102 6.123430 22 255 225 0.020599
0.906005 -0.889486 6.141100 19 253 229 0.019477
0.987340 -0.847572 6.115110 87 255 161 0.042820
0.961375 -0.867672 6.130800 19 253 229 0.019640
0.949057 -0.887777 6.147340 9 241 238 0.017415
0.927141 -0.909287 6.161710 6 237 242 0.016542
0.948528 -0.908919 6.163570 19 253 229 0.019840
0.927348 -0.888643 6.144930 3 233 245 0.016245
0.939612 -0.867545 6.127530 9 241 238 0.017564
0.964009 -0.847957 6.110770 35 255 213 0.023869
0.938497 -0.926647 6.181600 19 253 229 0.019935
0.919503 -0.947131 6.199590 25 255 222 0.021810
0.910900 -0.967584 6.217190 48 255 200 0.027841
0.893261 -0.990093 6.235310 74 255 174 0.037535
0.912122 -0.986811 6.235810 80 255 167 0.040353
0.891606 -0.971216 6.216390 42 255 206 0.026147
0.899323 -0.949459 6.198180 19 253 229 0.020031
0.917734 -0.928332 6.180570 9 241 238 0.017347
0.930111 -0.965458 6.218700 61 255 187 0.032275
0.939104 -0.945296 6.200810 38 255 209 0.025503
0.958883 -0.926088 6.183820 35 255 213 0.024581
0.968539 -0.908121 6.165730 35 255 213 0.024162
0.988947 -0.907294 6.168000 58 255 190 0.031697
0.978753 -0.924161 6.185990 51 255 196 0.028855
0.959316 -0.943558 6.202810 51 255 196 0.029410
0.948864 -0.962370 6.220330 64 255 184 0.033687
0.929535 -0.983596 6.237150 80 255 167 0.040399
0.947838 -0.980919 6.238360 87 255 161 0.043498
0.970398 -0.888303 6.149930 25 255 222 0.021470
0.983559 -0.867481 6.134170 35 255 213 0.023956
1.008510 -0.847580 6.119370 106 255 142 0.052737
1.030100 -0.846546 6.123130 122 255 126 0.061051
1.005100 -0.866975 6.137610 93 255 155 0.046149
0.991625 -0.886807 6.152870 51 255 196 0.028759
1.073710 -0.844700 6.130950 142 255 106 0.074838
1.047380 -0.866017 6.143460 125 255 122 0.063676
1.033460 -0.885973 6.157650 119 255 129 0.059125
1.009410 -0.906756 6.170020 71 255 177 0.037013
1.030220 -0.906060 6.172110 119 255 129 0.060944
1.012440 -0.887048 6.155380 100 255 148 0.049140
1.026220 -0.866836 6.140440 109 255 138 0.054068
1.051190 -0.846347 6.126920 135 255 113 0.069494
1.018780 -0.922963 6.189040 87 255 161 0.042999
0.997306 -0.941452 6.205200 77 255 171 0.038819
0.985653 -0.959759 6.222080 87 255 161 0.042737
0.965401 -0.979309 6.239300 90 255 158 0.045316
0.984592 -0.977796 6.240220 100 255 148 0.049359
0.966976 -0.961236 6.221250 74 255 174 0.037648
0.978164 -0.942368 6.203940 64 255 184 0.034137
0.997992 -0.923846 6.187430 64 255 184 0.034337
1.006150 -0.959712 6.223020 96 255 151 0.048411
1.017890 -0.940951 6.206370 90 255 158 0.044541
1.040330 -0.923622 6.190350 132 255 116 0.066928
1.052240 -0.906303 6.173750 135 255 113 0.071076
1.038600 -0.941224 6.207030 106 255 142 0.052510
1.026350 -0.959597 6.223260 116 255 132 0.057247
1.004280 -0.977980 6.240290 116 255 132 0.057252
1.055320 -0.886023 6.160020 125 255 122 0.063976
1.069820 -0.865095 6.146510 135 255 113 0.069337
1.096710 -0.844263 6.134350 161 255 87 0.087435
1.116420 -0.800743 6.107730 187 255 61 0.111315
0.648692 -0.843156 5.932100 255 230 0 0.198366
0.634147 -0.863681 5.951850 251 241 0 0.181552
0.621348 -0.851577 5.948580 219 255 29 0.143928
0.619160 -0.884121 5.972390 245 249 3 0.176098
0.605687 -0.872391 5.968760 216 255 32 0.141391
0.589307 -0.892152 5.990840 216 255 32 0.140331
0.603820 -0.904121 5.995040 242 253 6 0.172945
0.592066 -0.860267 5.965570 190 255 58 0.113361
0.575529 -0.880432 5.986230 190 255 58 0.112879
0.561380 -0.869436 5.981350 177 255 71 0.101181
0.593010 -0.833037 5.942810 187 255 61 0.109470
0.622589 -0.825113 5.926480 219 255 29 0.144001
0.649074 -0.816384 5.910990 255 234 0 0.193219
0.622351 -0.799909 5.905900 225 255 22 0.150245
0.587392 -0.914825 6.022700 203 255 45 0.126240
0.572564 -0.925710 6.052090 174 255 74 0.098533
0.557597 -0.912425 6.046220 145 255 103 0.077428
0.557944 -0.933550 6.084510 125 255 122 0.064346
0.542537 -0.920556 6.078380 113 255 135 0.056838
0.527581 -0.908563 6.071970 119 255 129 0.059787
0.513514 -0.895220 6.068840 129 255 119 0.065552
0.543120 -0.900674 6.041620 138 255 109 0.071373
0.529225 -0.888853 6.037450 135 255 113 0.070532
0.558590 -0.891346 6.012990 161 255 87 0.088528
0.572979 -0.903037 6.017710 180 255 67 0.105232
0.545399 -0.879742 6.008100 148 255 100 0.079016
0.461189 -0.854835 6.056010 219 255 29 0.144168
0.488849 -0.857437 6.027290 180 255 67 0.106013
0.503361 -0.851458 5.997200 164 255 84 0.091481
0.532997 -0.851303 5.973460 167 255 80 0.092647
0.504668 -0.834300 5.966120 171 255 77 0.096751
0.530578 -0.869880 6.003820 151 255 96 0.081426
0.514455 -0.878479 6.033420 145 255 103 0.077667
0.499585 -0.885194 6.065310 145 255 103 0.077249
0.486020 -0.874707 6.061620 171 255 77 0.097525
0.519189 -0.818588 5.946060 161 255 87 0.089562
0.548166 -0.809432 5.931630 164 255 84 0.091443
0.562942 -0.794493 5.914370 174 255 74 0.097894
0.592236 -0.785648 5.901720 190 255 58 0.113101
0.561921 -0.773083 5.895820 174 255 74 0.098767
0.593487 -0.808866 5.919210 196 255 51 0.118707
0.563263 -0.842171 5.956870 167 255 80 0.093733
0.743818 -0.631045 5.882530 148 255 100 0.079162
0.730673 -0.661352 5.884520 151 255 96 0.080616
0.705068 -0.688451 5.884050 155 255 93 0.083026
0.694303 -0.716632 5.883600 190 255 58 0.115010
0.667317 -0.710487 5.878850 171 255 77 0.095374
0.676322 -0.684647 5.879900 132 255 116 0.068812
0.701724 -0.658508 5.879880 122 255 126 0.062385
0.712741 -0.630199 5.878060 116 255 132 0.058457
0.697399 -0.744171 5.891590 216 255 32 0.140738
0.685717 -0.771010 5.897930 232 255 16 0.159590
0.661322 -0.790924 5.902030 242 253 6 0.169494
0.634446 -0.777676 5.897870 206 255 42 0.128851
0.659836 -0.760317 5.891520 213 255 35 0.137292
0.670638 -0.737503 5.886330 196 255 51 0.120389
0.574253 -0.753028 5.890370 161 255 87 0.087672
0.602878 -0.738950 5.885000 155 255 93 0.084590
0.613613 -0.720242 5.879730 145 255 103 0.076119
0.638350 -0.704504 5.876150 148 255 100 0.078371
0.608362 -0.697425 5.872270 129 255 119 0.065674
0.643550 -0.728684 5.882120 171 255 77 0.096412
0.632698 -0.749906 5.887680 184 255 64 0.108324
0.605952 -0.763936 5.894400 177 255 71 0.102906
0.616387 -0.674960 5.872230 93 255 155 0.045650
0.640971 -0.652868 5.871110 77 255 171 0.038461
0.648887 -0.627452 5.867660 64 255 184 0.033626
0.681613 -0.627942 5.872520 93 255 155 0.046506
0.671938 -0.655850 5.875050 103 255 145 0.050468
0.647860 -0.680183 5.874300 119 255 129 0.060381
0.532384 -0.782990 5.908420 167 255 80 0.093278
0.518849 -0.798625 5.923070 171 255 77 0.095904
0.490536 -0.807756 5.940320 171 255 77 0.096521
0.477470 -0.822038 5.962220 180 255 67 0.105219
0.451219 -0.812326 5.959480 196 255 51 0.119579
0.462690 -0.798494 5.937720 177 255 71 0.103016
0.489151 -0.788296 5.919110 164 255 84 0.091335
0.501816 -0.774613 5.902210 161 255 87 0.087349
0.530972 -0.764225 5.890660 171 255 77 0.097248
0.499443 -0.756305 5.886830 161 255 87 0.089736
0.477124 -0.835674 5.992350 187 255 61 0.110830
0.463607 -0.841868 6.023160 213 255 35 0.136440
0.437447 -0.844285 6.049900 248 245 0 0.180581
0.423880 -0.857609 6.075860 242 253 6 0.172666
0.400555 -0.858085 6.064560 242 253 6 0.172517
0.414395 -0.841360 6.041790 255 238 0 0.190214
0.438904 -0.831299 6.018580 235 255 13 0.164549
0.451629 -0.823718 5.989670 209 255 38 0.134488
0.357353 -0.880231 6.038150 200 255 48 0.122958
0.370020 -0.860343 6.018840 216 255 32 0.139192
0.392518 -0.836691 6.002630 229 255 19 0.155789
0.403900 -0.821969 5.979060 222 255 25 0.147682
0.427155 -0.809547 5.956130 203 255 45 0.125063
0.403829 -0.811678 5.951350 203 255 45 0.126638
0.427324 -0.819294 5.985130 222 255 25 0.148769
0.414952 -0.830274 6.011780 245 249 3 0.173606
0.391775 -0.848235 6.031060 242 253 6 0.170071
0.378533 -0.866729 6.052280 225 255 22 0.149567
0.412710 -0.793889 5.932290 190 255 58 0.114146
0.434668 -0.778679 5.914510 174 255 74 0.098120
0.445547 -0.764621 5.895610 161 255 87 0.087549
0.470976 -0.752125 5.881320 161 255 87 0.088943
0.442146 -0.748895 5.876050 155 255 93 0.084653
0.473408 -0.768011 5.898590 164 255 84 0.090102
0.461381 -0.781972 5.916140 171 255 77 0.096471
0.437351 -0.794837 5.935130 184 255 64 0.107757
-0.422731 -1.051170 5.664930 0 149 255 0.005842
-0.431384 -1.046100 5.688200 0 133 255 0.004693
-0.457102 -1.042630 5.679730 0 137 255 0.004912
-0.465843 -1.040840 5.704250 0 133 255 0.004815
-0.440561 -1.043210 5.712700 0 133 255 0.004672
-0.492054 -1.039030 5.695430 0 137 255 0.004926
-0.474199 -1.040700 5.728940 0 161 255 0.006682
-0.499866 -1.039450 5.720450 0 161 255 0.006708
-0.507796 -1.041420 5.744820 0 229 248 0.015464
-0.449180 -1.042240 5.737400 0 161 255 0.006914
-0.482535 -1.042040 5.753590 0 221 255 0.014155
-0.457482 -1.042880 5.761740 0 217 255 0.013573
-0.525311 -1.038960 5.711460 0 161 255 0.006945
-0.532896 -1.041210 5.736050 6 237 242 0.016916
-0.557425 -1.040920 5.726970 16 249 232 0.019151
-0.551342 -1.039380 5.703100 0 181 255 0.008757
-0.518853 -1.038550 5.687610 0 129 255 0.004465
-0.545260 -1.039080 5.679550 0 137 255 0.004891
-0.512313 -1.039610 5.663980 0 129 255 0.004397
-0.484526 -1.040670 5.672180 0 137 255 0.004951
-0.477585 -1.043760 5.649210 0 137 255 0.004914
-0.538641 -1.039200 5.655840 0 125 255 0.004242
-0.505557 -1.041640 5.641060 0 137 255 0.004901
-0.532091 -1.040650 5.633430 0 133 255 0.004727
-0.449990 -1.047000 5.657220 0 133 255 0.004755
-0.467604 -1.042880 5.788590 48 255 200 0.028038
-0.490748 -1.041810 5.779240 48 255 200 0.028114
-0.500661 -1.042240 5.805920 103 255 145 0.051302
-0.477484 -1.042890 5.815040 100 255 148 0.049900
-0.523540 -1.041730 5.796430 106 255 142 0.052531
-0.510175 -1.040960 5.832210 145 255 103 0.077156
-0.532756 -1.040470 5.823160 151 255 96 0.081117
-0.541244 -1.036610 5.849150 177 255 71 0.102665
-0.486957 -1.041130 5.841370 142 255 106 0.073783
-0.518809 -1.036460 5.857990 171 255 77 0.096574
-0.495667 -1.036910 5.867040 167 255 80 0.094058
-0.555266 -1.040640 5.813580 158 255 90 0.085610
-0.563848 -1.037460 5.839960 190 255 58 0.112639
-0.585476 -1.038710 5.830680 200 255 48 0.122556
-0.578884 -1.042190 5.805240 174 255 74 0.097998
-0.547738 -1.042260 5.788220 116 255 132 0.058009
-0.571553 -1.042900 5.779570 129 255 119 0.066757
-0.540343 -1.041970 5.762320 64 255 184 0.034025
-0.515699 -1.041860 5.770820 55 255 193 0.030114
-0.564453 -1.042190 5.753120 77 255 171 0.038769
-0.682817 -1.031120 5.780260 200 255 48 0.123731
-0.677172 -1.032540 5.753920 171 255 77 0.095863
-0.651862 -1.035630 5.767710 167 255 80 0.092774
-0.646260 -1.034780 5.741240 122 255 126 0.061137
-0.671585 -1.031660 5.727610 129 255 119 0.065090
-0.620664 -1.037590 5.754620 122 255 126 0.062266
-0.640173 -1.032550 5.714830 67 255 180 0.035399
-0.614894 -1.035580 5.728250 64 255 184 0.034074
-0.608720 -1.033900 5.701770 9 241 238 0.017197
-0.665841 -1.029710 5.701180 80 255 167 0.040238
-0.634058 -1.030970 5.688420 16 249 232 0.019085
-0.659301 -1.028860 5.675260 38 255 209 0.025277
-0.589263 -1.039140 5.741120 67 255 180 0.035653
-0.583074 -1.037070 5.714500 6 237 242 0.016876
-0.596080 -1.040330 5.767370 125 255 122 0.063800
-0.603157 -1.039810 5.793290 167 255 80 0.094241
-0.627118 -1.037590 5.781070 164 255 84 0.091919
-0.633743 -1.035310 5.806830 196 255 51 0.121213
-0.609569 -1.036970 5.819030 200 255 48 0.121862
-0.657819 -1.033290 5.794370 200 255 48 0.122786
-0.652859 -1.027650 5.652520 6 237 242 0.016413
-0.628141 -1.029460 5.664860 0 197 255 0.010862
-0.621975 -1.028790 5.642070 0 173 255 0.008111
-0.646311 -1.027430 5.630610 0 205 255 0.011906
-0.597008 -1.031290 5.653890 0 153 255 0.006203
-0.615692 -1.028550 5.620150 0 165 255 0.007061
-0.590888 -1.031000 5.631640 0 153 255 0.006161
-0.584508 -1.031940 5.610600 0 161 255 0.006972
-0.640124 -1.027390 5.609370 0 193 255 0.010298
-0.609423 -1.029910 5.600000 0 169 255 0.007438
-0.633774 -1.028000 5.589460 0 189 255 0.009689
-0.565316 -1.034590 5.643490 0 141 255 0.005285
-0.558904 -1.035640 5.621670 0 153 255 0.006154
-0.571383 -1.034410 5.666490 0 141 255 0.005186
-0.577186 -1.035280 5.690290 0 173 255 0.008061
-0.602758 -1.032030 5.677720 0 177 255 0.008548
-0.366541 -1.030590 5.910420 116 255 132 0.057277
-0.382183 -1.022200 5.935990 125 255 122 0.063323
-0.408872 -1.009930 5.954840 109 255 138 0.054509
-0.423005 -0.994138 5.977840 71 255 177 0.036641
-0.448145 -0.976697 5.995530 32 255 216 0.022825
-0.425064 -0.977126 6.006410 29 255 219 0.022685
-0.446620 -0.994490 5.967370 74 255 174 0.037749
-0.470997 -0.976290 5.984420 29 255 219 0.022096
-0.434871 -1.010900 5.944960 116 255 132 0.058184
-0.422717 -1.024070 5.921160 135 255 113 0.071036
-0.395230 -1.032060 5.900940 122 255 126 0.062324
-0.423568 -1.034010 5.891200 138 255 109 0.071219
-0.437109 -0.955050 6.028350 6 237 242 0.016721
-0.459805 -0.933009 6.044460 61 255 187 0.032732
-0.471833 -0.913128 6.066030 132 255 116 0.068852
-0.492758 -0.912636 6.054220 132 255 116 0.068778
-0.481610 -0.932393 6.032970 77 255 171 0.039555
-0.470555 -0.953961 6.011610 32 255 216 0.023513
-0.559436 -0.909897 6.018360 155 255 93 0.082785
-0.535590 -0.930687 6.004900 90 255 158 0.044268
-0.526305 -0.953425 5.984170 38 255 209 0.025076
-0.501239 -0.975371 5.970230 51 255 196 0.028957
-0.531326 -0.975908 5.957400 55 255 193 0.029821
-0.496279 -0.954060 5.998590 35 255 213 0.023885
-0.506878 -0.931488 6.019780 80 255 167 0.040695
-0.517969 -0.911536 6.040820 138 255 109 0.073192
-0.523385 -0.995206 5.936200 87 255 161 0.042834
-0.505989 -0.994921 5.942510 77 255 171 0.039689
-0.497064 -1.012110 5.921210 129 255 119 0.065491
-0.514725 -1.012220 5.914730 135 255 113 0.069260
-0.479991 -1.011900 5.926980 122 255 126 0.062719
-0.487405 -1.025530 5.897890 155 255 93 0.084220
-0.470282 -1.025600 5.903880 151 255 96 0.080614
-0.459633 -1.034740 5.878860 148 255 100 0.078290
-0.505737 -1.027140 5.892380 167 255 80 0.093914
-0.477680 -1.035460 5.872890 158 255 90 0.085259
-0.452614 -1.025210 5.909930 145 255 103 0.075942
-0.441812 -1.034380 5.884980 142 255 106 0.073461
-0.475594 -0.995061 5.955950 80 255 167 0.039819
-0.716174 -0.915757 5.938050 93 255 155 0.046259
-0.694373 -0.914428 5.948210 109 255 138 0.055121
-0.688345 -0.935507 5.928110 51 255 196 0.028993
-0.710495 -0.937214 5.917650 42 255 206 0.026339
-0.666848 -0.934661 5.938320 61 255 187 0.032301
-0.682858 -0.957913 5.908410 42 255 206 0.026164
-0.661109 -0.957767 5.919460 38 255 209 0.024828
-0.655433 -0.979507 5.900260 90 255 158 0.044716
-0.705049 -0.958542 5.897060 51 255 196 0.029005
-0.677656 -0.979574 5.889080 96 255 151 0.048644
-0.700137 -0.980053 5.877350 113 255 135 0.056310
-0.639509 -0.957298 5.929880 35 255 213 0.024471
-0.633226 -0.978463 5.910670 77 255 171 0.039657
-0.611410 -0.978328 5.920800 71 255 177 0.036453
-0.618903 -0.956295 5.940940 35 255 213 0.024303
-0.646205 -0.933075 5.949150 71 255 177 0.036770
-0.626122 -0.932582 5.960300 77 255 171 0.039518
-0.653390 -0.911550 5.969760 138 255 109 0.072048
-0.673732 -0.913219 5.959310 122 255 126 0.062460
-0.633314 -0.911148 5.980330 145 255 103 0.076649
-0.697509 -0.998826 5.856350 164 255 84 0.090179
-0.673625 -0.998759 5.867900 151 255 96 0.080399
-0.669586 -1.014510 5.845430 193 255 55 0.116145
-0.693699 -1.013290 5.832980 200 255 48 0.122580
-0.645587 -1.015560 5.857260 187 255 61 0.110111
-0.664580 -1.026540 5.820940 213 255 35 0.135295
-0.640658 -1.028380 5.833230 209 255 38 0.134546
-0.689159 -1.024680 5.807210 213 255 35 0.137389
-0.616779 -1.028930 5.844650 203 255 45 0.127761
-0.593877 -1.029480 5.856090 200 255 48 0.123769
-0.623083 -1.015460 5.868790 180 255 67 0.104492
-0.600475 -1.015670 5.879760 174 255 74 0.099309
-0.628832 -0.998980 5.890680 145 255 103 0.076288
-0.650934 -0.998813 5.879470 138 255 109 0.072516
-0.606350 -0.998786 5.901240 135 255 113 0.069802
-0.527039 -1.026540 5.882710 167 255 80 0.095062
-0.536239 -1.012490 5.905650 138 255 109 0.072001
-0.557049 -1.012790 5.896330 145 255 103 0.075915
-0.544175 -0.995490 5.927200 106 255 142 0.053386
-0.564845 -0.996099 5.918240 109 255 138 0.055178
-0.572097 -0.975857 5.938320 55 255 193 0.030400
-0.551798 -0.975378 5.947630 51 255 196 0.029173
-0.585348 -0.997290 5.909470 125 255 122 0.062943
-0.591976 -0.976856 5.929490 58 255 190 0.031907
-0.578800 -1.013840 5.888000 158 255 90 0.085110
-0.572115 -1.028110 5.865190 190 255 58 0.112374
-0.549830 -1.027330 5.873980 177 255 71 0.103236
-0.560216 -0.953164 5.967300 38 255 209 0.025280
-0.569028 -0.929801 5.987590 96 255 151 0.047620
-0.588041 -0.930624 5.977950 93 255 155 0.046259
-0.578369 -0.909407 6.008210 155 255 93 0.084365
-0.596803 -0.909206 5.998170 158 255 90 0.085591
-0.614878 -0.910468 5.989200 151 255 96 0.080203
-0.607221 -0.931396 5.969170 87 255 161 0.043012
-0.599571 -0.954776 5.949530 35 255 213 0.024047
-0.580011 -0.953274 5.958080 38 255 209 0.025057
0.237120 -0.830240 5.284810 255 78 0 0.462758
0.237458 -0.850468 5.292090 255 86 0 0.445549
0.237786 -0.870732 5.299730 255 82 0 0.458919
0.238812 -0.889913 5.307250 255 82 0 0.457972
0.149985 -0.709637 5.273460 255 171 0 0.281793
0.155761 -0.730393 5.285790 255 186 0 0.260393
0.173451 -0.732840 5.276270 255 160 0 0.299498
0.178392 -0.755851 5.287650 255 156 0 0.305084
0.161533 -0.752821 5.297620 255 193 0 0.246606
0.195652 -0.759328 5.277010 255 134 0 0.348830
0.183646 -0.778862 5.298740 255 160 0 0.302905
0.199946 -0.780764 5.288280 255 119 0 0.374447
0.204767 -0.802131 5.300480 255 127 0 0.359737
0.166727 -0.775624 5.309300 255 186 0 0.256360
0.188357 -0.798938 5.311290 255 153 0 0.314798
0.171975 -0.796258 5.321830 255 182 0 0.265376
0.216449 -0.783374 5.277120 255 101 0 0.415142
0.221117 -0.806415 5.288090 255 93 0 0.432061
0.213438 -0.763167 5.265910 255 93 0 0.431618
0.210029 -0.742020 5.255400 255 93 0 0.431592
0.192001 -0.737148 5.265910 255 134 0 0.350048
0.188042 -0.716385 5.255200 255 119 0 0.374524
0.206847 -0.720084 5.245240 255 101 0 0.411645
0.169429 -0.712765 5.264480 255 149 0 0.317072
0.173141 -0.819585 5.329790 255 178 0 0.273079
0.188793 -0.822001 5.319180 255 145 0 0.327923
0.189763 -0.843915 5.327300 255 149 0 0.317121
0.173811 -0.842305 5.338500 255 167 0 0.289607
0.205051 -0.845305 5.316770 255 127 0 0.358829
0.190377 -0.865439 5.335070 255 138 0 0.343914
0.205871 -0.866732 5.323730 255 123 0 0.372875
0.206948 -0.888213 5.331110 255 108 0 0.398167
0.174597 -0.863806 5.345750 255 160 0 0.303060
0.191010 -0.886509 5.342400 255 119 0 0.375222
0.174607 -0.885877 5.353500 255 138 0 0.343468
0.221648 -0.868089 5.311830 255 104 0 0.404479
0.223151 -0.888697 5.319500 255 97 0 0.420893
0.221371 -0.847996 5.304420 255 104 0 0.409340
0.221329 -0.827838 5.296160 255 104 0 0.410612
0.204871 -0.824151 5.308500 255 130 0 0.355472
0.186574 -1.044690 5.188780 255 64 0 0.499308
0.168387 -1.045850 5.170690 255 60 0 0.508803
0.152334 -1.044720 5.151890 255 67 0 0.490538
0.124926 -1.046880 5.160440 255 86 0 0.452190
0.106934 -1.048820 5.178340 255 104 0 0.408604
0.141475 -1.047750 5.180210 255 82 0 0.461722
0.123775 -1.049930 5.198350 255 93 0 0.432085
0.090166 -1.050920 5.195390 255 119 0 0.376528
0.073426 -1.052980 5.212440 255 145 0 0.324562
0.052228 -1.051270 5.191700 255 182 0 0.267026
0.069058 -1.049140 5.175140 255 156 0 0.310039
0.086534 -1.047290 5.158300 255 116 0 0.383501
0.030707 -1.049660 5.170730 255 208 0 0.225689
0.160738 -1.046910 5.198970 255 75 0 0.475314
0.145432 -1.047000 5.217220 255 78 0 0.468102
0.179536 -1.043050 5.216470 255 67 0 0.489363
0.163979 -1.042830 5.235130 255 78 0 0.468199
0.130937 -1.046910 5.234470 255 90 0 0.437492
0.117024 -1.046200 5.252200 255 93 0 0.434118
0.095049 -1.049610 5.232690 255 112 0 0.393534
0.109245 -1.050040 5.215270 255 104 0 0.408566
0.019727 -1.054060 5.279150 255 204 0 0.229200
0.034164 -1.053790 5.262330 255 190 0 0.252456
-0.006680 -1.055820 5.257900 245 249 3 0.176321
0.047752 -1.053490 5.245470 255 171 0 0.281913
0.008125 -1.056130 5.240690 255 234 0 0.194119
0.021900 -1.055950 5.224160 255 219 0 0.210032
-0.032127 -1.057940 5.236020 216 255 32 0.139907
0.060688 -1.053090 5.228820 255 156 0 0.305948
0.082474 -1.049990 5.249080 255 127 0 0.363220
0.070233 -1.050300 5.265800 255 141 0 0.336262
-0.015723 -1.055870 5.219080 229 255 19 0.153011
-0.056950 -1.055150 5.214320 190 255 58 0.112978
-0.000009 -1.053800 5.202550 238 255 9 0.168434
-0.040169 -1.053580 5.197380 196 255 51 0.120261
-0.024482 -1.051610 5.181070 216 255 32 0.139899
-0.080500 -1.053790 5.192360 190 255 58 0.113761
0.015477 -1.051890 5.186310 255 238 0 0.189826
0.037258 -1.053460 5.207860 255 201 0 0.236587
0.199557 -1.036200 5.231790 255 67 0 0.493601
0.186430 -1.033660 5.249540 255 71 0 0.487296
0.205455 -1.022710 5.263070 255 71 0 0.481814
0.173386 -1.030750 5.266740 255 82 0 0.460595
0.161471 -1.027470 5.283130 255 78 0 0.467161
0.139251 -1.037030 5.267710 255 90 0 0.443068
0.151106 -1.040310 5.251540 255 78 0 0.465574
0.224900 -1.006750 5.272430 255 67 0 0.492809
0.212106 -1.001940 5.288810 255 75 0 0.479635
0.200100 -0.996073 5.304270 255 71 0 0.480409
0.179952 -1.012080 5.294310 255 78 0 0.465016
0.192865 -1.017510 5.278750 255 78 0 0.470491
0.117127 -1.005340 5.343730 255 90 0 0.438958
0.128553 -1.011430 5.327960 255 90 0 0.439042
0.093728 -1.021280 5.330820 255 112 0 0.390598
0.139927 -1.016610 5.312950 255 71 0 0.482958
0.105589 -1.027190 5.315960 255 101 0 0.419652
0.117500 -1.032290 5.300500 255 82 0 0.458202
0.070911 -1.037110 5.317360 255 127 0 0.359114
0.150850 -1.022290 5.298170 255 75 0 0.475833
0.169988 -1.006580 5.309630 255 71 0 0.483660
0.159478 -1.000850 5.324420 255 67 0 0.489009
0.083815 -1.040310 5.300920 255 112 0 0.389043
0.044694 -1.045810 5.298800 255 160 0 0.297802
0.095253 -1.041870 5.284310 255 108 0 0.401333
0.058365 -1.048280 5.282140 255 153 0 0.315317
0.106517 -1.044330 5.267670 255 93 0 0.433796
0.128274 -1.034970 5.284690 255 78 0 0.468048
0.239657 -0.959968 5.300240 255 71 0 0.481357
0.226357 -0.950764 5.314840 255 71 0 0.486624
0.212863 -0.973583 5.309860 255 71 0 0.480901
0.226583 -0.982368 5.295730 255 71 0 0.481507
0.233319 -0.920896 5.311290 255 78 0 0.466780
0.182835 -0.920244 5.344740 255 108 0 0.400197
0.164636 -0.921100 5.356070 255 119 0 0.374768
0.200341 -0.919247 5.333980 255 93 0 0.431461
0.190708 -0.952760 5.336940 255 82 0 0.454419
0.172505 -0.953826 5.347270 255 97 0 0.420103
0.153298 -0.955006 5.358280 255 104 0 0.407704
0.212676 -0.935600 5.324260 255 78 0 0.466317
0.156238 -0.978385 5.340840 255 86 0 0.445400
0.134625 -0.980661 5.351470 255 97 0 0.420870
0.176381 -0.975946 5.331230 255 78 0 0.470271
0.187463 -0.986670 5.317930 255 75 0 0.478074
0.201729 -0.963659 5.323380 255 75 0 0.479153
0.172436 -0.688122 5.230700 255 119 0 0.375248
0.191332 -0.691977 5.222110 255 104 0 0.406008
0.174562 -0.665356 5.195740 255 101 0 0.412686
0.162558 -0.674631 5.216720 255 123 0 0.369738
0.154323 -0.661894 5.202830 255 116 0 0.383103
0.142348 -0.671675 5.224530 255 141 0 0.335405
0.151784 -0.684848 5.238900 255 141 0 0.333302
0.130423 -0.681534 5.246280 255 175 0 0.276088
0.133186 -0.658909 5.209700 255 130 0 0.355740
0.121471 -0.669363 5.232090 255 167 0 0.288106
0.112574 -0.657247 5.217280 255 145 0 0.330024
0.140511 -0.694934 5.260070 255 171 0 0.283805
0.174062 -0.654941 5.162820 255 90 0 0.442038
0.154203 -0.642700 5.137200 255 82 0 0.460977
0.133318 -0.639669 5.143460 255 97 0 0.427305
0.123082 -0.642819 5.162970 255 101 0 0.414598
0.101403 -0.640931 5.168710 255 116 0 0.386959
0.090476 -0.645632 5.189160 255 141 0 0.333347
0.068493 -0.636174 5.160320 255 119 0 0.379712
0.154417 -0.651636 5.169840 255 97 0 0.422357
0.080339 -0.636751 5.142600 255 108 0 0.403589
0.101361 -0.637885 5.136950 255 90 0 0.437382
0.111968 -0.640319 5.119690 255 90 0 0.438735
0.133442 -0.642756 5.113960 255 82 0 0.456995
0.112905 -0.644938 5.090190 255 78 0 0.469530
0.090984 -0.642508 5.095790 255 90 0 0.440023
0.079599 -0.639419 5.113120 255 90 0 0.437064
0.057859 -0.638696 5.117650 255 104 0 0.410477
0.045561 -0.637699 5.135180 255 116 0 0.380605
0.023563 -0.639861 5.110310 255 116 0 0.382878
0.135072 -0.647785 5.083170 255 67 0 0.490451
0.106710 -0.664272 5.054380 255 67 0 0.496665
0.093481 -0.655491 5.071150 255 82 0 0.454261
0.074016 -0.667151 5.051900 255 82 0 0.459536
0.051516 -0.664892 5.056730 255 97 0 0.424755
0.038860 -0.657813 5.070900 255 104 0 0.410137
0.015541 -0.656618 5.075760 255 116 0 0.383198
0.001987 -0.650981 5.090210 255 127 0 0.361125
-0.018159 -0.660763 5.071940 255 138 0 0.341158
0.036839 -0.645531 5.095580 255 104 0 0.404665
0.059268 -0.646387 5.091060 255 101 0 0.417279
0.071600 -0.653129 5.076380 255 97 0 0.421584
0.710194 -0.075882 5.949590 255 123 0 0.371575
0.710020 -0.052825 5.961380 255 97 0 0.421902
0.687331 -0.056603 5.953480 255 112 0 0.391803
0.687570 -0.079525 5.942090 255 138 0 0.338800
0.684696 -0.037370 5.971340 255 104 0 0.411537
0.664477 -0.060463 5.945540 255 123 0 0.371425
0.661655 -0.041563 5.962570 255 123 0 0.371201
0.638071 -0.044658 5.953490 255 127 0 0.362515
0.664249 -0.081979 5.933470 255 149 0 0.322651
0.640713 -0.063414 5.936430 255 130 0 0.352377
0.640372 -0.085479 5.924480 255 164 0 0.295278
0.658305 -0.026864 5.981320 255 116 0 0.384745
0.634895 -0.030264 5.971480 255 123 0 0.371286
0.629743 -0.020450 5.993440 255 145 0 0.327183
0.654034 -0.017542 6.004850 255 141 0 0.332180
0.682110 -0.022790 5.991340 255 104 0 0.408245
0.677424 -0.013446 6.015100 255 138 0 0.342935
0.705247 -0.018084 6.000760 255 93 0 0.430158
0.708248 -0.032946 5.980470 255 101 0 0.416699
0.700173 -0.008430 6.024910 255 127 0 0.364049
0.617085 -0.088688 5.914560 255 175 0 0.274189
0.616385 -0.066308 5.925280 255 145 0 0.326238
0.592376 -0.069601 5.915440 255 164 0 0.297039
0.593318 -0.092412 5.904230 255 193 0 0.246478
0.589094 -0.050500 5.931060 255 149 0 0.322586
0.568012 -0.073241 5.905090 255 186 0 0.261381
0.564518 -0.053787 5.920530 255 167 0 0.288787
0.539076 -0.057609 5.910090 255 178 0 0.268883
0.568751 -0.096791 5.893860 255 212 0 0.220894
