ply
format ascii 1.0
comment Seamless Cloth Simulation with High Geometric Fidelity 
comment Mon Apr 29 12:28:54 2019
element vertex 1029
property float x
property float y
property float z
property float quality
property uchar red
property uchar green
property uchar blue
end_header
1.06114 -0.660482 6.02066 0.630606 255 0 255 
1.0879 -0.631808 6.01973 0.568658 255 0 255 
1.05674 -0.692502 6.03144 0.663514 255 0 255 
1.08335 -0.664014 6.03044 0.615312 255 0 255 
1.07843 -0.695992 6.04145 0.641756 255 0 255 
1.10997 -0.635784 6.02887 0.547308 255 0 255 
1.05272 -0.724149 6.04315 0.669634 255 0 255 
1.0485 -0.755283 6.0556 0.761662 255 0 255 
1.02631 -0.754294 6.0454 0.781739 255 0 255 
1.03053 -0.723183 6.03283 0.773849 255 0 255 
1.03403 -0.691439 6.02122 0.747718 255 0 255 
1.00419 -0.753511 6.03475 0.789987 255 0 255 
1.10563 -0.66624 6.03977 0.599699 255 0 255 
1.13196 -0.638973 6.03808 0.55518 255 0 255 
1.10156 -0.696175 6.05116 0.632313 255 0 255 
1.12748 -0.669511 6.04927 0.595205 255 0 255 
1.0973 -0.726098 6.06308 0.651046 255 0 255 
1.07056 -0.755347 6.06555 0.683067 255 0 255 
1.07437 -0.725913 6.05319 0.670615 255 0 255 
1.04004 -0.830048 6.11585 0.904033 255 0 255 
1.01399 -0.857152 6.12749 0.927816 255 0 255 
1.04266 -0.805228 6.09576 0.872151 255 0 255 
1.01644 -0.832653 6.10733 0.919689 255 0 255 
1.01931 -0.808039 6.08695 0.891892 255 0 255 
0.991309 -0.859778 6.11938 0.936024 255 0 255 
1.04568 -0.780282 6.07562 0.82307 255 0 255 
1.06764 -0.780487 6.08525 0.747912 255 0 255 
0.994027 -0.833386 6.0985 0.930504 255 0 255 
0.968751 -0.861443 6.11122 0.946898 255 0 255 
0.997566 -0.807025 6.07702 0.903733 255 0 255 
0.971448 -0.835269 6.08982 0.938296 255 0 255 
0.974191 -0.808945 6.06791 0.910728 255 0 255 
0.946208 -0.863563 6.10269 0.957421 255 0 255 
1.00134 -0.780475 6.05578 0.858487 255 0 255 
1.0231 -0.781279 6.0661 0.852251 255 0 255 
0.961025 -0.645667 5.97939 0.81262 255 0 255 
0.935669 -0.676854 5.97875 0.83097 255 0 255 
0.922564 -0.709676 5.98337 0.833169 255 0 255 
0.898764 -0.741896 5.98391 0.80929 255 0 255 
0.920978 -0.743929 5.99483 0.816881 255 0 255 
0.89948 -0.70716 5.97308 0.820396 255 0 255 
0.876557 -0.741375 5.97305 0.784577 255 0 255 
0.9126 -0.673745 5.96914 0.841905 255 0 255 
0.9257 -0.640341 5.96603 0.832908 255 0 255 
0.951703 -0.608526 5.96813 0.831348 255 0 255 
0.927161 -0.60518 5.95965 0.843032 255 0 255 
0.907612 -0.774851 6.01155 0.87292 255 0 255 
0.883629 -0.805236 6.0237 0.915174 255 0 255 
0.872255 -0.837614 6.04247 0.932759 255 0 255 
0.853046 -0.871374 6.05632 0.894938 255 0 255 
0.871133 -0.869171 6.06743 0.933877 255 0 255 
0.852634 -0.839551 6.03107 0.902431 255 0 255 
0.831802 -0.873199 6.04431 0.851217 255 0 255 
0.863827 -0.806721 6.01223 0.899675 255 0 255 
0.875098 -0.773651 5.99463 0.847808 255 0 255 
0.805911 -0.838115 6.00243 0.810757 255 0 255 
0.817721 -0.805417 5.98497 0.801998 255 0 255 
0.841483 -0.773307 5.97531 0.794157 255 0 255 
0.853346 -0.74168 5.95978 0.744925 255 0 255 
0.841905 -0.806309 5.99909 0.849829 255 0 255 
0.830643 -0.839646 6.01761 0.861296 255 0 255 
0.807585 -0.872297 6.02903 0.789491 255 0 255 
0.851972 -0.705981 5.94851 0.778841 255 0 255 
0.863554 -0.670806 5.9458 0.819431 255 0 255 
0.888388 -0.635611 5.95055 0.846065 255 0 255 
0.901325 -0.602087 5.94968 0.853207 255 0 255 
0.888276 -0.670814 5.95834 0.835474 255 0 255 
0.876339 -0.706289 5.9615 0.807214 255 0 255 
0.983491 -0.649173 5.98838 0.790523 255 0 255 
0.969056 -0.681747 5.99273 0.807465 255 0 255 
0.991602 -0.685589 6.00212 0.790614 255 0 255 
1.0062 -0.652987 5.99749 0.774267 255 0 255 
0.965668 -0.715606 6.00304 0.814635 255 0 255 
0.962115 -0.749047 6.01487 0.816101 255 0 255 
0.941589 -0.746227 6.00501 0.831447 255 0 255 
0.944573 -0.712557 5.99354 0.829518 255 0 255 
1.02756 -0.656188 6.00654 0.752355 255 0 255 
1.01232 -0.687953 6.01156 0.78453 255 0 255 
1.00815 -0.721015 6.02244 0.784561 255 0 255 
0.983743 -0.751217 6.02499 0.802415 255 0 255 
0.987622 -0.718664 6.01293 0.799 255 0 255 
0.950593 -0.835302 6.0807 0.946873 255 0 255 
0.926577 -0.864101 6.09502 0.962158 255 0 255 
0.954937 -0.807049 6.0584 0.922637 255 0 255 
0.929748 -0.835699 6.07257 0.954869 255 0 255 
0.933673 -0.807355 6.04968 0.929544 255 0 255 
0.906584 -0.865735 6.08644 0.957385 255 0 255 
0.958831 -0.778271 6.0363 0.875094 255 0 255 
0.978295 -0.780304 6.04591 0.872764 255 0 255 
0.910441 -0.835773 6.06293 0.953018 255 0 255 
0.888812 -0.866911 6.07699 0.949636 255 0 255 
0.914723 -0.805688 6.03916 0.923891 255 0 255 
0.891455 -0.836321 6.05299 0.948191 255 0 255 
0.927992 -0.776094 6.02144 0.879297 255 0 255 
0.999376 -0.373964 6.01572 0.96951 255 0 255 
0.983616 -0.406014 6.0068 0.983647 255 0 255 
1.01117 -0.409768 6.01347 0.971927 255 0 255 
1.02758 -0.377594 6.02268 0.95227 255 0 255 
0.981789 -0.439536 5.99926 0.977416 255 0 255 
0.980925 -0.472175 5.98969 0.959288 255 0 255 
0.952895 -0.469425 5.98181 0.969771 255 0 255 
0.95369 -0.436232 5.99184 0.98053 255 0 255 
1.05475 -0.381816 6.029 0.934137 255 0 255 
1.03759 -0.413681 6.01966 0.949834 255 0 255 
1.03364 -0.447306 6.01107 0.937333 255 0 255 
1.00638 -0.476032 5.99596 0.939084 255 0 255 
1.00846 -0.443481 6.00563 0.96506 255 0 255 
0.976832 -0.577623 5.97963 0.867846 255 0 255 
0.978204 -0.542908 5.98323 0.915929 255 0 255 
0.952317 -0.573976 5.97217 0.892527 255 0 255 
0.95275 -0.539392 5.97568 0.934339 255 0 255 
0.979189 -0.507859 5.98678 0.941958 255 0 255 
1.00404 -0.511659 5.99331 0.923671 255 0 255 
0.926879 -0.571082 5.96377 0.900763 255 0 255 
0.92636 -0.536685 5.96768 0.94185 255 0 255 
0.89985 -0.56801 5.95402 0.911777 255 0 255 
0.925581 -0.501804 5.97116 0.961584 255 0 255 
0.952623 -0.504822 5.97904 0.953551 255 0 255 
1.17479 -0.479851 6.04793 0.673702 255 0 255 
1.17083 -0.511619 6.04043 0.623448 255 0 255 
1.14818 -0.5057 6.03324 0.673986 255 0 255 
1.15202 -0.473525 6.04065 0.707626 255 0 255 
1.15734 -0.610215 6.04489 0.572886 255 0 255 
1.16197 -0.57767 6.04318 0.609796 255 0 255 
1.13515 -0.606876 6.03609 0.585513 255 0 255 
1.13926 -0.57425 6.03459 0.612435 255 0 255 
1.1663 -0.544682 6.04162 0.630297 255 0 255 
1.11355 -0.602477 6.02759 0.591913 255 0 255 
1.11765 -0.568357 6.02689 0.63234 255 0 255 
1.09127 -0.598335 6.01904 0.635176 255 0 255 
1.12168 -0.534102 6.02639 0.654244 255 0 255 
1.14433 -0.539892 6.03404 0.649449 255 0 255 
0.791457 -1.05037 6.29919 0.829062 255 0 255 
0.780339 -1.05632 6.33164 0.87618 255 0 255 
0.770493 -1.05659 6.32839 0.866799 255 0 255 
0.759111 -1.06197 6.36102 0.894878 255 0 255 
0.769143 -1.06176 6.36399 0.903246 255 0 255 
0.748392 -1.06224 6.35812 0.886275 255 0 255 
0.747287 -1.06721 6.39356 0.905922 255 0 255 
0.736995 -1.06755 6.39113 0.895986 255 0 255 
0.725139 -1.0733 6.42386 0.876965 255 0 255 
0.757477 -1.06721 6.39618 0.911545 255 0 255 
0.735514 -1.07329 6.4259 0.884978 255 0 255 
0.745759 -1.07363 6.42815 0.889297 255 0 255 
0.725417 -1.06728 6.38873 0.886218 255 0 255 
0.713848 -1.07274 6.42171 0.870224 255 0 255 
0.701157 -1.07196 6.41894 0.864417 255 0 255 
0.713103 -1.06628 6.38693 0.883481 255 0 255 
0.737486 -1.06199 6.35669 0.880065 255 0 255 
0.725125 -1.06096 6.35491 0.879306 255 0 255 
0.74917 -1.05653 6.32486 0.855048 255 0 255 
0.760169 -1.05668 6.32656 0.863749 255 0 255 
0.771515 -1.05087 6.29485 0.817232 255 0 255 
0.736932 -1.05579 6.32268 0.855926 255 0 255 
0.760731 -1.0512 6.29272 0.804738 255 0 255 
0.748127 -1.05059 6.2902 0.801473 255 0 255 
0.781649 -1.0505 6.29694 0.825684 255 0 255 
0.735977 -1.07007 6.46323 0.924922 255 0 255 
0.724101 -1.07216 6.45439 0.901839 255 0 255 
0.713944 -1.0691 6.48923 0.916626 255 0 255 
0.726105 -1.06824 6.4981 0.921821 255 0 255 
0.701905 -1.07082 6.48098 0.890702 255 0 255 
0.703073 -1.06751 6.52363 0.898609 255 0 255 
0.69105 -1.06829 6.51559 0.887445 255 0 255 
0.716588 -1.06852 6.53294 0.893583 255 0 255 
0.678676 -1.06948 6.50769 0.868599 255 0 255 
0.666284 -1.06795 6.50555 0.8616 255 0 255 
0.690819 -1.07007 6.47937 0.88598 255 0 255 
0.678069 -1.06876 6.47692 0.882332 255 0 255 
0.702412 -1.0711 6.45068 0.891275 255 0 255 
0.713657 -1.07175 6.45264 0.895676 255 0 255 
0.689689 -1.07001 6.44814 0.884245 255 0 255 
0.627168 -1.05367 6.47771 0.912376 255 0 255 
0.638749 -1.05483 6.45095 0.919805 255 0 255 
0.652361 -1.05975 6.45844 0.910547 255 0 255 
0.650307 -1.05643 6.42381 0.916208 255 0 255 
0.664132 -1.06131 6.43151 0.910891 255 0 255 
0.675635 -1.06327 6.40427 0.889125 255 0 255 
0.661658 -1.05854 6.39629 0.893919 255 0 255 
0.677113 -1.06592 6.43882 0.89558 255 0 255 
0.688685 -1.06767 6.4117 0.878707 255 0 255 
0.665737 -1.06436 6.46789 0.898826 255 0 255 
0.654062 -1.06329 6.4967 0.885987 255 0 255 
0.641056 -1.05846 6.48741 0.902211 255 0 255 
0.67328 -1.05336 6.364 0.899714 255 0 255 
0.685245 -1.04872 6.33359 0.891901 255 0 255 
0.69895 -1.05297 6.33936 0.88734 255 0 255 
0.696778 -1.04437 6.30293 0.867489 255 0 255 
0.710896 -1.04843 6.30903 0.863966 255 0 255 
0.722268 -1.04403 6.27817 0.810973 255 0 255 
0.708079 -1.04062 6.27136 0.807692 255 0 255 
0.724382 -1.05226 6.31472 0.856894 255 0 255 
0.735824 -1.04742 6.28421 0.809173 255 0 255 
0.71284 -1.0573 6.3474 0.884109 255 0 255 
0.701032 -1.0624 6.37981 0.890215 255 0 255 
0.687421 -1.05791 6.37184 0.89932 255 0 255 
0.718659 -1.02694 6.23711 0.8111 255 0 255 
0.729593 -1.01181 6.2041 0.804821 255 0 255 
0.743378 -1.01344 6.21107 0.819693 255 0 255 
0.740013 -0.994928 6.17066 0.796366 255 0 255 
0.753906 -0.996494 6.17858 0.815757 255 0 255 
0.764122 -0.97934 6.14539 0.791493 255 0 255 
0.749742 -0.977565 6.13716 0.767538 255 0 255 
0.767344 -0.998368 6.18569 0.834683 255 0 255 
0.777714 -0.980907 6.15317 0.815533 255 0 255 
0.789934 -0.981879 6.16068 0.838363 255 0 255 
0.780354 -1.00091 6.19371 0.846182 255 0 255 
0.757589 -1.01656 6.21886 0.834712 255 0 255 
0.770486 -1.01899 6.22643 0.840267 255 0 255 
0.747179 -1.03252 6.25201 0.830038 255 0 255 
0.73364 -1.02974 6.24489 0.825863 255 0 255 
0.759494 -1.03528 6.2586 0.833893 255 0 255 
0.784537 -0.9253 6.08568 0.851714 255 0 255 
0.795958 -0.898592 6.057 0.841255 255 0 255 
0.820826 -0.900927 6.0732 0.88717 255 0 255 
0.797949 -0.926867 6.09387 0.873956 255 0 255 
0.810388 -0.928109 6.10239 0.90416 255 0 255 
0.787602 -0.954274 6.12366 0.859726 255 0 255 
0.774177 -0.952859 6.11514 0.833921 255 0 255 
0.799677 -0.955322 6.13163 0.885316 255 0 255 
0.860654 -0.896742 6.09557 0.95267 255 0 255 
0.841114 -0.924877 6.11873 0.949513 255 0 255 
0.831607 -0.952149 6.14663 0.930804 255 0 255 
0.812987 -0.980435 6.16967 0.86721 255 0 255 
0.831482 -0.978629 6.17745 0.895675 255 0 255 
0.841991 -0.898665 6.08499 0.927438 255 0 255 
0.822205 -0.99812 6.20852 0.895795 255 0 255 
0.812579 -0.9986 6.2052 0.886059 255 0 255 
0.802923 -1.0172 6.23609 0.879276 255 0 255 
0.812208 -1.01644 6.23907 0.885707 255 0 255 
0.7931 -1.018 6.2331 0.865275 255 0 255 
0.792488 -1.0342 6.26679 0.858756 255 0 255 
0.782344 -1.03485 6.2642 0.850691 255 0 255 
0.801882 -1.03369 6.26928 0.867026 255 0 255 
0.827973 -1.01122 6.24192 0.917107 255 0 255 
0.838306 -0.992682 6.21195 0.924388 255 0 255 
0.848149 -0.973292 6.18121 0.923967 255 0 255 
0.86618 -0.968853 6.1854 0.936565 255 0 255 
0.857634 -0.987634 6.21423 0.941149 255 0 255 
0.848404 -1.00571 6.24218 0.932068 255 0 255 
0.829034 -1.0254 6.27005 0.909077 255 0 255 
0.810163 -1.04462 6.29792 0.86915 255 0 255 
0.830675 -1.0398 6.29744 0.887107 255 0 255 
0.847989 -0.949483 6.15425 0.951762 255 0 255 
0.857568 -0.92207 6.12744 0.966245 255 0 255 
0.876576 -0.893323 6.10445 0.968619 255 0 255 
0.895455 -0.890743 6.11209 0.973785 255 0 255 
0.874774 -0.918293 6.13404 0.974662 255 0 255 
0.86554 -0.944673 6.15893 0.9637 255 0 255 
0.935031 -0.886265 6.12604 0.976469 255 0 255 
0.914734 -0.911586 6.14696 0.980474 255 0 255 
0.905251 -0.935515 6.16898 0.974697 255 0 255 
0.886347 -0.962646 6.18902 0.952031 255 0 255 
0.907317 -0.957773 6.19212 0.956149 255 0 255 
0.884602 -0.940844 6.16512 0.970911 255 0 255 
0.894382 -0.914876 6.14094 0.979314 255 0 255 
0.914929 -0.888609 6.12027 0.976357 255 0 255 
0.899969 -0.975663 6.21784 0.955948 255 0 255 
0.880876 -0.996624 6.24403 0.945891 255 0 255 
0.873696 -1.014 6.26939 0.927361 255 0 255 
0.854249 -1.03363 6.29559 0.895047 255 0 255 
0.878693 -1.02842 6.2937 0.897342 255 0 255 
0.849522 -1.02021 6.27107 0.920625 255 0 255 
0.877752 -0.981686 6.21698 0.95324 255 0 255 
0.897118 -1.00849 6.27101 0.933616 255 0 255 
0.904122 -0.990618 6.24579 0.952981 255 0 255 
0.922049 -0.969852 6.2227 0.962435 255 0 255 
0.929317 -0.951975 6.1973 0.96132 255 0 255 
0.951936 -0.947288 6.20211 0.951987 255 0 255 
0.945022 -0.964418 6.22605 0.953111 255 0 255 
0.926525 -0.984668 6.24892 0.952638 255 0 255 
0.920078 -1.0022 6.27248 0.935379 255 0 255 
0.901893 -1.02218 6.29538 0.909009 255 0 255 
0.925412 -1.01693 6.29682 0.898568 255 0 255 
0.926871 -0.931828 6.1747 0.974919 255 0 255 
0.936091 -0.908034 6.15292 0.980124 255 0 255 
0.95767 -0.883939 6.13437 0.971175 255 0 255 
0.980541 -0.881051 6.14111 0.960867 255 0 255 
0.958841 -0.904663 6.15963 0.97302 255 0 255 
0.949477 -0.926872 6.18 0.970007 255 0 255 
1.02703 -0.875158 6.15594 0.937756 255 0 255 
1.00455 -0.898016 6.17253 0.955881 255 0 255 
0.994986 -0.918955 6.19181 0.958564 255 0 255 
0.974673 -0.942547 6.20788 0.947747 255 0 255 
0.99775 -0.938339 6.21336 0.93532 255 0 255 
0.971986 -0.923314 6.18619 0.964225 255 0 255 
0.981717 -0.901282 6.16608 0.965372 255 0 255 
1.00351 -0.878625 6.14891 0.94988 255 0 255 
0.989964 -0.954662 6.23584 0.938233 255 0 255 
0.971498 -0.974179 6.25668 0.941146 255 0 255 
0.96457 -0.991039 6.2793 0.927497 255 0 255 
0.946704 -1.01084 6.30016 0.905396 255 0 255 
0.968298 -1.00534 6.30337 0.895638 255 0 255 
0.942681 -0.996931 6.27579 0.927243 255 0 255 
0.949109 -0.979428 6.25219 0.944669 255 0 255 
0.967368 -0.959698 6.23139 0.94976 255 0 255 
0.985817 -0.986184 6.28353 0.917816 255 0 255 
0.993169 -0.969047 6.26121 0.92781 255 0 255 
1.01137 -0.950267 6.24139 0.930546 255 0 255 
1.01868 -0.933793 6.21875 0.928496 255 0 255 
1.03982 -0.929461 6.22393 0.918896 255 0 255 
1.03191 -0.94521 6.24578 0.920143 255 0 255 
1.01418 -0.964167 6.26582 0.923516 255 0 255 
1.00588 -0.980591 6.28727 0.914836 255 0 255 
0.987992 -0.999884 6.30702 0.897266 255 0 255 
1.0083 -0.994711 6.31074 0.892652 255 0 255 
1.01741 -0.915657 6.19794 0.941771 255 0 255 
1.02719 -0.89453 6.17891 0.941288 255 0 255 
1.04839 -0.872512 6.16287 0.926958 255 0 255 
1.0699 -0.868947 6.16887 0.840168 255 0 255 
1.04887 -0.891096 6.18495 0.930641 255 0 255 
1.03884 -0.911092 6.20345 0.937584 255 0 255 
1.11168 -0.863062 6.1801 0.807736 255 0 255 
1.09045 -0.884352 6.19557 0.83099 255 0 255 
1.08068 -0.90386 6.21357 0.908042 255 0 255 
1.06033 -0.925632 6.22862 0.910493 255 0 255 
1.08102 -0.921841 6.23312 0.894578 255 0 255 
1.05983 -0.907854 6.20879 0.919467 255 0 255 
1.06993 -0.887654 6.19051 0.918507 255 0 255 
1.09047 -0.866514 6.17462 0.829466 255 0 255 
1.07254 -0.93721 6.25427 0.906445 255 0 255 
1.05399 -0.955507 6.27348 0.907534 255 0 255 
1.04552 -0.971736 6.29447 0.898795 255 0 255 
1.02775 -0.990395 6.31419 0.884369 255 0 255 
1.04801 -0.986233 6.31756 0.866072 255 0 255 
1.02581 -0.976272 6.29115 0.900629 255 0 255 
1.03436 -0.95961 6.26976 0.912812 255 0 255 
1.05203 -0.941525 6.25022 0.9143 255 0 255 
1.06668 -0.968823 6.29797 0.878785 255 0 255 
1.07477 -0.952102 6.27691 0.893537 255 0 255 
1.09406 -0.935085 6.25772 0.890134 255 0 255 
1.10246 -0.91943 6.23667 0.883518 255 0 255 
1.09594 -0.94971 6.2797 0.88001 255 0 255 
1.08744 -0.966166 6.30023 0.863099 255 0 255 
1.0685 -0.984012 6.31987 0.859927 255 0 255 
1.10179 -0.901324 6.218 0.894496 255 0 255 
1.11167 -0.881552 6.20026 0.818876 255 0 255 
1.1337 -0.86153 6.18505 0.798791 255 0 255 
1.14548 -0.821869 6.15142 0.763976 255 0 255 
0.645265 -0.84107 5.9618 0.713709 255 0 255 
0.6317 -0.861282 5.98577 0.769851 255 0 255 
0.617221 -0.852279 5.97811 0.798556 255 0 255 
0.618033 -0.881791 6.01031 0.794749 255 0 255 
0.603545 -0.872859 6.00255 0.817365 255 0 255 
0.58934 -0.892471 6.02798 0.823182 255 0 255 
0.604534 -0.901185 6.03594 0.805232 255 0 255 
0.589231 -0.863367 5.99545 0.83317 255 0 255 
0.575292 -0.883463 6.02012 0.843949 255 0 255 
0.560979 -0.874439 6.01248 0.850412 255 0 255 
0.588255 -0.837493 5.96675 0.814311 255 0 255 
0.616625 -0.826605 5.94948 0.733832 255 0 255 
0.643916 -0.815054 5.93393 0.631361 255 0 255 
0.614775 -0.80081 5.92315 0.691088 255 0 255 
0.590464 -0.913 6.06435 0.86821 255 0 255 
0.577654 -0.925185 6.09435 0.902759 255 0 255 
0.562278 -0.915116 6.08474 0.906473 255 0 255 
0.565218 -0.936184 6.12539 0.917915 255 0 255 
0.549406 -0.9259 6.11594 0.923445 255 0 255 
0.534061 -0.916114 6.10622 0.913498 255 0 255 
0.519123 -0.906581 6.09863 0.891501 255 0 255 
0.54741 -0.905792 6.07693 0.902166 255 0 255 
0.53312 -0.89705 6.069 0.896241 255 0 255 
0.560995 -0.894797 6.04824 0.88143 255 0 255 
0.575566 -0.903942 6.05627 0.876995 255 0 255 
0.547095 -0.885765 6.04051 0.882896 255 0 255 
0.462247 -0.879027 6.06931 0.788019 255 0 255 
0.490072 -0.875213 6.04725 0.841906 255 0 255 
0.504253 -0.865091 6.01974 0.843545 255 0 255 
0.532506 -0.860607 5.99922 0.844115 255 0 255 
0.504322 -0.847203 5.98659 0.829922 255 0 255 
0.532124 -0.878374 6.03309 0.87365 255 0 255 
0.518206 -0.889649 6.06147 0.880642 255 0 255 
0.504179 -0.89984 6.09081 0.875299 255 0 255 
0.489528 -0.892587 6.08333 0.850959 255 0 255 
0.517192 -0.829765 5.96528 0.83597 255 0 255 
0.54436 -0.81761 5.94947 0.835803 255 0 255 
0.557393 -0.800536 5.9289 0.801833 255 0 255 
0.584641 -0.78843 5.91408 0.749063 255 0 255 
0.555303 -0.777146 5.90536 0.773617 255 0 255 
0.587115 -0.813055 5.93784 0.773023 255 0 255 
0.560345 -0.848927 5.98273 0.837066 255 0 255 
0.734098 -0.619433 5.88127 0.781847 255 0 255 
0.724173 -0.651115 5.88304 0.727148 255 0 255 
0.699511 -0.6792 5.88114 0.683534 255 0 255 
0.689499 -0.709889 5.88417 0.600128 255 0 255 
0.659335 -0.701941 5.87628 0.661593 255 0 255 
0.66826 -0.673274 5.87374 0.743119 255 0 255 
0.693511 -0.645937 5.8744 0.761854 255 0 255 
0.702139 -0.615973 5.87257 0.81211 255 0 255 
0.694001 -0.740185 5.89888 0.587399 255 0 255 
0.682027 -0.76766 5.9119 0.616308 255 0 255 
0.656253 -0.788524 5.91972 0.651891 255 0 255 
0.626515 -0.776414 5.91036 0.694451 255 0 255 
0.652989 -0.756805 5.9021 0.656088 255 0 255 
0.664066 -0.73181 5.89035 0.648315 255 0 255 
0.566089 -0.754445 5.89463 0.788867 255 0 255 
0.592746 -0.736467 5.88682 0.76016 255 0 255 
0.602798 -0.713647 5.87748 0.779029 255 0 255 
0.628298 -0.694744 5.87041 0.740425 255 0 255 
0.596764 -0.686767 5.86471 0.800641 255 0 255 
0.634228 -0.722427 5.88297 0.704513 255 0 255 
0.623345 -0.746753 5.89364 0.706679 255 0 255 
0.59701 -0.764763 5.90157 0.745936 255 0 255 
0.604408 -0.660668 5.86139 0.845451 255 0 255 
0.62904 -0.636185 5.86029 0.858729 255 0 255 
0.636328 -0.608403 5.85653 0.876351 255 0 255 
0.670166 -0.611531 5.86407 0.83904 255 0 255 
0.661722 -0.641132 5.86688 0.815212 255 0 255 
0.637583 -0.666907 5.86595 0.787152 255 0 255 
0.528221 -0.790246 5.9197 0.813163 255 0 255 
0.515886 -0.807955 5.9388 0.814425 255 0 255 
0.489308 -0.821071 5.95485 0.813423 255 0 255 
0.476893 -0.838736 5.97634 0.804178 255 0 255 
0.450131 -0.831266 5.96687 0.785191 255 0 255 
0.461586 -0.813662 5.9464 0.799798 255 0 255 
0.487067 -0.799479 5.93034 0.8093 255 0 255 
0.498939 -0.782219 5.91171 0.810968 255 0 255 
0.525705 -0.768933 5.89732 0.795326 255 0 255 
0.495496 -0.76048 5.89128 0.803848 255 0 255 
0.476896 -0.854346 6.00719 0.810067 255 0 255 
0.462948 -0.864967 6.03516 0.789506 255 0 255 
0.436527 -0.871967 6.0568 0.748267 255 0 255 
0.423996 -0.884059 6.08374 0.758628 255 0 255 
0.400081 -0.881638 6.06942 0.731386 255 0 255 
0.412598 -0.867862 6.04459 0.726837 255 0 255 
0.437401 -0.857511 6.02415 0.748693 255 0 255 
0.450322 -0.846323 5.9972 0.787122 255 0 255 
0.355151 -0.891601 6.04063 0.760499 255 0 255 
0.367218 -0.875544 6.0179 0.761076 255 0 255 
0.390232 -0.857292 6.0008 0.744709 255 0 255 
0.401818 -0.842621 5.97704 0.75481 255 0 255 
0.425504 -0.828581 5.95759 0.775423 255 0 255 
0.40154 -0.828394 5.94823 0.776301 255 0 255 
0.42552 -0.842369 5.98754 0.755484 255 0 255 
0.413238 -0.855299 6.01291 0.741169 255 0 255 
0.38985 -0.87043 6.03134 0.735646 255 0 255 
0.377405 -0.885327 6.05537 0.744755 255 0 255 
0.410794 -0.807995 5.92979 0.784774 255 0 255 
0.433384 -0.789834 5.91561 0.800929 255 0 255 
0.443284 -0.771335 5.89736 0.812218 255 0 255 
0.467191 -0.755358 5.88369 0.806022 255 0 255 
0.438872 -0.751264 5.87561 0.824009 255 0 255 
0.470827 -0.775719 5.90467 0.812613 255 0 255 
0.459743 -0.793615 5.92274 0.805508 255 0 255 
0.436082 -0.81025 5.93799 0.790775 255 0 255 
-0.428373 -1.05566 5.65239 0.992456 255 0 255 
-0.436529 -1.05179 5.67588 0.994677 255 0 255 
-0.460758 -1.04796 5.66714 0.994677 255 0 255 
-0.468996 -1.04619 5.69105 0.994817 255 0 255 
-0.444874 -1.04913 5.69969 0.994616 255 0 255 
-0.493245 -1.04404 5.68233 0.994405 255 0 255 
-0.477007 -1.04543 5.7151 0.992038 255 0 255 
-0.501096 -1.04366 5.70651 0.991636 255 0 255 
-0.50908 -1.04406 5.73048 0.981782 255 0 255 
-0.452977 -1.04764 5.72376 0.991068 255 0 255 
-0.48508 -1.04525 5.73915 0.982127 255 0 255 
-0.461023 -1.04691 5.74765 0.979572 255 0 255 
-0.525172 -1.04285 5.69777 0.990345 255 0 255 
-0.533041 -1.04359 5.7219 0.975477 255 0 255 
-0.556658 -1.0433 5.71318 0.967948 255 0 255 
-0.550049 -1.04325 5.69014 0.983824 255 0 255 
-0.518427 -1.04354 5.67478 0.994183 255 0 255 
-0.543379 -1.04411 5.66723 0.990494 255 0 255 
-0.511669 -1.04515 5.65194 0.994571 255 0 255 
-0.486209 -1.04608 5.65958 0.994325 255 0 255 
-0.479343 -1.04895 5.63705 0.994516 255 0 255 
-0.536597 -1.0449 5.64433 0.992942 255 0 255 
-0.504862 -1.04727 5.6294 0.993985 255 0 255 
-0.529787 -1.04671 5.62211 0.992961 255 0 255 
-0.453853 -1.05168 5.64472 0.994962 255 0 255 
-0.470902 -1.04482 5.77401 0.960672 255 0 255 
-0.492984 -1.04294 5.76433 0.965671 255 0 255 
-0.502705 -1.04141 5.7905 0.930227 255 0 255 
-0.480453 -1.04273 5.80005 0.925493 255 0 255 
-0.524669 -1.04023 5.7809 0.932327 255 0 255 
-0.511987 -1.03853 5.81644 0.884904 255 0 255 
-0.533926 -1.03766 5.807 0.884336 255 0 255 
-0.542762 -1.03283 5.83266 0.843325 255 0 255 
-0.489772 -1.03925 5.82585 0.883566 255 0 255 
-0.520841 -1.03327 5.84195 0.847886 255 0 255 
-0.498671 -1.03406 5.85141 0.84927 255 0 255 
-0.555824 -1.0372 5.79745 0.88011 255 0 255 
-0.564693 -1.033 5.82318 0.829384 255 0 255 
-0.586222 -1.03342 5.81378 0.811508 255 0 255 
-0.57926 -1.03811 5.7891 0.851007 255 0 255 
-0.548335 -1.04035 5.7726 0.919497 255 0 255 
-0.571759 -1.04065 5.76404 0.901844 255 0 255 
-0.540786 -1.0421 5.74733 0.955493 255 0 255 
-0.516868 -1.04226 5.75583 0.961993 255 0 255 
-0.564286 -1.04215 5.73857 0.941463 255 0 255 
-0.681645 -1.02428 5.76677 0.787715 255 0 255 
-0.675405 -1.0279 5.74168 0.823821 255 0 255 
-0.650792 -1.03067 5.75379 0.848383 255 0 255 
-0.644387 -1.03251 5.72845 0.894746 255 0 255 
-0.668806 -1.02971 5.71647 0.875448 255 0 255 
-0.619643 -1.0353 5.74047 0.906697 255 0 255 
-0.637477 -1.03302 5.70325 0.931631 255 0 255 
-0.612959 -1.03585 5.71509 0.942405 255 0 255 
-0.605959 -1.03648 5.68975 0.968488 255 0 255 
-0.661965 -1.03033 5.69121 0.917338 255 0 255 
-0.630389 -1.03366 5.67791 0.959671 255 0 255 
-0.654854 -1.03136 5.66603 0.942087 255 0 255 
-0.588291 -1.03918 5.72693 0.945321 255 0 255 
-0.581301 -1.0396 5.70144 0.970252 255 0 255 
-0.595777 -1.03793 5.75224 0.905716 255 0 255 
-0.603142 -1.03526 5.77742 0.859043 255 0 255 
-0.626887 -1.03278 5.76569 0.861398 255 0 255 
-0.633829 -1.02877 5.7907 0.815818 255 0 255 
-0.610071 -1.03106 5.8023 0.817426 255 0 255 
-0.657556 -1.02649 5.77906 0.808819 255 0 255 
-0.647831 -1.03129 5.64373 0.962583 255 0 255 
-0.623772 -1.03342 5.65515 0.976235 255 0 255 
-0.616903 -1.03367 5.63279 0.984092 255 0 255 
-0.640864 -1.03169 5.62175 0.972887 255 0 255 
-0.592719 -1.03636 5.64389 0.988154 255 0 255 
-0.610093 -1.03418 5.61081 0.985708 255 0 255 
-0.585893 -1.0369 5.62176 0.988811 255 0 255 
-0.57902 -1.0382 5.60017 0.98826 255 0 255 
-0.633973 -1.03229 5.6002 0.976115 255 0 255 
-0.603227 -1.03575 5.58961 0.984928 255 0 255 
-0.62706 -1.03331 5.57911 0.977085 255 0 255 
-0.561542 -1.0405 5.63295 0.991304 255 0 255 
-0.554654 -1.04202 5.61092 0.990153 255 0 255 
-0.5681 -1.03961 5.65544 0.990797 255 0 255 
-0.574774 -1.03923 5.67837 0.98568 255 0 255 
-0.599355 -1.03605 5.66672 0.983561 255 0 255 
-0.374898 -1.02908 5.89657 0.909838 255 0 255 
-0.390168 -1.01932 5.92284 0.909591 255 0 255 
-0.41633 -1.00734 5.94262 0.928076 255 0 255 
-0.430587 -0.993223 5.96719 0.949392 255 0 255 
-0.455939 -0.978521 5.9864 0.971159 255 0 255 
-0.43327 -0.978244 5.99718 0.970911 255 0 255 
-0.453504 -0.994081 5.95649 0.948451 255 0 255 
-0.478333 -0.978954 5.9755 0.970013 255 0 255 
-0.441303 -1.00877 5.93249 0.917984 255 0 255 
-0.42885 -1.02131 5.90767 0.892459 255 0 255 
-0.40211 -1.0303 5.88681 0.900977 255 0 255 
-0.429204 -1.03206 5.8769 0.886659 255 0 255 
-0.446357 -0.959472 6.02106 0.981272 255 0 255 
-0.469914 -0.94128 6.03945 0.959377 255 0 255 
-0.483011 -0.924427 6.06371 0.919622 255 0 255 
-0.503851 -0.924613 6.05213 0.895103 255 0 255 
-0.491523 -0.941487 6.02817 0.957922 255 0 255 
-0.479337 -0.959713 6.00451 0.979987 255 0 255 
-0.569745 -0.923858 6.01699 0.885146 255 0 255 
-0.54449 -0.941721 6.00086 0.935181 255 0 255 
-0.533709 -0.960744 5.97779 0.95847 255 0 255 
-0.507866 -0.978848 5.96157 0.970701 255 0 255 
-0.537432 -0.979743 5.9483 0.937827 255 0 255 
-0.504443 -0.960607 5.99177 0.98146 255 0 255 
-0.516347 -0.941784 6.01539 0.935614 255 0 255 
-0.528462 -0.924141 6.03892 0.888811 255 0 255 
-0.528392 -0.996123 5.92497 0.924143 255 0 255 
-0.511407 -0.99547 5.93128 0.932506 255 0 255 
-0.501778 -1.01053 5.90786 0.890117 255 0 255 
-0.518804 -1.01083 5.90134 0.881731 255 0 255 
-0.484793 -1.00998 5.91397 0.900176 255 0 255 
-0.491553 -1.0228 5.88329 0.867556 255 0 255 
-0.474687 -1.02268 5.88955 0.871865 255 0 255 
-0.463878 -1.03239 5.86402 0.875458 255 0 255 
-0.509094 -1.02425 5.8772 0.847918 255 0 255 
-0.481306 -1.03295 5.8577 0.864292 255 0 255 
-0.457462 -1.02241 5.89585 0.883573 255 0 255 
-0.446707 -1.03225 5.87051 0.88155 255 0 255 
-0.481671 -0.995192 5.94489 0.93786 255 0 255 
-0.728978 -0.923033 5.93141 0.926423 255 0 255 
-0.706804 -0.923365 5.94223 0.919047 255 0 255 
-0.698708 -0.940917 5.92002 0.949934 255 0 255 
-0.721007 -0.94081 5.90913 0.954834 255 0 255 
-0.676816 -0.941785 5.93091 0.950928 255 0 255 
-0.691073 -0.959376 5.89818 0.949787 255 0 255 
-0.669037 -0.96058 5.90947 0.95257 255 0 255 
-0.66133 -0.978515 5.88776 0.916842 255 0 255 
-0.713373 -0.958517 5.88672 0.94463 255 0 255 
-0.683637 -0.977392 5.8764 0.909393 255 0 255 
-0.706047 -0.976477 5.86462 0.925299 255 0 255 
-0.647001 -0.961508 5.92052 0.95489 255 0 255 
-0.638924 -0.97902 5.89875 0.923698 255 0 255 
-0.616884 -0.980129 5.90973 0.924829 255 0 255 
-0.62612 -0.961817 5.93242 0.955231 255 0 255 
-0.655748 -0.941587 5.94255 0.947844 255 0 255 
-0.635081 -0.942414 5.95451 0.94624 255 0 255 
-0.664849 -0.923412 5.96548 0.896957 255 0 255 
-0.685668 -0.92371 5.95413 0.910606 255 0 255 
-0.644177 -0.924122 5.97712 0.900126 255 0 255 
-0.700986 -0.992431 5.84182 0.859458 255 0 255 
-0.677347 -0.993613 5.85299 0.878143 255 0 255 
-0.671515 -1.00752 5.82938 0.823155 255 0 255 
-0.695203 -1.00527 5.81774 0.813767 255 0 255 
-0.647877 -1.00947 5.84077 0.831148 255 0 255 
-0.665106 -1.01866 5.80463 0.796306 255 0 255 
-0.641443 -1.02112 5.81632 0.799722 255 0 255 
-0.689007 -1.01642 5.79257 0.780774 255 0 255 
-0.617736 -1.02259 5.8276 0.809453 255 0 255 
-0.595043 -1.02419 5.83927 0.806643 255 0 255 
-0.625357 -1.01056 5.85246 0.840156 255 0 255 
-0.602863 -1.0119 5.86396 0.838851 255 0 255 
-0.63265 -0.996302 5.87624 0.88763 255 0 255 
-0.654916 -0.994803 5.86469 0.886921 255 0 255 
-0.610121 -0.997259 5.88744 0.892003 255 0 255 
-0.529634 -1.02347 5.86714 0.854192 255 0 255 
-0.539416 -1.01074 5.89166 0.880093 255 0 255 
-0.559698 -1.01061 5.8818 0.874239 255 0 255 
-0.548542 -0.995954 5.91538 0.922419 255 0 255 
-0.568686 -0.996104 5.90584 0.918101 255 0 255 
-0.577221 -0.979005 5.9286 0.936306 255 0 255 
-0.55737 -0.979181 5.93842 0.939542 255 0 255 
-0.588908 -0.996491 5.89625 0.90764 255 0 255 
-0.597242 -0.979609 5.91921 0.932789 255 0 255 
-0.581398 -1.01098 5.87288 0.862272 255 0 255 
-0.573527 -1.02376 5.8487 0.82421 255 0 255 
-0.551644 -1.02362 5.8579 0.839612 255 0 255 
-0.567113 -0.960611 5.96058 0.958222 255 0 255 
-0.577528 -0.941025 5.98339 0.934978 255 0 255 
-0.596249 -0.9415 5.97331 0.937558 255 0 255 
-0.588352 -0.923461 6.00663 0.882062 255 0 255 
-0.606781 -0.923245 5.9962 0.883026 255 0 255 
-0.625302 -0.924042 5.98649 0.893585 255 0 255 
-0.615759 -0.941798 5.96387 0.940816 255 0 255 
-0.606517 -0.961283 5.9418 0.957413 255 0 255 
-0.586811 -0.96041 5.95092 0.957616 255 0 255 
0.228794 -0.820232 5.30839 0.0956595 255 0 255 
0.228059 -0.840707 5.31605 0.1206 255 0 255 
0.227008 -0.861425 5.32385 0.0766695 255 0 255 
0.226085 -0.881971 5.33161 0.0280263 255 0 255 
0.136737 -0.706784 5.28027 0.445092 255 0 255 
0.142356 -0.726105 5.2948 0.470795 255 0 255 
0.160999 -0.7282 5.28666 0.437314 255 0 255 
0.166328 -0.749626 5.30097 0.42364 255 0 255 
0.147716 -0.747029 5.30935 0.459148 255 0 255 
0.185005 -0.752549 5.29243 0.375688 255 0 255 
0.171048 -0.771138 5.31458 0.411117 255 0 255 
0.189078 -0.772846 5.30573 0.331807 255 0 255 
0.192881 -0.793226 5.31908 0.226471 255 0 255 
0.152475 -0.768519 5.32308 0.460008 255 0 255 
0.174851 -0.79041 5.32788 0.30187 255 0 255 
0.156831 -0.78806 5.33668 0.387803 255 0 255 
0.207355 -0.775127 5.29652 0.263822 255 0 255 
0.211481 -0.796752 5.30935 0.220294 255 0 255 
0.204796 -0.755735 5.28345 0.259679 255 0 255 
0.201102 -0.735834 5.27062 0.234819 255 0 255 
0.181341 -0.731978 5.27856 0.367761 255 0 255 
0.176817 -0.712646 5.26543 0.307859 255 0 255 
0.197319 -0.715888 5.25669 0.241486 255 0 255 
0.157143 -0.709678 5.2728 0.387608 255 0 255 
0.157108 -0.810667 5.34579 0.398461 255 0 255 
0.1744 -0.812566 5.33662 0.331427 255 0 255 
0.174462 -0.834412 5.34498 0.335931 255 0 255 
0.156777 -0.833199 5.35457 0.366834 255 0 255 
0.191422 -0.835475 5.33609 0.25699 255 0 255 
0.173689 -0.85605 5.35347 0.225304 255 0 255 
0.191328 -0.857227 5.34361 0.210269 255 0 255 
0.190534 -0.87936 5.35162 0.126824 255 0 255 
0.156707 -0.854612 5.36263 0.290789 255 0 255 
0.173078 -0.877779 5.36117 0.155897 255 0 255 
0.155397 -0.877284 5.37065 0.200076 255 0 255 
0.208603 -0.858664 5.33401 0.134739 255 0 255 
0.208244 -0.880322 5.34184 0.0403424 255 0 255 
0.209633 -0.837952 5.32631 0.131294 255 0 255 
0.210869 -0.817753 5.31773 0.230552 255 0 255 
0.192352 -0.814549 5.32745 0.294528 255 0 255 
0.162114 -1.051 5.19439 0 255 0 255 
0.143498 -1.0522 5.17461 0 255 0 255 
0.126755 -1.0512 5.15455 0.114265 255 0 255 
0.0997858 -1.05235 5.16187 0.277061 255 0 255 
0.0821709 -1.05355 5.1788 0.367445 255 0 255 
0.117084 -1.05316 5.18223 0.176147 255 0 255 
0.0996024 -1.05438 5.1995 0.195018 255 0 255 
0.0650606 -1.05477 5.19563 0.426801 255 0 255 
0.0478652 -1.05589 5.21241 0.467554 255 0 255 
0.0267957 -1.05428 5.19142 0.590483 255 0 255 
0.0439119 -1.05317 5.17491 0.524447 255 0 255 
0.0612342 -1.05218 5.15846 0.416973 255 0 255 
0.0057988 -1.05313 5.17046 0.629799 255 0 255 
0.137112 -1.05229 5.20247 0.0106336 255 0 255 
0.122235 -1.05126 5.21996 0.0922007 255 0 255 
0.156689 -1.04789 5.22212 0 255 0 255 
0.141584 -1.04656 5.23982 0 255 0 255 
0.107491 -1.05009 5.2371 0.127704 255 0 255 
0.0933618 -1.04854 5.25433 0.198091 255 0 255 
0.070329 -1.05224 5.23326 0.358325 255 0 255 
0.0848131 -1.05346 5.2164 0.33449 255 0 255 
-0.0064302 -1.05222 5.28002 0.619988 255 0 255 
0.00772392 -1.05326 5.26282 0.621036 255 0 255 
-0.0326301 -1.0544 5.25796 0.72295 255 0 255 
0.0213471 -1.05426 5.24592 0.578499 255 0 255 
-0.0182803 -1.05563 5.24081 0.720263 255 0 255 
-0.00439887 -1.05683 5.22426 0.676976 255 0 255 
-0.0580211 -1.05704 5.23602 0.763801 255 0 255 
0.0347318 -1.055 5.22902 0.528004 255 0 255 
0.057042 -1.05141 5.25012 0.426747 255 0 255 
0.044282 -1.05057 5.26707 0.448922 255 0 255 
-0.0415946 -1.05623 5.21921 0.769849 255 0 255 
-0.0818638 -1.05496 5.21437 0.802645 255 0 255 
-0.0257687 -1.05525 5.20276 0.73988 255 0 255 
-0.0652603 -1.05443 5.19777 0.807257 255 0 255 
-0.049467 -1.05357 5.18155 0.770323 255 0 255 
-0.104694 -1.05382 5.19286 0.789239 255 0 255 
-0.00991807 -1.05424 5.18649 0.696089 255 0 255 
0.0114803 -1.05561 5.20767 0.644435 255 0 255 
0.177373 -1.04089 5.2404 0 255 0 255 
0.164541 -1.03715 5.25733 0 255 0 255 
0.18426 -1.02581 5.27405 0 255 0 255 
0.15156 -1.03293 5.27429 0 255 0 255 
0.139312 -1.02864 5.2908 0 255 0 255 
0.116502 -1.03873 5.2725 0.0305868 255 0 255 
0.128708 -1.04283 5.2563 0.0728925 255 0 255 
0.204664 -1.00944 5.28712 0 255 0 255 
0.191737 -1.00262 5.30312 0 255 0 255 
0.179742 -0.99517 5.31842 0 255 0 255 
0.158979 -1.01223 5.30507 0 255 0 255 
0.171546 -1.01915 5.28944 0 255 0 255 
0.0945683 -1.00224 5.35328 0.102865 255 0 255 
0.10592 -1.00912 5.33755 0.0750774 255 0 255 
0.0702475 -1.01893 5.33762 0.246347 255 0 255 
0.117309 -1.01537 5.32166 0 255 0 255 
0.0818239 -1.02576 5.32216 0.170488 255 0 255 
0.0935841 -1.03191 5.30632 0.116458 255 0 255 
0.0460392 -1.03523 5.32135 0.366347 255 0 255 
0.128388 -1.02235 5.30625 0 255 0 255 
0.148746 -1.00557 5.32065 0 255 0 255 
0.137898 -0.998261 5.33629 0 255 0 255 
0.0584586 -1.03908 5.30451 0.314374 255 0 255 
0.0190852 -1.04405 5.30084 0.529102 255 0 255 
0.0705216 -1.04203 5.28743 0.266197 255 0 255 
0.0321922 -1.04743 5.28397 0.503715 255 0 255 
0.0821663 -1.0454 5.2707 0.225278 255 0 255 
0.104979 -1.03554 5.28963 0.0776236 255 0 255 
0.222629 -0.957714 5.3212 0 255 0 255 
0.208914 -0.946485 5.33535 0 255 0 255 
0.194231 -0.971057 5.3272 0 255 0 255 
0.207795 -0.981939 5.31351 0 255 0 255 
0.217828 -0.914948 5.334 0 255 0 255 
0.163514 -0.913036 5.36256 0.116701 255 0 255 
0.144299 -0.913961 5.37234 0.155255 255 0 255 
0.181995 -0.91239 5.35342 0.0551293 255 0 255 
0.17101 -0.947247 5.35441 0 255 0 255 
0.152179 -0.947922 5.36345 0 255 0 255 
0.132349 -0.948975 5.373 0.049606 255 0 255 
0.195217 -0.929695 5.34447 0 255 0 255 
0.135294 -0.974066 5.35448 0 255 0 255 
0.113273 -0.976181 5.36364 0.120863 255 0 255 
0.156024 -0.972192 5.34584 0 255 0 255 
0.167556 -0.983974 5.33253 0 255 0 255 
0.182772 -0.959515 5.34063 0 255 0 255 
0.161582 -0.687923 5.23615 0.297435 255 0 255 
0.181413 -0.690918 5.22919 0.276048 255 0 255 
0.165424 -0.667796 5.19875 0.138455 255 0 255 
0.152532 -0.676188 5.22085 0.239325 255 0 255 
0.144086 -0.664754 5.20552 0.147673 255 0 255 
0.131347 -0.673209 5.2275 0.287272 255 0 255 
0.140278 -0.684917 5.24328 0.342025 255 0 255 
0.118205 -0.681797 5.24953 0.41283 255 0 255 
0.12196 -0.661928 5.21145 0.199133 255 0 255 
0.10927 -0.670811 5.2341 0.374511 255 0 255 
0.100156 -0.659702 5.21834 0.290029 255 0 255 
0.127605 -0.69365 5.26488 0.42924 255 0 255 
0.166154 -0.659729 5.16392 0.0357646 255 0 255 
0.14628 -0.650028 5.13545 0 255 0 255 
0.124488 -0.647071 5.14122 0 255 0 255 
0.112894 -0.649235 5.16194 0.129435 255 0 255 
0.0900935 -0.646981 5.16779 0.182343 255 0 255 
0.0778693 -0.649798 5.18888 0.256055 255 0 255 
0.0556043 -0.641791 5.15887 0.226129 255 0 255 
0.145644 -0.656961 5.17013 0.0297787 255 0 255 
0.0686805 -0.643517 5.14096 0.140925 255 0 255 
0.0912606 -0.645264 5.1351 0.0531953 255 0 255 
0.103291 -0.648382 5.11703 0.00534491 255 0 255 
0.125665 -0.650884 5.11123 0 255 0 255 
0.105163 -0.653294 5.08714 0 255 0 255 
0.0819687 -0.650494 5.09307 0.0256261 255 0 255 
0.0697114 -0.647286 5.1108 0.0611239 255 0 255 
0.045955 -0.645603 5.11624 0.123022 255 0 255 
0.0327692 -0.643858 5.13422 0.240289 255 0 255 
0.0107306 -0.646018 5.11002 0.200493 255 0 255 
0.128532 -0.656428 5.07971 0 255 0 255 
0.0996298 -0.672063 5.05148 0 255 0 255 
0.0855024 -0.663435 5.06822 0 255 0 255 
0.0657837 -0.67423 5.04926 0 255 0 255 
0.0418391 -0.671283 5.05483 0.0917995 255 0 255 
0.0281092 -0.664078 5.06963 0.133107 255 0 255 
0.00368334 -0.662257 5.0753 0.191469 255 0 255 
-0.0108892 -0.656383 5.09054 0.28363 255 0 255 
-0.0310366 -0.665524 5.07245 0.33518 255 0 255 
0.0251064 -0.652172 5.09462 0.154321 255 0 255 
0.0487166 -0.653706 5.08901 0.0558136 255 0 255 
0.0625138 -0.660686 5.07376 0.0470436 255 0 255 
0.671933 -0.0885575 5.95101 0.381459 255 0 255 
0.668785 -0.0673659 5.96681 0.320533 255 0 255 
0.646456 -0.0700722 5.95784 0.358464 255 0 255 
0.649459 -0.0910494 5.9418 0.434997 255 0 255 
0.642155 -0.0520255 5.97661 0.345569 255 0 255 
0.623864 -0.0730055 5.94881 0.430279 255 0 255 
0.619747 -0.055393 5.96753 0.415681 255 0 255 
0.596889 -0.0581725 5.95838 0.458793 255 0 255 
0.626835 -0.0929978 5.93268 0.482757 255 0 255 
0.601092 -0.0755042 5.9396 0.476141 255 0 255 
0.604067 -0.0959056 5.92337 0.533838 255 0 255 
0.614845 -0.0408776 5.98765 0.422747 255 0 255 
0.592207 -0.0440599 5.97825 0.497912 255 0 255 
0.586573 -0.0332435 6.00005 0.50915 255 0 255 
0.610432 -0.0304708 6.01091 0.462252 255 0 255 
0.638565 -0.0377457 5.99806 0.360006 255 0 255 
0.633936 -0.027349 6.02153 0.4186 255 0 255 
0.662091 -0.0345411 6.00849 0.28289 255 0 255 
0.665873 -0.0490386 5.98687 0.290768 255 0 255 
0.657404 -0.0237919 6.03212 0.36224 255 0 255 
0.582381 -0.0983393 5.91381 0.573158 255 0 255 
0.578145 -0.0779885 5.92884 0.526374 255 0 255 
0.556331 -0.0805461 5.91923 0.554114 255 0 255 
0.560661 -0.100898 5.9039 0.615116 255 0 255 
0.550979 -0.0632489 5.93671 0.540075 255 0 255 
0.534372 -0.0833593 5.90956 0.589768 255 0 255 
0.528969 -0.0659484 5.92712 0.565548 255 0 255 
0.506722 -0.0688488 5.9176 0.614168 255 0 255 
0.538704 -0.103821 5.89418 0.656444 255 0 255 
0.512217 -0.0863281 5.90003 0.630707 255 0 255 
0.51651 -0.106804 5.8845 0.685732 255 0 255 
0.523005 -0.051271 5.94598 0.594926 255 0 255 
0.500847 -0.0540819 5.9363 0.618692 255 0 255 
0.493949 -0.0428077 5.95678 0.656805 255 0 255 
0.517578 -0.0403901 5.96765 0.618139 255 0 255 
0.546397 -0.0487501 5.95669 0.553933 255 0 255 
0.540867 -0.0379016 5.97847 0.593031 255 0 255 
0.569434 -0.0464033 5.96745 0.518102 255 0 255 
0.574124 -0.0607368 5.94753 0.500088 255 0 255 
0.5638 -0.0354893 5.98929 0.536543 255 0 255 
0.458801 -0.0334612 6.04741 0.962034 255 0 255 
0.483637 -0.031646 6.05928 0.957914 255 0 255 
0.491432 -0.0316302 6.03548 0.907732 255 0 255 
0.51589 -0.0296619 6.04734 0.89778 255 0 255 
0.508131 -0.0300021 6.07111 0.945814 255 0 255 
0.523632 -0.0306413 6.02365 0.803698 255 0 255 
0.54011 -0.0275882 6.05889 0.86868 255 0 255 
0.547827 -0.0285091 6.03517 0.793215 255 0 255 
0.571656 -0.026208 6.04664 0.755627 255 0 255 
0.532315 -0.0281053 6.08271 0.933661 255 0 255 
0.563752 -0.0259885 6.07076 0.856857 255 0 255 
0.555983 -0.0268099 6.09463 0.932749 255 0 255 
0.555442 -0.0305975 6.01136 0.662325 255 0 255 
0.579496 -0.0283394 6.0225 0.635313 255 0 255 
0.532365 -0.033274 6.00079 0.696602 255 0 255 
0.508943 -0.035621 5.99012 0.723971 255 0 255 
0.500345 -0.0328417 6.01267 0.824116 255 0 255 
0.476649 -0.0353729 6.00193 0.84107 255 0 255 
0.485305 -0.038145 5.97946 0.738956 255 0 255 
0.467711 -0.0341211 6.02479 0.917463 255 0 255 
0.580752 -0.0250142 6.10646 0.928274 255 0 255 
0.587533 -0.0233755 6.08184 0.839499 255 0 255 
0.61185 -0.0205906 6.09385 0.822536 255 0 255 
0.605149 -0.022279 6.11847 0.919711 255 0 255 
0.618711 -0.0204664 6.06878 0.681116 255 0 255 
0.636473 -0.0174469 6.10629 0.799044 255 0 255 
0.64308 -0.0172375 6.08095 0.643059 255 0 255 
0.630354 -0.0184897 6.13116 0.899848 255 0 255 
0.649943 -0.0188574 6.05553 0.520587 255 0 255 
0.626515 -0.0227395 6.04478 0.58178 255 0 255 
0.603039 -0.0255992 6.03385 0.612343 255 0 255 
0.595365 -0.0231892 6.05766 0.71916 255 0 255 
0.416801 -0.769262 5.88833 0.818832 255 0 255 
0.407953 -0.788615 5.90661 0.803438 255 0 255 
0.387387 -0.81018 5.91932 0.788891 255 0 255 
0.379108 -0.831731 5.93779 0.783808 255 0 255 
0.355826 -0.835895 5.92553 0.800323 255 0 255 
0.36325 -0.81188 5.90864 0.807955 255 0 255 
0.382996 -0.788624 5.89717 0.813494 255 0 255 
0.391008 -0.767763 5.87922 0.822208 255 0 255 
0.412234 -0.748733 5.86667 0.829719 255 0 255 
0.38572 -0.747162 5.85689 0.848167 255 0 255 
0.379444 -0.846509 5.96571 0.769552 255 0 255 
0.367914 -0.863 5.98824 0.766708 255 0 255 
0.345368 -0.884254 6.00421 0.775489 255 0 255 
0.33403 -0.901972 6.02648 0.768375 255 0 255 
0.312056 -0.912303 6.01126 0.760929 255 0 255 
0.323347 -0.893257 5.98999 0.793919 255 0 255 
0.345923 -0.870378 5.97543 0.778274 255 0 255 
0.356986 -0.851843 5.95377 0.786801 255 0 255 
0.268237 -0.931082 5.98129 0.705296 255 0 255 
0.279128 -0.910499 5.96032 0.767053 255 0 255 
0.300994 -0.886535 5.94728 0.797713 255 0 255 
0.311753 -0.865259 5.92669 0.812335 255 0 255 
0.332823 -0.840798 5.91269 0.804548 255 0 255 
0.310186 -0.847 5.89905 0.823684 255 0 255 
0.334257 -0.858963 5.94057 0.798442 255 0 255 
0.323658 -0.878777 5.96163 0.785865 255 0 255 
0.301644 -0.903169 5.9756 0.777736 255 0 255 
0.290673 -0.922818 5.99666 0.72745 255 0 255 
0.316903 -0.82017 5.88358 0.841325 255 0 255 
0.335339 -0.793782 5.87389 0.834156 255 0 255 
0.341794 -0.770007 5.85784 0.853108 255 0 255 
0.360681 -0.747012 5.84676 0.859438 255 0 255 
0.335855 -0.747556 5.83552 0.870817 255 0 255 
0.366132 -0.768576 5.86881 0.836427 255 0 255 
0.358731 -0.790592 5.88608 0.817669 255 0 255 
0.340325 -0.816357 5.8962 0.821859 255 0 255 
0.280106 -0.0438852 5.9521 0.976626 255 0 255 
0.301763 -0.0420606 5.96393 0.974187 255 0 255 
0.311645 -0.0446018 5.94272 0.939406 255 0 255 
0.333167 -0.0430148 5.95447 0.938076 255 0 255 
0.323168 -0.0407793 5.97596 0.973837 255 0 255 
0.343011 -0.0454268 5.93275 0.867031 255 0 255 
0.354596 -0.0415667 5.96615 0.938003 255 0 255 
0.364461 -0.0440022 5.94451 0.867355 255 0 255 
0.386088 -0.0426543 5.95607 0.861418 255 0 255 
0.344519 -0.0397556 5.98788 0.973216 255 0 255 
0.376051 -0.0407426 5.97811 0.936007 255 0 255 
0.366023 -0.0388559 5.99995 0.971354 255 0 255 
0.374411 -0.0473159 5.92265 0.795353 255 0 255 
0.39598 -0.0458709 5.93443 0.778778 255 0 255 
0.405649 -0.0512571 5.91286 0.704372 255 0 255 
0.385056 -0.0529182 5.9014 0.707233 255 0 255 
0.353949 -0.0487658 5.9111 0.793487 255 0 255 
0.364503 -0.054734 5.89003 0.710852 255 0 255 
0.333557 -0.0504298 5.89953 0.79283 255 0 255 
0.322618 -0.0468993 5.92131 0.871144 255 0 255 
0.302078 -0.0489025 5.90976 0.886089 255 0 255 
0.344052 -0.0564549 5.87854 0.715846 255 0 255 
0.312986 -0.0525518 5.88818 0.814844 255 0 255 
0.323551 -0.0586289 5.86727 0.720102 255 0 255 
0.291122 -0.0462398 5.93115 0.940451 255 0 255 
0.389111 -0.037517 6.012 0.969383 255 0 255 
0.398071 -0.0390302 5.98936 0.932595 255 0 255 
0.421338 -0.0372109 6.00123 0.924521 255 0 255 
0.412288 -0.0362701 6.02395 0.966561 255 0 255 
0.430394 -0.0386522 5.97834 0.847587 255 0 255 
0.44455 -0.0356188 6.01301 0.921151 255 0 255 
0.453571 -0.0369316 5.99007 0.846689 255 0 255 
0.435522 -0.0347911 6.03571 0.964048 255 0 255 
0.462212 -0.0396934 5.96758 0.749143 255 0 255 
0.471883 -0.044719 5.94582 0.670287 255 0 255 
0.440169 -0.0415607 5.9565 0.757748 255 0 255 
0.449902 -0.0467445 5.93483 0.686756 255 0 255 
0.418181 -0.0436427 5.94542 0.770008 255 0 255 
0.408348 -0.0404734 5.96715 0.853009 255 0 255 
0.427813 -0.0488369 5.92384 0.694523 255 0 255 
0.495885 -0.109071 5.87423 0.692962 255 0 255 
0.490243 -0.0886009 5.88889 0.647003 255 0 255 
0.469397 -0.0908648 5.8787 0.657208 255 0 255 
0.47526 -0.111378 5.86391 0.719094 255 0 255 
0.462734 -0.0733049 5.89556 0.643933 255 0 255 
0.448693 -0.0932481 5.8685 0.667881 255 0 255 
0.441896 -0.0756229 5.88538 0.655487 255 0 255 
0.420987 -0.0780603 5.87525 0.668681 255 0 255 
0.454592 -0.113784 5.85364 0.735747 255 0 255 
0.427892 -0.0957672 5.85839 0.682095 255 0 255 
0.433811 -0.116177 5.84333 0.743799 255 0 255 
0.434526 -0.0606955 5.90356 0.659177 255 0 255 
0.413657 -0.0632036 5.89349 0.679017 255 0 255 
0.456653 -0.0584258 5.91448 0.643416 255 0 255 
0.478702 -0.0561782 5.92542 0.626967 255 0 255 
0.484716 -0.0710379 5.90657 0.636089 255 0 255 
0.414457 -0.118359 5.83242 0.740168 255 0 255 
0.407242 -0.0978303 5.84711 0.688682 255 0 255 
0.387953 -0.10004 5.83629 0.699189 255 0 255 
0.395052 -0.120574 5.82177 0.741858 255 0 255 
0.379977 -0.0820242 5.85253 0.673256 255 0 255 
0.368608 -0.102219 5.82568 0.699694 255 0 255 
0.360736 -0.0839732 5.84176 0.67631 255 0 255 
0.34134 -0.0862408 5.83115 0.687641 255 0 255 
0.375795 -0.122945 5.81115 0.741684 255 0 255 
0.349235 -0.104417 5.81519 0.708883 255 0 255 
0.356483 -0.125285 5.80063 0.741761 255 0 255 
0.351999 -0.0689657 5.8594 0.685322 255 0 255 
0.332617 -0.0710301 5.84878 0.695782 255 0 255 
0.372471 -0.0668711 5.87069 0.683955 255 0 255 
0.392996 -0.0649896 5.88212 0.685601 255 0 255 
0.400415 -0.0800441 5.86391 0.675956 255 0 255 
0.539087 -0.13032 5.88122 0.737786 255 0 255 
0.560925 -0.127494 5.89126 0.719684 255 0 255 
0.560599 -0.156104 5.87995 0.809345 255 0 255 
0.582696 -0.124685 5.90123 0.688975 255 0 255 
0.582172 -0.153664 5.8904 0.800501 255 0 255 
0.603622 -0.150914 5.90074 0.783581 255 0 255 
0.604252 -0.12228 5.91124 0.668725 255 0 255 
0.581122 -0.183981 5.8806 0.888972 255 0 255 
0.602205 -0.182074 5.89173 0.884854 255 0 255 
0.601215 -0.21227 5.8821 0.948035 255 0 255 
0.581604 -0.213461 5.8716 0.944634 255 0 255 
0.561087 -0.185613 5.87079 0.903749 255 0 255 
0.561929 -0.214801 5.8612 0.9409 255 0 255 
0.541173 -0.187349 5.86097 0.909007 255 0 255 
0.540228 -0.158677 5.87081 0.828426 255 0 255 
0.519779 -0.160893 5.86174 0.845796 255 0 255 
0.542082 -0.216694 5.85094 0.942847 255 0 255 
0.521022 -0.189414 5.8514 0.911627 255 0 255 
0.522082 -0.218585 5.84072 0.940477 255 0 255 
0.518413 -0.132929 5.87249 0.762772 255 0 255 
0.625524 -0.120962 5.91951 0.639142 255 0 255 
0.648118 -0.118333 5.92907 0.593305 255 0 255 
0.645639 -0.147926 5.91855 0.750775 255 0 255 
0.670584 -0.116036 5.93833 0.560084 255 0 255 
0.668234 -0.145612 5.92821 0.731301 255 0 255 
0.66472 -0.177951 5.92003 0.861633 255 0 255 
0.66265 -0.209534 5.9129 0.949185 255 0 255 
0.643919 -0.178988 5.91066 0.863923 255 0 255 
0.642036 -0.210713 5.90315 0.950184 255 0 255 
0.623116 -0.180615 5.90132 0.875034 255 0 255 
0.624687 -0.149673 5.90972 0.769404 255 0 255 
0.621638 -0.211549 5.89286 0.948469 255 0 255 
0.651671 -0.337164 5.87425 0.982821 255 0 255 
0.652715 -0.30871 5.88473 0.993578 255 0 255 
0.634042 -0.308315 5.87444 0.98987 255 0 255 
0.632854 -0.336661 5.86423 0.975625 255 0 255 
0.635275 -0.277585 5.88446 0.991686 255 0 255 
0.614971 -0.307786 5.86446 0.985702 255 0 255 
0.616531 -0.277218 5.87429 0.988912 255 0 255 
0.597553 -0.277107 5.86433 0.986516 255 0 255 
0.613596 -0.336384 5.85427 0.969597 255 0 255 
0.595872 -0.307427 5.8544 0.981285 255 0 255 
0.593873 -0.336489 5.84506 0.964257 255 0 255 
0.617936 -0.245692 5.88371 0.983006 255 0 255 
0.599195 -0.245526 5.87384 0.981782 255 0 255 
0.638118 -0.245105 5.89487 0.981735 255 0 255 
0.658203 -0.244626 5.90588 0.982943 255 0 255 
0.655128 -0.277667 5.8963 0.992516 255 0 255 
0.57446 -0.337389 5.83587 0.961276 255 0 255 
0.575797 -0.308782 5.84337 0.973183 255 0 255 
0.556676 -0.309782 5.83419 0.970712 255 0 255 
0.554905 -0.338212 5.827 0.960585 255 0 255 
0.558044 -0.279315 5.84213 0.974406 255 0 255 
0.537257 -0.310914 5.82554 0.970297 255 0 255 
0.539069 -0.280595 5.83284 0.972018 255 0 255 
0.519903 -0.281738 5.82411 0.972121 255 0 255 
0.534802 -0.339777 5.81898 0.963863 255 0 255 
0.517483 -0.312576 5.81738 0.974093 255 0 255 
0.514553 -0.341963 5.81134 0.969791 255 0 255 
0.540203 -0.249334 5.84127 0.966774 255 0 255 
0.521286 -0.250674 5.83219 0.965224 255 0 255 
0.560098 -0.2475 5.85185 0.971818 255 0 255 
