ply
format ascii 1.0
comment Seamless Cloth Simulation with High Geometric Fidelity 
comment Tue May  7 09:50:32 2019
element vertex 982
property float x
property float y
property float z
property float quality
property uchar red
property uchar green
property uchar blue
end_header
-1.13152 -0.181401 6.16112 0.00827394 255 0 255 
-1.15404 -0.190984 6.16755 0.0139827 255 0 255 
-1.14075 -0.177996 6.18748 0.0102647 255 0 255 
-1.17751 -0.200245 6.17397 0.0336299 255 0 255 
-1.11865 -0.168735 6.17973 0.00706537 255 0 255 
-1.10819 -0.168409 6.15695 0.0100103 255 0 255 
-1.12067 -0.180966 6.13914 0.0128415 255 0 255 
-1.1635 -0.189408 6.19152 0.0152927 255 0 255 
-1.18483 -0.198928 6.19727 0.0302796 255 0 255 
-1.14936 -0.178577 6.20918 0.00839433 255 0 255 
-1.17046 -0.188145 6.2154 0.0153725 255 0 255 
-1.13616 -0.167662 6.22623 0.0093398 255 0 255 
-1.1277 -0.167151 6.20391 0.008812 255 0 255 
-0.750493 -0.083365 6.36178 0.0354282 255 0 255 
-0.757904 -0.0682697 6.34837 0.0557583 255 0 255 
-0.732264 -0.0733798 6.35568 0.0384013 255 0 255 
-0.765095 -0.0524885 6.33509 0.113879 255 0 255 
-0.773253 -0.0350307 6.32197 0.217023 255 0 255 
-0.731148 -0.0548451 6.34069 0.0780983 255 0 255 
-0.711342 -0.0663573 6.35083 0.0418251 255 0 255 
-0.737818 -0.0384312 6.32743 0.123306 255 0 255 
-0.745153 -0.0210052 6.31421 0.213677 255 0 255 
-0.810779 -0.00859962 6.25179 0.111452 255 0 255 
-0.80105 -0.014726 6.27008 0.107991 255 0 255 
-0.824519 -0.0181903 6.25733 0.115653 255 0 255 
-0.791726 -0.0205222 6.28815 0.133368 255 0 255 
-0.815139 -0.0243343 6.27594 0.117131 255 0 255 
-0.805871 -0.031123 6.2941 0.128235 255 0 255 
-0.838132 -0.0288832 6.26279 0.0902755 255 0 255 
-0.782059 -0.0282921 6.30538 0.133049 255 0 255 
-0.761021 -0.0170599 6.30022 0.171913 255 0 255 
-0.834213 -0.0407338 6.28434 0.073548 255 0 255 
-0.824038 -0.0478633 6.30162 0.0391354 255 0 255 
-0.621042 0.0236497 6.24894 0.0108165 255 0 255 
-0.632508 0.0336192 6.23296 0.0223306 255 0 255 
-0.610097 0.014183 6.26486 0.00989096 255 0 255 
-0.640043 0.00658123 6.26791 0.0123162 255 0 255 
-0.651686 0.0169576 6.25189 0.0175842 255 0 255 
-0.663822 0.0273415 6.23565 0.0348811 255 0 255 
-0.614149 0.00152573 6.28171 0.0129911 255 0 255 
-0.618358 -0.0121684 6.29799 0.0131173 255 0 255 
-0.593584 -0.00696247 6.29819 0.0143233 255 0 255 
-0.588462 0.00504015 6.28119 0.0129356 255 0 255 
-0.678067 0.0125203 6.25413 0.0230616 255 0 255 
-0.692134 0.0197909 6.23816 0.0312566 255 0 255 
-0.664419 0.00495366 6.26936 0.0218759 255 0 255 
-0.692658 -0.00197309 6.27272 0.0211813 255 0 255 
-0.706505 0.00529109 6.2576 0.0202086 255 0 255 
-0.721553 0.01205 6.24021 0.0228631 255 0 255 
-0.665108 -0.0069752 6.28576 0.0193597 255 0 255 
-0.665996 -0.0178172 6.30094 0.017432 255 0 255 
-0.641674 -0.0157297 6.29965 0.0156007 255 0 255 
-0.641146 -0.00413528 6.28385 0.0160747 255 0 255 
-0.623329 -0.0584547 6.34002 0.0226978 255 0 255 
-0.607478 -0.0694569 6.35625 0.0202401 255 0 255 
-0.621762 -0.0436388 6.32652 0.0254502 255 0 255 
-0.60529 -0.0559873 6.34173 0.0225333 255 0 255 
-0.603491 -0.0414571 6.32792 0.0250609 255 0 255 
-0.58972 -0.0651251 6.35883 0.0183036 255 0 255 
-0.620257 -0.028344 6.31212 0.0186454 255 0 255 
-0.643157 -0.0322211 6.31355 0.0179706 255 0 255 
-0.644545 -0.0478338 6.32712 0.0251054 255 0 255 
-0.584438 -0.0502785 6.34396 0.0196476 255 0 255 
-0.5699 -0.0612352 6.36255 0.0188213 255 0 255 
-0.579409 -0.0343444 6.32959 0.0195156 255 0 255 
-0.5646 -0.0461991 6.34803 0.0223016 255 0 255 
-0.574146 -0.0173607 6.3142 0.0189849 255 0 255 
-0.59847 -0.0244603 6.3132 0.0181905 255 0 255 
-0.604652 0.0732708 6.08521 0.0965305 255 0 255 
-0.637933 0.0696195 6.07227 0.136393 255 0 255 
-0.600918 0.0737377 6.10962 0.0703838 255 0 255 
-0.634057 0.0709964 6.09755 0.104034 255 0 255 
-0.629899 0.0713692 6.12217 0.0844001 255 0 255 
-0.666924 0.0663879 6.0842 0.14656 255 0 255 
-0.597127 0.0726821 6.13369 0.0540045 255 0 255 
-0.59417 0.0710288 6.15756 0.0665704 255 0 255 
-0.57826 0.0710809 6.15178 0.0416512 255 0 255 
-0.58142 0.0729545 6.12807 0.0476928 255 0 255 
-0.562544 0.0715668 6.14567 0.0424053 255 0 255 
-0.56558 0.072951 6.12242 0.0465517 255 0 255 
-0.584606 0.0736532 6.10393 0.0600647 255 0 255 
-0.547035 0.0711031 6.14013 0.0304602 255 0 255 
-0.665204 0.0666934 6.10424 0.116935 255 0 255 
-0.697389 0.0564311 6.08845 0.108393 255 0 255 
-0.663226 0.0659795 6.12427 0.0949247 255 0 255 
-0.69572 0.0570548 6.10846 0.0883432 255 0 255 
-0.693562 0.0570428 6.12831 0.0590976 255 0 255 
-0.727167 0.0450848 6.09274 0.0592968 255 0 255 
-0.661296 0.0645902 6.14394 0.0822153 255 0 255 
-0.659487 0.0621878 6.16363 0.0663631 255 0 255 
-0.627083 0.0671886 6.16043 0.0741156 255 0 255 
-0.628605 0.0698874 6.14159 0.0876319 255 0 255 
-0.599598 0.0486752 6.21293 0.0336631 255 0 255 
-0.597564 0.0564674 6.19434 0.0326951 255 0 255 
-0.567577 0.0503222 6.21176 0.0267362 255 0 255 
-0.565072 0.0581705 6.19366 0.0308003 255 0 255 
-0.595514 0.0642022 6.17625 0.0519662 255 0 255 
-0.628229 0.060084 6.17952 0.0459693 255 0 255 
-0.629393 0.0523459 6.19827 0.0392122 255 0 255 
-0.537739 0.053107 6.20532 0.0236835 255 0 255 
-0.517685 0.053503 6.20245 0.0216913 255 0 255 
-0.535356 0.0593266 6.18214 0.0189521 255 0 255 
-0.498579 0.0544911 6.19981 0.022059 255 0 255 
-0.515173 0.0588258 6.17918 0.0175536 255 0 255 
-0.533321 0.0651513 6.15858 0.015922 255 0 255 
-0.548494 0.0654388 6.16425 0.0206161 255 0 255 
-0.563806 0.0653182 6.17004 0.0315822 255 0 255 
-0.550265 0.0589847 6.18782 0.0205438 255 0 255 
-0.873381 -0.0525652 6.25872 0.0192499 255 0 255 
-0.884021 -0.0528412 6.23972 0.0160253 255 0 255 
-0.854313 -0.0354185 6.24744 0.0464848 255 0 255 
-0.895191 -0.0531604 6.22043 0.0126061 255 0 255 
-0.905938 -0.0538339 6.20161 0.0284378 255 0 255 
-0.920746 -0.0642945 6.21323 0.0177946 255 0 255 
-0.909289 -0.064446 6.23228 0.0142201 255 0 255 
-0.84005 -0.0241159 6.24011 0.0550284 255 0 255 
-0.856166 -0.0298403 6.22246 0.0341508 255 0 255 
-0.84247 -0.0202257 6.21646 0.0450108 255 0 255 
-0.826619 -0.0139315 6.23398 0.07017 255 0 255 
-0.865327 -0.0318079 6.20202 0.0334815 255 0 255 
-0.874901 -0.0338612 6.18248 0.040054 255 0 255 
-0.890641 -0.0433291 6.1917 0.046201 255 0 255 
-0.880695 -0.0420739 6.21234 0.0369123 255 0 255 
-0.946208 -0.0819589 6.11916 0.0167381 255 0 255 
-0.935994 -0.0745349 6.1389 0.0118484 255 0 255 
-0.963874 -0.0900321 6.13361 0.0174677 255 0 255 
-0.925559 -0.0677168 6.1595 0.00987867 255 0 255 
-0.952634 -0.0832865 6.15433 0.0100159 255 0 255 
-0.942287 -0.0763292 6.17476 0.0112801 255 0 255 
-0.980662 -0.0981473 6.14938 0.0143914 255 0 255 
-0.915293 -0.0603912 6.18029 0.0145204 255 0 255 
-0.899703 -0.0510833 6.17007 0.0206221 255 0 255 
-0.908755 -0.0588957 6.14986 0.0120858 255 0 255 
-0.969091 -0.0914655 6.16758 0.011531 255 0 255 
-0.99555 -0.104204 6.16699 0.0161369 255 0 255 
-0.957429 -0.0855193 6.18702 0.011343 255 0 255 
-0.983769 -0.0981178 6.18616 0.0135291 255 0 255 
-0.946038 -0.0798853 6.20625 0.0123941 255 0 255 
-0.931549 -0.0702785 6.19369 0.013545 255 0 255 
-0.742951 0.0354693 6.09316 0.0585076 255 0 255 
-0.726825 0.0441878 6.11112 0.0562618 255 0 255 
-0.742562 0.0350123 6.11125 0.0528445 255 0 255 
-0.758442 0.0256123 6.0935 0.0472097 255 0 255 
-0.726249 0.0428007 6.12932 0.0502092 255 0 255 
-0.758429 0.0255649 6.1118 0.0365055 255 0 255 
-0.742313 0.0338055 6.12974 0.0368534 255 0 255 
-0.758033 0.024527 6.13029 0.0253487 255 0 255 
-0.773533 0.015513 6.09374 0.0393865 255 0 255 
-0.773676 0.0158291 6.11227 0.0347535 255 0 255 
-0.788583 0.00623461 6.09472 0.060892 255 0 255 
-0.725936 0.0407245 6.1477 0.0437588 255 0 255 
-0.742325 0.0323169 6.14812 0.0296173 255 0 255 
-0.725964 0.0380078 6.16595 0.0415434 255 0 255 
-0.709302 0.0447989 6.16563 0.0514683 255 0 255 
-0.709681 0.0475952 6.14746 0.0571034 255 0 255 
-0.692891 0.0509706 6.16484 0.0561705 255 0 255 
-0.69323 0.0543358 6.14653 0.0655959 255 0 255 
-0.710348 0.0504305 6.12917 0.0642431 255 0 255 
-0.676078 0.0566267 6.16449 0.0667119 255 0 255 
-0.802942 -0.00371733 6.09539 0.0292971 255 0 255 
-0.802663 -0.00256212 6.11335 0.041465 255 0 255 
-0.818024 -0.0130809 6.09611 0.0352803 255 0 255 
-0.787721 0.00803864 6.13095 0.0690788 255 0 255 
-0.817484 -0.0121683 6.11407 0.0421177 255 0 255 
-0.802055 -0.00182694 6.13166 0.0535071 255 0 255 
-0.832956 -0.0231346 6.09629 0.0317294 255 0 255 
-0.848448 -0.032293 6.09732 0.0119807 255 0 255 
-0.786923 0.00770588 6.16802 0.0899251 255 0 255 
-0.772655 0.016262 6.14879 0.0459832 255 0 255 
-0.757037 0.0238405 6.16666 0.072507 255 0 255 
-0.722607 0.0194152 6.22168 0.0507177 255 0 255 
-0.723471 0.0259683 6.20343 0.0840025 255 0 255 
-0.692794 0.027983 6.22046 0.064346 255 0 255 
-0.693747 0.0347597 6.20208 0.0395241 255 0 255 
-0.72457 0.0325616 6.18478 0.0625205 255 0 255 
-0.755914 0.0186536 6.18563 0.0973371 255 0 255 
-0.754478 0.0127155 6.20512 0.058039 255 0 255 
-0.66204 0.036207 6.21729 0.0312074 255 0 255 
-0.66082 0.0451441 6.19934 0.0323922 255 0 255 
-0.630672 0.0425358 6.21538 0.0265055 255 0 255 
-0.659921 0.0537333 6.18172 0.0473343 255 0 255 
-0.676412 0.0486049 6.18257 0.047911 255 0 255 
-0.692934 0.0433705 6.18359 0.0492658 255 0 255 
-0.677188 0.0400068 6.20077 0.0318712 255 0 255 
-0.753732 -0.118953 5.77966 0.00386761 255 0 255 
-0.740737 -0.108094 5.78733 0.00312781 255 0 255 
-0.718516 -0.100712 5.78016 0.00265216 255 0 255 
-0.705819 -0.0890035 5.78818 0.00386422 255 0 255 
-0.683821 -0.0813289 5.78193 0.00597464 255 0 255 
-0.70194 -0.0721356 5.81118 0.00856633 255 0 255 
-0.687986 -0.0977608 5.75914 0.00262782 255 0 255 
-0.665681 -0.0908646 5.75262 0.00381171 255 0 255 
-0.701779 -0.108362 5.75275 0.00212262 255 0 255 
-0.715378 -0.118242 5.7467 0.00249581 255 0 255 
-0.737342 -0.1248 5.75353 0.00399218 255 0 255 
-0.72133 -0.131351 5.72757 0.00518984 255 0 255 
-0.687142 -0.0603611 5.81963 0.00434211 255 0 255 
-0.677744 -0.0659172 5.80348 0.00683465 255 0 255 
-0.662602 -0.0542747 5.8119 0.00402992 255 0 255 
-0.672508 -0.0485172 5.82801 0.00310056 255 0 255 
-0.652841 -0.0602247 5.79582 0.00629331 255 0 255 
-0.647083 -0.0423248 5.82064 0.00344076 255 0 255 
-0.637377 -0.0486511 5.80462 0.00437815 255 0 255 
-0.656852 -0.0361992 5.83651 0.0034551 255 0 255 
-0.627284 -0.0545525 5.78895 0.00641812 255 0 255 
-0.634133 -0.0704852 5.76683 0.00475623 255 0 255 
-0.659414 -0.0759131 5.77404 0.00469049 255 0 255 
-0.581589 -0.086392 5.70785 0.00873037 255 0 255 
-0.607895 -0.0901114 5.71763 0.00393858 255 0 255 
-0.625148 -0.0994375 5.71204 0.00341479 255 0 255 
-0.649428 -0.102534 5.72208 0.00338357 255 0 255 
-0.633142 -0.113932 5.69176 0.00778318 255 0 255 
-0.641252 -0.0874362 5.74278 0.00297431 255 0 255 
-0.625212 -0.0773951 5.74989 0.00389567 255 0 255 
-0.608311 -0.0673427 5.75703 0.00542825 255 0 255 
-0.599285 -0.0743214 5.73997 0.00491833 255 0 255 
-0.648498 -0.123582 5.68746 0.00456758 255 0 255 
-0.670643 -0.128049 5.69605 0.00291838 255 0 255 
-0.685022 -0.136643 5.69185 0.00366066 255 0 255 
-0.707061 -0.140696 5.70067 0.00570416 255 0 255 
-0.692568 -0.150063 5.67461 0.00685705 255 0 255 
-0.699495 -0.127309 5.71841 0.00288801 255 0 255 
-0.685581 -0.117396 5.72459 0.00198961 255 0 255 
-0.671397 -0.107036 5.73109 0.00200065 255 0 255 
-0.652365 -0.0194925 5.85978 0.00699619 255 0 255 
-0.637467 -0.00853442 5.87044 0.00828768 255 0 255 
-0.648599 -0.00445246 5.88446 0.00891658 255 0 255 
-0.663793 -0.0157628 5.87361 0.00860144 255 0 255 
-0.633644 0.00673172 5.89578 0.0129073 255 0 255 
-0.660335 -0.000654986 5.89865 0.0109839 255 0 255 
-0.645023 0.0109981 5.91013 0.0147991 255 0 255 
-0.656125 0.0149591 5.92457 0.0171442 255 0 255 
-0.674387 -0.0119578 5.888 0.00884689 255 0 255 
-0.671271 0.00301527 5.91301 0.0121073 255 0 255 
-0.685756 -0.0085843 5.90235 0.0104827 255 0 255 
-0.628942 0.0221867 5.92184 0.0209506 255 0 255 
-0.640186 0.0264851 5.93621 0.0247884 255 0 255 
-0.623362 0.0372395 5.94842 0.0342935 255 0 255 
-0.610237 0.0323445 5.93254 0.0306397 255 0 255 
-0.615844 0.0168192 5.90576 0.0179386 255 0 255 
-0.596952 0.0266214 5.91625 0.0264515 255 0 255 
-0.602203 0.0112572 5.88988 0.015512 255 0 255 
-0.620192 0.00151783 5.8799 0.010771 255 0 255 
-0.583429 0.0205434 5.90015 0.0227743 255 0 255 
-0.68417 0.00433686 5.92569 0.0125198 255 0 255 
-0.709442 -0.00859073 5.92469 0.0120348 255 0 255 
-0.682756 0.0172044 5.94929 0.0181028 255 0 255 
-0.70763 0.00391989 5.94757 0.0135031 255 0 255 
-0.705355 0.0161258 5.97003 0.0229806 255 0 255 
-0.731961 -0.00979058 5.94605 0.0135114 255 0 255 
-0.679946 0.0296511 5.9724 0.0286679 255 0 255 
-0.676511 0.0419072 5.99612 0.048075 255 0 255 
-0.663682 0.0413903 5.98442 0.0452361 255 0 255 
-0.667084 0.0289354 5.96053 0.0257547 255 0 255 
-0.650519 0.0405822 5.973 0.0427004 255 0 255 
-0.653794 0.0280677 5.94866 0.0269601 255 0 255 
-0.669462 0.0161917 5.93683 0.0173862 255 0 255 
-0.637294 0.0390386 5.96075 0.0335971 255 0 255 
-0.611922 0.0657724 6.03406 0.0501776 255 0 255 
-0.597451 0.0640681 6.02135 0.0447042 255 0 255 
-0.616437 0.0578436 6.00609 0.0395768 255 0 255 
-0.582263 0.0617497 6.00807 0.0375756 255 0 255 
-0.601407 0.0557545 5.99278 0.0399498 255 0 255 
-0.585569 0.0530428 5.97898 0.0397174 255 0 255 
-0.566396 0.0589765 5.99395 0.0473939 255 0 255 
-0.620266 0.0482307 5.9775 0.0343005 255 0 255 
-0.604865 0.0455379 5.96312 0.0375769 255 0 255 
-0.633966 0.0496514 5.98909 0.034951 255 0 255 
-0.64696 0.0508453 6.00075 0.0510547 255 0 255 
-0.629474 0.0589708 6.01707 0.043364 255 0 255 
-0.642951 0.0596356 6.02828 0.0792512 255 0 255 
-0.659986 0.0515283 6.01228 0.0567862 255 0 255 
-0.625692 0.0665385 6.0443 0.069514 255 0 255 
-0.553519 0.0539971 5.97789 0.0405568 255 0 255 
-0.539129 0.0478307 5.95928 0.0301796 255 0 255 
-0.559753 0.0421315 5.94615 0.0326285 255 0 255 
-0.524395 0.040889 5.94076 0.0300343 255 0 255 
-0.544868 0.0352151 5.92752 0.0229203 255 0 255 
-0.565077 0.0284424 5.91486 0.0230519 255 0 255 
-0.578522 0.0347558 5.93095 0.0276914 255 0 255 
-0.591833 0.0403637 5.94702 0.03134 255 0 255 
-0.572761 0.0479438 5.96266 0.0379347 255 0 255 
-0.731722 -0.000293306 5.96503 0.0163792 255 0 255 
-0.75602 -0.0192309 5.95844 0.0152693 255 0 255 
-0.730686 0.00904597 5.98364 0.0254451 255 0 255 
-0.755484 -0.0100968 5.97696 0.0175252 255 0 255 
-0.754819 -0.000694194 5.99569 0.038563 255 0 255 
-0.780109 -0.0285153 5.97055 0.0228887 255 0 255 
-0.729863 0.0184451 6.00264 0.0370986 255 0 255 
-0.728611 0.0276087 6.02148 0.102909 255 0 255 
-0.703003 0.0354462 6.00908 0.0677045 255 0 255 
-0.704251 0.0259955 5.98934 0.033871 255 0 255 
-0.793884 -0.0306141 5.98964 0.00928644 255 0 255 
-0.806156 -0.0448804 5.97747 0.00496149 255 0 255 
-0.781525 -0.0159841 6.00217 0.0275695 255 0 255 
-0.807662 -0.032938 6.0073 0.00864445 255 0 255 
-0.820194 -0.0468052 5.99482 0.00528846 255 0 255 
-0.832485 -0.0599719 5.98285 0.00837014 255 0 255 
-0.794761 -0.0186753 6.01988 0.0141714 255 0 255 
-0.782415 -0.00412054 6.03264 0.0429685 255 0 255 
-0.768723 -0.00251981 6.01456 0.0211277 255 0 255 
-0.755944 0.0114868 6.02715 0.0448559 255 0 255 
-0.727768 0.0412807 6.07468 0.0820308 255 0 255 
-0.728154 0.0371091 6.05678 0.084491 255 0 255 
-0.698321 0.0531879 6.07034 0.121736 255 0 255 
-0.698878 0.0492948 6.05231 0.116874 255 0 255 
-0.728544 0.0326075 6.03935 0.0735472 255 0 255 
-0.755889 0.0163492 6.04431 0.0437298 255 0 255 
-0.755382 0.0211762 6.06132 0.046343 255 0 255 
-0.669464 0.0617088 6.06258 0.138085 255 0 255 
-0.671818 0.0561144 6.04084 0.140145 255 0 255 
-0.687511 0.0463824 6.02468 0.0775623 255 0 255 
-0.966058 -0.0988442 6.10495 0.0166671 255 0 255 
-0.994032 -0.117513 6.10088 0.0178267 255 0 255 
-1.01292 -0.13351 6.08757 0.0223464 255 0 255 
-1.04071 -0.150801 6.08458 0.0193215 255 0 255 
-1.02261 -0.146952 6.06634 0.0291893 255 0 255 
-1.03036 -0.137538 6.10704 0.0140522 255 0 255 
-1.05819 -0.154624 6.10326 0.0168562 255 0 255 
-1.01111 -0.123553 6.11825 0.0178588 255 0 255 
-0.991989 -0.108522 6.1294 0.0156153 255 0 255 
-1.04116 -0.168001 6.05558 0.011188 255 0 255 
-1.04878 -0.166383 6.06956 0.00892746 255 0 255 
-1.06738 -0.186591 6.05806 0.00745223 255 0 255 
-1.05973 -0.188545 6.04471 0.00715047 255 0 255 
-1.07587 -0.184724 6.07145 0.00995793 255 0 255 
-1.08694 -0.205685 6.04699 0.0100355 255 0 255 
-1.09488 -0.203256 6.0599 0.0128085 255 0 255 
-1.11462 -0.221579 6.04832 0.0246483 255 0 255 
-1.0787 -0.208212 6.03465 0.00693253 255 0 255 
-1.10594 -0.224785 6.03634 0.0160278 255 0 255 
-1.09649 -0.228658 6.02446 0.00746281 255 0 255 
-1.10284 -0.20137 6.07301 0.0145754 255 0 255 
-1.12312 -0.218926 6.06105 0.0304319 255 0 255 
-1.13139 -0.216645 6.07417 0.0317388 255 0 255 
-1.09433 -0.186778 6.08883 0.0116558 255 0 255 
-1.06687 -0.169582 6.0869 0.00962093 255 0 255 
-1.13168 -0.194636 6.12062 0.0164926 255 0 255 
-1.10641 -0.182541 6.11522 0.0113414 255 0 255 
-1.09569 -0.168633 6.13279 0.0116513 255 0 255 
-1.07166 -0.154853 6.12681 0.0156348 255 0 255 
-1.08215 -0.169036 6.1098 0.0113444 255 0 255 
-1.11947 -0.199656 6.0935 0.0180191 255 0 255 
-1.14529 -0.211348 6.09854 0.0338751 255 0 255 
-1.05855 -0.141734 6.15099 0.0126263 255 0 255 
-1.0327 -0.12762 6.14981 0.0160469 255 0 255 
-1.02164 -0.118722 6.167 0.0142445 255 0 255 
-1.00671 -0.113153 6.14897 0.017809 255 0 255 
-1.04577 -0.141163 6.12639 0.0123886 255 0 255 
-0.847768 -0.0703532 5.98483 0.00701107 255 0 255 
-0.863241 -0.0805228 5.98691 0.00394302 255 0 255 
-0.838876 -0.0532202 6.00945 0.010393 255 0 255 
-0.854459 -0.0640742 6.01148 0.00776059 255 0 255 
-0.870107 -0.074197 6.01262 0.00639005 255 0 255 
-0.879478 -0.0906754 5.98883 0.00406813 255 0 255 
-0.895361 -0.100346 5.99041 0.00338971 255 0 255 
-0.844024 -0.0464626 6.03644 0.0139437 255 0 255 
-0.827703 -0.0365202 6.03523 0.0137776 255 0 255 
-0.8122 -0.0260919 6.03447 0.0150023 255 0 255 
-0.911584 -0.111404 5.99203 0.00290476 255 0 255 
-0.928497 -0.122161 5.99397 0.00193298 255 0 255 
-0.903417 -0.093645 6.01535 0.00839177 255 0 255 
-0.919885 -0.104755 6.01622 0.00416982 255 0 255 
-0.937026 -0.115918 6.01758 0.00491655 255 0 255 
-0.944914 -0.132839 5.99623 0.00266498 255 0 255 
-0.962366 -0.143934 5.99803 0.00172758 255 0 255 
-0.910351 -0.0875375 6.0393 0.0086375 255 0 255 
-0.893524 -0.0775855 6.03889 0.0109937 255 0 255 
-0.877121 -0.0675834 6.03818 0.00903946 255 0 255 
-0.886521 -0.0840416 6.01357 0.00575362 255 0 255 
-0.860198 -0.0570385 6.03733 0.0146549 255 0 255 
-0.846622 -0.0391104 6.06639 0.0159284 255 0 255 
-0.830716 -0.0303498 6.06556 0.0137444 255 0 255 
-0.815807 -0.0208014 6.06473 0.0140103 255 0 255 
-0.862533 -0.0500551 6.06646 0.00919075 255 0 255 
-0.879018 -0.0610708 6.06728 0.00881984 255 0 255 
-0.785341 0.0011457 6.06293 0.0452017 255 0 255 
-0.770625 0.0111084 6.06216 0.0382743 255 0 255 
-0.798685 -0.0124671 6.0487 0.0197306 255 0 255 
-0.759894 -0.105393 5.81189 0.00199627 255 0 255 
-0.7719 -0.11693 5.80291 0.00237219 255 0 255 
-0.747694 -0.0930474 5.82098 0.00260996 255 0 255 
-0.765727 -0.0909166 5.84393 0.0017091 255 0 255 
-0.777608 -0.103142 5.83485 0.00151193 255 0 255 
-0.789758 -0.115186 5.82551 0.00232634 255 0 255 
-0.744809 -0.0787847 5.84183 0.0037902 255 0 255 
-0.742001 -0.0638461 5.86279 0.0066488 255 0 255 
-0.722109 -0.0677278 5.83696 0.00717875 255 0 255 
-0.724591 -0.0824699 5.81586 0.00475509 255 0 255 
-0.798522 -0.105906 5.85481 0.000820508 255 0 255 
-0.81019 -0.118432 5.84442 0.00105138 255 0 255 
-0.7873 -0.092889 5.86482 0.00108963 255 0 255 
-0.806828 -0.0962289 5.88293 0.00050123 255 0 255 
-0.818249 -0.109015 5.8727 0.000482073 255 0 255 
-0.830219 -0.121702 5.86274 0.00079391 255 0 255 
-0.785943 -0.0809613 5.88406 0.00160924 255 0 255 
-0.784337 -0.0685578 5.90274 0.00281204 255 0 255 
-0.763288 -0.0659456 5.88325 0.00375024 255 0 255 
-0.764833 -0.0788472 5.86359 0.00247508 255 0 255 
-0.735291 -0.0238281 5.9254 0.0106842 255 0 255 
-0.737969 -0.037573 5.90473 0.00603728 255 0 255 
-0.711929 -0.0229225 5.90333 0.00768236 255 0 255 
-0.714568 -0.0368168 5.88251 0.0049081 255 0 255 
-0.740283 -0.051024 5.88397 0.00466066 255 0 255 
-0.761343 -0.0533584 5.90364 0.00407926 255 0 255 
-0.758707 -0.0403913 5.92361 0.00610655 255 0 255 
-0.690439 -0.0253368 5.87942 0.00588915 255 0 255 
-0.679322 -0.0287474 5.865 0.00492928 255 0 255 
-0.694913 -0.0417671 5.85643 0.00398616 255 0 255 
-0.668401 -0.0324703 5.8508 0.00413115 255 0 255 
-0.684066 -0.0450779 5.84225 0.00360504 255 0 255 
-0.698429 -0.057376 5.83378 0.00425547 255 0 255 
-0.718721 -0.05277 5.85969 0.00440327 255 0 255 
-0.841021 -0.117817 5.88521 0.000368729 255 0 255 
-0.852625 -0.130649 5.87508 0.000646704 255 0 255 
-0.829807 -0.104434 5.89529 0.000497503 255 0 255 
-0.851855 -0.113275 5.90636 0.000667723 255 0 255 
-0.863611 -0.126536 5.89678 0.000629174 255 0 255 
-0.875302 -0.139274 5.88644 0.00166397 255 0 255 
-0.829749 -0.0954692 5.91086 0.00119132 255 0 255 
-0.829699 -0.0863889 5.92651 0.00262834 255 0 255 
-0.807069 -0.0777642 5.91536 0.00139756 255 0 255 
-0.807009 -0.0870573 5.89892 0.000776292 255 0 255 
-0.889047 -0.139736 5.90516 0.00113498 255 0 255 
-0.899839 -0.152134 5.89567 0.00203935 255 0 255 
-0.878453 -0.127096 5.91466 0.000799974 255 0 255 
-0.902834 -0.139809 5.92307 0.00122842 255 0 255 
-0.913683 -0.152376 5.9139 0.00209004 255 0 255 
-0.92465 -0.164714 5.9043 0.0038305 255 0 255 
-0.892138 -0.127191 5.93199 0.00150714 255 0 255 
-0.881422 -0.113919 5.94163 0.00237885 255 0 255 
-0.866616 -0.113796 5.9244 0.000860835 255 0 255 
-0.854942 -0.100305 5.9343 0.00116921 255 0 255 
-0.818623 -0.0594507 5.96581 0.00355361 255 0 255 
-0.831384 -0.0733789 5.95485 0.00441232 255 0 255 
-0.805303 -0.0591774 5.9479 0.00317783 255 0 255 
-0.792663 -0.0441917 5.95909 0.00585399 255 0 255 
-0.817688 -0.0732717 5.93704 0.00194532 255 0 255 
-0.843137 -0.0871026 5.94446 0.00139309 255 0 255 
-0.85714 -0.0877439 5.96165 0.00356012 255 0 255 
-0.869032 -0.10099 5.95114 0.0020336 255 0 255 
-0.769402 -0.0343452 5.94734 0.00814688 255 0 255 
-0.783013 -0.0490602 5.93692 0.0040868 255 0 255 
-0.784178 -0.0589912 5.92032 0.00386509 255 0 255 
-0.894336 -0.901616 5.85503 0.0160078 255 0 255 
-0.874397 -0.900104 5.86988 0.0245538 255 0 255 
-0.887224 -0.888037 5.89284 0.0248553 255 0 255 
-0.866582 -0.886696 5.90528 0.0350959 255 0 255 
-0.854337 -0.89961 5.8836 0.0272802 255 0 255 
-0.880169 -0.875592 5.92663 0.0523971 255 0 255 
-0.846218 -0.886512 5.91744 0.0344411 255 0 255 
-0.859542 -0.874943 5.93763 0.0613602 255 0 255 
-0.838937 -0.876064 5.94826 0.0665456 255 0 255 
-0.833881 -0.899647 5.89641 0.0280025 255 0 255 
-0.825717 -0.88692 5.92888 0.0486866 255 0 255 
-0.813789 -0.900526 5.90887 0.0458025 255 0 255 
-0.873919 -0.866416 5.95748 0.0962403 255 0 255 
-0.85314 -0.867861 5.96756 0.0909768 255 0 255 
-0.868546 -0.862184 5.98712 0.11662 255 0 255 
-0.888107 -0.860863 5.9752 0.0839716 255 0 255 
-0.89315 -0.867042 5.94527 0.0517933 255 0 255 
-0.907144 -0.860054 5.96339 0.0671796 255 0 255 
-0.912062 -0.868468 5.93246 0.0280963 255 0 255 
-0.899478 -0.877568 5.91317 0.0195636 255 0 255 
-0.918073 -0.881431 5.89832 0.0103633 255 0 255 
-0.925689 -0.861228 5.95151 0.0400143 255 0 255 
-0.930542 -0.872499 5.91915 0.0101965 255 0 255 
-0.944308 -0.863591 5.94009 0.0182766 255 0 255 
-0.905974 -0.891227 5.8767 0.0114459 255 0 255 
-0.790672 -0.898909 5.92124 0.0833521 255 0 255 
-0.802919 -0.884648 5.94238 0.11856 255 0 255 
-0.779568 -0.883463 5.95406 0.179811 255 0 255 
-0.767784 -0.897974 5.93382 0.121126 255 0 255 
-0.793248 -0.87346 5.97466 0.18833 255 0 255 
-0.757252 -0.883418 5.96601 0.206082 255 0 255 
-0.770573 -0.873983 5.9863 0.222036 255 0 255 
-0.745557 -0.897129 5.94602 0.140929 255 0 255 
-0.78547 -0.868968 6.00749 0.172986 255 0 255 
-0.800977 -0.867496 6.02745 0.0924502 255 0 255 
-0.807463 -0.867794 5.99373 0.138431 255 0 255 
-0.823146 -0.864836 6.01335 0.0953449 255 0 255 
-0.830119 -0.867376 5.98036 0.117793 255 0 255 
-0.815726 -0.874144 5.96143 0.113327 255 0 255 
-0.845674 -0.863404 5.99994 0.0952513 255 0 255 
-0.884478 -0.875307 6.10952 0.0772491 255 0 255 
-0.863137 -0.8754 6.09007 0.0329741 255 0 255 
-0.885815 -0.868941 6.07392 0.0197906 255 0 255 
-0.907767 -0.867806 6.09325 0.0438562 255 0 255 
-0.864417 -0.867846 6.0546 0.0179752 255 0 255 
-0.908722 -0.862178 6.05868 0.0139619 255 0 255 
-0.887033 -0.862748 6.03941 0.0197293 255 0 255 
-0.908936 -0.858047 6.02498 0.0233668 255 0 255 
-0.929981 -0.860258 6.07795 0.023772 255 0 255 
-0.930069 -0.856158 6.04405 0.0158659 255 0 255 
-0.951068 -0.853895 6.06322 0.0176492 255 0 255 
-0.865601 -0.862103 6.02026 0.07191 255 0 255 
-0.888428 -0.860059 6.00617 0.0542285 255 0 255 
-0.843076 -0.865013 6.03394 0.0414335 255 0 255 
-0.82051 -0.868938 6.04826 0.0259748 255 0 255 
-0.84141 -0.872088 6.06907 0.00909378 255 0 255 
-0.967892 -0.847248 6.05018 0.0142376 255 0 255 
-0.948043 -0.850828 6.03245 0.023925 255 0 255 
-0.964949 -0.846592 6.01998 0.0227192 255 0 255 
-0.984586 -0.841693 6.0377 0.0147255 255 0 255 
-0.945815 -0.851506 6.00238 0.0400287 255 0 255 
-0.982205 -0.843443 6.00803 0.0201845 255 0 255 
-0.962921 -0.848999 5.98996 0.0291704 255 0 255 
-0.980118 -0.84807 5.97769 0.0185831 255 0 255 
-1.00181 -0.837625 6.0259 0.0141397 255 0 255 
-0.999512 -0.841014 5.99657 0.0161399 255 0 255 
-1.01951 -0.833931 6.01455 0.0151463 255 0 255 
-0.944273 -0.854858 5.97181 0.0409195 255 0 255 
-0.961389 -0.855418 5.95869 0.021527 255 0 255 
-0.926031 -0.855323 5.98297 0.0499767 255 0 255 
-0.907489 -0.857002 5.9944 0.0498482 255 0 255 
-0.927538 -0.853913 6.01342 0.0349913 255 0 255 
-0.940788 -0.169384 5.9216 0.0023674 255 0 255 
-0.950534 -0.181206 5.91262 0.00344862 255 0 255 
-0.931796 -0.15776 5.93036 0.00192109 255 0 255 
-0.957189 -0.173884 5.93845 0.0038107 255 0 255 
-0.967139 -0.186089 5.92957 0.00317112 255 0 255 
-0.97737 -0.198214 5.92071 0.00277911 255 0 255 
-0.948033 -0.162134 5.9466 0.00230626 255 0 255 
-0.938983 -0.150511 5.9545 0.00141923 255 0 255 
-0.920604 -0.145188 5.93901 0.000877393 255 0 255 
-0.909936 -0.132451 5.94802 0.00120429 255 0 255 
-0.99583 -0.206396 5.9361 0.00513731 255 0 255 
-1.01467 -0.214408 5.95084 0.00723977 255 0 255 
-1.01831 -0.228092 5.93052 0.00603872 255 0 255 
-0.993184 -0.19343 5.9556 0.00445429 255 0 255 
-0.983284 -0.180929 5.96404 0.00544769 255 0 255 
-0.950697 -0.147056 5.97685 0.00204385 255 0 255 
-0.933955 -0.13644 5.97434 0.00139122 255 0 255 
-0.917511 -0.125749 5.97194 0.00148641 255 0 255 
-0.959542 -0.158882 5.96908 0.00198158 255 0 255 
-0.980179 -0.167317 5.98244 0.00213248 255 0 255 
-0.971274 -0.155559 5.99037 0.00140238 255 0 255 
-0.88864 -0.107373 5.96614 0.00287708 255 0 255 
-0.899405 -0.11998 5.95714 0.00120465 255 0 255 
-1.13584 -0.19108 6.53671 0.0495241 255 0 255 
-1.15547 -0.201168 6.51698 0.0672072 255 0 255 
-1.13164 -0.199243 6.55797 0.0398465 255 0 255 
-1.15141 -0.209335 6.5397 0.0627842 255 0 255 
-1.14715 -0.217291 6.56095 0.0657622 255 0 255 
-1.17136 -0.220604 6.51889 0.0896987 255 0 255 
-1.12742 -0.208308 6.57764 0.0317118 255 0 255 
-1.12275 -0.217377 6.59724 0.0282218 255 0 255 
-1.10857 -0.199503 6.5926 0.0181217 255 0 255 
-1.11321 -0.190516 6.57334 0.0219771 255 0 255 
-1.16424 -0.229142 6.54297 0.0769268 255 0 255 
-1.18136 -0.24328 6.52354 0.0762168 255 0 255 
-1.15674 -0.238457 6.56585 0.0776204 255 0 255 
-1.17403 -0.251594 6.54762 0.0817007 255 0 255 
-1.16643 -0.260755 6.5708 0.104978 255 0 255 
-1.19076 -0.266752 6.52742 0.0966642 255 0 255 
-1.14931 -0.24805 6.58762 0.0703899 255 0 255 
-1.14186 -0.258472 6.60844 0.0642645 255 0 255 
-1.13213 -0.237424 6.60295 0.0358412 255 0 255 
-1.13981 -0.227332 6.58246 0.0493076 255 0 255 
-1.09181 -0.243191 6.66581 0.0392599 255 0 255 
-1.10242 -0.235859 6.64152 0.0351345 255 0 255 
-1.08211 -0.223388 6.66302 0.0417158 255 0 255 
-1.09352 -0.216286 6.63693 0.0312344 255 0 255 
-1.11278 -0.226842 6.61889 0.0244927 255 0 255 
-1.12249 -0.247011 6.62487 0.0324286 255 0 255 
-1.11275 -0.255684 6.64684 0.0413217 255 0 255 
-1.07027 -0.203277 6.662 0.03995 255 0 255 
-1.07902 -0.198125 6.63462 0.0352918 255 0 255 
-1.05632 -0.182083 6.66362 0.0298239 255 0 255 
-1.08731 -0.190245 6.61082 0.0234484 255 0 255 
-1.10123 -0.208352 6.61449 0.0206305 255 0 255 
-1.02023 -0.79305 6.23216 0.0164651 255 0 255 
-1.00729 -0.806862 6.21908 0.0287145 255 0 255 
-1.03209 -0.799768 6.20464 0.0248235 255 0 255 
-1.04453 -0.786443 6.21741 0.0155692 255 0 255 
-1.01893 -0.812871 6.19067 0.0384591 255 0 255 
-1.05657 -0.7928 6.19032 0.0266773 255 0 255 
-1.04283 -0.805435 6.17684 0.0348522 255 0 255 
-1.06634 -0.798083 6.16377 0.0429671 255 0 255 
-1.06922 -0.780123 6.20342 0.0238826 255 0 255 
-1.08063 -0.785458 6.17699 0.0392418 255 0 255 
-1.09417 -0.773249 6.18946 0.0417161 255 0 255 
-1.0281 -0.817951 6.16217 0.0454689 255 0 255 
-1.05154 -0.809625 6.14889 0.0419527 255 0 255 
-1.03528 -0.820544 6.13327 0.037971 255 0 255 
-1.01283 -0.82808 6.14793 0.0470408 255 0 255 
-1.00486 -0.824809 6.1773 0.0543429 255 0 255 
-0.989756 -0.835645 6.16287 0.0636359 255 0 255 
-0.980379 -0.831408 6.19297 0.0646574 255 0 255 
-0.994354 -0.819096 6.20607 0.0431573 255 0 255 
-0.965239 -0.843802 6.1788 0.0924415 255 0 255 
-1.11885 -0.759652 6.17471 0.0336882 255 0 255 
-1.09998 -0.778596 6.16269 0.0389929 255 0 255 
-1.12596 -0.763804 6.1479 0.0379498 255 0 255 
-1.14472 -0.743961 6.15902 0.0313412 255 0 255 
-1.10525 -0.782698 6.13502 0.0442002 255 0 255 
-1.15311 -0.747286 6.13194 0.0431232 255 0 255 
-1.13239 -0.766341 6.12017 0.0411456 255 0 255 
-1.16154 -0.747835 6.10487 0.050241 255 0 255 
-1.17216 -0.726798 6.14229 0.0427038 255 0 255 
-1.18296 -0.728161 6.11515 0.066922 255 0 255 
-1.20201 -0.708194 6.12508 0.0828237 255 0 255 
-1.11011 -0.78465 6.10724 0.0434819 255 0 255 
-1.13885 -0.766547 6.09333 0.0419832 255 0 255 
-1.11391 -0.784941 6.08052 0.0419582 255 0 255 
-1.09211 -0.795578 6.09305 0.0338961 255 0 255 
-1.08923 -0.79422 6.12122 0.0398708 255 0 255 
-1.07185 -0.804782 6.10611 0.0305564 255 0 255 
-1.06988 -0.802317 6.13517 0.0376095 255 0 255 
-1.08535 -0.790913 6.14942 0.040439 255 0 255 
-1.05319 -0.812745 6.1196 0.0303261 255 0 255 
-1.02434 -0.82987 6.04387 0.0132139 255 0 255 
-1.00676 -0.835041 6.05571 0.0116309 255 0 255 
-1.02891 -0.827424 6.07342 0.0165969 255 0 255 
-0.98998 -0.841394 6.068 0.0148113 255 0 255 
-1.01178 -0.833664 6.08589 0.0195715 255 0 255 
-0.994845 -0.840655 6.09914 0.0305889 255 0 255 
-0.973215 -0.847987 6.08104 0.0224399 255 0 255 
-1.03284 -0.824808 6.10283 0.0282434 255 0 255 
-1.01573 -0.831215 6.11636 0.0350514 255 0 255 
-1.05074 -0.81648 6.09006 0.0208262 255 0 255 
-1.07008 -0.807914 6.07746 0.0216695 255 0 255 
-1.04732 -0.819068 6.06127 0.0137975 255 0 255 
-1.06669 -0.811061 6.04978 0.0184573 255 0 255 
-1.09113 -0.798156 6.06635 0.0255221 255 0 255 
-1.04282 -0.822712 6.03287 0.0133932 255 0 255 
-0.950818 -0.856997 6.0956 0.0445824 255 0 255 
-0.929037 -0.864176 6.11121 0.0707485 255 0 255 
-0.949201 -0.858574 6.12859 0.0916538 255 0 255 
-0.905689 -0.872196 6.1274 0.116999 255 0 255 
-0.926248 -0.865804 6.14491 0.130792 255 0 255 
-0.945551 -0.856854 6.16204 0.125133 255 0 255 
-0.970177 -0.847915 6.14587 0.0792421 255 0 255 
-0.993383 -0.83944 6.13079 0.0511157 255 0 255 
-0.972466 -0.849128 6.11331 0.0496993 255 0 255 
-1.19866 -0.658148 6.24859 0.0235717 255 0 255 
-1.17804 -0.678287 6.24647 0.0160696 255 0 255 
-1.19785 -0.669014 6.22047 0.0285099 255 0 255 
-1.15856 -0.698873 6.24445 0.0185082 255 0 255 
-1.17764 -0.689699 6.21916 0.0227719 255 0 255 
-1.15809 -0.70957 6.21751 0.0258211 255 0 255 
-1.19788 -0.680583 6.19444 0.0376643 255 0 255 
-1.13897 -0.718085 6.24239 0.0248561 255 0 255 
-1.11939 -0.73582 6.24019 0.0330124 255 0 255 
-1.12411 -0.722276 6.26508 0.0279597 255 0 255 
-1.14406 -0.703748 6.26774 0.0231465 255 0 255 
-1.16392 -0.684155 6.27062 0.0206942 255 0 255 
-1.12992 -0.708697 6.29264 0.040392 255 0 255 
-1.19878 -0.688436 6.17718 0.0536145 255 0 255 
-1.17266 -0.705473 6.19364 0.0304221 255 0 255 
-1.17227 -0.713547 6.17683 0.0392086 255 0 255 
-1.20022 -0.69582 6.16009 0.0655703 255 0 255 
-1.14665 -0.729444 6.19296 0.0309078 255 0 255 
-1.17261 -0.720623 6.15999 0.0439315 255 0 255 
-1.14599 -0.737024 6.17628 0.0370837 255 0 255 
-1.20134 -0.702449 6.14249 0.0797379 255 0 255 
-1.12063 -0.751686 6.19189 0.0355303 255 0 255 
-1.10073 -0.763558 6.20257 0.0375325 255 0 255 
-1.12672 -0.742395 6.20432 0.0311195 255 0 255 
-1.10753 -0.754335 6.21475 0.0384547 255 0 255 
-1.13268 -0.732979 6.21624 0.0327819 255 0 255 
-1.1524 -0.7198 6.20502 0.0240545 255 0 255 
-1.11344 -0.745145 6.22696 0.0366675 255 0 255 
-1.02664 -0.783303 6.24559 0.00891508 255 0 255 
-1.03492 -0.772937 6.25749 0.00700559 255 0 255 
-1.05716 -0.767774 6.24395 0.0103358 255 0 255 
-1.04272 -0.763628 6.26997 0.00587511 255 0 255 
-1.06485 -0.758291 6.25586 0.00863322 255 0 255 
-1.07261 -0.748983 6.26803 0.00777596 255 0 255 
-1.05053 -0.754686 6.28271 0.00782282 255 0 255 
-1.08809 -0.752797 6.24236 0.0152592 255 0 255 
-1.09593 -0.742949 6.25416 0.0162215 255 0 255 
-1.08198 -0.761662 6.2292 0.0208638 255 0 255 
-1.07543 -0.770658 6.21626 0.0173609 255 0 255 
-1.05103 -0.77693 6.23073 0.0126802 255 0 255 
-1.05852 -0.741395 6.30854 0.0142226 255 0 255 
-1.07867 -0.736746 6.29512 0.0166567 255 0 255 
-1.08941 -0.720568 6.32053 0.018902 255 0 255 
-1.06991 -0.725768 6.33414 0.0246194 255 0 255 
-1.10416 -0.723471 6.29399 0.0244878 255 0 255 
-1.17103 -0.224939 6.10823 0.0365499 255 0 255 
-1.18407 -0.244413 6.09311 0.0430055 255 0 255 
-1.15797 -0.230588 6.08374 0.0358959 255 0 255 
-1.16938 -0.25045 6.06961 0.0353964 255 0 255 
-1.19594 -0.264481 6.07907 0.0474455 255 0 255 
-1.20708 -0.285521 6.06525 0.054469 255 0 255 
-1.21994 -0.276059 6.0891 0.0761558 255 0 255 
-1.208 -0.255826 6.10312 0.0627424 255 0 255 
-1.19448 -0.236401 6.11926 0.0440499 255 0 255 
-1.23123 -0.26751 6.11389 0.0934357 255 0 255 
-1.14559 -0.23861 6.06023 0.0301892 255 0 255 
-1.13662 -0.242007 6.04806 0.020006 255 0 255 
-1.15954 -0.262706 6.0469 0.0240746 255 0 255 
-1.12727 -0.246037 6.03598 0.0104831 255 0 255 
-1.14914 -0.267457 6.035 0.00984311 255 0 255 
-1.1391 -0.273047 6.02252 0.00897511 255 0 255 
-1.11761 -0.250808 6.02384 0.0059753 255 0 255 
-1.17127 -0.28918 6.033 0.0110249 255 0 255 
-1.1605 -0.294491 6.02099 0.00888656 255 0 255 
-1.18241 -0.315744 6.01954 0.00803802 255 0 255 
-1.1954 -0.299629 6.04217 0.0255897 255 0 255 
-1.18262 -0.274342 6.05588 0.0295563 255 0 255 
-1.24441 -0.389668 6.02281 0.0333496 255 0 255 
-1.2353 -0.364083 6.03303 0.0287784 255 0 255 
-1.25531 -0.37503 6.04741 0.0565495 255 0 255 
-1.22589 -0.337449 6.04434 0.0280049 255 0 255 
-1.24655 -0.349282 6.05841 0.0476589 255 0 255 
-1.23802 -0.323487 6.0683 0.0429697 255 0 255 
-1.26626 -0.3621 6.07349 0.0859411 255 0 255 
-1.21717 -0.31124 6.0546 0.0329382 255 0 255 
-1.20453 -0.326759 6.03133 0.012276 255 0 255 
-1.21394 -0.354243 6.01959 0.0186141 255 0 255 
-1.25959 -0.337833 6.08284 0.0631136 255 0 255 
-1.27772 -0.352145 6.09706 0.102989 255 0 255 
-1.25155 -0.313646 6.0927 0.0732313 255 0 255 
-1.27013 -0.328199 6.10633 0.0880761 255 0 255 
-1.26119 -0.304534 6.11617 0.0919776 255 0 255 
-1.28678 -0.3433 6.12143 0.126719 255 0 255 
-1.24231 -0.290053 6.10253 0.0875214 255 0 255 
-1.22988 -0.299376 6.07885 0.0573178 255 0 255 
-1.28489 -0.519667 6.1853 0.0228341 255 0 255 
-1.29089 -0.496751 6.17641 0.0289577 255 0 255 
-1.29385 -0.478326 6.15551 0.0540918 255 0 255 
-1.29843 -0.455804 6.14594 0.0603833 255 0 255 
-1.29896 -0.437769 6.12397 0.0935198 255 0 255 
-1.30496 -0.42996 6.14934 0.0970192 255 0 255 
-1.29401 -0.464272 6.12001 0.0780674 255 0 255 
-1.2934 -0.446024 6.09709 0.126054 255 0 255 
-1.29098 -0.486648 6.12894 0.0432621 255 0 255 
-1.28731 -0.509533 6.13755 0.0310208 255 0 255 
-1.28367 -0.528094 6.15935 0.039697 255 0 255 
-1.28384 -0.536832 6.13181 0.0546389 255 0 255 
-1.30291 -0.407331 6.14091 0.118672 255 0 255 
-1.29495 -0.389935 6.12147 0.109204 255 0 255 
-1.2894 -0.368707 6.11503 0.095364 255 0 255 
-1.27969 -0.377545 6.09075 0.0947587 255 0 255 
-1.28674 -0.398173 6.09675 0.0831587 255 0 255 
-1.2922 -0.419568 6.10327 0.0920181 255 0 255 
-1.2553 -0.407829 6.02588 0.0624676 255 0 255 
-1.26946 -0.420369 6.04323 0.0918779 255 0 255 
-1.27783 -0.440318 6.04837 0.103405 255 0 255 
-1.28822 -0.455755 6.0681 0.128208 255 0 255 
-1.28127 -0.46804 6.04094 0.0772554 255 0 255 
-1.2851 -0.429852 6.07647 0.116104 255 0 255 
-1.27795 -0.408621 6.07024 0.0839365 255 0 255 
-1.27005 -0.388009 6.06499 0.07992 255 0 255 
-1.28309 -0.488551 6.04739 0.0643071 255 0 255 
-1.28596 -0.504769 6.06968 0.094584 255 0 255 
-1.2854 -0.526578 6.07707 0.0808899 255 0 255 
-1.28507 -0.543726 6.0997 0.0921754 255 0 255 
-1.2824 -0.552759 6.06926 0.0689092 255 0 255 
-1.28666 -0.518232 6.10854 0.0711919 255 0 255 
-1.28893 -0.495325 6.09961 0.0533549 255 0 255 
-1.29073 -0.472076 6.09088 0.0712351 255 0 255 
-1.20559 -0.213013 6.20536 0.027995 255 0 255 
-1.21965 -0.22841 6.18936 0.0334072 255 0 255 
-1.19887 -0.214311 6.18117 0.0302124 255 0 255 
-1.2123 -0.229263 6.16664 0.0382325 255 0 255 
-1.2335 -0.24372 6.17486 0.0480135 255 0 255 
-1.24671 -0.259122 6.16047 0.0773976 255 0 255 
-1.25119 -0.256986 6.18339 0.0600497 255 0 255 
-1.23763 -0.24152 6.19805 0.0394365 255 0 255 
-1.19142 -0.216931 6.15752 0.0324081 255 0 255 
-1.20493 -0.233952 6.14229 0.0377532 255 0 255 
-1.18143 -0.219487 6.1336 0.0355135 255 0 255 
-1.21802 -0.250949 6.12757 0.0541324 255 0 255 
-1.2394 -0.263333 6.13619 0.0824063 255 0 255 
-1.22619 -0.246603 6.15109 0.0505125 255 0 255 
-1.27869 -0.321883 6.12904 0.102272 255 0 255 
-1.29256 -0.337989 6.14252 0.132554 255 0 255 
-1.26906 -0.300673 6.13838 0.0858167 255 0 255 
-1.28382 -0.316494 6.15119 0.101275 255 0 255 
-1.27357 -0.295492 6.16155 0.0764987 255 0 255 
-1.29714 -0.332823 6.16479 0.130086 255 0 255 
-1.25837 -0.280089 6.14873 0.0760396 255 0 255 
-1.25039 -0.283689 6.1257 0.0829293 255 0 255 
-1.28771 -0.313135 6.17403 0.083148 255 0 255 
-1.29914 -0.32928 6.18607 0.102472 255 0 255 
-1.27785 -0.293937 6.18382 0.0609006 255 0 255 
-1.28969 -0.309463 6.19581 0.0709207 255 0 255 
-1.26714 -0.2741 6.19504 0.0556041 255 0 255 
-1.26293 -0.276495 6.17179 0.0615858 255 0 255 
-1.27591 -0.542486 6.18009 0.0306356 255 0 255 
-1.26775 -0.565433 6.17411 0.0333395 255 0 255 
-1.27542 -0.551444 6.15332 0.0385553 255 0 255 
-1.26754 -0.574958 6.14695 0.0362415 255 0 255 
-1.25922 -0.589484 6.16773 0.0262262 255 0 255 
-1.25086 -0.614157 6.16126 0.0195804 255 0 255 
-1.24918 -0.604302 6.18916 0.02629 255 0 255 
-1.25781 -0.580277 6.19548 0.0198536 255 0 255 
-1.26631 -0.557057 6.20174 0.0257495 255 0 255 
-1.24942 -0.594301 6.21613 0.0169192 255 0 255 
-1.27893 -0.558466 6.12225 0.054828 255 0 255 
-1.2743 -0.579852 6.11251 0.0621674 255 0 255 
-1.27954 -0.566027 6.09046 0.0559721 255 0 255 
-1.27363 -0.588639 6.08309 0.0476149 255 0 255 
-1.26902 -0.602299 6.10445 0.0689517 255 0 255 
-1.2626 -0.625268 6.09713 0.105384 255 0 255 
-1.26022 -0.623002 6.11343 0.0684385 255 0 255 
-1.26523 -0.600451 6.12133 0.0461456 255 0 255 
-1.25691 -0.620388 6.12931 0.0451771 255 0 255 
-1.26216 -0.597349 6.13773 0.0224625 255 0 255 
-1.27075 -0.577649 6.12959 0.0287229 255 0 255 
-1.25329 -0.617562 6.14574 0.0184751 255 0 255 
-1.21557 -0.685525 6.13313 0.0562021 255 0 255 
-1.21339 -0.679346 6.15118 0.0488069 255 0 255 
-1.22751 -0.662254 6.14174 0.0497793 255 0 255 
-1.21182 -0.671941 6.16886 0.0294343 255 0 255 
-1.22516 -0.654962 6.16006 0.0252477 255 0 255 
-1.22311 -0.646936 6.17834 0.0158487 255 0 255 
-1.21022 -0.663869 6.18648 0.0291483 255 0 255 
-1.23898 -0.638306 6.15105 0.023997 255 0 255 
-1.23682 -0.630403 6.16978 0.0137001 255 0 255 
-1.24176 -0.641608 6.13568 0.0326962 255 0 255 
-1.24474 -0.644226 6.1204 0.0487625 255 0 255 
-1.22973 -0.665084 6.12654 0.0423742 255 0 255 
-1.23234 -0.66698 6.11211 0.0500226 255 0 255 
-1.24777 -0.645943 6.1046 0.0549626 255 0 255 
-1.21728 -0.687344 6.11821 0.041818 255 0 255 
-1.20947 -0.65291 6.21278 0.0241549 255 0 255 
-1.22284 -0.63647 6.20526 0.0232639 255 0 255 
-1.22281 -0.625857 6.23249 0.0128001 255 0 255 
-1.21022 -0.642102 6.24048 0.0134773 255 0 255 
-1.23576 -0.615254 6.21066 0.0114402 255 0 255 
-0.903174 -0.24626 7.02327 0.00836622 255 0 255 
-0.918985 -0.261106 6.99219 0.00940014 255 0 255 
-0.927864 -0.282805 6.96268 0.013195 255 0 255 
-0.940311 -0.268611 6.96074 0.0206903 255 0 255 
-0.908168 -0.277439 6.99062 0.0121626 255 0 255 
-0.916344 -0.298223 6.96338 0.0262266 255 0 255 
-0.892762 -0.262696 7.02048 0.00925675 255 0 255 
-0.880347 -0.308218 6.98749 0.0194796 255 0 255 
-0.86727 -0.296139 7.01182 0.00977571 255 0 255 
-0.881029 -0.279961 7.01538 0.00949932 255 0 255 
-0.895373 -0.292767 6.98844 0.0164344 255 0 255 
-0.901187 -0.312634 6.96233 0.0260903 255 0 255 
-1.10519 -0.446137 6.61387 0.0448365 255 0 255 
-1.1062 -0.429244 6.62767 0.0339816 255 0 255 
-1.10042 -0.422088 6.64354 0.0311532 255 0 255 
-1.10062 -0.405927 6.65589 0.0277247 255 0 255 
-1.08701 -0.424266 6.66206 0.0355138 255 0 255 
-1.11476 -0.403981 6.63744 0.0435098 255 0 255 
-1.11554 -0.387909 6.64955 0.0471825 255 0 255 
-1.1219 -0.410834 6.62093 0.0372701 255 0 255 
-1.12933 -0.417551 6.60278 0.0396554 255 0 255 
-1.12827 -0.434569 6.58855 0.023092 255 0 255 
-1.14652 -0.415192 6.57993 0.0297998 255 0 255 
-1.0793 -0.416782 6.68021 0.0696872 255 0 255 
-1.07721 -0.400704 6.69432 0.037155 255 0 255 
-1.06765 -0.391206 6.71284 0.0366138 255 0 255 
-1.06197 -0.370276 6.73236 0.0200538 255 0 255 
-1.05094 -0.386451 6.73924 0.0236417 255 0 255 
-1.07925 -0.374506 6.70661 0.0331011 255 0 255 
-1.0733 -0.354235 6.72528 0.0246854 255 0 255 
-1.08958 -0.383112 6.68842 0.0590833 255 0 255 
-1.09909 -0.390096 6.67076 0.0488882 255 0 255 
-1.08604 -0.319065 6.71398 0.0227964 255 0 255 
-1.10022 -0.328586 6.69136 0.0636179 255 0 255 
-1.10835 -0.345215 6.67619 0.0527384 255 0 255 
-1.11997 -0.350982 6.65851 0.0572953 255 0 255 
-1.12582 -0.367032 6.64364 0.052798 255 0 255 
-1.13617 -0.345999 6.63685 0.0619546 255 0 255 
-1.11008 -0.371674 6.66526 0.0515759 255 0 255 
-1.09992 -0.364439 6.68237 0.0416258 255 0 255 
-1.0891 -0.356685 6.70043 0.0559653 255 0 255 
-1.07968 -0.336564 6.71959 0.0340573 255 0 255 
-1.14627 -0.351228 6.62041 0.100456 255 0 255 
-1.14907 -0.368626 6.60661 0.0764614 255 0 255 
-1.15865 -0.374377 6.58714 0.0666775 255 0 255 
-1.16083 -0.392321 6.57121 0.0338004 255 0 255 
-1.17559 -0.368964 6.56221 0.0608211 255 0 255 
-1.14469 -0.39759 6.59523 0.0513782 255 0 255 
-1.13618 -0.390633 6.61422 0.0526431 255 0 255 
-1.12861 -0.383778 6.63107 0.0649077 255 0 255 
-0.966113 -0.208314 6.95382 0.0160112 255 0 255 
-0.949319 -0.192062 6.98913 0.0251147 255 0 255 
-0.950388 -0.170186 6.98591 0.0230767 255 0 255 
-0.967125 -0.193122 6.95148 0.0169374 255 0 255 
-0.968164 -0.179012 6.94844 0.0159353 255 0 255 
-0.944658 -0.13624 6.9873 0.016645 255 0 255 
-0.964331 -0.162341 6.94808 0.0114906 255 0 255 
-0.948921 -0.153554 6.98617 0.0209406 255 0 255 
-0.944866 -0.207868 6.99033 0.0203579 255 0 255 
-0.961314 -0.223157 6.95583 0.0172657 255 0 255 
-0.957035 -0.238932 6.957 0.0190455 255 0 255 
-0.940415 -0.223313 6.99153 0.0194566 255 0 255 
-0.922663 -0.206085 7.02771 0.015755 255 0 255 
-0.92873 -0.246235 6.99222 0.0162833 255 0 255 
-0.912287 -0.230083 7.02526 0.0121933 255 0 255 
-0.948425 -0.253513 6.95893 0.0152973 255 0 255 
-1.07 -0.303773 6.74583 0.0344148 255 0 255 
-1.0553 -0.279211 6.77708 0.0295241 255 0 255 
-1.0409 -0.265227 6.807 0.025379 255 0 255 
-1.0274 -0.245609 6.83087 0.0208845 255 0 255 
-1.02651 -0.260823 6.83545 0.0211162 255 0 255 
-1.04222 -0.250327 6.80163 0.0271405 255 0 255 
-1.02884 -0.230274 6.82682 0.0274995 255 0 255 
-1.05632 -0.262974 6.77218 0.0269867 255 0 255 
-1.07147 -0.277789 6.73888 0.0299384 255 0 255 
-1.08736 -0.300762 6.709 0.0354418 255 0 255 
-1.08916 -0.283164 6.70305 0.0357995 255 0 255 
-1.01228 -0.248584 6.86235 0.0291048 255 0 255 
-0.998155 -0.228423 6.88928 0.0212675 255 0 255 
-0.982905 -0.215369 6.91922 0.0166173 255 0 255 
-0.984261 -0.201068 6.91583 0.0181414 255 0 255 
-0.999371 -0.213376 6.88603 0.0208266 255 0 255 
-1.01396 -0.225496 6.85711 0.0267817 255 0 255 
-0.979741 -0.169044 6.91192 0.0142386 255 0 255 
-0.997008 -0.190386 6.88102 0.0186829 255 0 255 
-1.00961 -0.194329 6.85 0.0198332 255 0 255 
-1.02519 -0.214137 6.82312 0.0180592 255 0 255 
-1.01323 -0.210701 6.85299 0.023843 255 0 255 
-0.982915 -0.185159 6.91361 0.0160051 255 0 255 
-1.03799 -0.217804 6.79261 0.0194772 255 0 255 
-1.05385 -0.238039 6.7657 0.0252573 255 0 255 
-1.06617 -0.242218 6.73192 0.026325 255 0 255 
-1.08465 -0.264448 6.69923 0.0338943 255 0 255 
-1.07039 -0.26076 6.73447 0.0276567 255 0 255 
-1.04104 -0.233958 6.79685 0.0242581 255 0 255 
-0.955197 -0.282138 6.93215 0.0294048 255 0 255 
-0.962773 -0.301227 6.90843 0.013627 255 0 255 
-0.977191 -0.314071 6.88257 0.0151695 255 0 255 
-0.984399 -0.333002 6.86089 0.0206996 255 0 255 
-0.998315 -0.32015 6.85452 0.0333735 255 0 255 
-0.963797 -0.32758 6.88797 0.0202894 255 0 255 
-0.9712 -0.347112 6.86613 0.0386297 255 0 255 
-0.950112 -0.315697 6.91168 0.0244499 255 0 255 
-0.936401 -0.303612 6.93606 0.0385421 255 0 255 
-1.01202 -0.332825 6.83062 0.0535225 255 0 255 
-1.01792 -0.352584 6.80957 0.0306731 255 0 255 
-1.02996 -0.371979 6.77816 0.0247366 255 0 255 
-1.03514 -0.398456 6.74916 0.027086 255 0 255 
-1.01546 -0.382487 6.78949 0.0390559 255 0 255 
-1.01986 -0.41116 6.75876 0.0418093 255 0 255 
-1.00373 -0.365635 6.81757 0.0554743 255 0 255 
-0.991039 -0.352668 6.84074 0.0695139 255 0 255 
-0.980394 -0.402891 6.80757 0.0694024 255 0 255 
-0.968531 -0.389398 6.83122 0.0573687 255 0 255 
-0.965442 -0.370634 6.85062 0.0792708 255 0 255 
-0.952936 -0.358355 6.87192 0.0415635 255 0 255 
-0.987312 -0.377945 6.82462 0.0626834 255 0 255 
-0.999384 -0.392611 6.79889 0.0587084 255 0 255 
-1.00058 -0.41786 6.77135 0.053289 255 0 255 
-0.931387 -0.35353 6.89599 0.0441281 255 0 255 
-0.91876 -0.342499 6.91712 0.0326159 255 0 255 
-0.914256 -0.324427 6.93853 0.0531464 255 0 255 
-0.935083 -0.328917 6.91556 0.0298639 255 0 255 
-0.948488 -0.340608 6.89211 0.0313454 255 0 255 
-0.979964 -0.230613 6.92229 0.0196634 255 0 255 
-0.99516 -0.243765 6.8924 0.0191469 255 0 255 
-1.00734 -0.263742 6.86622 0.0236396 255 0 255 
-1.0214 -0.275788 6.83968 0.0232181 255 0 255 
-1.01671 -0.290818 6.84434 0.0285323 255 0 255 
-1.00238 -0.278578 6.87016 0.026101 255 0 255 
-0.989995 -0.258785 6.89597 0.0189405 255 0 255 
-0.974985 -0.245349 6.92482 0.0219049 255 0 255 
-1.03787 -0.280875 6.81158 0.0265774 255 0 255 
-1.05171 -0.294688 6.78359 0.0296612 255 0 255 
-1.064 -0.320356 6.75218 0.0253494 255 0 255 
-1.05802 -0.336992 6.75801 0.0263081 255 0 255 
-1.04663 -0.310215 6.78896 0.0296511 255 0 255 
-1.03297 -0.295797 6.81634 0.0335356 255 0 255 
-1.04236 -0.359246 6.7699 0.0285006 255 0 255 
-1.0297 -0.339343 6.80244 0.0347074 255 0 255 
-1.02127 -0.317969 6.82506 0.0387671 255 0 255 
-1.00744 -0.305346 6.84928 0.0235918 255 0 255 
-1.03917 -0.324945 6.79559 0.0347695 255 0 255 
-0.988518 -0.300428 6.87774 0.0250743 255 0 255 
-0.973939 -0.287564 6.90378 0.0160801 255 0 255 
-0.963618 -0.26726 6.92958 0.0215868 255 0 255 
-0.982937 -0.273305 6.89979 0.0197459 255 0 255 
-1.05412 -0.406757 6.72008 0.0366865 255 0 255 
-1.06323 -0.416082 6.70106 0.0409044 255 0 255 
-1.06327 -0.431411 6.6872 0.0678598 255 0 255 
-1.07072 -0.439272 6.66884 0.0534097 255 0 255 
-1.05467 -0.454664 6.67557 0.0771656 255 0 255 
-1.0474 -0.446689 6.69363 0.0780741 255 0 255 
-1.04725 -0.430629 6.7087 0.044966 255 0 255 
-1.03801 -0.419866 6.72885 0.0414749 255 0 255 
-1.08442 -0.439038 6.65001 0.0325652 255 0 255 
-1.09014 -0.446149 6.63413 0.0306632 255 0 255 
-1.08682 -0.461674 6.6209 0.0442862 255 0 255 
