ply
format ascii 1.0
comment VCGLIB generated
element vertex 976
property float x
property float y
property float z
property uchar red
property uchar green
property uchar blue
property float quality
end_header
-0.120321 -0.040943 0.973539 218 255 30 0.611004
-0.122210 -0.038675 0.974071 218 255 30 0.611618
-0.124223 -0.040463 0.970279 218 255 30 0.611130
-0.125051 -0.043240 0.966596 218 255 30 0.610584
-0.153344 -0.061866 0.918173 228 255 20 0.621362
-0.153483 -0.059523 0.920103 221 255 27 0.615916
-0.152685 -0.058530 0.922309 221 255 27 0.615889
-0.152708 -0.056289 0.924033 221 255 27 0.616070
-0.150828 -0.058832 0.924877 221 255 27 0.615620
-0.154670 -0.056023 0.921472 221 255 27 0.616516
-0.154778 -0.053790 0.923159 221 255 27 0.616316
-0.155661 -0.056977 0.919175 202 255 46 0.592079
-0.156691 -0.057911 0.916644 221 255 27 0.616479
-0.156544 -0.060272 0.914655 221 255 27 0.616506
-0.159078 -0.057589 0.913458 221 255 27 0.616132
-0.149760 -0.057797 0.927391 221 255 27 0.614991
-0.149473 -0.055564 0.929337 221 255 27 0.615569
-0.148149 -0.054247 0.931891 221 255 27 0.615112
-0.147352 -0.051336 0.934589 221 255 27 0.614567
-0.145828 -0.053578 0.935542 221 255 27 0.613660
-0.149746 -0.051927 0.931039 221 255 27 0.615359
-0.148915 -0.049107 0.933612 221 255 27 0.614986
-0.151179 -0.053123 0.928536 221 255 27 0.615862
-0.152496 -0.054094 0.926094 221 255 27 0.616233
-0.150661 -0.044237 0.932057 221 255 27 0.614594
-0.152633 -0.045561 0.928941 221 255 27 0.615670
-0.153767 -0.047866 0.926849 228 255 20 0.622865
-0.155383 -0.048668 0.924404 221 255 27 0.616672
-0.156199 -0.050895 0.922348 221 255 27 0.616851
-0.157632 -0.047981 0.921404 221 255 27 0.617017
-0.154015 -0.051535 0.925341 221 255 27 0.616581
-0.152606 -0.050532 0.927700 221 255 27 0.616140
-0.151105 -0.049455 0.930189 221 255 27 0.615742
-0.149791 -0.046660 0.932831 221 255 27 0.615153
-0.159039 -0.048711 0.919118 224 255 24 0.617727
-0.159434 -0.051128 0.917193 255 213 0 0.682429
-0.160765 -0.051931 0.914474 224 255 24 0.617369
-0.161067 -0.054423 0.912246 221 255 27 0.616374
-0.163120 -0.051188 0.910996 244 250 4 0.643793
-0.158824 -0.055144 0.915596 221 255 27 0.616762
-0.157642 -0.054178 0.918248 221 255 27 0.616674
-0.156592 -0.053223 0.920595 224 255 24 0.617430
-0.133966 -0.028724 0.965553 208 255 40 0.598564
-0.131614 -0.026435 0.970529 221 255 27 0.613717
-0.131743 -0.023403 0.970108 211 255 36 0.601747
-0.134096 -0.026613 0.965250 221 255 27 0.614079
-0.134233 -0.024667 0.964827 221 255 27 0.614147
-0.130921 -0.018682 0.970368 221 255 27 0.614438
-0.133690 -0.022357 0.964804 221 255 27 0.614246
-0.131527 -0.021090 0.970176 237 255 11 0.635537
-0.131008 -0.028634 0.970676 221 255 27 0.613584
-0.133310 -0.030784 0.965819 221 255 27 0.613484
-0.132731 -0.032977 0.965944 221 255 27 0.613284
-0.130401 -0.030781 0.970822 218 255 30 0.613225
-0.127907 -0.028356 0.975930 253 239 0 0.655191
-0.128807 -0.033975 0.970868 218 255 30 0.612757
-0.126489 -0.031698 0.975555 182 255 66 0.569504
-0.131548 -0.035002 0.966195 205 255 43 0.594706
-0.148422 -0.042095 0.936484 221 255 27 0.613375
-0.146366 -0.038648 0.940872 218 255 30 0.612197
-0.144369 -0.036679 0.945058 218 255 30 0.613204
-0.142491 -0.033952 0.948378 240 254 7 0.638023
-0.142377 -0.036053 0.949004 218 255 30 0.613240
-0.144544 -0.034620 0.944324 218 255 30 0.612879
-0.142687 -0.031830 0.947833 218 255 30 0.613226
-0.146500 -0.036406 0.940205 218 255 30 0.611939
-0.148609 -0.038506 0.935526 218 255 30 0.612445
-0.150833 -0.041702 0.931370 221 255 27 0.614638
-0.151072 -0.039272 0.930551 221 255 27 0.614244
-0.140396 -0.034346 0.952749 218 255 30 0.613214
-0.138428 -0.031543 0.956512 218 255 30 0.613269
-0.136305 -0.029721 0.960703 221 255 27 0.613819
-0.136483 -0.027750 0.960236 202 255 46 0.591909
-0.138588 -0.029460 0.956076 221 255 27 0.613390
-0.140621 -0.031154 0.952038 221 255 27 0.613569
-0.135842 -0.023315 0.959730 221 255 27 0.614172
-0.138250 -0.026290 0.955393 221 255 27 0.613486
-0.140004 -0.026851 0.951071 218 255 30 0.612882
-0.142173 -0.029604 0.947326 218 255 30 0.612821
-0.140513 -0.029111 0.951475 218 255 30 0.613145
-0.136290 -0.025547 0.959941 218 255 30 0.612539
-0.143950 -0.030132 0.943083 247 246 1 0.648424
-0.146154 -0.032962 0.939321 218 255 30 0.611777
-0.147861 -0.033587 0.934584 218 255 30 0.610982
-0.150438 -0.036686 0.930023 221 255 27 0.613576
-0.148454 -0.036151 0.934924 218 255 30 0.612094
-0.144377 -0.032366 0.943664 218 255 30 0.612520
-0.132506 -0.038985 0.962431 218 255 30 0.612243
-0.133569 -0.041639 0.959105 255 217 0 0.679124
-0.135575 -0.043426 0.955495 221 255 27 0.614555
-0.136585 -0.046054 0.952476 218 255 30 0.611493
-0.138504 -0.044266 0.951601 218 255 30 0.611916
-0.133730 -0.045305 0.956233 218 255 30 0.610913
-0.134767 -0.048017 0.953192 255 194 0 0.699587
-0.131826 -0.043655 0.959538 218 255 30 0.610981
-0.129920 -0.041974 0.962944 218 255 30 0.611526
-0.140413 -0.046027 0.948285 218 255 30 0.612735
-0.141244 -0.048782 0.945348 218 255 30 0.613020
-0.142914 -0.051526 0.940948 163 255 85 0.544231
-0.143647 -0.055247 0.936906 221 255 27 0.613415
-0.140917 -0.052975 0.942525 218 255 30 0.612903
-0.141536 -0.057012 0.938233 221 255 27 0.616906
-0.139286 -0.050597 0.946452 205 255 43 0.596306
-0.137522 -0.048792 0.949669 218 255 30 0.612348
-0.136077 -0.055804 0.945033 255 224 0 0.671362
-0.134426 -0.053916 0.948325 218 255 30 0.609879
-0.133987 -0.051297 0.951028 218 255 30 0.610756
-0.132247 -0.049590 0.953987 218 255 30 0.610040
-0.137020 -0.052314 0.947419 247 246 1 0.647280
-0.138701 -0.054375 0.943832 218 255 30 0.612448
-0.138872 -0.057940 0.939976 218 255 30 0.612708
-0.129259 -0.048926 0.957328 218 255 30 0.609524
-0.127507 -0.047396 0.960268 218 255 30 0.609840
-0.126869 -0.044878 0.963268 218 255 30 0.610398
-0.129755 -0.045498 0.960067 218 255 30 0.610452
-0.131617 -0.047120 0.956800 205 255 43 0.595585
-0.135906 -0.031836 0.961115 221 255 27 0.613602
-0.138021 -0.033670 0.956929 218 255 30 0.613077
-0.139722 -0.036443 0.953273 244 250 4 0.644050
-0.141676 -0.038118 0.949583 218 255 30 0.612839
-0.141036 -0.040199 0.950215 218 255 30 0.613014
-0.139044 -0.038497 0.953804 218 255 30 0.612873
-0.137315 -0.035751 0.957413 218 255 30 0.613009
-0.135226 -0.033879 0.961445 218 255 30 0.613277
-0.143959 -0.038837 0.945680 218 255 30 0.613121
-0.145878 -0.040784 0.941767 218 255 30 0.612671
-0.147600 -0.044388 0.937354 221 255 27 0.613411
-0.146780 -0.046689 0.938161 221 255 27 0.613529
-0.145184 -0.042928 0.942507 255 224 0 0.670081
-0.143290 -0.040901 0.946327 250 243 0 0.649791
-0.144626 -0.049766 0.939803 218 255 30 0.613147
-0.142863 -0.046949 0.944365 218 255 30 0.613241
-0.141684 -0.043966 0.947522 255 235 0 0.657188
-0.139759 -0.042214 0.950886 218 255 30 0.612572
-0.144162 -0.044954 0.943427 218 255 30 0.613063
-0.137135 -0.041528 0.954837 218 255 30 0.612124
-0.135107 -0.039741 0.958469 218 255 30 0.612223
-0.133664 -0.036919 0.962082 218 255 30 0.612827
-0.136343 -0.037764 0.957928 202 255 46 0.591207
-0.146278 -0.056407 0.932886 255 228 0 0.667332
-0.147541 -0.057701 0.930263 163 255 85 0.543178
-0.147545 -0.059828 0.928350 221 255 27 0.614908
-0.148575 -0.060917 0.925807 221 255 27 0.615081
-0.146358 -0.063060 0.926733 221 255 27 0.615056
-0.145354 -0.061956 0.929230 221 255 27 0.614864
-0.145329 -0.059727 0.931315 255 209 0 0.687186
-0.144051 -0.058231 0.934094 218 255 30 0.609866
-0.150469 -0.060882 0.923198 221 255 27 0.615609
-0.151261 -0.061868 0.920989 224 255 24 0.620310
-0.150798 -0.064024 0.919142 176 255 72 0.561258
-0.148365 -0.066222 0.920087 221 255 27 0.615812
-0.148873 -0.064040 0.921950 221 255 27 0.615710
-0.148174 -0.062979 0.924145 221 255 27 0.615147
-0.143922 -0.068768 0.921350 185 255 62 0.572558
-0.144783 -0.066807 0.923284 221 255 27 0.615655
-0.144182 -0.065716 0.925520 221 255 27 0.615507
-0.143587 -0.064642 0.927717 221 255 27 0.614803
-0.141194 -0.064348 0.930833 221 255 27 0.614464
-0.140077 -0.063015 0.933573 221 255 27 0.614037
-0.140181 -0.060531 0.936056 221 255 27 0.613565
-0.142848 -0.061478 0.932338 221 255 27 0.614471
-0.159389 -0.073529 0.901796 255 235 0 0.656350
-0.162026 -0.073329 0.899412 189 255 59 0.577702
-0.158032 -0.076006 0.901348 231 255 17 0.625041
-0.160622 -0.075735 0.899019 228 255 20 0.624121
-0.159243 -0.078135 0.898664 228 255 20 0.624037
-0.163317 -0.075424 0.896576 228 255 20 0.622539
-0.156650 -0.078485 0.900944 228 255 20 0.624610
-0.155254 -0.080949 0.900562 228 255 20 0.622957
-0.154295 -0.078649 0.903079 228 255 20 0.623933
-0.161714 -0.077879 0.896330 228 255 20 0.623799
-0.164256 -0.077430 0.893897 228 255 20 0.622146
-0.160062 -0.080314 0.896172 228 255 20 0.623143
-0.162564 -0.079841 0.893735 228 255 20 0.622937
-0.160859 -0.082229 0.893610 228 255 20 0.622654
-0.165113 -0.079287 0.891246 228 255 20 0.621796
-0.158417 -0.082708 0.895943 228 255 20 0.623190
-0.156707 -0.085100 0.895710 228 255 20 0.621913
-0.156015 -0.083073 0.898150 255 198 0 0.697211
-0.157685 -0.080641 0.898369 228 255 20 0.623739
-0.149263 -0.086543 0.899932 228 255 20 0.622392
-0.151295 -0.084744 0.900171 228 255 20 0.622943
-0.148743 -0.084455 0.902130 228 255 20 0.622946
-0.150715 -0.082537 0.902418 228 255 20 0.624086
-0.153272 -0.082819 0.900422 192 255 56 0.579912
-0.153995 -0.084909 0.898010 228 255 20 0.622964
-0.151966 -0.086761 0.897836 228 255 20 0.622299
-0.147746 -0.081030 0.905596 228 255 20 0.622964
-0.149508 -0.079103 0.906026 228 255 20 0.623460
-0.152074 -0.079416 0.903970 228 255 20 0.624218
-0.162205 -0.048757 0.913339 224 255 24 0.617382
-0.160822 -0.047901 0.916113 234 255 14 0.629918
-0.159819 -0.045602 0.918116 224 255 24 0.617385
-0.158329 -0.044949 0.920420 221 255 27 0.617058
-0.158978 -0.041924 0.919410 221 255 27 0.616945
-0.160563 -0.042331 0.916954 221 255 27 0.617156
-0.161724 -0.044606 0.914943 224 255 24 0.617468
-0.163262 -0.045215 0.912086 224 255 24 0.617539
-0.164276 -0.047690 0.909669 240 254 7 0.636978
-0.165402 -0.044164 0.908341 224 255 24 0.617229
-0.156280 -0.045908 0.923568 234 255 14 0.629813
-0.154564 -0.045197 0.925954 221 255 27 0.616345
-0.152883 -0.042995 0.928167 253 239 0 0.656104
-0.153201 -0.040332 0.927252 221 255 27 0.615209
-0.154986 -0.042438 0.925052 221 255 27 0.616241
-0.156842 -0.042976 0.922508 221 255 27 0.616563
-0.152435 -0.036492 0.926142 221 255 27 0.614522
-0.154799 -0.038348 0.923780 221 255 27 0.615677
-0.156577 -0.037135 0.920627 221 255 27 0.616152
-0.158691 -0.038883 0.918467 221 255 27 0.616623
-0.156952 -0.040101 0.921626 221 255 27 0.616323
-0.160254 -0.037671 0.915570 221 255 27 0.616530
-0.162039 -0.039638 0.913421 221 255 27 0.617010
-0.163639 -0.038278 0.909882 247 246 1 0.647699
-0.165377 -0.040563 0.907235 221 255 27 0.616840
-0.163749 -0.041810 0.911017 224 255 24 0.617265
-0.177065 -0.040407 0.876117 221 255 27 0.615998
-0.177617 -0.042152 0.878016 221 255 27 0.616515
-0.176079 -0.039807 0.879521 221 255 27 0.616863
-0.174562 -0.037470 0.881014 221 255 27 0.616683
-0.176602 -0.041578 0.881382 221 255 27 0.616833
-0.173925 -0.035741 0.879106 221 255 27 0.616458
-0.172273 -0.033439 0.880673 221 255 27 0.616581
-0.175045 -0.039385 0.882884 221 255 27 0.617032
-0.175202 -0.040978 0.884908 224 255 24 0.617427
-0.173392 -0.037185 0.884478 221 255 27 0.617068
-0.173621 -0.038765 0.886495 224 255 24 0.617455
-0.172013 -0.036514 0.888135 224 255 24 0.617373
-0.173742 -0.040330 0.888496 224 255 24 0.617925
-0.171761 -0.034984 0.886041 221 255 27 0.616959
-0.170120 -0.032728 0.887670 221 255 27 0.616393
-0.171218 -0.033124 0.884135 221 255 27 0.616519
-0.172875 -0.035329 0.882559 221 255 27 0.616475
-0.166106 -0.028136 0.886803 221 255 27 0.615242
-0.168163 -0.029904 0.884753 221 255 27 0.615935
-0.167244 -0.028379 0.881865 221 255 27 0.615625
-0.171218 -0.032080 0.877911 221 255 27 0.615855
-0.169242 -0.030225 0.879832 221 255 27 0.615730
-0.163009 -0.053675 0.909589 221 255 27 0.616488
-0.165068 -0.052709 0.906838 221 255 27 0.616590
-0.162969 -0.056089 0.908191 221 255 27 0.616800
-0.165020 -0.055193 0.905335 221 255 27 0.617129
-0.165079 -0.057642 0.903953 224 255 24 0.618465
-0.167270 -0.054390 0.902379 224 255 24 0.617254
-0.162890 -0.058560 0.906789 224 255 24 0.617774
-0.162948 -0.061006 0.905487 224 255 24 0.618708
-0.160895 -0.059244 0.909483 224 255 24 0.617220
-0.160951 -0.056796 0.910874 221 255 27 0.616378
-0.167008 -0.056793 0.901486 224 255 24 0.618366
-0.168971 -0.055870 0.899045 224 255 24 0.618261
-0.166810 -0.059266 0.900615 224 255 24 0.620164
-0.168821 -0.058340 0.898181 224 255 24 0.619635
-0.168706 -0.060804 0.897344 224 255 24 0.620581
-0.170884 -0.057375 0.895706 224 255 24 0.618388
-0.166726 -0.061803 0.899800 224 255 24 0.620969
-0.166636 -0.064452 0.898993 224 255 24 0.621055
-0.164676 -0.062640 0.902267 224 255 24 0.620792
-0.164829 -0.060085 0.903105 224 255 24 0.619579
-0.161260 -0.068347 0.903017 228 255 20 0.623857
-0.161757 -0.065723 0.903866 228 255 20 0.623531
-0.160189 -0.063854 0.906947 228 255 20 0.621345
-0.162297 -0.063289 0.904653 228 255 20 0.621710
-0.164133 -0.065056 0.901451 176 255 72 0.561239
-0.163621 -0.067595 0.900683 228 255 20 0.623488
-0.156970 -0.063450 0.911392 224 255 24 0.618810
-0.158659 -0.059784 0.912090 224 255 24 0.617359
-0.160512 -0.061508 0.908202 224 255 24 0.619700
-0.168163 -0.087739 0.869242 224 255 24 0.618411
-0.166481 -0.089884 0.870489 224 255 24 0.618521
-0.169876 -0.085529 0.868117 224 255 24 0.617389
-0.170103 -0.084140 0.871234 224 255 24 0.618347
-0.168381 -0.086272 0.872556 224 255 24 0.619752
-0.166733 -0.088439 0.873795 224 255 24 0.619568
-0.171700 -0.082749 0.868443 221 255 27 0.616303
-0.173583 -0.079986 0.868707 221 255 27 0.615919
-0.173427 -0.081234 0.865685 221 255 27 0.614240
-0.171578 -0.083990 0.865364 221 255 27 0.615569
-0.168374 -0.084926 0.875412 224 255 24 0.620454
-0.166755 -0.087023 0.876706 224 255 24 0.620919
-0.170128 -0.082784 0.874130 224 255 24 0.620245
-0.170119 -0.081515 0.877022 224 255 24 0.620903
-0.168406 -0.083553 0.878376 224 255 24 0.620858
-0.166700 -0.085655 0.879746 224 255 24 0.620733
-0.171901 -0.080112 0.874225 224 255 24 0.619144
-0.173736 -0.077523 0.874346 224 255 24 0.618333
-0.173694 -0.078682 0.871463 224 255 24 0.617245
-0.171851 -0.081363 0.871363 224 255 24 0.618151
-0.179315 -0.068199 0.869557 192 255 56 0.579993
-0.177868 -0.071034 0.869298 221 255 27 0.616306
-0.179233 -0.069135 0.866697 221 255 27 0.614939
-0.176394 -0.073936 0.869101 221 255 27 0.615721
-0.177689 -0.072063 0.866559 221 255 27 0.615168
-0.176203 -0.075009 0.866457 221 255 27 0.614812
-0.179030 -0.070104 0.864152 221 255 27 0.613592
-0.174945 -0.076909 0.868948 221 255 27 0.615522
-0.175020 -0.075713 0.871701 224 255 24 0.617470
-0.176457 -0.072769 0.871937 224 255 24 0.617669
-0.177541 -0.073033 0.863853 221 255 27 0.613420
-0.178637 -0.071085 0.861323 218 255 30 0.612891
-0.176022 -0.076148 0.863539 221 255 27 0.614383
-0.177201 -0.074162 0.861028 218 255 30 0.612972
-0.174680 -0.079258 0.863160 218 255 30 0.613271
-0.174699 -0.078087 0.866100 221 255 27 0.614174
-0.177042 -0.063140 0.882516 224 255 24 0.619267
-0.177183 -0.060184 0.883110 224 255 24 0.619600
-0.175795 -0.061774 0.885852 224 255 24 0.620142
-0.177323 -0.057167 0.883675 224 255 24 0.619655
-0.175806 -0.058797 0.886486 224 255 24 0.620235
-0.175801 -0.055773 0.887100 224 255 24 0.618937
-0.174386 -0.060357 0.889214 224 255 24 0.619749
-0.177269 -0.054166 0.884286 224 255 24 0.618877
-0.177174 -0.051143 0.884859 224 255 24 0.618386
-0.178633 -0.052160 0.881325 224 255 24 0.618491
-0.178669 -0.055161 0.880802 224 255 24 0.618737
-0.178569 -0.058181 0.880294 224 255 24 0.618478
-0.179893 -0.053159 0.877955 224 255 24 0.618101
-0.174252 -0.057564 0.889804 224 255 24 0.618728
-0.172616 -0.058854 0.892452 224 255 24 0.619034
-0.174064 -0.054729 0.890432 224 255 24 0.618759
-0.172397 -0.056066 0.893106 224 255 24 0.618271
-0.172288 -0.053276 0.893790 215 255 33 0.608461
-0.173843 -0.051882 0.891132 224 255 24 0.617773
-0.173692 -0.049013 0.891832 224 255 24 0.617198
-0.175406 -0.050103 0.888371 224 255 24 0.617835
-0.175607 -0.052968 0.887720 224 255 24 0.617671
-0.174701 -0.043000 0.887530 224 255 24 0.617839
-0.175586 -0.045707 0.886625 224 255 24 0.617466
-0.176153 -0.043643 0.883999 224 255 24 0.617709
-0.177056 -0.046348 0.883134 228 255 20 0.622322
-0.176414 -0.048424 0.885696 215 255 33 0.605775
-0.174662 -0.047388 0.889272 224 255 24 0.617266
-0.173823 -0.044641 0.890253 224 255 24 0.617728
-0.177535 -0.044467 0.880476 224 255 24 0.617272
-0.178453 -0.047379 0.879528 221 255 27 0.617156
-0.178629 -0.045072 0.877046 221 255 27 0.616818
-0.179560 -0.047955 0.876172 221 255 27 0.616876
-0.179283 -0.050263 0.878682 224 255 24 0.617396
-0.177903 -0.049255 0.882182 224 255 24 0.617904
-0.166374 -0.029302 0.890221 221 255 27 0.615304
-0.168532 -0.032308 0.891648 221 255 27 0.616174
-0.166359 -0.030465 0.893854 221 255 27 0.615399
-0.164439 -0.028830 0.895770 221 255 27 0.614600
-0.164304 -0.027610 0.892324 221 255 27 0.614891
-0.170191 -0.035769 0.892134 221 255 27 0.616930
-0.171951 -0.038061 0.890310 224 255 24 0.617644
-0.171844 -0.039608 0.892465 224 255 24 0.617539
-0.170158 -0.037316 0.894298 221 255 27 0.616999
-0.170073 -0.038840 0.896443 221 255 27 0.616985
-0.167853 -0.033535 0.895765 221 255 27 0.616521
-0.165641 -0.035676 0.903681 221 255 27 0.616442
-0.166102 -0.034330 0.901051 247 246 1 0.646247
-0.164288 -0.032398 0.903153 221 255 27 0.615861
-0.164657 -0.031078 0.900549 247 246 1 0.646093
-0.168082 -0.036574 0.898776 221 255 27 0.617032
-0.167504 -0.037838 0.901537 221 255 27 0.616640
-0.162354 -0.029412 0.902817 221 255 27 0.614392
-0.162203 -0.028254 0.900565 221 255 27 0.614389
-0.160129 -0.026813 0.902585 221 255 27 0.613676
-0.162032 -0.027133 0.898290 221 255 27 0.614275
-0.164558 -0.029985 0.898168 231 255 17 0.626295
-0.166436 -0.039375 0.904546 221 255 27 0.616919
-0.167631 -0.041796 0.902801 247 246 1 0.646555
-0.168814 -0.040328 0.899698 224 255 24 0.617366
-0.170097 -0.042780 0.897828 224 255 24 0.617421
-0.168813 -0.044236 0.901025 224 255 24 0.617400
-0.170022 -0.046698 0.899163 224 255 24 0.617655
-0.167619 -0.045410 0.903845 224 255 24 0.617474
-0.166517 -0.042971 0.905602 224 255 24 0.617298
-0.171027 -0.041358 0.895260 221 255 27 0.617139
-0.171936 -0.043886 0.894102 224 255 24 0.617541
-0.172866 -0.042114 0.891340 224 255 24 0.617488
-0.172807 -0.046462 0.892961 224 255 24 0.617321
-0.171746 -0.047875 0.895558 224 255 24 0.619353
-0.170939 -0.045296 0.896654 224 255 24 0.617474
-0.170645 -0.054765 0.896451 224 255 24 0.618909
-0.170438 -0.052113 0.897321 224 255 24 0.617264
-0.168802 -0.053257 0.899885 224 255 24 0.618137
-0.168682 -0.050628 0.900779 224 255 24 0.617577
-0.170220 -0.049428 0.898260 224 255 24 0.617684
-0.172033 -0.050592 0.894624 224 255 24 0.617360
-0.166769 -0.051792 0.903947 221 255 27 0.616895
-0.166371 -0.049264 0.905412 182 255 66 0.567008
-0.164640 -0.050199 0.908263 221 255 27 0.616728
-0.165909 -0.046730 0.906861 224 255 24 0.617506
-0.168167 -0.048022 0.902338 221 255 27 0.617146
-0.175758 -0.065183 0.883562 224 255 24 0.619458
-0.173921 -0.066529 0.886197 228 255 20 0.621276
-0.172633 -0.068691 0.887257 228 255 20 0.621494
-0.170909 -0.070054 0.889801 228 255 20 0.621310
-0.171930 -0.071730 0.886848 224 255 24 0.620844
-0.171550 -0.066973 0.890270 228 255 20 0.622754
-0.169765 -0.068239 0.892857 228 255 20 0.621857
-0.172037 -0.064186 0.890996 228 255 20 0.621758
-0.173873 -0.062977 0.888445 228 255 20 0.621136
-0.169723 -0.072683 0.889269 228 255 20 0.622657
-0.168450 -0.075399 0.889067 228 255 20 0.622321
-0.167527 -0.073624 0.891797 228 255 20 0.623081
-0.166313 -0.076446 0.891501 228 255 20 0.622072
-0.165366 -0.074575 0.894202 228 255 20 0.622945
-0.166452 -0.071773 0.894748 228 255 20 0.622600
-0.168664 -0.070924 0.892227 228 255 20 0.622392
-0.162869 -0.070484 0.899963 228 255 20 0.624101
-0.165076 -0.069662 0.897663 228 255 20 0.624139
-0.165853 -0.066979 0.898322 228 255 20 0.623453
-0.168210 -0.066326 0.895908 228 255 20 0.622263
-0.167409 -0.068967 0.895259 228 255 20 0.623161
-0.164200 -0.072653 0.897066 228 255 20 0.623210
-0.168496 -0.063405 0.896526 228 255 20 0.622385
-0.170388 -0.062361 0.894119 228 255 20 0.621745
-0.170616 -0.059840 0.894894 224 255 24 0.620168
-0.172312 -0.061359 0.891687 224 255 24 0.620710
-0.170094 -0.065265 0.893489 228 255 20 0.622167
-0.180152 -0.064893 0.869811 221 255 27 0.616271
-0.179120 -0.067023 0.872593 224 255 24 0.617712
-0.180797 -0.061621 0.870157 221 255 27 0.616430
-0.179798 -0.063790 0.872947 224 255 24 0.617847
-0.180300 -0.060472 0.873398 224 255 24 0.617467
-0.178715 -0.065845 0.875848 224 255 24 0.618712
-0.181298 -0.058328 0.870524 221 255 27 0.616432
-0.181615 -0.055053 0.871019 221 255 27 0.616291
-0.182084 -0.055912 0.867806 221 255 27 0.615267
-0.181673 -0.059200 0.867434 215 255 33 0.607278
-0.181009 -0.062510 0.867106 221 255 27 0.614753
-0.182367 -0.056808 0.864735 221 255 27 0.614206
-0.179183 -0.062683 0.876259 224 255 24 0.618517
-0.177936 -0.064576 0.879093 224 255 24 0.619016
-0.179530 -0.059540 0.876781 224 255 24 0.618067
-0.178321 -0.061386 0.879647 224 255 24 0.618296
-0.179769 -0.056339 0.877347 224 255 24 0.618163
-0.180768 -0.054170 0.874453 224 255 24 0.617245
-0.180571 -0.057283 0.873858 224 255 24 0.620605
-0.179652 -0.045851 0.873563 221 255 27 0.616557
-0.180465 -0.048963 0.872624 221 255 27 0.616272
-0.180354 -0.046465 0.870232 221 255 27 0.615475
-0.181136 -0.049503 0.869427 221 255 27 0.615549
-0.181144 -0.052026 0.871800 231 255 17 0.626889
-0.180229 -0.051087 0.875248 221 255 27 0.617042
-0.180918 -0.047205 0.867010 221 255 27 0.614933
-0.181595 -0.050386 0.866173 221 255 27 0.615047
-0.181177 -0.047802 0.863866 221 255 27 0.614865
-0.181823 -0.050905 0.863047 244 250 4 0.644159
-0.182110 -0.053571 0.865364 221 255 27 0.614700
-0.181710 -0.052724 0.868565 221 255 27 0.615483
-0.163281 -0.081650 0.891145 228 255 20 0.622489
-0.165692 -0.080972 0.888525 228 255 20 0.621274
-0.161423 -0.084069 0.891002 228 255 20 0.622876
-0.163795 -0.083403 0.888393 228 255 20 0.621803
-0.161864 -0.085819 0.888306 228 255 20 0.621900
-0.166193 -0.082662 0.885680 224 255 24 0.620639
-0.159581 -0.086466 0.890825 228 255 20 0.622046
-0.157743 -0.088791 0.890538 224 255 24 0.620937
-0.157261 -0.086998 0.893125 228 255 20 0.621751
-0.159048 -0.084628 0.893413 228 255 20 0.622117
-0.164157 -0.085025 0.885666 228 255 20 0.621391
-0.166481 -0.084152 0.882747 224 255 24 0.621070
-0.162099 -0.087402 0.885585 228 255 20 0.621617
-0.164417 -0.086546 0.882657 228 255 20 0.621581
-0.162360 -0.088946 0.882620 228 255 20 0.622005
-0.160130 -0.089750 0.885397 228 255 20 0.621095
-0.158194 -0.092035 0.885165 255 209 0 0.686323
-0.157959 -0.090449 0.887877 224 255 24 0.620734
-0.159944 -0.088138 0.888088 228 255 20 0.621560
-0.150829 -0.093600 0.890618 228 255 20 0.621266
-0.153054 -0.092057 0.890638 228 255 20 0.621394
-0.150704 -0.091963 0.892993 228 255 20 0.621606
-0.152947 -0.090397 0.892988 228 255 20 0.621863
-0.155367 -0.090456 0.890585 228 255 20 0.621237
-0.155594 -0.092091 0.887906 228 255 20 0.621137
-0.153272 -0.093678 0.887977 228 255 20 0.621304
-0.150338 -0.090288 0.895399 228 255 20 0.621583
-0.152440 -0.088632 0.895499 228 255 20 0.622046
-0.149870 -0.088496 0.897649 228 255 20 0.622152
-0.154582 -0.086883 0.895622 228 255 20 0.622331
-0.155061 -0.088749 0.893084 228 255 20 0.621803
-0.176598 -0.066693 0.880258 224 255 24 0.619798
-0.175218 -0.068930 0.881496 224 255 24 0.619871
-0.175983 -0.070258 0.878141 224 255 24 0.620029
-0.177370 -0.068013 0.876975 224 255 24 0.619464
-0.174307 -0.071897 0.881001 224 255 24 0.620420
-0.173284 -0.074892 0.880590 224 255 24 0.620625
-0.172687 -0.073340 0.883692 224 255 24 0.620303
-0.173586 -0.070326 0.884142 224 255 24 0.620954
-0.177695 -0.069289 0.873776 205 255 43 0.597224
-0.176351 -0.071588 0.874969 224 255 24 0.619219
-0.175028 -0.074559 0.874620 189 255 59 0.575180
-0.173589 -0.076262 0.877343 224 255 24 0.619431
-0.174777 -0.073267 0.877714 224 255 24 0.620306
-0.168195 -0.082108 0.881421 224 255 24 0.621072
-0.169944 -0.080181 0.880171 228 255 20 0.621377
-0.169629 -0.078667 0.883176 228 255 20 0.621770
-0.167905 -0.080626 0.884432 228 255 20 0.621456
-0.171601 -0.077491 0.880338 228 255 20 0.621354
-0.171830 -0.078846 0.877175 224 255 24 0.620667
-0.169067 -0.077112 0.886225 228 255 20 0.621924
-0.167061 -0.078162 0.888789 228 255 20 0.622168
-0.170496 -0.074443 0.886488 228 255 20 0.621989
-0.171138 -0.075983 0.883403 224 255 24 0.618877
-0.164475 -0.088067 0.879872 228 255 20 0.621465
-0.162221 -0.090487 0.879914 228 255 20 0.621599
-0.164535 -0.089468 0.876735 228 255 20 0.621432
-0.162275 -0.091901 0.876749 228 255 20 0.621493
-0.160029 -0.092821 0.879846 228 255 20 0.621795
-0.157826 -0.095122 0.879765 224 255 24 0.620370
-0.158027 -0.093571 0.882489 224 255 24 0.620907
-0.160189 -0.091307 0.882594 228 255 20 0.621346
-0.164201 -0.091019 0.873730 228 255 20 0.621147
-0.161652 -0.093581 0.873629 228 255 20 0.621789
-0.164002 -0.092455 0.870396 117 255 130 0.491358
-0.159161 -0.096058 0.873550 228 255 20 0.622331
-0.157297 -0.096752 0.876523 228 255 20 0.621278
-0.159737 -0.094368 0.876668 228 255 20 0.621759
-0.149208 -0.099132 0.882129 228 255 20 0.622480
-0.151712 -0.098453 0.880458 228 255 20 0.622492
-0.152704 -0.096667 0.883147 228 255 20 0.621535
-0.150157 -0.097378 0.884761 228 255 20 0.621517
-0.154724 -0.096825 0.880168 228 255 20 0.621463
-0.154214 -0.098437 0.876934 228 255 20 0.622624
-0.150424 -0.095867 0.887227 228 255 20 0.621106
-0.155483 -0.093658 0.885473 224 255 24 0.621020
-0.155347 -0.095155 0.882823 228 255 20 0.621172
-0.179551 -0.068012 0.859998 218 255 30 0.612131
-0.180378 -0.064950 0.858764 218 255 30 0.612327
-0.180718 -0.064109 0.861644 218 255 30 0.612844
-0.179891 -0.067095 0.862882 218 255 30 0.613221
-0.181337 -0.061504 0.858889 218 255 30 0.612133
-0.182141 -0.058142 0.859146 218 255 30 0.612578
-0.181631 -0.058938 0.856243 218 255 30 0.611777
-0.180814 -0.062316 0.856132 218 255 30 0.612008
-0.180103 -0.066273 0.865506 221 255 27 0.614467
-0.180996 -0.063369 0.864297 221 255 27 0.614032
-0.181765 -0.060082 0.864440 221 255 27 0.614255
-0.182266 -0.057512 0.861858 218 255 30 0.613230
-0.181570 -0.060769 0.861696 218 255 30 0.612934
-0.181282 -0.048429 0.860697 221 255 27 0.614287
-0.181881 -0.051670 0.859976 221 255 27 0.613480
-0.181082 -0.048952 0.857762 221 255 27 0.613377
-0.181616 -0.052146 0.857231 218 255 30 0.612798
-0.182125 -0.054898 0.859505 218 255 30 0.613102
-0.182207 -0.054225 0.862302 221 255 27 0.614052
-0.180715 -0.049587 0.854791 215 255 33 0.609026
-0.181077 -0.052896 0.854199 218 255 30 0.612155
-0.179942 -0.050285 0.851794 218 255 30 0.612185
-0.181488 -0.055863 0.855163 253 239 0 0.654311
-0.155981 -0.044333 0.824528 205 255 43 0.594329
-0.157651 -0.046496 0.824500 208 255 40 0.599282
-0.159382 -0.047552 0.825806 211 255 36 0.601665
-0.161145 -0.049558 0.825742 250 243 0 0.651154
-0.162923 -0.050526 0.827069 211 255 36 0.605346
-0.162870 -0.052566 0.824254 211 255 36 0.604753
-0.161151 -0.047539 0.828440 218 255 30 0.613042
-0.162854 -0.048510 0.829726 215 255 33 0.605847
-0.159028 -0.045318 0.828490 211 255 36 0.603432
-0.157038 -0.042977 0.828503 211 255 36 0.601653
-0.155410 -0.041847 0.827209 208 255 40 0.598313
-0.154596 -0.039291 0.829859 211 255 36 0.601951
-0.164637 -0.054775 0.824157 215 255 33 0.606935
-0.166699 -0.056146 0.825500 185 255 62 0.574023
-0.168589 -0.058305 0.825363 218 255 30 0.611588
-0.170659 -0.059626 0.826798 218 255 30 0.612924
-0.170223 -0.061332 0.823707 218 255 30 0.612845
-0.168986 -0.056679 0.828390 218 255 30 0.612371
-0.171043 -0.057938 0.829774 218 255 30 0.612678
-0.166901 -0.054361 0.828346 218 255 30 0.610297
-0.164884 -0.051952 0.828356 215 255 33 0.609082
-0.170351 -0.052816 0.834226 218 255 30 0.611552
-0.167908 -0.051494 0.832655 218 255 30 0.610548
-0.166089 -0.047794 0.833976 218 255 30 0.609556
-0.163628 -0.046263 0.832482 211 255 36 0.605148
-0.165370 -0.050041 0.831164 205 255 43 0.597589
-0.169384 -0.054714 0.831225 218 255 30 0.612152
-0.171876 -0.056017 0.832817 218 255 30 0.612527
-0.161660 -0.042878 0.834075 211 255 36 0.602737
-0.158649 -0.039823 0.834331 211 255 36 0.604318
-0.159232 -0.041783 0.832653 211 255 36 0.604171
-0.155720 -0.036726 0.834513 211 255 36 0.604780
-0.156241 -0.038563 0.832977 211 255 36 0.605125
-0.153384 -0.035424 0.833133 211 255 36 0.603739
-0.152794 -0.033542 0.834696 215 255 33 0.607734
-0.156811 -0.040581 0.831316 211 255 36 0.604326
-0.153945 -0.037320 0.831540 211 255 36 0.603111
-0.161094 -0.045221 0.831108 211 255 36 0.604098
-0.171672 -0.063527 0.823703 221 255 27 0.613446
-0.173335 -0.065229 0.825607 221 255 27 0.614237
-0.174554 -0.067573 0.825780 221 255 27 0.614499
-0.175978 -0.069389 0.827899 221 255 27 0.615425
-0.175375 -0.070599 0.824307 221 255 27 0.615253
-0.175138 -0.066324 0.829275 255 153 0 0.743762
-0.176400 -0.068228 0.831412 221 255 27 0.615200
-0.173835 -0.063652 0.828828 221 255 27 0.614241
-0.172390 -0.061200 0.828543 221 255 27 0.613824
-0.176178 -0.072566 0.826790 221 255 27 0.615917
-0.176208 -0.075355 0.825302 221 255 27 0.616027
-0.176687 -0.074580 0.829398 221 255 27 0.616446
-0.176601 -0.077427 0.828020 221 255 27 0.616792
-0.176797 -0.079624 0.830632 224 255 24 0.617295
-0.176384 -0.080276 0.826637 221 255 27 0.617106
-0.176927 -0.076719 0.831938 221 255 27 0.616901
-0.177041 -0.078915 0.834487 224 255 24 0.617597
-0.176969 -0.073506 0.832879 221 255 27 0.615486
-0.176630 -0.071386 0.830395 234 255 14 0.631968
-0.177942 -0.074473 0.839620 221 255 27 0.616553
-0.177945 -0.071525 0.838576 221 255 27 0.615660
-0.177507 -0.069425 0.835864 221 255 27 0.615328
-0.177203 -0.066580 0.834910 221 255 27 0.614996
-0.177412 -0.075599 0.835625 221 255 27 0.615993
-0.177699 -0.077770 0.838430 221 255 27 0.617184
-0.176576 -0.063003 0.836058 221 255 27 0.614095
-0.175295 -0.060196 0.835385 221 255 27 0.613611
-0.173470 -0.058586 0.833321 221 255 27 0.613432
-0.174473 -0.062031 0.832055 221 255 27 0.613940
-0.175718 -0.064667 0.832577 221 255 27 0.614391
-0.177503 -0.079558 0.841140 224 255 24 0.617793
-0.176781 -0.082460 0.839999 224 255 24 0.618845
-0.176979 -0.080663 0.837242 224 255 24 0.618124
-0.176110 -0.083579 0.836125 224 255 24 0.619052
-0.175889 -0.085404 0.838926 224 255 24 0.619166
-0.174928 -0.088252 0.837736 224 255 24 0.619696
-0.175352 -0.087508 0.842036 224 255 24 0.618922
-0.176130 -0.084573 0.843151 224 255 24 0.619077
-0.176564 -0.081458 0.833197 224 255 24 0.618155
-0.175914 -0.084034 0.831838 224 255 24 0.618427
-0.176178 -0.082154 0.829232 224 255 24 0.617567
-0.175470 -0.084658 0.827834 224 255 24 0.618278
-0.175238 -0.086557 0.830406 224 255 24 0.619068
-0.174304 -0.089139 0.829096 224 255 24 0.619523
-0.174802 -0.088686 0.833449 224 255 24 0.619642
-0.175495 -0.086118 0.834791 224 255 24 0.619375
-0.169539 -0.097352 0.830092 228 255 20 0.621336
-0.171145 -0.095074 0.832029 224 255 24 0.620623
-0.169618 -0.097199 0.834592 224 255 24 0.620639
-0.172633 -0.092783 0.833909 224 255 24 0.620261
-0.171090 -0.094912 0.836480 224 255 24 0.620071
-0.172440 -0.092647 0.838283 224 255 24 0.620410
-0.169505 -0.097091 0.838958 224 255 24 0.620305
-0.173890 -0.090510 0.835826 224 255 24 0.620330
-0.173496 -0.090965 0.831537 224 255 24 0.620452
-0.171939 -0.093328 0.829618 205 255 43 0.594996
-0.169201 -0.097202 0.841874 224 255 24 0.619695
-0.171358 -0.094539 0.840811 224 255 24 0.619697
-0.170854 -0.094710 0.843697 224 255 24 0.619105
-0.168710 -0.097403 0.844678 234 255 14 0.631100
-0.172910 -0.092004 0.842665 224 255 24 0.619670
-0.170066 -0.094982 0.846512 153 255 95 0.534292
-0.172154 -0.092189 0.845491 224 255 24 0.619176
-0.168024 -0.097754 0.847487 224 255 24 0.618679
-0.174169 -0.089441 0.844453 224 255 24 0.618948
-0.173989 -0.090085 0.840190 224 255 24 0.619649
-0.167014 -0.099660 0.831715 169 255 79 0.551621
-0.165462 -0.101617 0.829114 228 255 20 0.622930
-0.164539 -0.101925 0.833142 228 255 20 0.623866
-0.162955 -0.103826 0.830563 228 255 20 0.624093
-0.160500 -0.105980 0.831890 228 255 20 0.624905
-0.161298 -0.105732 0.827888 228 255 20 0.624183
-0.162024 -0.104185 0.834540 228 255 20 0.624869
-0.159542 -0.106402 0.835873 172 255 75 0.556873
-0.164750 -0.101798 0.837552 228 255 20 0.622166
-0.167276 -0.099444 0.836075 228 255 20 0.621783
-0.158987 -0.107583 0.826604 231 255 17 0.625681
-0.155558 -0.109749 0.826787 231 255 17 0.627669
-0.153418 -0.111458 0.825269 231 255 17 0.628412
-0.150174 -0.113409 0.825219 198 255 49 0.585976
-0.152538 -0.112829 0.822105 231 255 17 0.627163
-0.151045 -0.112152 0.828418 234 255 14 0.629915
-0.147838 -0.114029 0.828346 231 255 17 0.627588
-0.153985 -0.110206 0.830410 231 255 17 0.628630
-0.156978 -0.108205 0.832217 231 255 17 0.627235
-0.145789 -0.113686 0.835692 231 255 17 0.625315
-0.149220 -0.111955 0.838082 231 255 17 0.626085
-0.150289 -0.111397 0.836069 231 255 17 0.628013
-0.152667 -0.110123 0.840278 231 255 17 0.625053
-0.153734 -0.109500 0.838250 231 255 17 0.627576
-0.157186 -0.107478 0.840214 208 255 40 0.597897
-0.156017 -0.108118 0.842281 228 255 20 0.623050
-0.154942 -0.108968 0.836119 231 255 17 0.628506
-0.158438 -0.106886 0.838058 228 255 20 0.624845
-0.151898 -0.110890 0.834259 231 255 17 0.627885
-0.148984 -0.112691 0.832265 231 255 17 0.627534
-0.147341 -0.113159 0.834025 231 255 17 0.626848
-0.144584 -0.114853 0.831892 228 255 20 0.624742
-0.146223 -0.114434 0.830189 231 255 17 0.626731
-0.143029 -0.115293 0.833535 228 255 20 0.623920
-0.158356 -0.105950 0.843273 228 255 20 0.624144
-0.161842 -0.103263 0.844781 228 255 20 0.621540
-0.162106 -0.102991 0.842002 228 255 20 0.623918
-0.165054 -0.100540 0.846183 208 255 40 0.598075
-0.165548 -0.100224 0.843390 224 255 24 0.620867
-0.165910 -0.100010 0.840512 228 255 20 0.621459
-0.163506 -0.102360 0.839757 228 255 20 0.623252
-0.160988 -0.104677 0.838963 228 255 20 0.624179
-0.159638 -0.105288 0.841169 228 255 20 0.624755
-0.140598 -0.116350 0.831247 228 255 20 0.624157
-0.142191 -0.116012 0.829647 231 255 17 0.625216
-0.139847 -0.117256 0.827273 231 255 17 0.625195
-0.143812 -0.115729 0.827919 231 255 17 0.626412
-0.141529 -0.116960 0.825603 231 255 17 0.627446
-0.143177 -0.116639 0.823815 234 255 14 0.630641
-0.145449 -0.115332 0.826122 231 255 17 0.628876
-0.139309 -0.118261 0.823167 231 255 17 0.627182
-0.141018 -0.118030 0.821409 234 255 14 0.631702
-0.139008 -0.119460 0.818816 234 255 14 0.629853
-0.136948 -0.119783 0.820255 255 202 0 0.691760
-0.137252 -0.118544 0.824552 231 255 17 0.626300
-0.134858 -0.120021 0.821706 231 255 17 0.625472
-0.135223 -0.118758 0.825835 228 255 20 0.624287
-0.137862 -0.117506 0.828607 228 255 20 0.623924
-0.132813 -0.120132 0.823092 228 255 20 0.623642
-0.148278 -0.114608 0.823307 176 255 72 0.560702
-0.146452 -0.115869 0.821288 153 255 95 0.533646
-0.148865 -0.115442 0.818191 234 255 14 0.630238
-0.150637 -0.114156 0.820215 234 255 14 0.628980
-0.145924 -0.116983 0.817611 234 255 14 0.632520
-0.145520 -0.118112 0.813759 228 255 20 0.622332
-0.142238 -0.118748 0.816317 237 255 11 0.635325
-0.140398 -0.121862 0.803189 228 255 20 0.622581
-0.139884 -0.121452 0.807095 228 255 20 0.622517
-0.136602 -0.122899 0.805235 179 255 69 0.563809
-0.139441 -0.120898 0.811091 234 255 14 0.632612
-0.136111 -0.122385 0.809194 231 255 17 0.628638
-0.135788 -0.121794 0.813130 234 255 14 0.629109
-0.132831 -0.123956 0.807332 228 255 20 0.622704
-0.139222 -0.120233 0.814985 237 255 11 0.633003
-0.142462 -0.119490 0.812476 237 255 11 0.633696
-0.142827 -0.120210 0.808489 228 255 20 0.622383
-0.130456 -0.124442 0.808593 240 254 7 0.639181
-0.132168 -0.123257 0.811794 228 255 20 0.621471
-0.129881 -0.123605 0.813048 224 255 24 0.620136
-0.128176 -0.124855 0.809861 224 255 24 0.618036
-0.131625 -0.122354 0.816177 255 183 0 0.713255
-0.127681 -0.123847 0.814310 224 255 24 0.619605
-0.129408 -0.122557 0.817473 224 255 24 0.621039
-0.126023 -0.125203 0.811234 221 255 27 0.616760
-0.131186 -0.121195 0.820562 228 255 20 0.623415
-0.133216 -0.121200 0.819024 228 255 20 0.624542
-0.135296 -0.120943 0.817490 231 255 17 0.626564
-0.133709 -0.122116 0.814670 240 254 7 0.637532
-0.098777 -0.021501 0.788638 221 255 27 0.614945
-0.099608 -0.023095 0.786696 224 255 24 0.617666
-0.101406 -0.022130 0.789635 221 255 27 0.616834
-0.102371 -0.023765 0.787644 224 255 24 0.618419
-0.105139 -0.024416 0.788596 224 255 24 0.617844
-0.103332 -0.025413 0.785616 224 255 24 0.618432
-0.104134 -0.022814 0.790640 224 255 24 0.617460
-0.106899 -0.023514 0.791743 221 255 27 0.616820
-0.103388 -0.020906 0.793398 255 213 0 0.680376
-0.100779 -0.020234 0.792308 218 255 30 0.611896
-0.105819 -0.026113 0.786386 224 255 24 0.618478
-0.108270 -0.026771 0.787187 224 255 24 0.617726
-0.111454 -0.028996 0.786402 224 255 24 0.617728
-0.108329 -0.028618 0.784317 224 255 24 0.617471
-0.113006 -0.028283 0.788957 224 255 24 0.617589
-0.110061 -0.025886 0.790294 224 255 24 0.618080
-0.107627 -0.025141 0.789437 255 235 0 0.658796
-0.116856 -0.027807 0.793965 224 255 24 0.618335
-0.114426 -0.026678 0.793289 224 255 24 0.618727
-0.114043 -0.025204 0.795754 224 255 24 0.617994
-0.111969 -0.025627 0.792679 224 255 24 0.618110
-0.111490 -0.024090 0.795215 224 255 24 0.618312
-0.108990 -0.022992 0.794727 221 255 27 0.617014
-0.111076 -0.022510 0.797777 221 255 27 0.615574
-0.109385 -0.021067 0.798978 215 255 33 0.608743
-0.106643 -0.019948 0.798207 215 255 33 0.608412
-0.105056 -0.018461 0.799313 211 255 36 0.603658
-0.102786 -0.019300 0.795714 215 255 33 0.609279
-0.106168 -0.021952 0.794018 221 255 27 0.616233
-0.121983 -0.039979 0.781065 218 255 30 0.611106
-0.121817 -0.037709 0.783689 218 255 30 0.612315
-0.121651 -0.035607 0.786299 221 255 27 0.614112
-0.124559 -0.038322 0.785494 218 255 30 0.612778
-0.118709 -0.033205 0.787133 221 255 27 0.614847
-0.118820 -0.035025 0.784463 221 255 27 0.613804
-0.118917 -0.037151 0.781745 237 255 11 0.636129
-0.116559 -0.034217 0.783695 221 255 27 0.613678
-0.124873 -0.036668 0.788170 221 255 27 0.614023
-0.125182 -0.035316 0.790774 215 255 33 0.606633
-0.127934 -0.037791 0.789911 234 255 14 0.630733
-0.122355 -0.032911 0.791786 221 255 27 0.614021
-0.121987 -0.034192 0.788999 231 255 17 0.625828
-0.116360 -0.029099 0.790928 224 255 24 0.617749
-0.115847 -0.030578 0.787941 221 255 27 0.616144
-0.119157 -0.031631 0.789905 221 255 27 0.615323
-0.119619 -0.030195 0.792737 221 255 27 0.616286
-0.114478 -0.031203 0.785716 221 255 27 0.615896
-0.112933 -0.032025 0.783161 221 255 27 0.615845
-0.138125 -0.035139 0.809270 228 255 20 0.623346
-0.140351 -0.036084 0.811631 221 255 27 0.614643
-0.142531 -0.036933 0.813969 211 255 36 0.604296
-0.142528 -0.038471 0.810920 208 255 40 0.599658
-0.140221 -0.034514 0.814718 224 255 24 0.618166
-0.137453 -0.031761 0.815398 228 255 20 0.622878
-0.137909 -0.033462 0.812360 228 255 20 0.624898
-0.135152 -0.030762 0.812991 228 255 20 0.622106
-0.145338 -0.040721 0.811834 198 255 49 0.587089
-0.145421 -0.039370 0.814833 198 255 49 0.587429
-0.147421 -0.041772 0.813853 192 255 56 0.581979
-0.149384 -0.044161 0.812798 163 255 85 0.546384
-0.147502 -0.040387 0.816781 198 255 49 0.587388
-0.145429 -0.038017 0.817733 202 255 46 0.593524
-0.142427 -0.035526 0.816879 211 255 36 0.604312
-0.142216 -0.033762 0.820123 215 255 33 0.606837
-0.138863 -0.030583 0.821056 255 232 0 0.662294
-0.139763 -0.032572 0.817882 221 255 27 0.615718
-0.145432 -0.036256 0.820849 208 255 40 0.599335
-0.134709 -0.028460 0.818131 215 255 33 0.605637
-0.130929 -0.026006 0.816958 202 255 46 0.592934
-0.126367 -0.029274 0.803101 228 255 20 0.623389
-0.127996 -0.028931 0.806104 228 255 20 0.622451
-0.129500 -0.028578 0.809016 221 255 27 0.616232
-0.130668 -0.031026 0.805750 231 255 17 0.625393
-0.126814 -0.026675 0.809468 211 255 36 0.603579
-0.123974 -0.024635 0.809870 202 255 46 0.592103
-0.125151 -0.026948 0.806463 221 255 27 0.615615
-0.122292 -0.024947 0.806856 215 255 33 0.607682
-0.133629 -0.032516 0.807271 231 255 17 0.626431
-0.133119 -0.030498 0.810448 228 255 20 0.623388
-0.135708 -0.032813 0.809893 231 255 17 0.625541
-0.132018 -0.028351 0.813565 215 255 33 0.609071
-0.128600 -0.026584 0.812286 208 255 40 0.600919
-0.126262 -0.022745 0.817086 172 255 75 0.556679
-0.127622 -0.024347 0.815724 182 255 66 0.570202
-0.124177 -0.022618 0.814420 169 255 79 0.552349
-0.122840 -0.021021 0.815823 156 255 92 0.535364
-0.125542 -0.024139 0.813026 192 255 56 0.579637
-0.119768 -0.019893 0.814181 160 255 88 0.539352
-0.121197 -0.021492 0.812776 166 255 82 0.549681
-0.118011 -0.020308 0.811073 176 255 72 0.559397
-0.116616 -0.018663 0.812458 166 255 82 0.549031
-0.121088 -0.022503 0.810480 185 255 62 0.572127
-0.116641 -0.026422 0.796276 224 255 24 0.618064
-0.119001 -0.027897 0.796381 224 255 24 0.618438
-0.116395 -0.025164 0.798647 224 255 24 0.617761
-0.118803 -0.026561 0.798729 224 255 24 0.618631
-0.118521 -0.025254 0.801108 224 255 24 0.617244
-0.121280 -0.028044 0.798835 224 255 24 0.620833
-0.116061 -0.023840 0.801094 221 255 27 0.614674
-0.115718 -0.022460 0.803465 211 255 36 0.605399
-0.113441 -0.022456 0.800603 163 255 85 0.545175
-0.113724 -0.023839 0.798193 224 255 24 0.617388
-0.121254 -0.026969 0.801207 224 255 24 0.619813
-0.123765 -0.028643 0.800981 228 255 20 0.622286
-0.121188 -0.025827 0.803505 224 255 24 0.617400
-0.123773 -0.027491 0.803269 224 255 24 0.620989
-0.119663 -0.023240 0.806996 198 255 49 0.589236
-0.118445 -0.024183 0.803512 215 255 33 0.607292
-0.113955 -0.018192 0.809983 176 255 72 0.561883
-0.115438 -0.019809 0.808758 185 255 62 0.571322
-0.112619 -0.019328 0.806109 192 255 56 0.581391
-0.111120 -0.017706 0.807395 189 255 59 0.576743
-0.115584 -0.021217 0.806151 192 255 56 0.580734
-0.118180 -0.021650 0.808497 185 255 62 0.572665
-0.108682 -0.017817 0.804394 198 255 49 0.589067
-0.110304 -0.019363 0.803360 202 255 46 0.591734
-0.111857 -0.020930 0.801990 211 255 36 0.602445
-0.128538 -0.036706 0.792412 221 255 27 0.615133
-0.129172 -0.035793 0.794984 221 255 27 0.614525
-0.130722 -0.038133 0.792959 221 255 27 0.614207
-0.126982 -0.034470 0.794559 221 255 27 0.615663
-0.124477 -0.033162 0.793958 221 255 27 0.615156
-0.132678 -0.038542 0.794833 221 255 27 0.615382
-0.131470 -0.036392 0.796916 221 255 27 0.615748
-0.133509 -0.037008 0.798585 218 255 30 0.611276
-0.134696 -0.039088 0.796515 218 255 30 0.613098
-0.131161 -0.034748 0.799888 228 255 20 0.622573
-0.128911 -0.034060 0.798100 224 255 24 0.617241
-0.126565 -0.031293 0.799634 228 255 20 0.623680
-0.123994 -0.030586 0.797466 224 255 24 0.620100
-0.128875 -0.031977 0.801515 231 255 17 0.627155
-0.121874 -0.030293 0.795209 221 255 27 0.616326
-0.136142 -0.034666 0.806960 228 255 20 0.624054
-0.134198 -0.034236 0.804670 231 255 17 0.626388
-0.136653 -0.036427 0.804394 165 0 0 0.961179
-0.138778 -0.038367 0.804006 218 255 30 0.610462
-0.138485 -0.036717 0.806590 221 255 27 0.616683
-0.140628 -0.038702 0.806182 215 255 33 0.608596
-0.131696 -0.033177 0.803207 231 255 17 0.626394
-0.133658 -0.035780 0.801387 224 255 24 0.620585
-0.136793 -0.039868 0.797973 221 255 27 0.614495
-0.135935 -0.038044 0.800053 218 255 30 0.611073
-0.138098 -0.039008 0.801279 218 255 30 0.611483
-0.138915 -0.040799 0.799208 221 255 27 0.614479
-0.141119 -0.041929 0.800273 221 255 27 0.614474
-0.140714 -0.040541 0.802457 218 255 30 0.610694
-0.143054 -0.041876 0.803444 215 255 33 0.607633
-0.143479 -0.043281 0.801223 221 255 27 0.614022
-0.145954 -0.044923 0.802184 211 255 36 0.604588
-0.147845 -0.045862 0.803872 208 255 40 0.597947
-0.149911 -0.047801 0.803347 208 255 40 0.599620
-0.146323 -0.043986 0.805810 202 255 46 0.592435
-0.144104 -0.041924 0.806211 205 255 43 0.595990
-0.151720 -0.048956 0.804913 195 255 53 0.583991
-0.153529 -0.050114 0.806405 179 255 69 0.565028
-0.154911 -0.051998 0.804358 189 255 59 0.575235
-0.152087 -0.048388 0.808326 179 255 69 0.565567
-0.150231 -0.047151 0.806848 189 255 59 0.576740
-0.148153 -0.045125 0.807452 192 255 56 0.579767
-0.147423 -0.042972 0.811102 195 255 53 0.582089
-0.145441 -0.041732 0.809294 198 255 49 0.587264
-0.150088 -0.046229 0.809213 185 255 62 0.572462
-0.142719 -0.039726 0.808289 208 255 40 0.599253
-0.140453 -0.037458 0.808780 82 255 166 0.446639
-0.159089 -0.053171 0.813451 182 255 66 0.570129
-0.161621 -0.055503 0.814610 195 255 53 0.583358
-0.164201 -0.057712 0.815722 208 255 40 0.599008
-0.163342 -0.057837 0.813027 205 255 43 0.594851
-0.162383 -0.055464 0.817268 202 255 46 0.592747
-0.160433 -0.052673 0.818712 237 255 11 0.635152
-0.159697 -0.052900 0.816177 195 255 53 0.583935
-0.157779 -0.050019 0.817634 192 255 56 0.581181
-0.166372 -0.061162 0.812454 215 255 33 0.608255
-0.167477 -0.061770 0.815053 218 255 30 0.610184
-0.169290 -0.064076 0.813301 218 255 30 0.611827
-0.171025 -0.066352 0.811483 218 255 30 0.612966
-0.170455 -0.064615 0.816013 189 255 59 0.575292
-0.168492 -0.062084 0.817726 218 255 30 0.611689
-0.165159 -0.058155 0.818267 211 255 36 0.603650
-0.168539 -0.060101 0.822365 218 255 30 0.611940
-0.166665 -0.057889 0.822570 218 255 30 0.609382
-0.164970 -0.056566 0.821278 215 255 33 0.605951
-0.163242 -0.054322 0.821456 211 255 36 0.602194
-0.166789 -0.059425 0.819529 215 255 33 0.608684
-0.170248 -0.062676 0.820662 218 255 30 0.612862
-0.159797 -0.049747 0.823019 208 255 40 0.600139
-0.156728 -0.046632 0.821772 202 255 46 0.590690
-0.158751 -0.049958 0.820342 202 255 46 0.592111
-0.163395 -0.060003 0.804013 205 255 43 0.595454
-0.164958 -0.061269 0.805694 211 255 36 0.604454
-0.167352 -0.063058 0.806212 218 255 30 0.609754
-0.163761 -0.059631 0.808178 205 255 43 0.595226
-0.162157 -0.058371 0.806395 198 255 49 0.589683
-0.160942 -0.056817 0.808626 192 255 56 0.579332
-0.168338 -0.063652 0.810808 218 255 30 0.611164
-0.166335 -0.061564 0.808811 215 255 33 0.608393
-0.169266 -0.065097 0.808039 218 255 30 0.611018
-0.172109 -0.067394 0.808579 218 255 30 0.612942
-0.160924 -0.055675 0.812150 130 255 117 0.506567
-0.173490 -0.069611 0.812371 221 255 27 0.613874
-0.175770 -0.072883 0.813798 221 255 27 0.614282
-0.174994 -0.071737 0.810482 221 255 27 0.613956
-0.174282 -0.070718 0.815531 221 255 27 0.614029
-0.172864 -0.068108 0.817186 221 255 27 0.614211
-0.172043 -0.067153 0.814271 221 255 27 0.613654
-0.176558 -0.075253 0.812286 221 255 27 0.614632
-0.177618 -0.079123 0.812487 221 255 27 0.614834
-0.176877 -0.078936 0.816314 221 255 27 0.615662
-0.176353 -0.076435 0.817686 221 255 27 0.615546
-0.176452 -0.078091 0.824218 221 255 27 0.616483
-0.176253 -0.076054 0.821749 221 255 27 0.615987
-0.175931 -0.073289 0.822966 221 255 27 0.615899
-0.175445 -0.071376 0.820774 221 255 27 0.615281
-0.175872 -0.074159 0.819486 221 255 27 0.615436
-0.176620 -0.078475 0.820055 221 255 27 0.616125
-0.176718 -0.080607 0.822584 221 255 27 0.616846
-0.174347 -0.068846 0.822484 221 255 27 0.614715
-0.172875 -0.066558 0.822351 221 255 27 0.614209
-0.171653 -0.064878 0.820647 221 255 27 0.613403
-0.174241 -0.069709 0.818952 221 255 27 0.614714
-0.170223 -0.099238 0.816120 221 255 27 0.616291
-0.168189 -0.101150 0.817604 221 255 27 0.617113
-0.167454 -0.102619 0.816063 221 255 27 0.615940
-0.165680 -0.104355 0.817296 221 255 27 0.616602
-0.167294 -0.103774 0.814066 221 255 27 0.615161
-0.166060 -0.103088 0.819209 224 255 24 0.618630
-0.163966 -0.104923 0.820492 153 255 95 0.532657
-0.167066 -0.101343 0.821263 224 255 24 0.619824
-0.169361 -0.099291 0.819585 224 255 24 0.618186
-0.171628 -0.097284 0.817838 224 255 24 0.617300
-0.170448 -0.097555 0.821611 224 255 24 0.618895
-0.164517 -0.105932 0.815101 221 255 27 0.616219
-0.164195 -0.106908 0.813148 221 255 27 0.615319
-0.162061 -0.107779 0.815743 224 255 24 0.618201
-0.161696 -0.108976 0.813665 224 255 24 0.617408
-0.159453 -0.110769 0.814035 255 228 0 0.665854
-0.161521 -0.110101 0.811619 224 255 24 0.617518
-0.157247 -0.111506 0.816425 224 255 24 0.619319
-0.160448 -0.108187 0.818705 224 255 24 0.620782
-0.162980 -0.106367 0.818117 224 255 24 0.618656
-0.155387 -0.110951 0.821872 231 255 17 0.626402
