ply
format ascii 1.0
comment VCGLIB generated
element vertex 1016
property float x
property float y
property float z
property uchar red
property uchar green
property uchar blue
property float quality
end_header
-0.140176 -0.107360 0.857400 0 42 255 0.166188
-0.138257 -0.109060 0.855233 0 42 255 0.167247
-0.141364 -0.107769 0.852973 0 50 255 0.173970
-0.143280 -0.106061 0.855132 0 58 255 0.179891
-0.139431 -0.109448 0.850795 0 50 255 0.174584
-0.144515 -0.106494 0.850712 0 58 255 0.183437
-0.142559 -0.108164 0.848535 0 70 255 0.194248
-0.145729 -0.106885 0.846279 0 50 255 0.171923
-0.146440 -0.104782 0.852865 0 66 255 0.190697
-0.147690 -0.105204 0.848447 0 62 255 0.187322
-0.149647 -0.103503 0.850597 0 38 255 0.162097
-0.140579 -0.109801 0.846331 0 54 255 0.179577
-0.143732 -0.108523 0.844080 0 54 255 0.176791
-0.141717 -0.110116 0.841854 0 58 255 0.181075
-0.138667 -0.111184 0.844260 0 50 255 0.175160
-0.137538 -0.110871 0.848740 0 46 255 0.168635
-0.135622 -0.112251 0.846658 0 62 255 0.185182
-0.134503 -0.111943 0.851144 0 50 255 0.172086
-0.136391 -0.110517 0.853198 0 58 255 0.180781
-0.132602 -0.113345 0.849066 0 50 255 0.174185
-0.152716 -0.101504 0.848214 0 74 255 0.196412
-0.150167 -0.104077 0.846093 0 70 255 0.192759
-0.153279 -0.102078 0.843705 0 30 255 0.153152
-0.155805 -0.099478 0.845806 0 42 255 0.165435
-0.150679 -0.104618 0.841562 0 46 255 0.171302
-0.156435 -0.100040 0.841293 0 50 255 0.173833
-0.153826 -0.102612 0.839165 0 34 255 0.156636
-0.157018 -0.100527 0.836742 0 30 255 0.156248
-0.158948 -0.097406 0.843375 0 22 255 0.146632
-0.159608 -0.097927 0.838845 0 30 255 0.153741
-0.162115 -0.095301 0.840927 0 26 255 0.151271
-0.151187 -0.105129 0.837007 0 46 255 0.170107
-0.154370 -0.103074 0.834604 0 58 255 0.180101
-0.151676 -0.105581 0.832450 0 34 255 0.157128
-0.149138 -0.106755 0.834818 0 66 255 0.191021
-0.148665 -0.106280 0.839378 0 62 255 0.184729
-0.146619 -0.107889 0.837167 0 58 255 0.180166
-0.146185 -0.107406 0.841731 0 54 255 0.177552
-0.148194 -0.105760 0.843923 0 62 255 0.183859
-0.144149 -0.109003 0.839513 0 70 255 0.195099
-0.141809 -0.112491 0.828052 0 70 255 0.192844
-0.139356 -0.113305 0.830315 0 98 255 0.221027
-0.141779 -0.111707 0.832666 0 66 255 0.188169
-0.136955 -0.114157 0.832582 0 94 255 0.217058
-0.139376 -0.112568 0.834935 0 78 255 0.199707
-0.136974 -0.113426 0.837202 0 78 255 0.200300
-0.134570 -0.115009 0.834847 0 90 255 0.211525
-0.141762 -0.110929 0.837267 0 74 255 0.199170
-0.139356 -0.111797 0.839541 0 66 255 0.189788
-0.144210 -0.109823 0.834929 0 90 255 0.212331
-0.146682 -0.108703 0.832582 0 66 255 0.189159
-0.144244 -0.110615 0.830331 0 78 255 0.200475
-0.146745 -0.109502 0.828002 0 58 255 0.182584
-0.149227 -0.107558 0.830243 0 46 255 0.170086
-0.144274 -0.111393 0.825736 0 58 255 0.181252
-0.131553 -0.116083 0.837244 0 78 255 0.201891
-0.128676 -0.116859 0.839640 0 78 255 0.201792
-0.130924 -0.115572 0.842000 0 62 255 0.185622
-0.125814 -0.117670 0.842039 0 66 255 0.188721
-0.128051 -0.116376 0.844401 0 54 255 0.179087
-0.130269 -0.115032 0.846748 0 42 255 0.164328
-0.133282 -0.113934 0.844341 0 62 255 0.185730
-0.136319 -0.112867 0.841944 0 70 255 0.192628
-0.133939 -0.114490 0.839603 0 74 255 0.198271
-0.164781 -0.088879 0.861423 0 18 255 0.144088
-0.162039 -0.091331 0.860908 0 38 255 0.162101
-0.164307 -0.090233 0.857097 0 22 255 0.148318
-0.159362 -0.093791 0.860399 0 26 255 0.151872
-0.161563 -0.092700 0.856591 0 26 255 0.150092
-0.158817 -0.095139 0.856079 0 34 255 0.157552
-0.163795 -0.091585 0.852780 0 26 255 0.149930
-0.156647 -0.096242 0.859889 0 26 255 0.151429
-0.153905 -0.098661 0.859372 0 26 255 0.151403
-0.154993 -0.096866 0.863210 0 34 255 0.158046
-0.157681 -0.094422 0.863717 0 46 255 0.168542
-0.160368 -0.091957 0.864218 0 26 255 0.150605
-0.156063 -0.095057 0.867049 0 34 255 0.156667
-0.163419 -0.092556 0.849839 0 30 255 0.153845
-0.160294 -0.094614 0.852249 0 34 255 0.156647
-0.159856 -0.095583 0.849311 0 42 255 0.167435
-0.163017 -0.093492 0.846883 0 30 255 0.153892
-0.156760 -0.097612 0.851712 0 38 255 0.163554
-0.159435 -0.096518 0.846361 0 30 255 0.152955
-0.156304 -0.098553 0.848765 0 34 255 0.157566
-0.162589 -0.094408 0.843904 0 30 255 0.153797
-0.153188 -0.100568 0.851162 0 46 255 0.169311
-0.150726 -0.102297 0.852804 0 42 255 0.165734
-0.154261 -0.099361 0.853358 0 42 255 0.167153
-0.151823 -0.101104 0.855007 0 30 255 0.156024
-0.155330 -0.098136 0.855547 0 30 255 0.155001
-0.157795 -0.096384 0.853903 0 38 255 0.161193
-0.152873 -0.099885 0.857190 0 38 255 0.160269
-0.141280 -0.106210 0.859618 0 34 255 0.158459
-0.142600 -0.104876 0.861544 0 46 255 0.171259
-0.145466 -0.103718 0.859551 0 46 255 0.170454
-0.143914 -0.103532 0.863455 0 34 255 0.156833
-0.146767 -0.102355 0.861455 0 34 255 0.158402
-0.148065 -0.101002 0.863353 0 30 255 0.154521
-0.145212 -0.102184 0.865365 0 30 255 0.153926
-0.149693 -0.101215 0.859467 0 30 255 0.155914
-0.150967 -0.099834 0.861361 0 30 255 0.154954
-0.148620 -0.102415 0.857278 0 38 255 0.160581
-0.147532 -0.103596 0.855079 0 42 255 0.164940
-0.144384 -0.104897 0.857342 0 42 255 0.166496
-0.146666 -0.100197 0.868935 0 26 255 0.149728
-0.149211 -0.099263 0.867221 0 26 255 0.149492
-0.150911 -0.096948 0.870476 0 22 255 0.147568
-0.148382 -0.097901 0.872189 0 22 255 0.147996
-0.152629 -0.097174 0.867138 0 22 255 0.147948
-0.157504 -0.028535 0.843672 0 42 255 0.164323
-0.158659 -0.031651 0.841649 0 46 255 0.169559
-0.155642 -0.029587 0.839897 0 46 255 0.171811
-0.156743 -0.032732 0.837895 0 50 255 0.173493
-0.159770 -0.034812 0.839651 0 66 255 0.187920
-0.160839 -0.038038 0.837667 0 54 255 0.176472
-0.162550 -0.036546 0.841482 0 38 255 0.162742
-0.161412 -0.033370 0.843488 0 38 255 0.163827
-0.160253 -0.030227 0.845508 0 38 255 0.162421
-0.164131 -0.035085 0.845331 0 34 255 0.157634
-0.153978 -0.030992 0.836097 0 74 255 0.198698
-0.152801 -0.031558 0.833928 0 66 255 0.189015
-0.155315 -0.034540 0.834045 0 74 255 0.195595
-0.151613 -0.032130 0.831765 0 74 255 0.197803
-0.154098 -0.035133 0.831888 0 82 255 0.205730
-0.152864 -0.035753 0.829722 0 82 255 0.203829
-0.150391 -0.032729 0.829597 0 94 255 0.216572
-0.156585 -0.038158 0.832001 0 66 255 0.189031
-0.155346 -0.038781 0.829847 0 78 255 0.201223
-0.157815 -0.041821 0.829975 0 50 255 0.172083
-0.159372 -0.039905 0.833812 0 66 255 0.187542
-0.158066 -0.036292 0.835855 0 66 255 0.190748
-0.164473 -0.053408 0.831618 0 38 255 0.162809
-0.163629 -0.049509 0.833122 0 42 255 0.167830
-0.165924 -0.051567 0.835491 0 42 255 0.167280
-0.162736 -0.045637 0.834631 0 42 255 0.165653
-0.165076 -0.047683 0.836981 0 38 255 0.160803
-0.164171 -0.043836 0.838480 0 50 255 0.174424
-0.167365 -0.049747 0.839353 0 34 255 0.159230
-0.161806 -0.041812 0.836145 0 50 255 0.173806
-0.160290 -0.043721 0.832292 0 70 255 0.191563
-0.161202 -0.047580 0.830760 0 50 255 0.175734
-0.166663 -0.046015 0.840824 0 26 255 0.151619
-0.168867 -0.048141 0.843049 0 30 255 0.154152
-0.165894 -0.042328 0.842284 0 46 255 0.169282
-0.168116 -0.044411 0.844515 0 30 255 0.155144
-0.167278 -0.040738 0.846005 0 34 255 0.156579
-0.170263 -0.046512 0.846757 0 30 255 0.155121
-0.165065 -0.038673 0.843797 0 30 255 0.153531
-0.163390 -0.040173 0.839966 0 46 255 0.170367
-0.173274 -0.071452 0.853306 0 22 255 0.145683
-0.173334 -0.068430 0.852411 0 22 255 0.147207
-0.172780 -0.066180 0.849626 0 22 255 0.147682
-0.172787 -0.063127 0.848706 0 22 255 0.145768
-0.172131 -0.060847 0.845904 0 18 255 0.144086
-0.173370 -0.059314 0.849670 0 22 255 0.147850
-0.171558 -0.064676 0.844944 0 26 255 0.149713
-0.170849 -0.062334 0.842114 0 26 255 0.149235
-0.171658 -0.067619 0.845742 0 22 255 0.147417
-0.171775 -0.070550 0.846534 0 14 255 0.139799
-0.172333 -0.072822 0.849322 0 22 255 0.145333
-0.171342 -0.074151 0.845316 0 22 255 0.147856
-0.172690 -0.056074 0.848925 0 26 255 0.149994
-0.171259 -0.053695 0.846339 0 26 255 0.150425
-0.170450 -0.050498 0.845614 0 34 255 0.157186
-0.168992 -0.052135 0.841918 0 30 255 0.153834
-0.169884 -0.055267 0.842599 0 18 255 0.143239
-0.170711 -0.058432 0.843310 0 22 255 0.147654
-0.165465 -0.056363 0.832181 0 26 255 0.152087
-0.167113 -0.058573 0.834796 0 34 255 0.158495
-0.168016 -0.061589 0.835392 0 30 255 0.152413
-0.169543 -0.063840 0.838028 0 26 255 0.151059
-0.168190 -0.065387 0.833946 0 26 255 0.151260
-0.169369 -0.060091 0.839478 0 18 255 0.141346
-0.168513 -0.056929 0.838789 0 26 255 0.151610
-0.167609 -0.053779 0.838098 0 38 255 0.161288
-0.168481 -0.068164 0.834590 0 26 255 0.148509
-0.169327 -0.070367 0.837440 0 18 255 0.143143
-0.169544 -0.073135 0.838076 0 22 255 0.144748
-0.170293 -0.075295 0.840899 0 26 255 0.148898
-0.169174 -0.076444 0.836476 0 26 255 0.149974
-0.170649 -0.071978 0.842486 0 18 255 0.143805
-0.170514 -0.069038 0.841697 0 18 255 0.143362
-0.170377 -0.066062 0.840885 0 26 255 0.148710
-0.162829 -0.026464 0.856281 0 34 255 0.159187
-0.164094 -0.028756 0.854753 0 34 255 0.160079
-0.161703 -0.026612 0.853426 0 38 255 0.160289
-0.162950 -0.028888 0.851896 0 38 255 0.163833
-0.165321 -0.031082 0.853237 0 34 255 0.159015
-0.166573 -0.033400 0.851708 0 26 255 0.151780
-0.167418 -0.032981 0.854539 0 30 255 0.156191
-0.166186 -0.030643 0.856050 0 34 255 0.159521
-0.160545 -0.027036 0.850407 0 38 255 0.161289
-0.161755 -0.029703 0.848718 0 38 255 0.162432
-0.159064 -0.027551 0.847206 0 42 255 0.166058
-0.162960 -0.032379 0.847024 0 42 255 0.165073
-0.165381 -0.034246 0.848508 0 34 255 0.156813
-0.164186 -0.031548 0.850210 0 34 255 0.159081
-0.169422 -0.043172 0.847960 0 30 255 0.154067
-0.171242 -0.045427 0.849807 0 30 255 0.155607
-0.168503 -0.039887 0.849195 0 30 255 0.155281
-0.170356 -0.042110 0.851027 0 26 255 0.149082
-0.169433 -0.038825 0.852270 0 30 255 0.154913
-0.172151 -0.044352 0.852872 0 30 255 0.152489
-0.167560 -0.036626 0.850447 0 26 255 0.151505
-0.166334 -0.037482 0.847259 0 34 255 0.157274
-0.171219 -0.041360 0.853994 0 30 255 0.153300
-0.172705 -0.043613 0.855630 0 30 255 0.152437
-0.170264 -0.038393 0.855110 0 30 255 0.154409
-0.171764 -0.040615 0.856749 0 30 255 0.153325
-0.169279 -0.035446 0.856227 0 26 255 0.151918
-0.168455 -0.035889 0.853405 0 30 255 0.156046
-0.172272 -0.074524 0.852135 0 22 255 0.147405
-0.171300 -0.077551 0.850925 0 18 255 0.142351
-0.171341 -0.075861 0.848137 0 18 255 0.144470
-0.170337 -0.078892 0.846913 0 14 255 0.140016
-0.170292 -0.080608 0.849717 0 22 255 0.147174
-0.169293 -0.083657 0.848505 0 22 255 0.147936
-0.169906 -0.082425 0.852785 0 26 255 0.148821
-0.170888 -0.079370 0.853990 0 18 255 0.141864
-0.171844 -0.076343 0.855201 0 18 255 0.143792
-0.170462 -0.081153 0.857035 0 22 255 0.147282
-0.170494 -0.076997 0.843731 0 22 255 0.148371
-0.169671 -0.079829 0.842128 0 22 255 0.146662
-0.169441 -0.078160 0.839313 0 26 255 0.149058
-0.168580 -0.080985 0.837705 0 26 255 0.150243
-0.168815 -0.082662 0.840517 0 18 255 0.144080
-0.167926 -0.085520 0.838923 0 10 255 0.136026
-0.168285 -0.085083 0.841328 0 14 255 0.137779
-0.169158 -0.082231 0.842934 0 26 255 0.148507
-0.168634 -0.084624 0.843727 0 22 255 0.147414
-0.169492 -0.081756 0.845324 0 22 255 0.148055
-0.170007 -0.079370 0.844526 0 22 255 0.146225
-0.168966 -0.084146 0.846121 0 22 255 0.147624
-0.163979 -0.092415 0.842837 0 26 255 0.150746
-0.164387 -0.091512 0.845814 0 18 255 0.143471
-0.165771 -0.089509 0.844729 0 26 255 0.151319
-0.164792 -0.090581 0.848778 0 26 255 0.149867
-0.166167 -0.088580 0.847695 0 26 255 0.148498
-0.166531 -0.087634 0.850652 0 30 255 0.153963
-0.165168 -0.089610 0.851719 0 22 255 0.146246
-0.167529 -0.086598 0.846626 0 22 255 0.148160
-0.167921 -0.085643 0.849581 0 22 255 0.147545
-0.167212 -0.087068 0.844232 0 26 255 0.149856
-0.166856 -0.087538 0.841843 0 22 255 0.148288
-0.165411 -0.089981 0.842342 0 26 255 0.150302
-0.165021 -0.090441 0.839954 0 26 255 0.151231
-0.166490 -0.087976 0.839440 0 26 255 0.150721
-0.163585 -0.092864 0.840440 0 26 255 0.151460
-0.165694 -0.088309 0.856010 0 14 255 0.138819
-0.167134 -0.086379 0.854922 0 18 255 0.141335
-0.167586 -0.085023 0.859238 0 30 255 0.154946
-0.166164 -0.086960 0.860334 0 22 255 0.147239
-0.168808 -0.083764 0.855980 0 22 255 0.144846
-0.129160 -0.043435 0.953782 0 14 255 0.140451
-0.130625 -0.044662 0.950858 0 10 255 0.133692
-0.130947 -0.046857 0.948326 0 18 255 0.143527
-0.133244 -0.044964 0.947534 0 18 255 0.143558
-0.128343 -0.046590 0.951638 0 6 255 0.130712
-0.128649 -0.048781 0.949118 0 18 255 0.143435
-0.126949 -0.045291 0.954426 0 18 255 0.143262
-0.123067 -0.049800 0.952911 0 14 255 0.140168
-0.121771 -0.048495 0.955535 0 14 255 0.139145
-0.124465 -0.046984 0.955018 0 18 255 0.140994
-0.125860 -0.048249 0.952234 0 18 255 0.143324
-0.125859 -0.050294 0.949778 0 14 255 0.139817
-0.154117 -0.063605 0.905567 0 30 255 0.154517
-0.154099 -0.061160 0.907167 0 22 255 0.145055
-0.153021 -0.060073 0.909355 0 18 255 0.141743
-0.152971 -0.057641 0.910944 0 22 255 0.145002
-0.150862 -0.060357 0.912148 0 22 255 0.144816
-0.155144 -0.057364 0.908149 0 22 255 0.145229
-0.155103 -0.054940 0.909733 0 22 255 0.146186
-0.156363 -0.058309 0.905897 0 22 255 0.145341
-0.157586 -0.059261 0.903617 0 34 255 0.157048
-0.157618 -0.061705 0.902005 0 22 255 0.146272
-0.160044 -0.058723 0.900655 0 22 255 0.144780
-0.149562 -0.059127 0.914837 0 18 255 0.143705
-0.149185 -0.056673 0.916999 0 26 255 0.150936
-0.147854 -0.055403 0.919720 0 22 255 0.145006
-0.147437 -0.052896 0.921938 0 22 255 0.144960
-0.145574 -0.055321 0.923015 0 18 255 0.141927
-0.149734 -0.052982 0.918651 0 22 255 0.144541
-0.149300 -0.050484 0.920868 0 22 255 0.145164
-0.151182 -0.054101 0.915845 0 22 255 0.145037
-0.152609 -0.055195 0.913086 0 14 255 0.140358
-0.151746 -0.045037 0.918949 0 26 255 0.150415
-0.153349 -0.045988 0.915985 0 26 255 0.150474
-0.154209 -0.048461 0.913683 0 22 255 0.144770
-0.155786 -0.049355 0.910819 0 22 255 0.145698
-0.156603 -0.051811 0.908552 0 22 255 0.145582
-0.158103 -0.048702 0.907361 0 18 255 0.143757
-0.154307 -0.052479 0.912003 0 22 255 0.145395
-0.152852 -0.051370 0.914751 0 30 255 0.154014
-0.151389 -0.050270 0.917551 0 22 255 0.145165
-0.150520 -0.047755 0.919921 0 22 255 0.145840
-0.159456 -0.049450 0.905020 0 22 255 0.146191
-0.159950 -0.051950 0.903353 0 22 255 0.146365
-0.161296 -0.052704 0.900971 0 22 255 0.146519
-0.161772 -0.055221 0.899283 0 34 255 0.157280
-0.163528 -0.051728 0.897875 0 26 255 0.150809
-0.159571 -0.056203 0.902356 0 34 255 0.158282
-0.158332 -0.055258 0.904632 0 22 255 0.147041
-0.157088 -0.054315 0.906899 0 18 255 0.142640
-0.138955 -0.036029 0.944314 0 18 255 0.143791
-0.137462 -0.034896 0.947387 0 18 255 0.143739
-0.138328 -0.031271 0.946178 0 18 255 0.143748
-0.139518 -0.033574 0.943493 0 26 255 0.149218
-0.140084 -0.031134 0.942665 0 18 255 0.143774
-0.138536 -0.026179 0.944575 0 22 255 0.148019
-0.140003 -0.028520 0.941858 0 18 255 0.143745
-0.138628 -0.028784 0.945367 0 22 255 0.145833
-0.136332 -0.037221 0.948188 0 22 255 0.146964
-0.137819 -0.038335 0.945122 0 18 255 0.144204
-0.136675 -0.040670 0.945947 0 26 255 0.149788
-0.135169 -0.039482 0.948975 0 14 255 0.139462
-0.133672 -0.038296 0.951996 0 22 255 0.148314
-0.132623 -0.042698 0.950139 0 14 255 0.139332
-0.131152 -0.041441 0.953072 0 18 255 0.143398
-0.134954 -0.042808 0.946745 0 14 255 0.137361
-0.150124 -0.043938 0.922118 0 22 255 0.145114
-0.148778 -0.041541 0.924846 0 22 255 0.146561
-0.147161 -0.040456 0.927986 0 22 255 0.146310
-0.145808 -0.038075 0.930686 0 18 255 0.144400
-0.145282 -0.040669 0.931539 0 22 255 0.144554
-0.147698 -0.037863 0.927126 0 22 255 0.144706
-0.146337 -0.035492 0.929833 0 22 255 0.144981
-0.149305 -0.038831 0.923953 0 22 255 0.145557
-0.150921 -0.039799 0.920760 0 22 255 0.145166
-0.152281 -0.042183 0.918031 0 22 255 0.146861
-0.152815 -0.039352 0.917087 0 26 255 0.148680
-0.143696 -0.039517 0.934738 0 18 255 0.144262
-0.142401 -0.037120 0.937529 0 18 255 0.143545
-0.140818 -0.035965 0.940714 0 18 255 0.144240
-0.141398 -0.033506 0.939868 0 22 255 0.147827
-0.142950 -0.034606 0.936679 0 22 255 0.145678
-0.144505 -0.035700 0.933474 0 26 255 0.149203
-0.141534 -0.028297 0.938236 0 22 255 0.144818
-0.143140 -0.030699 0.935428 0 22 255 0.146332
-0.144548 -0.030327 0.931854 0 18 255 0.144040
-0.146150 -0.032731 0.929050 0 18 255 0.144269
-0.144740 -0.033095 0.932628 0 18 255 0.144049
-0.141610 -0.030914 0.939047 0 22 255 0.147695
-0.147679 -0.032301 0.925459 0 22 255 0.147401
-0.149389 -0.034637 0.922684 0 18 255 0.144405
-0.150825 -0.034014 0.919084 0 22 255 0.145190
-0.152548 -0.036358 0.916282 0 22 255 0.147917
-0.151099 -0.036995 0.919898 0 22 255 0.145174
-0.147854 -0.035066 0.926273 0 26 255 0.149216
-0.134793 -0.046244 0.944474 0 10 255 0.136321
-0.135180 -0.048482 0.941912 0 18 255 0.142677
-0.136741 -0.049767 0.938830 0 18 255 0.144300
-0.137120 -0.052002 0.936253 0 18 255 0.144083
-0.139507 -0.050104 0.935182 0 22 255 0.144594
-0.134372 -0.051681 0.939883 0 18 255 0.144131
-0.134746 -0.053921 0.937312 0 14 255 0.138102
-0.132842 -0.050385 0.942838 0 18 255 0.143886
-0.131315 -0.049097 0.945781 0 18 255 0.143620
-0.141026 -0.051399 0.932176 0 18 255 0.144199
-0.141332 -0.053654 0.929789 0 22 255 0.144754
-0.142829 -0.054959 0.926752 0 26 255 0.151001
-0.143112 -0.057236 0.924292 0 22 255 0.144627
-0.140384 -0.056888 0.928017 0 1 255 0.124243
-0.140652 -0.059163 0.925560 0 22 255 0.146205
-0.138906 -0.055574 0.930962 0 14 255 0.139929
-0.137416 -0.054271 0.933877 0 18 255 0.144089
-0.134575 -0.059968 0.930519 0 18 255 0.142172
-0.133143 -0.058682 0.933338 0 10 255 0.136490
-0.133209 -0.056666 0.935598 0 18 255 0.144237
-0.131774 -0.055382 0.938367 0 18 255 0.142598
-0.136171 -0.057241 0.932150 0 10 255 0.134556
-0.137640 -0.058543 0.929210 0 18 255 0.144484
-0.137576 -0.060561 0.926886 0 18 255 0.141566
-0.128772 -0.054847 0.941850 0 18 255 0.143752
-0.127317 -0.053574 0.944629 0 18 255 0.143651
-0.127289 -0.051562 0.947027 0 14 255 0.136749
-0.130205 -0.052075 0.943765 0 18 255 0.141525
-0.131728 -0.053359 0.940812 0 18 255 0.143943
-0.139978 -0.038429 0.941563 0 18 255 0.142293
-0.141552 -0.039588 0.938372 0 18 255 0.143908
-0.142574 -0.041976 0.935612 0 18 255 0.144332
-0.144147 -0.043131 0.932415 0 18 255 0.144519
-0.143013 -0.045608 0.933289 0 26 255 0.151907
-0.141424 -0.044375 0.936458 0 18 255 0.144287
-0.140410 -0.041986 0.939225 0 18 255 0.142154
-0.138825 -0.040744 0.942383 0 18 255 0.141288
-0.146299 -0.043117 0.928901 0 18 255 0.142949
-0.147907 -0.044194 0.925769 0 22 255 0.144852
-0.148915 -0.046652 0.923092 0 22 255 0.144936
-0.147723 -0.049267 0.924014 0 22 255 0.144987
-0.146733 -0.046794 0.926691 0 22 255 0.147941
-0.145157 -0.045584 0.929776 0 18 255 0.144144
-0.144953 -0.052880 0.925637 0 18 255 0.142236
-0.143431 -0.051566 0.928684 0 18 255 0.143208
-0.142795 -0.049139 0.931227 0 22 255 0.144787
-0.141255 -0.047855 0.934240 0 18 255 0.144465
-0.145237 -0.049239 0.927669 0 22 255 0.144850
-0.138809 -0.047754 0.937881 0 22 255 0.147215
-0.137234 -0.046451 0.940971 0 14 255 0.137553
-0.136525 -0.044094 0.943660 0 18 255 0.143908
-0.138968 -0.044265 0.940102 0 18 255 0.143007
-0.145652 -0.057629 0.920920 0 22 255 0.144767
-0.146973 -0.058896 0.918177 0 18 255 0.143002
-0.147012 -0.061161 0.916117 0 18 255 0.143439
-0.148307 -0.062395 0.913425 0 22 255 0.144758
-0.145760 -0.064449 0.914698 0 10 255 0.133768
-0.144491 -0.063157 0.917374 0 22 255 0.144754
-0.144465 -0.060879 0.919452 0 14 255 0.137396
-0.143177 -0.059551 0.922177 0 22 255 0.144648
-0.150588 -0.062534 0.910605 0 14 255 0.136926
-0.151661 -0.063620 0.908416 0 22 255 0.147658
-0.151373 -0.065810 0.906861 0 26 255 0.151622
-0.148726 -0.067940 0.908130 0 22 255 0.144575
-0.149016 -0.065749 0.909697 0 18 255 0.140727
-0.148039 -0.064578 0.911878 0 10 255 0.136566
-0.143866 -0.070161 0.910068 0 18 255 0.141504
-0.144501 -0.068255 0.911619 0 30 255 0.152545
-0.143567 -0.067061 0.913812 0 14 255 0.139520
-0.142629 -0.065871 0.916009 0 22 255 0.144582
-0.139810 -0.065294 0.919375 0 18 255 0.144318
-0.138552 -0.063978 0.922074 0 14 255 0.138393
-0.138835 -0.061924 0.924158 0 18 255 0.144444
-0.141666 -0.062556 0.920750 0 22 255 0.144592
-0.159894 -0.072881 0.891650 0 34 255 0.158038
-0.162155 -0.072300 0.889675 0 26 255 0.152340
-0.158496 -0.075012 0.891391 0 26 255 0.150449
-0.160746 -0.074422 0.889414 0 22 255 0.146868
-0.159340 -0.076552 0.889151 0 22 255 0.146318
-0.163015 -0.073844 0.887431 0 30 255 0.154626
-0.157103 -0.077143 0.891119 0 30 255 0.155377
-0.155712 -0.079290 0.890861 0 22 255 0.145386
-0.155017 -0.077620 0.893035 0 26 255 0.149676
-0.161421 -0.076029 0.887213 0 22 255 0.146769
-0.163567 -0.075439 0.885224 0 22 255 0.147348
-0.159831 -0.078222 0.886994 0 38 255 0.162155
-0.161953 -0.077623 0.885012 0 30 255 0.154856
-0.160354 -0.079816 0.884799 0 38 255 0.160601
-0.164111 -0.077028 0.883027 0 22 255 0.147198
-0.158239 -0.080414 0.886777 0 18 255 0.144046
-0.156654 -0.082616 0.886552 0 22 255 0.145580
-0.156181 -0.080957 0.888711 0 30 255 0.154945
-0.157761 -0.078753 0.888931 0 22 255 0.145986
-0.150040 -0.084389 0.890545 0 22 255 0.145116
-0.151936 -0.082691 0.890656 0 34 255 0.158580
-0.149668 -0.082726 0.892602 0 22 255 0.145403
-0.151543 -0.081025 0.892718 0 30 255 0.155619
-0.153827 -0.080994 0.890759 0 22 255 0.145259
-0.154287 -0.082653 0.888614 0 22 255 0.145429
-0.152393 -0.084353 0.888504 0 34 255 0.157500
-0.148880 -0.080198 0.895745 0 30 255 0.155372
-0.150602 -0.078498 0.895914 0 22 255 0.145566
-0.152936 -0.078484 0.893962 0 22 255 0.145348
-0.162526 -0.049319 0.899686 0 26 255 0.150833
-0.161154 -0.048556 0.902071 0 22 255 0.146781
-0.160137 -0.046167 0.903843 0 26 255 0.151226
-0.158766 -0.045437 0.906189 0 22 255 0.148229
-0.159420 -0.042176 0.904996 0 26 255 0.150794
-0.160825 -0.042686 0.902503 0 22 255 0.147422
-0.161871 -0.045067 0.900746 0 26 255 0.148755
-0.163278 -0.045599 0.898209 0 22 255 0.147875
-0.164324 -0.048006 0.896410 0 26 255 0.149917
-0.165090 -0.044288 0.894904 0 26 255 0.149535
-0.156821 -0.046379 0.909762 0 22 255 0.145901
-0.155223 -0.045481 0.912631 0 22 255 0.145826
-0.153892 -0.043135 0.915079 0 22 255 0.145564
-0.154467 -0.040083 0.914007 0 22 255 0.146495
-0.155815 -0.042421 0.911576 0 26 255 0.150703
-0.157456 -0.043114 0.908576 0 26 255 0.149832
-0.154081 -0.035587 0.912803 0 26 255 0.150562
-0.155883 -0.037797 0.910160 0 26 255 0.150234
-0.157379 -0.036702 0.906546 0 22 255 0.146822
-0.159163 -0.038864 0.903979 0 22 255 0.147752
-0.157665 -0.039975 0.907568 0 22 255 0.144847
-0.160450 -0.037717 0.900963 0 30 255 0.152829
-0.162002 -0.039886 0.898974 0 26 255 0.150909
-0.163291 -0.038422 0.895649 0 26 255 0.150781
-0.164859 -0.040610 0.893615 0 30 255 0.152995
-0.163548 -0.042079 0.896952 0 22 255 0.147792
-0.172054 -0.038146 0.870149 0 26 255 0.151871
-0.172721 -0.039990 0.871780 0 26 255 0.151054
-0.171610 -0.037708 0.872642 0 26 255 0.151636
-0.170489 -0.035439 0.873496 0 38 255 0.161274
-0.172250 -0.039549 0.874290 0 26 255 0.150311
-0.169788 -0.033623 0.871854 0 30 255 0.154796
-0.168632 -0.031391 0.872708 0 26 255 0.152153
-0.171083 -0.037441 0.875120 0 34 255 0.156375
-0.171462 -0.039162 0.876807 0 26 255 0.150834
-0.169869 -0.035366 0.875966 0 30 255 0.153062
-0.170285 -0.037060 0.877646 0 30 255 0.154688
-0.169101 -0.034974 0.878489 0 34 255 0.156807
-0.170664 -0.038770 0.879330 0 26 255 0.150364
-0.168672 -0.033286 0.876803 0 30 255 0.155831
-0.167466 -0.031217 0.877639 0 26 255 0.151999
-0.168056 -0.031309 0.875174 0 26 255 0.152312
-0.169262 -0.033376 0.874340 0 34 255 0.156836
-0.163950 -0.026585 0.876208 0 38 255 0.163835
-0.165509 -0.028160 0.875044 0 26 255 0.150939
-0.164523 -0.026385 0.872633 0 38 255 0.161034
-0.167495 -0.029814 0.870296 0 30 255 0.154268
-0.166016 -0.028093 0.871461 0 30 255 0.155705
-0.163596 -0.054202 0.896950 0 22 255 0.147640
-0.165376 -0.052988 0.894619 0 26 255 0.151387
-0.163662 -0.056688 0.896018 0 22 255 0.148204
-0.165435 -0.055465 0.893687 0 26 255 0.148995
-0.165504 -0.057954 0.892755 0 26 255 0.151035
-0.167262 -0.054257 0.891339 0 22 255 0.148313
-0.163711 -0.059170 0.895090 0 14 255 0.140486
-0.163777 -0.061661 0.894157 0 26 255 0.148460
-0.161898 -0.060186 0.897406 0 22 255 0.147211
-0.161835 -0.057698 0.898340 0 34 255 0.157448
-0.167067 -0.056748 0.890796 0 26 255 0.149112
-0.168545 -0.055401 0.888864 0 26 255 0.148960
-0.166869 -0.059242 0.890249 0 26 255 0.149400
-0.168360 -0.057901 0.888324 0 26 255 0.149445
-0.168159 -0.060396 0.887780 0 26 255 0.149885
-0.169856 -0.056551 0.886390 0 26 255 0.149151
-0.166688 -0.061748 0.889706 0 30 255 0.154775
-0.166491 -0.064254 0.889166 0 34 255 0.156420
-0.165116 -0.062947 0.891664 0 34 255 0.159113
-0.165310 -0.060448 0.892204 0 26 255 0.151271
-0.161910 -0.068466 0.892475 0 26 255 0.148570
-0.162522 -0.066187 0.893035 0 34 255 0.159549
-0.161237 -0.064796 0.895522 0 22 255 0.146746
-0.163145 -0.063918 0.893597 0 22 255 0.148184
-0.164491 -0.065217 0.891102 0 38 255 0.162526
-0.163875 -0.067498 0.890543 0 38 255 0.160687
-0.158162 -0.064819 0.899447 0 18 255 0.144009
-0.159718 -0.061019 0.899702 0 22 255 0.147216
-0.161566 -0.062486 0.896459 0 22 255 0.145256
-0.166453 -0.085615 0.863607 0 26 255 0.151759
-0.165023 -0.087500 0.864641 0 34 255 0.159294
-0.167895 -0.083727 0.862554 0 22 255 0.146368
-0.168121 -0.082355 0.865766 0 26 255 0.149103
-0.166671 -0.084233 0.866814 0 18 255 0.144064
-0.165243 -0.086110 0.867847 0 26 255 0.151309
-0.169443 -0.081163 0.863107 0 22 255 0.148392
-0.170995 -0.078594 0.863662 0 18 255 0.140843
-0.170742 -0.079883 0.860348 0 18 255 0.141645
-0.169171 -0.082444 0.859794 0 26 255 0.150269
-0.166675 -0.082834 0.869535 0 26 255 0.148552
-0.165247 -0.084680 0.870509 0 22 255 0.147686
-0.168141 -0.080993 0.868546 0 26 255 0.149422
-0.168099 -0.079566 0.871206 0 26 255 0.149311
-0.166659 -0.081401 0.872192 0 26 255 0.148966
-0.165223 -0.083251 0.873177 0 22 255 0.146232
-0.169584 -0.078434 0.868881 0 26 255 0.149400
-0.171046 -0.075892 0.869229 0 26 255 0.148709
-0.171035 -0.077248 0.866441 0 26 255 0.148800
-0.169577 -0.079791 0.866096 0 22 255 0.145618
-0.174709 -0.066564 0.865368 0 26 255 0.148593
-0.173798 -0.069566 0.864931 0 22 255 0.147062
-0.174562 -0.067776 0.862538 0 26 255 0.151279
-0.172857 -0.072578 0.864509 0 26 255 0.150150
-0.173625 -0.070796 0.862129 0 26 255 0.150065
-0.172680 -0.073805 0.861708 0 26 255 0.149308
-0.174372 -0.068990 0.859730 0 26 255 0.149303
-0.171929 -0.075589 0.864089 0 22 255 0.144839
-0.171943 -0.074244 0.866876 0 26 255 0.149896
-0.172855 -0.071235 0.867307 0 26 255 0.150594
-0.173378 -0.072027 0.859062 0 26 255 0.148930
-0.173827 -0.070239 0.856517 0 22 255 0.147699
-0.172397 -0.075083 0.858400 0 18 255 0.144350
-0.172844 -0.073282 0.855858 0 26 255 0.148528
-0.171425 -0.078107 0.857713 0 22 255 0.147619
-0.171697 -0.076842 0.861039 0 22 255 0.148425
-0.173496 -0.061366 0.876393 0 26 255 0.149880
-0.173489 -0.058326 0.876717 0 26 255 0.151078
-0.172737 -0.060135 0.878926 0 26 255 0.150185
-0.173496 -0.055290 0.877024 0 30 255 0.152498
-0.172721 -0.057108 0.879250 0 22 255 0.147833
-0.172706 -0.054079 0.879565 0 26 255 0.151659
-0.171969 -0.058905 0.881455 0 26 255 0.152302
-0.173447 -0.052267 0.877342 0 26 255 0.149505
-0.173367 -0.049245 0.877649 0 26 255 0.152084
-0.174073 -0.050101 0.875084 0 26 255 0.151119
-0.174117 -0.053127 0.874783 0 26 255 0.151744
-0.174144 -0.056164 0.874481 0 26 255 0.150416
-0.174725 -0.050952 0.872532 0 26 255 0.150087
-0.171868 -0.056088 0.881771 0 26 255 0.150031
-0.170911 -0.057726 0.883920 0 30 255 0.154278
-0.171730 -0.053268 0.882085 0 30 255 0.152857
-0.170775 -0.054913 0.884243 0 30 255 0.154962
-0.170634 -0.052097 0.884564 0 30 255 0.154355
-0.171559 -0.050453 0.882398 0 26 255 0.150677
-0.171401 -0.047646 0.882699 0 26 255 0.149928
-0.172384 -0.048447 0.880173 0 26 255 0.150510
-0.172546 -0.051262 0.879875 0 30 255 0.153946
-0.171381 -0.041369 0.878910 0 26 255 0.150856
-0.172076 -0.043979 0.878489 0 30 255 0.155337
-0.172169 -0.041764 0.876396 0 30 255 0.153399
-0.172874 -0.044382 0.875978 0 30 255 0.153736
-0.172732 -0.046607 0.878070 0 26 255 0.150405
-0.171750 -0.045819 0.880603 0 26 255 0.150904
-0.171086 -0.043199 0.881029 0 26 255 0.150684
-0.172922 -0.042375 0.873848 0 26 255 0.152053
-0.173566 -0.045218 0.873406 0 26 255 0.151723
-0.173399 -0.042823 0.871347 0 30 255 0.154301
-0.174051 -0.045672 0.870909 0 26 255 0.151769
-0.174173 -0.048080 0.872970 0 26 255 0.151481
-0.173493 -0.047234 0.875527 0 26 255 0.152007
-0.164451 -0.028035 0.878892 0 38 255 0.163344
-0.166453 -0.031104 0.880416 0 26 255 0.152100
-0.164714 -0.029476 0.881731 0 30 255 0.154561
-0.163163 -0.028020 0.882913 0 30 255 0.153923
-0.162795 -0.026511 0.880146 0 30 255 0.153442
-0.167929 -0.034588 0.881272 0 34 255 0.158430
-0.169296 -0.036671 0.880306 0 26 255 0.151339
-0.169476 -0.038375 0.882107 0 26 255 0.150536
-0.168126 -0.036286 0.883080 0 30 255 0.153988
-0.168312 -0.037978 0.884867 0 26 255 0.150970
-0.166189 -0.032701 0.883610 0 34 255 0.157129
-0.164809 -0.035450 0.890054 0 26 255 0.151197
-0.165039 -0.033938 0.887776 0 26 255 0.150609
-0.163494 -0.032137 0.889255 0 26 255 0.151531
-0.163686 -0.030657 0.886972 0 26 255 0.151928
-0.166671 -0.035958 0.886329 0 34 255 0.158794
-0.166428 -0.037455 0.888604 0 26 255 0.149958
-0.161693 -0.029038 0.888718 0 30 255 0.153988
-0.161421 -0.027727 0.886699 0 26 255 0.151543
-0.159589 -0.026230 0.888331 0 34 255 0.158639
-0.161137 -0.026419 0.884680 0 26 255 0.149025
-0.163420 -0.029337 0.884955 0 34 255 0.157423
-0.165670 -0.039207 0.891227 0 26 255 0.152245
-0.166738 -0.041482 0.890148 0 26 255 0.151726
-0.167529 -0.039734 0.887513 0 26 255 0.151677
-0.168626 -0.042011 0.886417 0 30 255 0.154540
-0.167811 -0.043762 0.889048 0 26 255 0.149453
-0.168878 -0.046060 0.887931 0 34 255 0.158187
-0.166962 -0.045172 0.891440 0 26 255 0.148628
-0.165917 -0.042890 0.892529 0 30 255 0.153202
-0.169112 -0.040378 0.884330 0 34 255 0.156601
-0.169891 -0.042787 0.883794 0 30 255 0.154903
-0.170286 -0.040779 0.881574 0 26 255 0.150690
-0.170646 -0.045211 0.883253 0 30 255 0.153835
-0.170124 -0.046854 0.885320 0 26 255 0.149587
-0.169384 -0.044427 0.885873 0 26 255 0.150444
-0.169627 -0.053923 0.886774 0 26 255 0.150040
-0.169397 -0.051295 0.887170 0 26 255 0.150261
-0.168318 -0.052778 0.889255 0 26 255 0.148960
-0.168093 -0.050164 0.889649 0 26 255 0.150000
-0.169146 -0.048674 0.887555 0 26 255 0.149955
-0.170395 -0.049472 0.884945 0 26 255 0.150509
-0.166725 -0.051752 0.892248 0 26 255 0.149252
-0.166200 -0.049259 0.893146 0 26 255 0.150398
-0.164844 -0.050488 0.895517 0 30 255 0.154246
-0.165653 -0.046772 0.894031 0 30 255 0.153773
-0.167534 -0.047665 0.890553 0 26 255 0.149435
-0.172568 -0.063525 0.877243 0 26 255 0.151258
-0.171279 -0.064950 0.879285 0 30 255 0.154176
-0.170347 -0.067108 0.880131 0 26 255 0.150647
-0.169099 -0.068533 0.882150 0 30 255 0.152352
-0.169768 -0.069998 0.879793 0 22 255 0.144659
-0.169676 -0.065647 0.882489 0 34 255 0.159250
-0.168436 -0.067064 0.884516 0 26 255 0.148502
-0.170191 -0.062981 0.882990 0 26 255 0.150521
-0.171441 -0.061559 0.880963 0 22 255 0.146460
-0.168032 -0.070952 0.881706 0 26 255 0.150038
-0.166898 -0.073498 0.881412 0 26 255 0.149860
-0.166343 -0.071914 0.883613 0 26 255 0.149875
-0.165216 -0.074467 0.883319 0 26 255 0.148810
-0.164664 -0.072876 0.885523 0 26 255 0.148860
-0.165699 -0.070443 0.885965 0 26 255 0.149206
-0.167387 -0.069487 0.884059 0 22 255 0.147442
-0.163042 -0.069832 0.890068 0 34 255 0.159923
-0.164809 -0.068902 0.888217 0 26 255 0.149277
-0.165646 -0.066574 0.888690 0 26 255 0.149026
-0.167453 -0.065654 0.886838 0 34 255 0.156783
-0.166612 -0.067981 0.886366 0 26 255 0.149171
-0.163909 -0.071369 0.887827 0 38 255 0.161478
-0.167822 -0.062916 0.887246 0 26 255 0.150318
-0.169183 -0.061582 0.885321 0 26 255 0.150817
-0.169517 -0.059065 0.885858 0 26 255 0.150056
-0.170555 -0.060243 0.883394 0 26 255 0.150524
-0.168804 -0.064316 0.884916 0 26 255 0.149842
-0.174967 -0.063132 0.865779 0 26 255 0.151064
-0.174566 -0.065264 0.868166 0 22 255 0.147411
-0.175179 -0.059706 0.866191 0 26 255 0.151333
-0.174797 -0.061846 0.868594 0 26 255 0.149983
-0.174997 -0.058427 0.869019 0 26 255 0.149985
-0.174390 -0.063967 0.870975 0 26 255 0.148459
-0.175352 -0.056275 0.866614 0 26 255 0.150971
-0.175468 -0.052860 0.867042 0 26 255 0.150858
-0.175540 -0.053875 0.864216 0 26 255 0.151847
-0.175397 -0.057309 0.863806 0 26 255 0.151201
-0.175209 -0.060743 0.863394 0 26 255 0.150860
-0.175569 -0.054891 0.861405 0 26 255 0.152321
-0.174543 -0.060703 0.871354 0 26 255 0.149747
-0.173951 -0.062666 0.873678 0 26 255 0.150037
-0.174646 -0.057447 0.871741 0 26 255 0.151651
-0.174072 -0.059412 0.874075 0 26 255 0.150652
-0.174698 -0.054192 0.872149 0 26 255 0.151683
-0.175103 -0.051912 0.869793 0 26 255 0.150864
-0.175059 -0.055159 0.869412 0 26 255 0.151441
-0.173826 -0.043507 0.868717 0 26 255 0.151817
-0.174418 -0.046609 0.868153 0 26 255 0.151891
-0.174021 -0.044063 0.866024 0 26 255 0.151480
-0.174610 -0.047171 0.865471 0 26 255 0.150464
-0.174967 -0.049725 0.867597 0 26 255 0.151353
-0.174598 -0.048785 0.870346 0 26 255 0.152189
-0.174113 -0.044830 0.863280 0 30 255 0.154752
-0.174659 -0.048157 0.862644 0 26 255 0.150518
-0.173982 -0.045501 0.860515 0 26 255 0.152324
-0.174506 -0.048839 0.859888 0 26 255 0.151506
-0.175140 -0.051512 0.862015 0 26 255 0.151107
-0.175096 -0.050514 0.864849 0 26 255 0.151104
-0.162430 -0.079228 0.882761 0 22 255 0.145847
-0.164464 -0.078611 0.880662 0 26 255 0.150873
-0.160747 -0.081430 0.882499 0 22 255 0.146760
-0.162767 -0.080813 0.880394 0 22 255 0.147655
-0.161074 -0.083009 0.880129 0 22 255 0.147030
-0.164815 -0.080198 0.878296 0 34 255 0.157578
-0.159067 -0.083631 0.882232 0 22 255 0.146141
-0.157390 -0.085836 0.881963 0 22 255 0.145730
-0.157023 -0.084228 0.884257 0 22 255 0.145592
-0.158687 -0.082022 0.884531 0 34 255 0.156442
-0.163023 -0.082374 0.878037 0 30 255 0.152621
-0.165016 -0.081719 0.875735 0 22 255 0.147591
-0.161236 -0.084559 0.877779 0 22 255 0.146813
-0.163210 -0.083902 0.875480 0 22 255 0.147359
-0.161410 -0.086082 0.875223 0 22 255 0.147092
-0.159467 -0.086752 0.877524 0 22 255 0.146558
-0.157694 -0.088943 0.877265 0 26 255 0.149825
-0.157545 -0.087392 0.879614 0 22 255 0.145981
-0.159309 -0.085198 0.879871 0 34 255 0.158876
-0.150999 -0.090702 0.882028 0 26 255 0.151222
-0.153125 -0.089079 0.882008 0 22 255 0.145704
-0.150961 -0.089168 0.884095 0 22 255 0.145587
-0.153077 -0.087544 0.884077 0 22 255 0.147949
-0.155254 -0.087457 0.881981 0 22 255 0.145894
-0.155398 -0.089012 0.879642 0 22 255 0.146159
-0.153257 -0.090624 0.879661 0 22 255 0.145845
-0.150763 -0.087603 0.886270 0 22 255 0.145416
-0.152719 -0.085943 0.886373 0 22 255 0.145239
-0.150430 -0.086017 0.888406 0 22 255 0.145187
-0.154690 -0.084282 0.886464 0 22 255 0.145485
-0.155048 -0.085885 0.884166 0 22 255 0.145599
-0.173030 -0.064921 0.874597 0 30 255 0.155119
-0.172058 -0.067171 0.875535 0 26 255 0.151226
-0.172495 -0.068482 0.872822 0 26 255 0.150839
-0.173464 -0.066230 0.871891 0 26 255 0.151247
-0.171356 -0.070077 0.875099 0 26 255 0.150675
-0.170625 -0.072991 0.874671 0 26 255 0.149229
-0.170208 -0.071497 0.877233 0 26 255 0.149630
-0.170918 -0.068588 0.877664 0 26 255 0.150759
-0.173658 -0.067597 0.869123 0 26 255 0.149468
-0.172749 -0.069920 0.870083 0 22 255 0.147486
-0.171885 -0.072901 0.869652 0 26 255 0.150427
-0.170831 -0.074434 0.871951 0 26 255 0.150741
-0.171662 -0.071459 0.872388 0 26 255 0.150610
-0.166457 -0.079909 0.874836 0 26 255 0.149283
-0.167899 -0.078106 0.873929 0 22 255 0.146848
-0.167664 -0.076577 0.876489 0 26 255 0.149780
-0.166234 -0.078388 0.877390 0 26 255 0.148928
-0.169248 -0.075539 0.874303 0 34 255 0.156958
-0.169450 -0.076993 0.871578 0 18 255 0.143326
-0.167282 -0.075089 0.879039 0 22 255 0.146149
-0.165672 -0.076052 0.881039 0 26 255 0.148760
-0.168531 -0.072546 0.879412 0 26 255 0.149936
-0.168943 -0.074036 0.876856 0 26 255 0.152342
-0.163228 -0.085413 0.873046 0 22 255 0.147762
-0.161232 -0.087572 0.872916 0 22 255 0.147455
-0.163221 -0.086842 0.870381 0 22 255 0.147451
-0.161214 -0.088999 0.870255 0 26 255 0.150587
-0.159255 -0.089742 0.872786 0 22 255 0.147781
-0.157283 -0.091909 0.872667 0 26 255 0.149573
-0.157489 -0.090424 0.874970 0 22 255 0.146261
-0.159459 -0.088258 0.875093 0 22 255 0.146758
-0.162950 -0.088348 0.867645 0 26 255 0.150977
-0.160641 -0.090581 0.867443 0 30 255 0.155626
-0.162707 -0.089732 0.864431 0 22 255 0.148114
-0.158346 -0.092820 0.867243 0 22 255 0.147447
-0.156681 -0.093489 0.869854 0 22 255 0.146421
-0.158944 -0.091246 0.870053 0 34 255 0.157930
-0.149207 -0.096243 0.874726 0 30 255 0.155979
-0.151557 -0.095399 0.873278 0 22 255 0.146756
-0.152547 -0.093624 0.875554 0 22 255 0.146270
-0.150187 -0.094468 0.877005 0 22 255 0.146195
-0.154410 -0.093656 0.872972 0 22 255 0.146370
-0.153783 -0.095214 0.870167 0 22 255 0.146692
-0.150555 -0.092982 0.879048 0 22 255 0.146018
-0.155214 -0.090542 0.877561 0 34 255 0.158002
-0.155017 -0.092027 0.875264 0 22 255 0.146298
-0.173999 -0.067207 0.855547 0 22 255 0.147488
-0.174144 -0.064175 0.854565 0 22 255 0.146266
-0.174705 -0.062966 0.857798 0 26 255 0.149867
-0.174537 -0.065978 0.858763 0 26 255 0.149650
-0.174561 -0.060533 0.855200 0 26 255 0.149490
-0.174905 -0.056916 0.855844 0 26 255 0.150692
-0.174169 -0.058121 0.852753 0 22 255 0.146422
-0.173786 -0.061746 0.852124 0 22 255 0.147233
-0.174808 -0.064854 0.861551 0 26 255 0.150107
-0.175059 -0.061931 0.860554 0 26 255 0.150462
-0.175343 -0.058412 0.860966 0 26 255 0.150450
-0.175261 -0.055911 0.858610 0 26 255 0.151883
-0.175006 -0.059437 0.858204 0 26 255 0.149987
-0.173735 -0.046321 0.857723 0 26 255 0.151825
-0.174208 -0.049826 0.857073 0 26 255 0.151454
-0.173217 -0.047084 0.854969 0 26 255 0.152045
-0.173669 -0.050605 0.854336 0 26 255 0.151549
-0.174583 -0.053364 0.856446 0 26 255 0.151782
-0.174919 -0.052358 0.859239 0 26 255 0.151274
-0.172584 -0.048041 0.852036 0 30 255 0.153941
-0.172926 -0.051767 0.851222 0 26 255 0.151191
-0.171638 -0.049141 0.848980 0 30 255 0.155603
-0.173583 -0.054938 0.851973 0 26 255 0.150351
-0.150711 -0.041328 0.816652 0 70 255 0.192158
-0.152241 -0.043426 0.816844 0 58 255 0.180485
-0.153719 -0.044563 0.818540 0 54 255 0.179473
-0.155265 -0.046663 0.818726 0 58 255 0.180019
-0.156735 -0.047804 0.820404 0 58 255 0.181280
-0.156826 -0.049734 0.817418 0 46 255 0.171227
-0.155179 -0.044733 0.821701 0 58 255 0.181797
-0.156648 -0.045874 0.823383 0 46 255 0.171469
-0.153377 -0.042410 0.821437 0 58 255 0.181414
-0.151594 -0.040083 0.821158 0 66 255 0.189971
-0.150110 -0.038945 0.819471 0 62 255 0.186421
-0.149488 -0.036567 0.822297 0 78 255 0.203028
-0.158180 -0.052171 0.817587 0 46 255 0.170827
-0.159688 -0.053927 0.819382 0 46 255 0.168132
-0.161045 -0.056399 0.819576 0 50 255 0.172551
-0.162505 -0.058192 0.821393 0 38 255 0.161760
-0.162202 -0.059596 0.818156 0 46 255 0.169217
-0.161340 -0.055006 0.822812 0 30 255 0.154986
-0.162806 -0.056792 0.824625 0 38 255 0.161135
-0.159801 -0.052256 0.822489 0 50 255 0.172739
-0.158257 -0.049545 0.822192 0 46 255 0.171477
-0.162568 -0.051503 0.829533 0 58 255 0.181128
-0.160630 -0.049609 0.827470 0 54 255 0.179424
-0.159254 -0.045703 0.828714 0 46 255 0.169101
-0.157265 -0.043843 0.826676 0 58 255 0.181899
-0.158650 -0.047733 0.825420 0 54 255 0.177504
-0.161733 -0.053185 0.826047 0 42 255 0.164485
-0.163640 -0.055101 0.828127 0 42 255 0.165523
-0.155731 -0.040511 0.828057 0 62 255 0.185658
-0.153265 -0.037459 0.827938 0 86 255 0.209276
-0.153653 -0.039192 0.826140 0 78 255 0.201180
-0.150783 -0.034431 0.827814 0 66 255 0.188539
-0.151183 -0.036143 0.826016 0 78 255 0.201797
-0.148729 -0.033095 0.825891 0 70 255 0.194227
-0.148321 -0.031388 0.827692 0 70 255 0.192075
-0.151553 -0.037886 0.824223 0 74 255 0.198815
-0.149098 -0.034825 0.824103 0 70 255 0.193385
-0.155158 -0.042533 0.824758 0 70 255 0.192958
-0.163053 -0.062087 0.818359 0 34 255 0.159776
-0.164130 -0.064154 0.820388 0 34 255 0.157364
-0.164917 -0.066679 0.820607 0 30 255 0.152914
-0.165896 -0.068783 0.822651 0 30 255 0.155916
-0.165444 -0.069663 0.819029 0 30 255 0.154361
-0.165368 -0.065797 0.824229 0 22 255 0.146391
-0.166330 -0.067921 0.826275 0 26 255 0.151663
-0.164497 -0.062998 0.823810 0 26 255 0.151318
-0.163605 -0.060233 0.823409 0 38 255 0.161110
-0.165969 -0.071802 0.821280 0 30 255 0.152416
-0.166017 -0.074408 0.819489 0 26 255 0.150259
-0.166450 -0.073944 0.823532 0 26 255 0.150868
-0.166488 -0.076555 0.821736 0 22 255 0.146384
-0.166931 -0.078669 0.823963 0 26 255 0.149258
-0.166495 -0.079133 0.819925 0 26 255 0.151764
-0.166899 -0.076072 0.825765 0 26 255 0.150063
-0.167332 -0.078178 0.827986 0 26 255 0.149802
-0.166877 -0.073056 0.827134 0 26 255 0.149735
-0.166411 -0.070928 0.824902 0 26 255 0.150907
-0.168512 -0.074343 0.833946 0 22 255 0.145345
-0.168278 -0.071563 0.833311 0 26 255 0.149911
-0.167565 -0.069425 0.830756 0 26 255 0.150385
-0.167285 -0.066660 0.830119 0 26 255 0.151596
-0.167602 -0.075177 0.829678 0 18 255 0.144431
-0.168282 -0.077334 0.832243 0 22 255 0.145280
-0.166924 -0.063211 0.831605 0 30 255 0.154066
-0.166009 -0.060183 0.831010 0 34 255 0.158050
-0.164635 -0.058043 0.828682 0 34 255 0.158491
-0.165124 -0.061671 0.827346 0 34 255 0.158319
-0.165991 -0.064460 0.827769 0 30 255 0.153636
-0.168540 -0.079026 0.834767 0 22 255 0.147060
-0.167880 -0.081590 0.833054 0 22 255 0.145704
-0.167616 -0.079885 0.830517 0 18 255 0.144322
-0.166918 -0.082454 0.828803 0 22 255 0.145569
-0.167183 -0.084167 0.831337 0 18 255 0.144024
-0.166466 -0.086709 0.829594 0 26 255 0.151907
-0.167253 -0.086127 0.834273 0 22 255 0.145750
-0.167937 -0.083541 0.835985 0 18 255 0.142273
-0.166977 -0.080449 0.826184 0 22 255 0.148084
-0.166602 -0.082708 0.824372 0 26 255 0.149509
-0.166553 -0.080927 0.822157 0 26 255 0.150056
-0.166155 -0.083163 0.820330 0 22 255 0.146719
-0.166204 -0.084950 0.822551 0 26 255 0.149531
-0.165766 -0.087180 0.820716 0 26 255 0.151950
-0.166142 -0.086969 0.825170 0 18 255 0.144381
-0.166546 -0.084708 0.826989 0 18 255 0.140877
-0.163086 -0.094594 0.819908 0 30 255 0.153327
-0.163987 -0.092644 0.822354 0 18 255 0.144022
-0.163067 -0.094648 0.824412 0 30 255 0.154503
-0.164855 -0.090673 0.824776 0 30 255 0.152403
-0.163932 -0.092677 0.826842 0 30 255 0.152767
-0.164769 -0.090690 0.829251 0 18 255 0.144000
-0.162973 -0.094700 0.828908 0 30 255 0.152925
-0.165689 -0.088690 0.827188 0 18 255 0.144156
-0.165322 -0.088937 0.822757 0 22 255 0.147383
-0.164445 -0.090906 0.820330 0 30 255 0.154297
-0.162842 -0.094840 0.831924 0 18 255 0.144435
-0.164304 -0.092418 0.831423 0 30 255 0.152538
-0.164129 -0.092552 0.834442 0 26 255 0.152242
-0.162666 -0.094975 0.834929 0 30 255 0.155367
-0.165568 -0.090133 0.833937 0 18 255 0.144117
-0.163877 -0.092715 0.837448 0 30 255 0.152759
-0.165336 -0.090271 0.836948 0 26 255 0.151478
-0.162427 -0.095142 0.837936 0 26 255 0.151884
-0.166775 -0.087845 0.836441 0 26 255 0.150589
-0.166036 -0.088414 0.831770 0 30 255 0.152816
-0.161365 -0.096763 0.820901 0 26 255 0.150126
-0.160632 -0.098334 0.817955 0 34 255 0.159801
-0.159623 -0.098948 0.821897 0 34 255 0.156463
-0.158887 -0.100497 0.818936 0 34 255 0.157311
-0.157148 -0.102643 0.819904 0 30 255 0.152704
-0.158137 -0.102034 0.815968 0 34 255 0.157592
-0.157887 -0.101102 0.822867 0 42 255 0.166077
-0.156122 -0.103266 0.823842 0 38 255 0.163079
-0.159595 -0.099019 0.826402 0 38 255 0.160370
-0.161354 -0.096828 0.825411 0 38 255 0.160650
-0.156620 -0.103679 0.814439 0 38 255 0.163677
-0.154028 -0.105877 0.814481 0 42 255 0.166643
-0.152502 -0.107469 0.812918 0 42 255 0.167585
-0.149929 -0.109616 0.812925 0 46 255 0.171505
-0.152035 -0.108501 0.809769 0 42 255 0.165732
-0.150403 -0.108598 0.816076 0 62 255 0.187412
-0.147834 -0.110739 0.816065 0 46 255 0.171801
-0.152491 -0.106744 0.818035 0 58 255 0.180291
-0.154558 -0.104868 0.819965 0 46 255 0.169758
-0.145398 -0.110848 0.823621 0 86 255 0.208081
-0.147896 -0.108946 0.825898 0 58 255 0.181618
-0.148965 -0.108379 0.823739 0 50 255 0.173859
-0.150385 -0.106991 0.828132 0 50 255 0.174832
-0.151480 -0.106415 0.825971 0 70 255 0.193506
-0.153956 -0.104409 0.828175 0 38 255 0.162170
-0.152853 -0.104987 0.830331 0 38 255 0.161851
-0.152565 -0.105840 0.823806 0 42 255 0.164761
-0.155062 -0.103831 0.826011 0 46 255 0.168451
-0.150477 -0.107720 0.821872 0 62 255 0.187422
-0.148403 -0.109568 0.819912 0 70 255 0.192406
-0.146900 -0.110206 0.821771 0 62 255 0.184144
-0.144843 -0.112017 0.819786 0 54 255 0.178193
-0.146351 -0.111378 0.817934 0 46 255 0.170022
-0.143337 -0.112649 0.821625 0 58 255 0.181669
-0.154558 -0.102895 0.831623 0 38 255 0.164040
-0.157251 -0.100331 0.833744 0 30 255 0.154967
-0.157405 -0.100173 0.830739 0 42 255 0.166997
-0.159869 -0.097752 0.835849 0 34 255 0.158755
-0.160068 -0.097586 0.832844 0 26 255 0.148777
-0.160218 -0.097431 0.829825 0 30 255 0.156135
-0.158507 -0.099586 0.828570 0 34 255 0.158054
-0.156799 -0.101721 0.827295 0 34 255 0.156484
-0.155679 -0.102306 0.829467 0 38 255 0.162518
-0.141469 -0.113934 0.819510 0 62 255 0.186660
-0.142973 -0.113313 0.817679 0 62 255 0.184387
-0.141118 -0.114608 0.815550 0 78 255 0.199916
-0.144469 -0.112688 0.815825 0 78 255 0.201309
-0.142611 -0.113982 0.813698 0 70 255 0.193661
-0.144105 -0.113344 0.811844 0 70 255 0.192070
-0.145964 -0.112043 0.813962 0 58 255 0.182029
-0.140770 -0.115276 0.811558 0 90 255 0.212772
-0.142263 -0.114639 0.809700 0 78 255 0.201214
-0.140423 -0.115921 0.807535 0 86 255 0.208187
-0.138615 -0.116645 0.809147 0 94 255 0.215691
-0.138959 -0.115985 0.813166 0 90 255 0.212548
-0.136808 -0.117359 0.810756 0 102 255 0.223008
-0.137141 -0.116672 0.814756 0 102 255 0.223431
-0.139302 -0.115310 0.817145 0 86 255 0.209841
-0.135002 -0.118039 0.812352 0 130 255 0.253559
-0.148404 -0.110797 0.811067 0 54 255 0.177082
-0.146884 -0.111961 0.809193 0 62 255 0.185833
-0.148976 -0.110863 0.806038 0 74 255 0.196806
-0.150494 -0.109693 0.807910 0 58 255 0.182542
-0.146421 -0.112573 0.805725 0 70 255 0.192499
-0.145969 -0.113187 0.802251 0 78 255 0.201086
-0.143203 -0.114563 0.804900 0 94 255 0.216415
-0.140567 -0.116790 0.793649 0 38 255 0.160771
-0.140514 -0.116591 0.797135 0 182 255 0.302098
-0.137438 -0.118343 0.795895 0 218 255 0.336853
-0.140479 -0.116383 0.800620 0 138 255 0.258634
-0.137387 -0.118124 0.799377 0 158 255 0.278328
-0.137353 -0.117920 0.802852 0 114 255 0.237389
-0.134315 -0.119881 0.798124 0 118 255 0.238994
-0.140452 -0.116158 0.804080 0 106 255 0.227519
-0.143211 -0.114785 0.801438 0 114 255 0.237360
-0.143244 -0.115005 0.797963 0 146 255 0.268817
-0.132308 -0.120707 0.799503 0 134 255 0.256039
-0.134020 -0.119635 0.802111 0 126 255 0.248471
-0.132025 -0.120438 0.803485 0 130 255 0.252024
-0.130311 -0.121520 0.800874 0 134 255 0.257635
-0.133736 -0.119342 0.806070 0 118 255 0.240890
-0.130018 -0.121232 0.804852 0 142 255 0.264124
-0.131731 -0.120134 0.807434 0 142 255 0.262303
-0.128312 -0.122321 0.802253 0 146 255 0.268098
-0.133460 -0.119030 0.810024 0 126 255 0.249224
-0.135264 -0.118350 0.808410 0 150 255 0.273321
-0.137077 -0.117645 0.806812 0 126 255 0.247923
-0.135545 -0.118645 0.804460 0 138 255 0.260879
-0.095416 -0.021604 0.782375 0 26 255 0.151664
-0.096379 -0.023447 0.780526 0 26 255 0.152125
-0.098198 -0.022442 0.783382 0 22 255 0.144613
-0.099169 -0.024288 0.781537 0 22 255 0.147552
-0.101954 -0.025139 0.782552 0 10 255 0.136423
-0.100135 -0.026145 0.779702 0 22 255 0.146877
-0.100981 -0.023292 0.784394 0 10 255 0.135194
-0.103757 -0.024149 0.785422 0 30 255 0.152402
-0.100243 -0.021156 0.786842 0 14 255 0.138049
-0.097470 -0.020306 0.785816 0 22 255 0.146165
-0.102590 -0.027037 0.780522 0 14 255 0.137828
-0.105040 -0.027947 0.781355 0 0 255 0.113865
-0.108330 -0.030511 0.780687 0 0 247 0.102325
-0.105100 -0.029958 0.778691 0 1 255 0.123029
-0.109910 -0.029790 0.783022 0 0 228 0.088272
-0.106848 -0.026958 0.784223 0 0 224 0.082913
-0.104405 -0.026039 0.783379 0 22 255 0.147419
-0.113842 -0.029168 0.787412 0 0 169 0.038331
-0.111335 -0.027900 0.786906 0 0 183 0.050608
-0.110963 -0.026065 0.789094 0 0 169 0.036890
