ply
format ascii 1.0
comment VCGLIB generated
element vertex 1042
property float x
property float y
property float z
property uchar red
property uchar green
property uchar blue
property float quality
end_header
0.370531 -0.208261 5.768780 233 1 0 0.975572
0.372119 -0.238745 5.760620 196 0 0 0.984158
0.363615 -0.151374 5.788130 255 116 0 0.942308
0.459705 -0.138282 5.839760 255 153 0 0.929447
0.480569 -0.135640 5.850290 255 164 0 0.926087
0.481755 -0.164135 5.839750 255 56 0 0.959852
0.501337 -0.133031 5.860790 255 171 0 0.923968
0.502362 -0.161850 5.850740 255 56 0 0.960036
0.503321 -0.190803 5.840560 205 0 0 0.982514
0.505429 -0.220639 5.830740 183 0 0 0.986978
0.484052 -0.193209 5.830270 210 0 0 0.981690
0.486309 -0.222672 5.819980 196 0 0 0.984161
0.464777 -0.195631 5.819950 214 0 0 0.980519
0.462326 -0.166661 5.829840 255 56 0 0.960386
0.466933 -0.224891 5.809550 205 0 0 0.982130
0.497712 -0.345933 5.802020 173 0 0 0.989729
0.498971 -0.317186 5.807850 160 0 0 0.992131
0.480360 -0.318958 5.799100 160 0 0 0.992385
0.479165 -0.347694 5.793700 169 0 0 0.990276
0.482123 -0.288053 5.804250 164 0 0 0.991121
0.461886 -0.320545 5.790400 160 0 0 0.992302
0.463475 -0.290167 5.795770 164 0 0 0.991907
0.444771 -0.292337 5.787480 160 0 0 0.992926
0.460459 -0.350052 5.785390 169 0 0 0.990453
0.443042 -0.323160 5.782200 155 0 0 0.993421
0.441451 -0.352829 5.777460 164 0 0 0.991552
0.465024 -0.258090 5.801490 169 0 0 0.990012
0.446340 -0.260594 5.793020 164 0 0 0.991240
0.484904 -0.255688 5.811470 173 0 0 0.989518
0.504303 -0.253397 5.821940 164 0 0 0.991250
0.502297 -0.285226 5.813910 169 0 0 0.990782
0.424017 -0.354882 5.768520 169 0 0 0.990464
0.423961 -0.325976 5.772650 155 0 0 0.993412
0.406455 -0.328338 5.763720 160 0 0 0.992620
0.406522 -0.357572 5.759710 169 0 0 0.990119
0.406754 -0.297816 5.768210 160 0 0 0.992858
0.388910 -0.330710 5.754740 164 0 0 0.991942
0.388884 -0.300818 5.759600 155 0 0 0.993681
0.371296 -0.303432 5.750820 155 0 0 0.993295
0.388753 -0.360355 5.751360 173 0 0 0.989661
0.371010 -0.334139 5.746620 160 0 0 0.992878
0.371366 -0.362889 5.742720 173 0 0 0.989303
0.389558 -0.268906 5.764110 164 0 0 0.991489
0.371615 -0.272231 5.755830 155 0 0 0.993212
0.408707 -0.265988 5.773460 169 0 0 0.990708
0.427609 -0.263070 5.783110 169 0 0 0.990535
0.425782 -0.295124 5.777780 160 0 0 0.992730
0.233218 -0.009014 6.093980 142 0 0 0.996155
0.255890 -0.008973 6.105990 146 0 0 0.995929
0.264679 -0.018196 6.089740 169 0 0 0.990096
0.278580 -0.009219 6.117960 146 0 0 0.995268
0.287224 -0.018355 6.101830 178 0 0 0.988392
0.310011 -0.018825 6.114010 178 0 0 0.987970
0.301276 -0.010141 6.130210 151 0 0 0.994449
0.296216 -0.026128 6.084800 210 0 0 0.980836
0.318935 -0.026443 6.096930 223 0 0 0.978489
0.328354 -0.032192 6.079100 242 8 0 0.974480
0.306124 -0.032281 6.066640 228 0 0 0.976885
0.274180 -0.026325 6.072510 205 0 0 0.982135
0.284050 -0.032520 6.054490 223 0 0 0.978425
0.252047 -0.026975 6.060360 201 0 0 0.983152
0.242464 -0.018687 6.077590 169 0 0 0.990317
0.219906 -0.019064 6.065460 164 0 0 0.991304
0.261877 -0.033316 6.042230 223 0 0 0.978668
0.229430 -0.027549 6.048250 196 0 0 0.984348
0.239393 -0.034069 6.030090 219 0 0 0.978699
0.210667 -0.009322 6.081810 142 0 0 0.996702
0.325494 -0.010608 6.143200 155 0 0 0.993843
0.350096 -0.011665 6.156570 160 0 0 0.992686
0.358441 -0.020129 6.140070 201 0 0 0.983676
0.374743 -0.013536 6.169830 169 0 0 0.990587
0.383138 -0.021646 6.153360 214 0 0 0.980365
0.391960 -0.028164 6.135940 251 16 0 0.972034
0.401574 -0.032763 6.117760 255 27 0 0.968344
0.367529 -0.027162 6.122970 237 4 0 0.974507
0.377108 -0.032277 6.104870 255 19 0 0.970528
0.343221 -0.026556 6.109970 228 0 0 0.976784
0.334083 -0.019257 6.126960 192 0 0 0.985704
0.352717 -0.032072 6.091950 251 16 0 0.972231
0.428978 -0.038090 6.056160 187 0 0 0.986464
0.405324 -0.039125 6.044310 187 0 0 0.986371
0.394819 -0.039316 6.065350 246 12 0 0.973419
0.381691 -0.040299 6.032280 183 0 0 0.986995
0.371323 -0.040023 6.053120 242 8 0 0.973512
0.347733 -0.040985 6.040940 237 4 0 0.974747
0.358343 -0.041310 6.020070 183 0 0 0.987671
0.361254 -0.037373 6.072930 255 30 0 0.967897
0.337726 -0.037978 6.060610 255 23 0 0.969328
0.385715 -0.037081 6.085750 255 30 0 0.967579
0.410148 -0.037184 6.098490 255 34 0 0.966064
0.419212 -0.038859 6.077930 246 12 0 0.972839
0.335871 -0.042028 6.007990 178 0 0 0.988405
0.314433 -0.042842 5.995860 173 0 0 0.989081
0.303170 -0.042144 6.016600 223 0 0 0.977873
0.292918 -0.043799 5.983760 173 0 0 0.989651
0.281789 -0.043024 6.004420 223 0 0 0.978349
0.260056 -0.044305 5.992340 223 0 0 0.978005
0.271173 -0.045529 5.971840 173 0 0 0.989028
0.271184 -0.039489 6.023790 242 8 0 0.973716
0.249468 -0.040548 6.011720 242 8 0 0.973783
0.293312 -0.038651 6.036100 242 8 0 0.973578
0.315451 -0.038141 6.048290 251 16 0 0.971724
0.325286 -0.041450 6.028940 233 1 0 0.975824
-0.056209 -0.899886 6.295370 255 19 0 0.971245
-0.053762 -0.913472 6.266040 214 0 0 0.980495
-0.079609 -0.902365 6.283630 251 16 0 0.972007
-0.077449 -0.915546 6.254140 210 0 0 0.981634
-0.051667 -0.929207 6.237300 173 0 0 0.989508
-0.049357 -0.947974 6.209520 196 0 0 0.984606
-0.026408 -0.943769 6.222060 205 0 0 0.982412
-0.028917 -0.925044 6.250040 187 0 0 0.986620
-0.031397 -0.909696 6.278810 223 0 0 0.978181
-0.003766 -0.938935 6.234280 219 0 0 0.979502
-0.102274 -0.904272 6.270970 251 16 0 0.971382
-0.099255 -0.918382 6.241280 205 0 0 0.982221
-0.125293 -0.905392 6.259160 255 23 0 0.969186
-0.096574 -0.934994 6.212440 160 0 0 0.992677
-0.071551 -0.950822 6.196830 187 0 0 0.986691
-0.074434 -0.932402 6.225270 164 0 0 0.991248
-0.036053 -0.990680 6.119120 255 108 0 0.944367
-0.009498 -0.998785 6.100970 255 164 0 0.926001
-0.040344 -0.978541 6.150200 255 67 0 0.956832
-0.013844 -0.987462 6.132600 255 119 0 0.940240
-0.018590 -0.974398 6.163530 255 64 0 0.957251
0.012766 -0.995937 6.114380 255 182 0 0.920567
-0.044956 -0.963052 6.180110 242 8 0 0.974420
-0.067376 -0.966829 6.167690 242 8 0 0.973735
0.008712 -0.984412 6.145440 255 138 0 0.934910
0.034787 -0.992012 6.127640 255 197 0 0.915475
0.004510 -0.970190 6.175630 255 64 0 0.957782
0.030724 -0.979576 6.158520 255 134 0 0.935691
0.026426 -0.965482 6.188480 255 78 0 0.953769
0.057066 -0.988174 6.140570 255 219 0 0.906874
0.000367 -0.955387 6.205150 255 19 0 0.970375
-0.022674 -0.959456 6.192830 242 8 0 0.973461
0.128225 -0.838962 6.377700 109 255 138 0.832695
0.141014 -0.847561 6.354930 142 255 106 0.849088
0.115068 -0.858600 6.344160 255 227 0 0.904514
0.101890 -0.849130 6.366490 216 255 32 0.883555
0.140764 -0.865312 6.327740 255 212 0 0.909733
0.140956 -0.886303 6.301090 255 71 0 0.955419
0.166364 -0.873660 6.312250 255 171 0 0.923462
0.166419 -0.853337 6.339130 155 255 93 0.855398
0.077338 -0.861344 6.356590 255 153 0 0.929354
0.090741 -0.871794 6.334040 255 108 0 0.943954
0.065940 -0.882764 6.324290 255 53 0 0.961143
0.052183 -0.871980 6.346670 255 93 0 0.948940
0.092089 -0.891179 6.307660 255 19 0 0.970349
0.093461 -0.912832 6.280910 255 34 0 0.966136
0.117197 -0.900535 6.291220 246 12 0 0.972668
0.115777 -0.877938 6.317400 255 82 0 0.951748
0.150723 -0.964579 6.187080 213 255 35 0.882099
0.147719 -0.945977 6.216550 255 119 0 0.940939
0.173792 -0.953199 6.198190 255 201 0 0.913410
0.144949 -0.926341 6.245190 233 1 0 0.975704
0.170536 -0.933836 6.227550 255 49 0 0.962330
0.167736 -0.912483 6.255810 223 0 0 0.978604
0.196472 -0.939680 6.208990 255 108 0 0.944051
0.142756 -0.906191 6.273320 187 0 0 0.986901
0.119041 -0.919169 6.263160 201 0 0 0.983242
0.121170 -0.937543 6.234530 255 49 0 0.962166
0.193949 -0.919456 6.237880 255 30 0 0.967667
0.220270 -0.925604 6.220540 255 75 0 0.954580
0.192893 -0.899311 6.266710 255 45 0 0.962812
0.218425 -0.905866 6.249990 255 75 0 0.954674
0.179428 -0.886394 6.289700 255 78 0 0.952948
0.027779 -0.881199 6.335980 255 78 0 0.953119
0.041683 -0.892283 6.313410 255 53 0 0.961512
0.016659 -0.899370 6.302360 255 56 0 0.959513
0.002995 -0.887735 6.324940 255 86 0 0.951483
0.043092 -0.909885 6.285710 255 38 0 0.965671
0.044428 -0.927929 6.257930 233 1 0 0.976463
0.069150 -0.921245 6.269670 228 0 0 0.976812
0.067562 -0.901977 6.296980 255 30 0 0.967998
-0.020651 -0.893365 6.313460 255 86 0 0.950482
-0.007035 -0.905547 6.290450 228 0 0 0.976887
-0.005351 -0.921450 6.262100 201 0 0 0.983438
0.020351 -0.933865 6.246420 228 0 0 0.977219
0.018433 -0.915911 6.274200 205 0 0 0.982260
0.053966 -0.975440 6.170730 255 156 0 0.928192
0.080598 -0.984034 6.152680 242 253 6 0.895371
0.050809 -0.960509 6.200140 255 90 0 0.949892
0.077045 -0.969356 6.182850 255 167 0 0.924901
0.074099 -0.954299 6.212260 255 97 0 0.947438
0.103612 -0.978623 6.164560 219 255 29 0.885260
0.047592 -0.944356 6.229250 255 38 0 0.965542
0.023358 -0.950105 6.217510 255 30 0 0.967807
0.101189 -0.964134 6.194400 255 197 0 0.915373
0.127233 -0.972498 6.176150 203 255 45 0.877737
0.098222 -0.946781 6.223400 255 82 0 0.952151
0.124455 -0.956689 6.205730 255 186 0 0.918584
0.095884 -0.929938 6.252260 255 19 0 0.970948
0.071442 -0.937273 6.241000 255 30 0 0.967251
0.166137 -0.970110 6.161320 193 255 55 0.873610
0.193347 -0.970145 6.141460 171 255 77 0.863841
0.208644 -0.972014 6.115130 148 255 100 0.853575
0.235641 -0.967640 6.095150 125 255 122 0.840807
0.213090 -0.976416 6.081840 103 255 145 0.830592
0.230875 -0.961484 6.127490 200 255 48 0.877618
0.256929 -0.953516 6.107380 232 255 16 0.891530
0.215639 -0.958569 6.152750 242 253 6 0.895043
0.200544 -0.954348 6.178350 255 212 0 0.910090
0.226899 -0.967928 6.055600 161 255 87 0.859722
0.252600 -0.954797 6.037260 196 255 51 0.876142
0.267006 -0.943310 6.012270 222 255 25 0.887398
0.289021 -0.932820 6.027100 255 212 0 0.909753
0.275162 -0.944067 6.051340 251 241 0 0.899215
0.261194 -0.953295 6.076100 216 255 32 0.883813
0.331542 -0.907345 6.056640 255 171 0 0.923171
0.317993 -0.917406 6.080120 255 178 0 0.921532
0.293224 -0.932636 6.096700 255 175 0 0.922844
0.279400 -0.939601 6.120980 255 197 0 0.915066
0.296486 -0.930551 6.065460 255 175 0 0.922312
0.310617 -0.919899 6.041780 255 171 0 0.923965
0.275688 -0.932185 6.152610 255 145 0 0.932555
0.260985 -0.929462 6.177290 255 123 0 0.939435
0.234721 -0.932771 6.195840 255 108 0 0.944312
0.237909 -0.944119 6.164520 255 153 0 0.929597
0.253120 -0.946775 6.139240 255 186 0 0.919100
0.166454 -0.555900 5.652450 205 0 0 0.982400
0.162421 -0.534425 5.647030 196 0 0 0.984530
0.171380 -0.511310 5.650260 178 0 0 0.988067
0.167793 -0.487352 5.644590 173 0 0 0.989642
0.194260 -0.485730 5.661240 173 0 0 0.989788
0.196303 -0.509082 5.666290 178 0 0 0.988104
0.186810 -0.532500 5.663220 187 0 0 0.986081
0.189400 -0.553730 5.667920 201 0 0 0.983065
0.181078 -0.575932 5.664120 210 0 0 0.981017
0.203269 -0.573499 5.680480 205 0 0 0.981838
0.149229 -0.465254 5.635830 160 0 0 0.991981
0.143836 -0.440962 5.632550 151 0 0 0.994480
0.158959 -0.440405 5.642280 151 0 0 0.994126
0.138796 -0.415953 5.628620 146 0 0 0.995672
0.154389 -0.415061 5.637980 146 0 0 0.995660
0.149840 -0.389025 5.632640 151 0 0 0.994805
0.133950 -0.389669 5.624250 146 0 0 0.995450
0.169743 -0.414608 5.646660 146 0 0 0.995569
0.165600 -0.388098 5.641340 151 0 0 0.994380
0.181068 -0.387334 5.649400 155 0 0 0.993720
0.187097 -0.438197 5.657240 151 0 0 0.994302
0.176676 -0.463498 5.652110 160 0 0 0.992795
0.242979 -0.381415 5.678950 173 0 0 0.989543
0.244309 -0.408218 5.682270 160 0 0 0.992252
0.231240 -0.435293 5.679310 151 0 0 0.994019
0.232813 -0.459499 5.681930 155 0 0 0.993115
0.221174 -0.483922 5.675790 169 0 0 0.990734
0.248045 -0.481747 5.691170 164 0 0 0.991755
0.204944 -0.462238 5.667630 155 0 0 0.993110
0.202285 -0.437502 5.664630 151 0 0 0.994282
0.199854 -0.412203 5.660630 151 0 0 0.994297
0.215226 -0.411002 5.668160 155 0 0 0.993216
0.212615 -0.384934 5.663670 169 0 0 0.990722
0.197214 -0.386000 5.656390 164 0 0 0.991321
0.228082 -0.383116 5.671160 178 0 0 0.988892
0.248237 -0.505402 5.696090 164 0 0 0.991661
0.236804 -0.529682 5.692570 183 0 0 0.987500
0.237862 -0.551023 5.697230 192 0 0 0.985622
0.226977 -0.572160 5.695180 201 0 0 0.982851
0.251044 -0.571002 5.709180 196 0 0 0.984187
0.213723 -0.552258 5.683610 196 0 0 0.984219
0.211814 -0.531016 5.678100 187 0 0 0.986405
0.222710 -0.507659 5.681410 173 0 0 0.989573
0.386875 -0.390143 5.750270 173 0 0 0.989288
0.404226 -0.387827 5.758650 173 0 0 0.989907
0.402198 -0.416778 5.758640 169 0 0 0.990469
0.421588 -0.385627 5.767730 164 0 0 0.991577
0.419398 -0.414844 5.767080 164 0 0 0.991304
0.436573 -0.413390 5.776110 160 0 0 0.992060
0.438865 -0.383534 5.776340 160 0 0 0.992227
0.417647 -0.442696 5.767710 169 0 0 0.990894
0.434967 -0.441424 5.776230 164 0 0 0.991297
0.433405 -0.468695 5.777270 173 0 0 0.989479
0.417121 -0.469282 5.770000 173 0 0 0.989630
0.401295 -0.444262 5.760490 173 0 0 0.989795
0.400747 -0.470167 5.762130 178 0 0 0.988756
0.385005 -0.445395 5.753000 173 0 0 0.989894
0.385864 -0.418394 5.751410 164 0 0 0.991041
0.369312 -0.420509 5.743940 169 0 0 0.990875
0.384251 -0.470989 5.755180 173 0 0 0.989463
0.368587 -0.447210 5.746400 164 0 0 0.991643
0.367733 -0.471998 5.747880 173 0 0 0.989690
0.370370 -0.392264 5.742750 169 0 0 0.990185
0.456447 -0.381791 5.783850 164 0 0 0.991252
0.474934 -0.379475 5.792080 164 0 0 0.991509
0.471452 -0.409991 5.790780 164 0 0 0.991511
0.493601 -0.377380 5.800110 164 0 0 0.991591
0.490004 -0.407926 5.798610 164 0 0 0.991439
0.486852 -0.437659 5.796970 169 0 0 0.990446
0.485313 -0.465664 5.797080 178 0 0 0.988646
0.469406 -0.439107 5.790350 169 0 0 0.990794
0.468121 -0.466551 5.790420 178 0 0 0.988780
0.452161 -0.440246 5.783080 169 0 0 0.990756
0.454102 -0.411746 5.783340 164 0 0 0.991685
0.450794 -0.467456 5.783930 178 0 0 0.988535
0.474671 -0.548037 5.809930 173 0 0 0.989104
0.455683 -0.571087 5.807230 178 0 0 0.988403
0.460732 -0.522054 5.799770 164 0 0 0.991331
0.441484 -0.546380 5.798030 169 0 0 0.990408
0.427734 -0.520717 5.787660 160 0 0 0.992150
0.422417 -0.569263 5.795150 178 0 0 0.988828
0.446736 -0.495677 5.789260 164 0 0 0.991818
0.464124 -0.495121 5.795960 164 0 0 0.991144
0.481455 -0.494902 5.802120 169 0 0 0.990559
0.478057 -0.522167 5.806180 169 0 0 0.990727
0.408311 -0.545371 5.784840 164 0 0 0.991279
0.391095 -0.568271 5.780890 178 0 0 0.988751
0.394183 -0.520315 5.773770 155 0 0 0.993445
0.376463 -0.544870 5.771230 160 0 0 0.992026
0.362692 -0.521000 5.760230 155 0 0 0.993694
0.359947 -0.567581 5.766380 178 0 0 0.988655
0.380664 -0.496148 5.761160 155 0 0 0.993250
0.397449 -0.495780 5.768170 160 0 0 0.992859
0.414127 -0.495690 5.775160 160 0 0 0.992375
0.410989 -0.520544 5.780720 160 0 0 0.992757
0.345273 -0.544652 5.755770 160 0 0 0.992029
0.330985 -0.567497 5.751460 183 0 0 0.987609
0.331547 -0.522138 5.744560 155 0 0 0.993667
0.316711 -0.545885 5.740860 164 0 0 0.991087
0.303203 -0.524168 5.730420 160 0 0 0.992678
0.302754 -0.568203 5.737310 183 0 0 0.987116
0.318084 -0.499537 5.732300 155 0 0 0.993680
0.305708 -0.476374 5.720020 164 0 0 0.991945
0.336582 -0.473625 5.733390 169 0 0 0.990264
0.349250 -0.497816 5.747380 155 0 0 0.993823
0.288605 -0.546988 5.725470 173 0 0 0.989093
0.276437 -0.569387 5.723010 187 0 0 0.986190
0.275059 -0.525704 5.714040 169 0 0 0.990690
0.262699 -0.548996 5.711400 183 0 0 0.987454
0.275514 -0.503091 5.710120 160 0 0 0.992323
0.276678 -0.479125 5.705130 164 0 0 0.991181
0.258882 -0.379311 5.685810 187 0 0 0.986807
0.274679 -0.404457 5.695340 173 0 0 0.989399
0.274478 -0.377376 5.693620 183 0 0 0.986959
0.274430 -0.430335 5.698520 164 0 0 0.991827
0.290278 -0.402764 5.703120 173 0 0 0.989266
0.290116 -0.429043 5.705960 164 0 0 0.991875
0.305870 -0.427329 5.714070 160 0 0 0.992070
0.289901 -0.375110 5.701410 183 0 0 0.987309
0.305772 -0.400580 5.711050 173 0 0 0.989383
0.305370 -0.372996 5.709880 178 0 0 0.988302
0.289942 -0.453781 5.708910 160 0 0 0.992006
0.305507 -0.453008 5.717330 160 0 0 0.992294
0.260795 -0.456708 5.695360 160 0 0 0.992570
0.321697 -0.370366 5.717200 187 0 0 0.986764
0.337503 -0.396131 5.725600 178 0 0 0.988122
0.338158 -0.367912 5.725350 187 0 0 0.986757
0.336496 -0.423633 5.727220 173 0 0 0.989549
0.353879 -0.394501 5.734190 173 0 0 0.989273
0.352857 -0.421919 5.735580 169 0 0 0.990617
0.354699 -0.365568 5.734030 178 0 0 0.988118
0.351828 -0.448457 5.737870 169 0 0 0.990111
0.371923 -0.591451 5.779970 178 0 0 0.988178
0.383920 -0.614405 5.792990 187 0 0 0.986218
0.402655 -0.592540 5.794250 178 0 0 0.988239
0.414584 -0.616400 5.806390 192 0 0 0.984920
0.396011 -0.637758 5.803930 219 0 0 0.978939
0.407895 -0.660612 5.815000 255 27 0 0.968488
0.379406 -0.658614 5.802810 255 19 0 0.970783
0.367247 -0.635691 5.790950 214 0 0 0.980509
0.355086 -0.612341 5.779270 187 0 0 0.986898
0.350602 -0.656089 5.792080 219 0 0 0.979202
0.433741 -0.593758 5.807980 183 0 0 0.987785
0.444790 -0.619056 5.819730 201 0 0 0.983644
0.466629 -0.596474 5.820150 187 0 0 0.985978
0.456558 -0.643357 5.828930 237 4 0 0.975374
0.437778 -0.663679 5.826580 255 41 0 0.964250
0.426170 -0.640087 5.817140 228 0 0 0.976691
0.417973 -0.726387 5.857500 255 60 0 0.958824
0.423931 -0.705072 5.846150 255 49 0 0.961825
0.396165 -0.702350 5.836230 255 27 0 0.968921
0.390765 -0.724092 5.847570 255 53 0 0.961442
0.415987 -0.682703 5.831080 255 38 0 0.965776
0.445956 -0.686291 5.840900 255 56 0 0.960202
0.364241 -0.722786 5.838170 255 45 0 0.963244
0.368499 -0.700649 5.826230 251 16 0 0.971530
0.341919 -0.699102 5.816660 255 19 0 0.970701
0.338360 -0.722312 5.828200 255 49 0 0.962412
0.359336 -0.678150 5.809980 228 0 0 0.977149
0.387752 -0.680334 5.820080 255 19 0 0.971261
0.186537 -0.961282 5.922100 203 255 45 0.878152
0.171614 -0.971693 5.948830 255 223 0 0.906460
0.145263 -0.983298 5.969570 255 190 0 0.917024
0.129175 -0.991384 5.997410 255 193 0 0.916827
0.101867 -1.000240 6.018570 255 208 0 0.911435
0.123338 -0.996736 6.031770 248 245 0 0.897742
0.107589 -0.994458 5.984380 255 160 0 0.927065
0.079796 -1.002430 6.005680 255 164 0 0.925918
0.124294 -0.986979 5.956250 255 156 0 0.928388
0.140711 -0.978485 5.928730 255 212 0 0.909213
0.166746 -0.966323 5.908090 213 255 35 0.882872
0.146111 -0.971313 5.894620 222 255 25 0.886332
0.106506 -0.997145 6.059990 255 219 0 0.906682
0.078611 -0.997534 6.081430 255 201 0 0.913975
0.062416 -0.994425 6.108210 255 197 0 0.914875
0.040172 -0.997534 6.095290 255 164 0 0.926462
0.056564 -1.000600 6.068330 255 171 0 0.924331
0.073704 -1.001020 6.040690 255 145 0 0.932482
-0.015525 -1.004660 6.061050 255 119 0 0.940427
0.012204 -1.005140 6.041380 255 93 0 0.948186
0.028969 -1.005900 6.014050 255 82 0 0.952238
0.057440 -1.004450 5.992610 255 112 0 0.942575
0.035262 -1.006900 5.979240 255 86 0 0.951050
0.051332 -1.003700 6.027530 255 112 0 0.942993
0.034382 -1.002770 6.055160 255 127 0 0.938003
0.018011 -1.000630 6.081750 255 134 0 0.935825
0.052482 -1.000560 5.951850 255 64 0 0.957726
0.080925 -0.993176 5.930300 255 90 0 0.949627
0.098080 -0.986136 5.902460 255 149 0 0.931529
0.125712 -0.976317 5.880830 242 253 6 0.894983
0.104523 -0.980853 5.867830 255 234 0 0.901770
0.119446 -0.982304 5.915620 255 190 0 0.917469
0.102696 -0.990199 5.943360 255 130 0 0.936486
0.085541 -0.997209 5.971360 255 123 0 0.940004
-0.038370 -1.006910 6.047110 255 101 0 0.946013
-0.021632 -1.009190 6.020460 255 64 0 0.957934
-0.045013 -1.010880 6.006920 255 45 0 0.963214
-0.061536 -1.009080 6.033300 255 78 0 0.953350
-0.016140 -1.010790 5.986600 255 38 0 0.965283
-0.010399 -1.012120 5.952880 255 38 0 0.965365
0.012444 -1.009710 5.966060 255 64 0 0.957264
0.006591 -1.008410 6.000300 255 64 0 0.958173
-0.084733 -1.011500 6.019060 255 67 0 0.956477
-0.067962 -1.013880 5.992620 255 38 0 0.965764
-0.051078 -1.014390 5.966120 251 16 0 0.971601
-0.033564 -1.015050 5.939130 251 16 0 0.971903
0.021728 -1.000730 5.857450 255 60 0 0.958730
0.040600 -0.996556 5.829710 255 130 0 0.937303
0.003152 -1.004910 5.885160 255 19 0 0.971297
0.025320 -1.000480 5.898690 255 27 0 0.968861
0.043763 -0.995827 5.870650 255 67 0 0.957109
0.062119 -0.990887 5.842610 255 167 0 0.925255
-0.003937 -1.007870 5.919080 242 8 0 0.973716
-0.027212 -1.011310 5.905910 219 0 0 0.979020
0.066047 -0.991919 5.882770 255 101 0 0.945906
0.083504 -0.985864 5.854920 255 193 0 0.915857
0.048016 -0.997193 5.911060 255 56 0 0.960118
0.030272 -1.003360 5.938680 255 30 0 0.967338
0.120691 -0.790877 5.641930 255 34 0 0.966273
0.119340 -0.758556 5.631730 219 0 0 0.979312
0.125288 -0.724850 5.630350 187 0 0 0.986332
0.123350 -0.694918 5.619940 192 0 0 0.985255
0.138365 -0.689654 5.637780 178 0 0 0.987973
0.139812 -0.718718 5.647660 178 0 0 0.988897
0.134762 -0.752821 5.648450 201 0 0 0.982857
0.135780 -0.784286 5.657970 246 12 0 0.972403
0.129614 -0.819795 5.659340 255 116 0 0.941293
0.144457 -0.812654 5.675740 255 82 0 0.951612
0.109355 -0.668360 5.605540 173 0 0 0.989187
0.102241 -0.639860 5.598860 173 0 0 0.988957
0.104807 -0.611730 5.601260 187 0 0 0.986340
0.122069 -0.608043 5.619040 196 0 0 0.983870
0.119060 -0.636211 5.617220 183 0 0 0.987319
0.124791 -0.663512 5.623030 173 0 0 0.989301
0.160541 -0.601217 5.655780 223 0 0 0.977795
0.154248 -0.628013 5.654520 219 0 0 0.979025
0.157613 -0.653905 5.660740 210 0 0 0.981738
0.154303 -0.683864 5.656600 183 0 0 0.987073
0.170474 -0.678007 5.675170 205 0 0 0.982526
0.141355 -0.659011 5.642600 183 0 0 0.987331
0.135930 -0.632032 5.636000 196 0 0 0.984306
0.141114 -0.605233 5.638420 214 0 0 0.980301
0.171676 -0.705501 5.684670 196 0 0 0.984855
0.165667 -0.739259 5.684500 183 0 0 0.987431
0.166884 -0.769936 5.693030 214 0 0 0.980059
0.160386 -0.805702 5.692750 255 90 0 0.949646
0.175502 -0.797676 5.710380 255 49 0 0.961605
0.151513 -0.777300 5.675840 219 0 0 0.979042
0.150351 -0.746249 5.666100 187 0 0 0.986526
0.155736 -0.712503 5.666510 173 0 0 0.989127
0.192417 -0.967003 5.962370 235 255 13 0.892208
0.206634 -0.955602 5.936570 190 255 58 0.872367
0.177620 -0.976641 5.988940 251 241 0 0.899924
0.198336 -0.971612 6.002200 225 255 22 0.888129
0.212879 -0.961018 5.976250 225 255 22 0.888464
0.226745 -0.949367 5.951030 203 255 45 0.877992
0.172757 -0.983097 6.022770 213 255 35 0.883106
0.167589 -0.988667 6.056730 155 255 93 0.855692
0.145787 -0.993097 6.044270 196 255 51 0.875907
0.150603 -0.987807 6.010220 251 241 0 0.899864
0.233888 -0.954600 5.990490 219 255 29 0.886012
0.247559 -0.942881 5.965730 209 255 38 0.881031
0.220178 -0.965629 6.015520 200 255 48 0.877251
0.205363 -0.975385 6.042340 161 255 87 0.859490
0.190432 -0.983448 6.069230 116 255 132 0.836988
0.143490 -0.977921 6.150080 187 255 61 0.870440
0.159141 -0.981618 6.123300 171 255 77 0.864181
0.135708 -0.987715 6.111780 190 255 58 0.872495
0.119596 -0.983836 6.138490 209 255 38 0.881881
0.163384 -0.986363 6.090270 164 255 84 0.860818
0.186267 -0.980335 6.102630 132 255 116 0.844491
0.096902 -0.988943 6.126520 235 255 13 0.892830
0.113196 -0.992179 6.099360 232 255 16 0.890826
0.129427 -0.993509 6.071990 216 255 32 0.884623
0.343730 -0.590445 5.765700 178 0 0 0.988308
0.327661 -0.611966 5.766170 183 0 0 0.987099
0.338950 -0.633954 5.779210 196 0 0 0.984401
0.323587 -0.655112 5.780930 210 0 0 0.981171
0.311651 -0.633083 5.767400 196 0 0 0.984699
0.296724 -0.654662 5.769570 223 0 0 0.977797
0.298857 -0.611346 5.753380 192 0 0 0.985743
0.314950 -0.590102 5.751590 178 0 0 0.988566
0.333007 -0.676890 5.799560 233 1 0 0.976088
0.316740 -0.699701 5.805840 255 38 0 0.965176
0.314249 -0.723981 5.816370 255 49 0 0.961999
0.312346 -0.749877 5.826020 255 56 0 0.959559
0.288942 -0.753410 5.812620 255 60 0 0.959031
0.289903 -0.726070 5.803480 255 67 0 0.956538
0.291005 -0.700413 5.793900 255 67 0 0.957068
0.306712 -0.676697 5.788080 251 16 0 0.971750
0.245839 -0.764712 5.781350 255 41 0 0.964588
0.245725 -0.735464 5.773320 255 64 0 0.958123
0.256699 -0.705910 5.772650 255 86 0 0.951310
0.257431 -0.680319 5.762540 255 67 0 0.956149
0.272001 -0.655915 5.757140 251 16 0 0.972202
0.248151 -0.658037 5.743710 255 30 0 0.967136
0.281580 -0.677905 5.776260 255 53 0 0.961356
0.267676 -0.730520 5.789280 255 71 0 0.955963
0.267125 -0.758788 5.797670 255 53 0 0.961271
0.247596 -0.634905 5.736360 255 30 0 0.967766
0.260838 -0.612488 5.734310 223 0 0 0.978194
0.262019 -0.591314 5.725140 201 0 0 0.983571
0.287991 -0.590570 5.738440 183 0 0 0.987185
0.284697 -0.632773 5.755850 219 0 0 0.979104
0.183196 -0.762392 5.711660 210 0 0 0.981217
0.181711 -0.731914 5.703180 201 0 0 0.983307
0.188965 -0.699464 5.703530 233 1 0 0.976196
0.188226 -0.672477 5.693480 228 0 0 0.977294
0.206430 -0.667094 5.710960 246 12 0 0.972929
0.206267 -0.692961 5.720980 255 30 0 0.967894
0.198603 -0.724628 5.721300 237 4 0 0.975123
0.199433 -0.753972 5.729610 223 0 0 0.978007
0.191407 -0.789069 5.728590 255 23 0 0.969591
0.208147 -0.780471 5.746420 251 16 0 0.971458
0.175954 -0.649160 5.679780 237 4 0 0.975393
0.173157 -0.623835 5.672730 242 8 0 0.973688
0.181697 -0.598432 5.673470 237 4 0 0.975456
0.202756 -0.595549 5.689250 233 1 0 0.975987
0.192979 -0.620024 5.690160 255 19 0 0.970435
0.194541 -0.644263 5.696850 255 19 0 0.971135
0.237939 -0.592700 5.712390 219 0 0 0.979492
0.236900 -0.614021 5.721250 246 12 0 0.973067
0.225435 -0.637876 5.722130 255 38 0 0.965374
0.226394 -0.662180 5.728090 255 30 0 0.967289
0.214107 -0.616563 5.706260 255 23 0 0.970221
0.235758 -0.684747 5.747670 255 71 0 0.955482
0.235548 -0.711218 5.756760 255 71 0 0.955060
0.226100 -0.742514 5.756820 255 41 0 0.964179
0.226542 -0.772402 5.764280 255 27 0 0.968317
0.216333 -0.717509 5.739350 255 34 0 0.966197
0.109566 -0.968120 5.835490 255 227 0 0.905110
0.114380 -0.955108 5.803580 255 230 0 0.903135
0.089036 -0.974156 5.822600 255 186 0 0.919210
0.094492 -0.962148 5.790420 255 227 0 0.904564
0.119042 -0.941964 5.771990 229 255 19 0.890047
0.123003 -0.927014 5.741310 190 255 58 0.873018
0.140430 -0.919092 5.755760 167 255 80 0.862414
0.137017 -0.934545 5.786210 219 255 29 0.886093
0.133291 -0.948781 5.817360 255 234 0 0.901299
0.156976 -0.910888 5.771290 187 255 61 0.871190
0.068610 -0.980140 5.809910 255 164 0 0.926597
0.075703 -0.969178 5.777280 255 201 0 0.914168
0.047400 -0.986773 5.797040 255 134 0 0.935518
0.082177 -0.957377 5.745130 245 249 3 0.897062
0.105598 -0.935230 5.727270 177 255 71 0.867265
0.100535 -0.949704 5.758410 242 253 6 0.894889
0.125372 -0.850063 5.674700 255 153 0 0.929747
0.120576 -0.879132 5.690760 255 190 0 0.917061
0.136210 -0.872399 5.706000 255 208 0 0.910513
0.140691 -0.843209 5.690280 255 156 0 0.928655
0.122293 -0.903763 5.715560 235 255 13 0.892639
0.105428 -0.912206 5.700950 225 255 22 0.888604
0.156169 -0.834771 5.707220 255 116 0 0.941274
0.151953 -0.863972 5.722040 255 175 0 0.921901
0.167447 -0.856178 5.739450 255 134 0 0.935837
0.171387 -0.826770 5.724950 255 86 0 0.951005
0.154654 -0.888052 5.746310 251 241 0 0.899412
0.138475 -0.896426 5.730790 238 255 9 0.893917
0.188682 -0.945006 5.891820 255 238 0 0.900287
0.190241 -0.928815 5.861780 255 234 0 0.902403
0.169226 -0.951379 5.877160 245 249 3 0.896758
0.171161 -0.935662 5.846740 255 230 0 0.902664
0.190855 -0.912299 5.832800 255 219 0 0.907752
0.190889 -0.894815 5.804220 255 223 0 0.905422
0.208666 -0.886510 5.821390 255 175 0 0.922021
0.209136 -0.904854 5.849100 255 186 0 0.918715
0.208943 -0.922142 5.877660 255 204 0 0.912686
0.227133 -0.877846 5.838310 255 138 0 0.934224
0.149669 -0.957037 5.862510 242 253 6 0.895786
0.152521 -0.942102 5.831560 255 238 0 0.901124
0.129589 -0.962671 5.848790 242 253 6 0.895416
0.154966 -0.926873 5.801020 229 255 19 0.889623
0.174034 -0.902957 5.787200 225 255 22 0.888584
0.172804 -0.919573 5.816860 255 238 0 0.900913
0.187277 -0.817877 5.742800 255 53 0 0.961359
0.183402 -0.846716 5.756730 255 93 0 0.948837
0.200022 -0.838296 5.774870 255 67 0 0.956417
0.204080 -0.809748 5.760840 255 34 0 0.966386
0.187115 -0.870734 5.780310 255 145 0 0.932858
0.170793 -0.879840 5.763120 255 201 0 0.913816
0.222405 -0.800920 5.778560 255 30 0 0.967332
0.217948 -0.829181 5.792580 255 49 0 0.961966
0.237394 -0.821548 5.809980 255 49 0 0.962123
0.241896 -0.792865 5.795870 255 49 0 0.962504
0.222716 -0.853522 5.815490 255 78 0 0.953120
0.204469 -0.862346 5.798220 255 112 0 0.943024
0.318822 -0.773000 5.848230 255 78 0 0.952802
0.313029 -0.797840 5.864020 255 108 0 0.944364
0.295743 -0.827531 5.871910 255 82 0 0.952020
0.289570 -0.855310 5.886350 255 97 0 0.947431
0.267588 -0.862464 5.871050 255 90 0 0.950283
0.273375 -0.834327 5.856900 255 67 0 0.956640
0.290415 -0.803607 5.850230 255 82 0 0.952531
0.296113 -0.777422 5.834520 255 71 0 0.955477
0.290442 -0.874577 5.913240 255 97 0 0.947176
0.280112 -0.896439 5.933030 255 119 0 0.940537
0.258957 -0.922306 5.945060 255 190 0 0.917436
0.237850 -0.929170 5.929630 255 204 0 0.912909
0.258558 -0.903954 5.917600 255 134 0 0.935524
0.268796 -0.881662 5.897950 255 101 0 0.946548
0.207948 -0.939513 5.907250 255 234 0 0.901808
0.228324 -0.915929 5.893920 255 178 0 0.921541
0.227986 -0.897470 5.865810 255 145 0 0.932843
0.247106 -0.870085 5.855050 255 116 0 0.942138
0.247797 -0.889575 5.882280 255 116 0 0.941499
0.242569 -0.846366 5.833030 255 64 0 0.957383
0.258407 -0.814953 5.826890 255 56 0 0.960049
0.262717 -0.786094 5.812660 255 64 0 0.957790
0.211338 -0.149994 5.715430 255 178 0 0.921562
0.217155 -0.178839 5.707360 255 71 0 0.955173
0.199738 -0.183039 5.697380 255 67 0 0.956673
0.204671 -0.212479 5.690690 228 0 0 0.976954
0.221964 -0.208491 5.700370 233 1 0 0.975909
0.186953 -0.216441 5.681160 219 0 0 0.978780
0.208661 -0.241806 5.685020 173 0 0 0.989926
0.191426 -0.245019 5.675360 178 0 0 0.988381
0.196062 -0.272331 5.669610 164 0 0 0.991508
0.225822 -0.238245 5.694500 178 0 0 0.988634
0.213254 -0.269393 5.678940 160 0 0 0.992682
0.229999 -0.266803 5.688750 155 0 0 0.993897
0.173969 -0.247765 5.665900 178 0 0 0.988580
0.178822 -0.274575 5.660140 164 0 0 0.991256
0.161324 -0.276805 5.651030 164 0 0 0.991134
0.155520 -0.249864 5.656420 173 0 0 0.989141
0.168565 -0.219510 5.671270 219 0 0 0.979639
0.150029 -0.222324 5.661400 214 0 0 0.980367
0.162656 -0.190274 5.676950 255 60 0 0.959248
0.181293 -0.186698 5.687120 255 67 0 0.956993
0.174861 -0.157273 5.694390 255 175 0 0.922179
0.143985 -0.193532 5.666910 255 49 0 0.961680
0.156172 -0.161090 5.683940 255 164 0 0.925703
0.137400 -0.164872 5.673520 255 153 0 0.929728
0.193300 -0.153431 5.704900 255 178 0 0.921829
0.233089 -0.297034 5.685500 151 0 0 0.994776
0.217496 -0.300063 5.677110 151 0 0 0.994108
0.221256 -0.329073 5.674310 155 0 0 0.993312
0.236687 -0.326273 5.682780 155 0 0 0.993782
0.205825 -0.331349 5.666110 155 0 0 0.993238
0.224716 -0.357100 5.672000 164 0 0 0.991569
0.209448 -0.358967 5.664330 160 0 0 0.991984
0.240035 -0.354493 5.679930 164 0 0 0.991541
0.193574 -0.361133 5.656760 155 0 0 0.993422
0.176699 -0.361713 5.648860 151 0 0 0.994504
0.188830 -0.333222 5.657080 155 0 0 0.993110
0.171634 -0.334545 5.648880 151 0 0 0.994353
0.183647 -0.304356 5.658720 155 0 0 0.993714
0.200782 -0.302187 5.667770 155 0 0 0.993634
0.166427 -0.305972 5.649650 155 0 0 0.993745
0.111615 -0.364898 5.614800 142 0 0 0.996622
0.128981 -0.364687 5.624330 142 0 0 0.996230
0.122513 -0.338281 5.622730 146 0 0 0.995898
0.105057 -0.338849 5.613590 142 0 0 0.996544
0.139778 -0.337530 5.632480 146 0 0 0.995640
0.115515 -0.310875 5.622140 151 0 0 0.994732
0.132813 -0.309457 5.631790 151 0 0 0.994595
0.126127 -0.281063 5.631460 164 0 0 0.990967
0.098145 -0.312307 5.612250 146 0 0 0.995008
0.108558 -0.283223 5.621810 164 0 0 0.991844
0.091092 -0.284729 5.612000 164 0 0 0.991122
0.150335 -0.308256 5.641260 151 0 0 0.994325
0.143650 -0.278864 5.641230 164 0 0 0.991410
0.155743 -0.336375 5.640480 151 0 0 0.994819
0.160932 -0.363067 5.640590 146 0 0 0.995134
0.144916 -0.364175 5.632280 146 0 0 0.995925
0.083859 -0.259827 5.615840 187 0 0 0.986682
0.102287 -0.257939 5.626530 178 0 0 0.988528
0.095498 -0.231452 5.630020 219 0 0 0.978970
0.076881 -0.233570 5.620040 223 0 0 0.978404
0.114240 -0.229173 5.640570 219 0 0 0.979253
0.088500 -0.204449 5.634450 255 49 0 0.962193
0.107315 -0.201367 5.645140 255 45 0 0.963311
0.099528 -0.173259 5.650790 255 134 0 0.935865
0.069846 -0.207127 5.624070 255 49 0 0.962585
0.080957 -0.176786 5.639480 255 134 0 0.936464
0.062354 -0.179960 5.628220 255 134 0 0.936466
0.126000 -0.198023 5.656270 255 45 0 0.963166
0.118359 -0.169292 5.662160 255 134 0 0.935467
0.132203 -0.225833 5.650870 223 0 0 0.978513
0.137771 -0.252716 5.646040 178 0 0 0.988669
0.119977 -0.255562 5.636370 173 0 0 0.989284
0.346311 -0.154445 5.777790 255 119 0 0.940502
0.350090 -0.182471 5.767850 255 45 0 0.963537
0.332200 -0.185718 5.758080 255 41 0 0.964644
0.352415 -0.211852 5.759020 233 1 0 0.975960
0.334226 -0.215311 5.749430 228 0 0 0.976823
0.335608 -0.245214 5.741460 196 0 0 0.984763
0.353867 -0.242110 5.750980 196 0 0 0.984397
0.316015 -0.218883 5.740090 219 0 0 0.979129
0.317455 -0.248643 5.732380 183 0 0 0.986998
0.299254 -0.252361 5.723750 169 0 0 0.990010
0.296735 -0.222572 5.730650 205 0 0 0.982472
0.313062 -0.188948 5.747850 255 38 0 0.965041
0.293879 -0.192783 5.738110 255 30 0 0.967182
0.308985 -0.160317 5.756740 255 112 0 0.942430
0.327736 -0.157132 5.767210 255 119 0 0.940865
0.321970 -0.130014 5.777210 255 219 0 0.907036
0.290020 -0.163842 5.746680 255 108 0 0.944463
0.303394 -0.133178 5.766700 255 208 0 0.910988
0.284487 -0.136399 5.756370 255 190 0 0.917348
0.340458 -0.127142 5.788020 255 216 0 0.908940
0.354408 -0.275174 5.747010 155 0 0 0.993486
0.354179 -0.306781 5.742120 155 0 0 0.993376
0.337227 -0.309937 5.733530 155 0 0 0.993257
0.354045 -0.337373 5.738100 160 0 0 0.992241
0.337231 -0.340185 5.729520 160 0 0 0.992401
0.320743 -0.342664 5.721160 160 0 0 0.992241
0.303248 -0.345175 5.712450 164 0 0 0.991950
0.319315 -0.312941 5.724630 155 0 0 0.993803
0.301546 -0.315592 5.715820 155 0 0 0.993508
0.318178 -0.281387 5.728360 155 0 0 0.993475
0.336153 -0.278382 5.737480 155 0 0 0.993406
0.300222 -0.284666 5.719860 151 0 0 0.994064
0.256611 -0.352817 5.688210 164 0 0 0.991163
0.253486 -0.324072 5.690890 155 0 0 0.993047
0.270263 -0.321754 5.699860 155 0 0 0.993756
0.250429 -0.294073 5.693960 151 0 0 0.994218
0.267452 -0.291057 5.702660 155 0 0 0.993787
0.265028 -0.259555 5.705740 164 0 0 0.991833
0.247598 -0.263173 5.697150 160 0 0 0.992837
0.284359 -0.287814 5.711280 155 0 0 0.993944
0.282125 -0.256029 5.714650 164 0 0 0.991186
0.286012 -0.318611 5.707630 155 0 0 0.993491
0.287637 -0.348151 5.704220 164 0 0 0.991290
0.272081 -0.350553 5.696040 164 0 0 0.991080
0.244524 -0.234505 5.703500 183 0 0 0.986944
0.240692 -0.204693 5.709650 246 12 0 0.973171
0.259043 -0.201193 5.719250 251 16 0 0.971593
0.236028 -0.174993 5.716980 255 82 0 0.952516
0.254481 -0.171210 5.726760 255 90 0 0.949771
0.248497 -0.142702 5.735310 255 197 0 0.914819
0.230165 -0.146270 5.725260 255 193 0 0.916518
0.272686 -0.167694 5.736800 255 93 0 0.948788
0.266558 -0.139376 5.745670 255 197 0 0.914832
0.276571 -0.196815 5.728440 255 23 0 0.969767
0.279490 -0.226421 5.721260 201 0 0 0.983046
0.262100 -0.230523 5.712230 196 0 0 0.984558
0.189898 -0.009341 6.070160 137 0 0 0.996928
0.199182 -0.019161 6.053810 155 0 0 0.992962
0.178503 -0.019507 6.042150 151 0 0 0.994304
0.208747 -0.027671 6.036650 187 0 0 0.985992
0.188046 -0.028124 6.025060 183 0 0 0.987495
0.198003 -0.034887 6.007040 205 0 0 0.982161
0.218676 -0.034329 6.018530 214 0 0 0.980756
0.166967 -0.028823 6.013550 178 0 0 0.988003
0.176969 -0.035842 5.995570 205 0 0 0.982535
0.155719 -0.036991 5.983980 201 0 0 0.983097
0.145788 -0.029764 6.002380 178 0 0 0.988480
0.157303 -0.019963 6.031120 151 0 0 0.994619
0.136049 -0.020797 6.020080 151 0 0 0.994736
0.147805 -0.009915 6.048090 133 0 0 0.997971
0.168967 -0.009563 6.059030 137 0 0 0.997618
0.126502 -0.010591 6.036980 133 0 0 0.998134
0.229060 -0.041129 5.999880 237 4 0 0.975114
0.239715 -0.045064 5.980430 219 0 0 0.979412
0.219189 -0.046068 5.968680 214 0 0 0.980517
0.250883 -0.046381 5.959860 173 0 0 0.989892
0.230347 -0.047528 5.948020 169 0 0 0.990921
0.241957 -0.047105 5.926490 155 0 0 0.993865
0.262442 -0.045851 5.938390 155 0 0 0.993384
0.209562 -0.049083 5.936200 164 0 0 0.991315
0.221197 -0.048916 5.914720 151 0 0 0.994131
0.200196 -0.050790 5.903000 151 0 0 0.994356
0.188315 -0.050598 5.924720 164 0 0 0.991142
0.198172 -0.047334 5.957270 205 0 0 0.981829
0.176891 -0.048973 5.945690 210 0 0 0.980773
0.187279 -0.042950 5.977000 223 0 0 0.978167
0.208358 -0.041811 5.988460 228 0 0 0.976819
0.166032 -0.044360 5.965420 228 0 0 0.977300
0.123139 -0.056472 5.856690 151 0 0 0.994118
0.111385 -0.055749 5.878480 155 0 0 0.993891
0.130895 -0.054373 5.889210 155 0 0 0.993812
0.119439 -0.052181 5.910370 192 0 0 0.985504
0.100024 -0.053385 5.899350 192 0 0 0.985865
0.138759 -0.050957 5.921470 192 0 0 0.985165
0.108577 -0.047281 5.930680 210 0 0 0.981710
0.127801 -0.046175 5.942050 210 0 0 0.981106
0.117324 -0.038331 5.961440 192 0 0 0.985852
0.089236 -0.048309 5.919370 205 0 0 0.982498
0.098090 -0.039437 5.950030 187 0 0 0.986434
0.078983 -0.040518 5.938540 183 0 0 0.987024
0.147026 -0.045140 5.953280 219 0 0 0.979301
0.136658 -0.037564 5.972680 196 0 0 0.984609
0.157986 -0.049573 5.933490 201 0 0 0.983643
0.169317 -0.051739 5.912890 160 0 0 0.992590
0.150203 -0.053068 5.900930 155 0 0 0.993443
0.161955 -0.053320 5.879740 151 0 0 0.994076
0.181176 -0.051927 5.891270 151 0 0 0.994138
0.142701 -0.054892 5.868100 151 0 0 0.993970
0.068835 -0.032678 5.957900 164 0 0 0.991374
0.088035 -0.032004 5.968600 169 0 0 0.990755
0.078283 -0.022445 5.987110 142 0 0 0.996266
0.059133 -0.023357 5.976480 142 0 0 0.996626
0.097562 -0.021826 5.997610 142 0 0 0.996013
0.068985 -0.012199 6.004940 133 0 0 0.998530
0.088192 -0.011549 6.015340 133 0 0 0.998471
0.049856 -0.013168 5.994450 133 0 0 0.998627
0.107407 -0.011183 6.025810 133 0 0 0.998249
0.116882 -0.021160 6.008900 146 0 0 0.995530
0.126613 -0.030272 5.991240 173 0 0 0.989586
0.107276 -0.030979 5.979930 169 0 0 0.990380
0.185453 -0.130239 5.717590 255 216 0 0.908314
0.167095 -0.133686 5.706900 255 216 0 0.908423
0.158118 -0.113444 5.720740 255 238 0 0.900747
0.148514 -0.137501 5.696210 255 204 0 0.911960
0.139745 -0.116877 5.709920 255 230 0 0.903045
0.121098 -0.120628 5.699060 255 219 0 0.907618
0.129728 -0.141417 5.685590 255 190 0 0.916930
0.129777 -0.099536 5.724950 255 223 0 0.905392
0.111520 -0.102891 5.713760 255 219 0 0.907378
0.101171 -0.087969 5.729910 255 219 0 0.907243
0.119102 -0.084995 5.740840 255 223 0 0.906202
0.147837 -0.096571 5.735610 255 230 0 0.903328
0.136902 -0.082320 5.751890 255 223 0 0.906329
0.165748 -0.093594 5.746280 255 238 0 0.901198
0.176089 -0.110502 5.731130 251 241 0 0.899458
0.193752 -0.107677 5.741670 251 241 0 0.899765
0.154666 -0.079631 5.762840 255 223 0 0.906295
0.183297 -0.090962 5.757170 255 230 0 0.903544
0.172233 -0.077047 5.773830 255 230 0 0.903729
0.203187 -0.127483 5.727850 255 212 0 0.909689
0.111027 -0.145352 5.675050 255 178 0 0.920702
0.092231 -0.149727 5.663330 255 171 0 0.923561
0.083914 -0.128447 5.677580 255 186 0 0.918714
0.073534 -0.153894 5.651710 255 164 0 0.926190
0.065231 -0.132906 5.665680 255 182 0 0.919684
0.046984 -0.136546 5.653430 255 201 0 0.913262
0.055012 -0.157710 5.640240 255 175 0 0.922368
0.056649 -0.113659 5.680530 255 204 0 0.911745
0.038406 -0.117616 5.668190 255 216 0 0.908885
0.029322 -0.100778 5.683890 255 227 0 0.904060
0.047153 -0.097661 5.695380 255 227 0 0.904961
0.074923 -0.110140 5.691720 255 216 0 0.908398
0.065195 -0.094360 5.706960 255 230 0 0.903059
0.093267 -0.106501 5.702750 255 208 0 0.911286
0.102466 -0.124562 5.688290 255 201 0 0.913225
0.083225 -0.091224 5.718420 255 227 0 0.904679
-0.011945 -0.067253 5.768290 173 0 0 0.989754
0.004744 -0.066002 5.779380 164 0 0 0.991055
0.015831 -0.071976 5.759180 214 0 0 0.979915
0.032980 -0.070224 5.770060 210 0 0 0.980818
0.021609 -0.064687 5.790550 160 0 0 0.992153
0.044313 -0.076421 5.749550 255 53 0 0.961417
0.050158 -0.068503 5.780850 210 0 0 0.981643
0.061602 -0.074319 5.760100 255 49 0 0.961714
0.078802 -0.072069 5.770450 255 53 0 0.961148
0.038704 -0.063108 5.801460 160 0 0 0.992600
0.067173 -0.066512 5.791440 214 0 0 0.979935
0.055470 -0.061906 5.812520 160 0 0 0.992479
0.072732 -0.081607 5.739960 255 134 0 0.935985
0.090014 -0.079039 5.750030 255 141 0 0.933176
0.055036 -0.084177 5.727860 255 138 0 0.934406
0.037206 -0.087074 5.715970 255 138 0 0.934290
0.026718 -0.078716 5.737190 255 56 0 0.960134
0.009396 -0.080872 5.724790 255 64 0 0.957246
0.019537 -0.089737 5.704030 255 149 0 0.931368
-0.001303 -0.073677 5.746390 228 0 0 0.977272
0.072368 -0.060301 5.823300 160 0 0 0.992721
0.084322 -0.064711 5.803270 210 0 0 0.981103
0.101513 -0.062896 5.813970 210 0 0 0.981538
0.089322 -0.058871 5.834250 155 0 0 0.993079
0.113699 -0.067645 5.793430 255 45 0 0.962935
0.118670 -0.061196 5.824820 210 0 0 0.981204
0.131062 -0.065446 5.803890 255 64 0 0.958186
0.148314 -0.063291 5.814360 255 64 0 0.957869
0.106284 -0.057702 5.845500 155 0 0 0.993645
0.135743 -0.059464 5.835690 205 0 0 0.981944
0.143110 -0.071506 5.783560 255 145 0 0.932394
0.160391 -0.069158 5.793790 255 145 0 0.931706
0.125439 -0.073973 5.772340 255 141 0 0.933787
0.107761 -0.076435 5.761150 255 141 0 0.933477
0.096201 -0.069786 5.781890 255 49 0 0.961807
-0.068946 -0.018650 5.925990 128 0 0 0.999218
-0.051929 -0.017967 5.935440 128 0 0 0.999154
-0.042220 -0.027598 5.916150 133 0 0 0.998300
-0.034887 -0.017107 5.944990 128 0 0 0.999024
-0.025204 -0.026996 5.925740 133 0 0 0.997971
-0.007936 -0.026332 5.935410 137 0 0 0.997800
-0.017674 -0.016111 5.954630 128 0 0 0.998886
-0.015291 -0.036035 5.906360 146 0 0 0.995050
0.001907 -0.035531 5.915890 151 0 0 0.994523
0.012224 -0.042956 5.895820 155 0 0 0.993104
-0.004596 -0.043610 5.885460 155 0 0 0.993836
-0.031899 -0.036664 5.895900 142 0 0 0.996004
-0.021355 -0.044216 5.875150 151 0 0 0.994800
-0.048322 -0.037297 5.885420 142 0 0 0.996739
-0.058652 -0.028372 5.905730 133 0 0 0.998555
-0.074856 -0.029003 5.895320 133 0 0 0.998767
-0.037853 -0.044635 5.864790 142 0 0 0.995996
-0.064475 -0.037742 5.875000 137 0 0 0.997429
-0.054028 -0.044940 5.854430 137 0 0 0.997081
-0.085143 -0.019549 5.915530 128 0 0 0.999213
-0.001172 -0.014903 5.965390 133 0 0 0.998754
0.015838 -0.014237 5.975160 133 0 0 0.998670
0.025136 -0.024267 5.957100 137 0 0 0.997311
0.032915 -0.013601 5.984870 133 0 0 0.998621
0.042157 -0.023793 5.966820 137 0 0 0.997200
0.051787 -0.033107 5.948340 160 0 0 0.992404
0.062241 -0.041259 5.927780 178 0 0 0.988620
0.035096 -0.034008 5.937450 155 0 0 0.993159
0.045435 -0.041773 5.917040 169 0 0 0.990288
0.018544 -0.034714 5.926700 155 0 0 0.993898
0.008540 -0.025278 5.946240 137 0 0 0.997576
0.028743 -0.042364 5.906590 164 0 0 0.991749
0.094519 -0.056464 5.868380 151 0 0 0.994714
0.077583 -0.057450 5.856910 146 0 0 0.995571
0.066314 -0.054445 5.878640 173 0 0 0.989628
0.060783 -0.058502 5.845630 142 0 0 0.996217
0.049653 -0.055208 5.867000 164 0 0 0.991691
0.033079 -0.055955 5.855410 155 0 0 0.993304
0.044085 -0.059544 5.834420 142 0 0 0.996665
0.038940 -0.049925 5.887830 178 0 0 0.988863
0.022403 -0.050592 5.875940 164 0 0 0.991018
0.055698 -0.049415 5.898270 187 0 0 0.986666
0.072453 -0.048842 5.908800 196 0 0 0.984745
0.083185 -0.053884 5.889030 183 0 0 0.987870
0.026987 -0.060646 5.824730 142 0 0 0.996715
0.010207 -0.061578 5.813540 137 0 0 0.997128
-0.000876 -0.057554 5.835620 151 0 0 0.994670
-0.006423 -0.062579 5.802270 137 0 0 0.997292
-0.017366 -0.058208 5.824310 146 0 0 0.995891
-0.033512 -0.058796 5.812780 137 0 0 0.997196
-0.022861 -0.063410 5.790790 137 0 0 0.997238
-0.027974 -0.052341 5.845560 151 0 0 0.994361
-0.043907 -0.052810 5.834050 142 0 0 0.996065
-0.011337 -0.051985 5.855750 155 0 0 0.993070
0.005576 -0.051290 5.865830 160 0 0 0.991989
0.016112 -0.056784 5.845530 151 0 0 0.994056
0.274442 -0.047563 5.916730 210 0 0 0.981559
0.285599 -0.049385 5.894880 255 67 0 0.956723
0.265956 -0.050803 5.882830 255 82 0 0.952604
0.296562 -0.052423 5.873080 255 201 0 0.913501
0.276896 -0.054278 5.861350 255 204 0 0.912788
0.287383 -0.060615 5.840900 206 255 42 0.879582
0.307103 -0.058634 5.852360 203 255 45 0.877960
0.257176 -0.056491 5.849820 255 193 0 0.916019
0.267672 -0.063070 5.829550 209 255 38 0.881219
0.247697 -0.065983 5.818330 222 255 25 0.887581
0.236373 -0.059164 5.838570 255 178 0 0.920694
0.245276 -0.052999 5.871470 255 67 0 0.956236
0.224479 -0.055177 5.860090 255 60 0 0.958506
0.233208 -0.051089 5.893460 201 0 0 0.983797
0.253813 -0.049299 5.905140 201 0 0 0.983767
0.212354 -0.052765 5.881770 201 0 0 0.983552
0.317188 -0.071393 5.834320 206 255 42 0.880217
0.325761 -0.087023 5.817150 235 255 13 0.893103
0.307208 -0.089858 5.806230 238 255 9 0.893517
0.333481 -0.105914 5.801870 248 245 0 0.897819
0.315024 -0.108680 5.791060 255 234 0 0.901309
0.296322 -0.111676 5.780450 255 227 0 0.904694
0.276485 -0.114634 5.769690 255 216 0 0.907880
0.287471 -0.092289 5.795270 235 255 13 0.893102
0.267613 -0.095379 5.784240 248 245 0 0.897823
0.277881 -0.076271 5.811680 229 255 19 0.889368
0.297604 -0.073658 5.822930 216 255 32 0.883676
0.257941 -0.079239 5.800590 235 255 13 0.892084
0.222502 -0.124303 5.737880 255 223 0 0.905516
0.213107 -0.104473 5.751960 248 245 0 0.897403
0.231979 -0.101484 5.762400 242 253 6 0.895460
0.202619 -0.087828 5.767550 251 241 0 0.898625
0.221524 -0.084932 5.778290 245 249 3 0.897200
0.210387 -0.071013 5.795650 238 255 9 0.894049
0.191436 -0.073887 5.784630 248 245 0 0.898071
0.240141 -0.082164 5.789170 238 255 9 0.894045
0.229197 -0.068318 5.806820 238 255 9 0.893307
0.249850 -0.098298 5.773210 242 253 6 0.895538
0.258711 -0.117695 5.758770 255 223 0 0.905544
0.240743 -0.120842 5.748180 255 230 0 0.903353
0.179988 -0.066337 5.804240 255 171 0 0.923994
0.167866 -0.060759 5.825180 255 71 0 0.955821
0.187142 -0.058712 5.836310 255 71 0 0.955769
0.155230 -0.057345 5.846860 210 0 0 0.981481
0.174602 -0.055627 5.858140 210 0 0 0.981659
0.193742 -0.053991 5.869460 205 0 0 0.981957
0.206037 -0.056623 5.847930 255 67 0 0.956102
0.217819 -0.061230 5.827020 255 186 0 0.918245
0.198920 -0.063765 5.815760 255 186 0 0.919354
0.051646 -0.210103 5.612300 255 60 0 0.959315
0.058746 -0.236096 5.608550 228 0 0 0.977129
0.040548 -0.238491 5.597230 242 8 0 0.973709
0.065738 -0.261794 5.604900 196 0 0 0.984657
0.047605 -0.263851 5.594030 201 0 0 0.983202
0.054750 -0.288186 5.590260 192 0 0 0.985309
0.072934 -0.286816 5.601070 183 0 0 0.987130
0.029468 -0.265627 5.583540 205 0 0 0.981846
0.036630 -0.289586 5.580060 192 0 0 0.985003
0.018450 -0.290770 5.570680 183 0 0 0.987324
0.009872 -0.267791 5.573300 196 0 0 0.983912
0.020846 -0.241127 5.586550 242 8 0 0.973495
0.001402 -0.243727 5.575970 228 0 0 0.976680
0.012187 -0.216675 5.589470 255 60 0 0.958999
0.031792 -0.213579 5.600790 255 60 0 0.958390
0.022493 -0.188936 5.604580 255 141 0 0.932908
-0.007216 -0.219552 5.578920 255 53 0 0.960894
0.003141 -0.192500 5.593160 255 145 0 0.932731
-0.015815 -0.195960 5.582130 255 134 0 0.935374
0.042179 -0.184662 5.616340 255 138 0 0.934987
0.082091 -0.313186 5.602750 155 0 0 0.993377
0.089051 -0.339872 5.603800 142 0 0 0.996143
0.072778 -0.340162 5.595380 142 0 0 0.996362
0.095640 -0.365012 5.605850 142 0 0 0.996691
0.079408 -0.365589 5.596780 137 0 0 0.997006
0.063209 -0.365528 5.587980 137 0 0 0.997093
0.044689 -0.365962 5.578180 142 0 0 0.996852
0.054441 -0.340986 5.585090 142 0 0 0.996491
0.035904 -0.341342 5.576070 142 0 0 0.996829
0.045529 -0.315324 5.582800 155 0 0 0.993465
0.063938 -0.314770 5.592350 155 0 0 0.993214
0.027314 -0.316071 5.573000 151 0 0 0.994309
-0.015498 -0.368451 5.542940 155 0 0 0.993845
0.000839 -0.367128 5.553050 151 0 0 0.994650
-0.010012 -0.343937 5.550340 146 0 0 0.995452
-0.026521 -0.345780 5.541060 151 0 0 0.994094
0.006492 -0.342487 5.559750 142 0 0 0.996357
-0.020632 -0.320746 5.547450 146 0 0 0.995074
-0.004101 -0.318822 5.556280 146 0 0 0.995392
-0.014020 -0.294950 5.551300 178 0 0 0.988038
-0.036732 -0.322780 5.537840 146 0 0 0.995032
-0.030203 -0.297349 5.542280 169 0 0 0.990182
-0.046299 -0.299976 5.533170 164 0 0 0.991670
0.012540 -0.316973 5.565170 146 0 0 0.995037
0.002065 -0.292929 5.560920 178 0 0 0.987967
0.021124 -0.341861 5.568090 142 0 0 0.996745
0.029920 -0.366206 5.569780 142 0 0 0.996330
