ply
format ascii 1.0
comment VCGLIB generated
element vertex 1053
property float x
property float y
property float z
property uchar red
property uchar green
property uchar blue
property float quality
end_header
0.654987 -0.016604 6.325630 146 0 0 0.996349
0.663339 -0.018475 6.307720 142 0 0 0.997543
0.683507 -0.015649 6.341150 142 0 0 0.997640
0.692473 -0.017123 6.323480 133 0 0 0.998583
0.721380 -0.015158 6.339000 133 0 0 0.998931
0.712196 -0.014091 6.356540 133 0 0 0.998713
0.701492 -0.017410 6.305410 133 0 0 0.998744
0.730414 -0.015509 6.320880 137 0 0 0.997796
0.739218 -0.015461 6.302210 160 0 0 0.993932
0.710567 -0.016969 6.287050 146 0 0 0.996476
0.672434 -0.018968 6.289990 133 0 0 0.998715
0.681252 -0.018646 6.271600 137 0 0 0.998054
0.642764 -0.021019 6.274150 142 0 0 0.997482
0.634017 -0.020195 6.292100 155 0 0 0.995295
0.602939 -0.022214 6.275490 173 0 0 0.991697
0.651939 -0.020686 6.255900 133 0 0 0.998805
0.611355 -0.023120 6.257310 155 0 0 0.995117
0.619714 -0.022676 6.238370 137 0 0 0.998301
0.594536 -0.019930 6.293150 183 0 0 0.990330
0.740744 -0.013985 6.372200 133 0 0 0.998984
0.769369 -0.014451 6.388230 133 0 0 0.998874
0.778321 -0.015836 6.370560 137 0 0 0.998287
0.798896 -0.014969 6.404860 137 0 0 0.998202
0.807809 -0.016205 6.387330 146 0 0 0.996814
0.816204 -0.016610 6.368950 169 0 0 0.992831
0.824948 -0.017703 6.350720 196 0 0 0.987913
0.787242 -0.016038 6.352570 151 0 0 0.995898
0.796495 -0.016490 6.334350 178 0 0 0.991005
0.758584 -0.015682 6.336620 142 0 0 0.997373
0.749743 -0.015266 6.354650 133 0 0 0.998888
0.767611 -0.015721 6.318030 169 0 0 0.992705
0.849158 -0.032890 6.270050 255 38 0 0.973458
0.842834 -0.027992 6.290250 255 27 0 0.975938
0.814996 -0.026681 6.274200 228 0 0 0.982615
0.820677 -0.030604 6.253300 251 16 0 0.978688
0.808032 -0.022462 6.293850 219 0 0 0.984397
0.786574 -0.024747 6.258130 223 0 0 0.983201
0.780142 -0.021217 6.278470 201 0 0 0.987121
0.752581 -0.020148 6.263030 201 0 0 0.986863
0.793729 -0.029134 6.237440 251 16 0 0.978721
0.759360 -0.023030 6.242310 233 1 0 0.981850
0.765766 -0.027185 6.222310 255 19 0 0.977622
0.773908 -0.017859 6.298060 187 0 0 0.989327
0.745643 -0.017537 6.282710 183 0 0 0.990531
0.802038 -0.018879 6.314170 201 0 0 0.987580
0.830992 -0.020662 6.330810 205 0 0 0.986210
0.836628 -0.023852 6.310760 237 4 0 0.980467
0.737664 -0.026778 6.207390 251 16 0 0.978675
0.730618 -0.023121 6.227190 228 0 0 0.982488
0.701880 -0.023088 6.211790 214 0 0 0.985091
0.709066 -0.025854 6.191970 246 12 0 0.978830
0.694395 -0.021527 6.231830 173 0 0 0.991927
0.671883 -0.024519 6.196010 178 0 0 0.991337
0.665122 -0.023021 6.216310 155 0 0 0.995231
0.631978 -0.024833 6.197810 137 0 0 0.997761
0.678441 -0.026246 6.175480 223 0 0 0.983120
0.638393 -0.024767 6.176200 173 0 0 0.992146
0.645038 -0.025778 6.155040 228 0 0 0.982344
0.658137 -0.021783 6.235980 137 0 0 0.997821
0.625591 -0.023904 6.218150 133 0 0 0.998870
0.687847 -0.019731 6.251740 151 0 0 0.995769
0.717074 -0.018562 6.267220 169 0 0 0.992993
0.723662 -0.020702 6.247320 192 0 0 0.989066
0.680587 -0.030050 6.151010 255 30 0 0.974687
0.712866 -0.031383 6.169670 255 30 0 0.974830
0.716156 -0.037704 6.146910 255 53 0 0.970208
0.741572 -0.032918 6.185430 255 23 0 0.976453
0.745464 -0.040039 6.163230 255 38 0 0.973548
0.773407 -0.042065 6.178930 255 23 0 0.976650
0.769456 -0.034187 6.200930 255 19 0 0.977781
0.749189 -0.048058 6.140860 255 53 0 0.969973
0.777432 -0.050586 6.157210 255 38 0 0.973158
0.781110 -0.059426 6.135030 255 67 0 0.966819
0.753484 -0.057317 6.119070 255 82 0 0.962881
0.720309 -0.045296 6.124390 255 71 0 0.965709
0.724231 -0.053739 6.101100 255 116 0 0.955582
0.688024 -0.041403 6.103110 255 130 0 0.951971
0.684270 -0.035216 6.127280 255 78 0 0.964299
0.654225 -0.034965 6.108860 255 86 0 0.962016
0.692322 -0.049130 6.079460 255 204 0 0.932698
0.659479 -0.041186 6.085690 255 141 0 0.948453
0.664776 -0.048901 6.063160 255 193 0 0.935396
0.649456 -0.029765 6.131850 255 38 0 0.973367
0.795887 -0.035743 6.215610 251 16 0 0.978676
0.823841 -0.038319 6.231340 237 4 0 0.980768
0.826253 -0.045458 6.208890 246 12 0 0.979164
0.851142 -0.039611 6.247370 255 27 0 0.976022
0.853998 -0.047727 6.225230 255 19 0 0.977375
0.880957 -0.049924 6.241210 255 49 0 0.971223
0.879026 -0.041885 6.264110 255 64 0 0.967353
0.855893 -0.055936 6.202020 255 30 0 0.975353
0.883579 -0.058990 6.218220 255 38 0 0.973267
0.885070 -0.067939 6.195730 255 60 0 0.968599
0.859537 -0.066019 6.180340 255 34 0 0.974508
0.829760 -0.054244 6.187180 255 19 0 0.977492
0.833227 -0.063963 6.164930 255 45 0 0.971545
0.803669 -0.052363 6.171870 255 30 0 0.974887
0.800001 -0.043786 6.194130 255 19 0 0.977206
0.807055 -0.061865 6.149830 255 60 0 0.968523
0.878978 -0.125383 6.103200 255 34 0 0.973921
0.854562 -0.123786 6.089660 255 34 0 0.974342
0.854976 -0.107290 6.110640 255 30 0 0.975323
0.830699 -0.105650 6.096920 255 30 0 0.975229
0.830281 -0.122015 6.076110 255 38 0 0.973606
0.831015 -0.090380 6.118790 255 30 0 0.975221
0.806307 -0.103690 6.083200 255 38 0 0.973387
0.806525 -0.088541 6.104590 255 38 0 0.973092
0.781757 -0.086348 6.090910 255 41 0 0.972892
0.806038 -0.120492 6.062380 255 41 0 0.972399
0.781917 -0.101875 6.068960 255 49 0 0.971044
0.781369 -0.118392 6.047190 255 64 0 0.967821
0.806592 -0.074879 6.126940 255 41 0 0.972550
0.781583 -0.072537 6.112590 255 49 0 0.970990
0.832261 -0.077055 6.141640 255 34 0 0.973897
0.858187 -0.079168 6.156620 255 23 0 0.976422
0.856651 -0.092680 6.133790 255 23 0 0.977128
0.882301 -0.095067 6.148300 251 16 0 0.978222
0.884037 -0.081205 6.172200 255 27 0 0.975833
0.880692 -0.109495 6.125780 255 19 0 0.977727
0.753120 -0.115099 6.026330 255 123 0 0.953277
0.753079 -0.098422 6.049110 255 97 0 0.959372
0.724045 -0.093992 6.027160 255 193 0 0.935591
0.725341 -0.112497 6.007150 255 201 0 0.933319
0.722490 -0.077883 6.049540 255 171 0 0.941008
0.698297 -0.092846 6.011880 255 216 0 0.929368
0.695806 -0.075893 6.032460 255 216 0 0.929812
0.671683 -0.076663 6.019860 255 193 0 0.935176
0.700419 -0.112172 5.992930 255 216 0 0.929515
0.674753 -0.093945 5.999730 255 193 0 0.935608
0.677001 -0.112825 5.981580 255 190 0 0.936273
0.693122 -0.061163 6.054530 255 212 0 0.930450
0.668301 -0.061747 6.041030 255 197 0 0.934984
0.723061 -0.064807 6.074930 255 145 0 0.948118
0.753712 -0.069685 6.096380 255 78 0 0.964222
0.753846 -0.083565 6.073240 255 78 0 0.963977
0.904386 -0.045712 6.279280 255 53 0 0.969763
0.931770 -0.051122 6.297430 255 71 0 0.965404
0.930868 -0.057935 6.271100 255 60 0 0.968108
0.958354 -0.064318 6.289910 255 60 0 0.968026
0.958203 -0.071847 6.264770 255 56 0 0.969216
0.985256 -0.087059 6.257450 255 64 0 0.967448
0.959097 -0.081245 6.240630 255 64 0 0.967137
0.932366 -0.066682 6.248600 255 64 0 0.967428
0.934123 -0.076066 6.225100 255 56 0 0.968964
0.907874 -0.062682 6.233160 255 49 0 0.971038
0.905837 -0.053914 6.256200 255 53 0 0.970421
0.909627 -0.071774 6.210020 255 64 0 0.967284
1.028920 -0.153531 6.182380 255 34 0 0.974462
1.013560 -0.135050 6.198700 255 27 0 0.975722
1.008570 -0.148768 6.171790 255 30 0 0.975370
0.992661 -0.129658 6.187370 255 19 0 0.977863
0.996785 -0.116161 6.213570 255 34 0 0.974196
0.976670 -0.111339 6.202720 255 19 0 0.977323
0.987582 -0.143605 6.160870 255 27 0 0.975754
0.971594 -0.124359 6.176040 255 30 0 0.975447
0.967174 -0.138532 6.150150 255 38 0 0.973264
0.980956 -0.098858 6.229440 255 49 0 0.970911
0.945253 -0.135385 6.138310 255 30 0 0.975181
0.947708 -0.120399 6.161790 255 34 0 0.974088
0.925441 -0.117082 6.149280 251 16 0 0.978487
0.923224 -0.132397 6.126820 255 19 0 0.977915
0.927153 -0.101871 6.172880 255 30 0 0.974744
0.903033 -0.113438 6.137630 242 8 0 0.979787
0.905161 -0.098650 6.160860 255 23 0 0.977094
0.900923 -0.128493 6.115050 251 16 0 0.978043
0.905876 -0.083905 6.183770 255 41 0 0.972674
0.931074 -0.088668 6.198940 255 41 0 0.972710
0.955492 -0.093542 6.212910 255 38 0 0.973640
0.951892 -0.106811 6.187660 255 34 0 0.974352
0.613192 -1.050670 6.513330 246 12 0 0.978951
0.603010 -1.043680 6.535380 214 0 0 0.985157
0.588130 -1.036070 6.523570 187 0 0 0.989547
0.578017 -1.029220 6.545650 169 0 0 0.993049
0.592867 -1.036930 6.557350 196 0 0 0.988362
0.562735 -1.021420 6.533680 155 0 0 0.994752
0.567826 -1.022310 6.567420 155 0 0 0.994824
0.552799 -1.014520 6.555590 146 0 0 0.996817
0.542852 -1.007600 6.577280 137 0 0 0.997808
0.582569 -1.030040 6.578980 183 0 0 0.990217
0.557730 -1.015450 6.589040 155 0 0 0.995288
0.572363 -1.023290 6.600630 183 0 0 0.990391
0.537103 -1.006670 6.543310 142 0 0 0.997221
0.527348 -0.999742 6.565150 137 0 0 0.998350
0.511127 -0.991788 6.552590 137 0 0 0.998402
0.521230 -0.997599 6.530230 137 0 0 0.997905
0.547390 -1.012530 6.520940 146 0 0 0.996504
0.531422 -1.003350 6.507720 142 0 0 0.997349
0.557857 -1.018340 6.498330 151 0 0 0.995401
0.573226 -1.027250 6.511190 164 0 0 0.993485
0.583799 -1.033250 6.488560 178 0 0 0.991079
0.541712 -1.008910 6.485020 146 0 0 0.996462
0.568383 -1.024120 6.475630 164 0 0 0.993222
0.552077 -1.014430 6.462220 160 0 0 0.994590
0.598754 -1.042110 6.501140 205 0 0 0.986637
0.561518 -1.014920 6.620130 169 0 0 0.992641
0.546773 -1.007850 6.609610 151 0 0 0.995755
0.536146 -0.999479 6.629270 146 0 0 0.996708
0.551028 -1.006710 6.639840 164 0 0 0.993549
0.521003 -0.992187 6.618520 137 0 0 0.998246
0.525580 -0.991119 6.649090 142 0 0 0.997319
0.510440 -0.983715 6.638430 133 0 0 0.998619
0.540399 -0.998471 6.659580 160 0 0 0.994388
0.494888 -0.976396 6.627300 133 0 0 0.999022
0.478916 -0.968315 6.614820 133 0 0 0.999151
0.505794 -0.984271 6.606530 133 0 0 0.999138
0.489769 -0.976207 6.593930 128 0 0 0.999372
0.516631 -0.992088 6.585840 133 0 0 0.998974
0.531992 -0.999964 6.597930 137 0 0 0.998380
0.500505 -0.984019 6.573180 128 0 0 0.999213
0.410928 -0.935862 6.564910 133 0 0 0.998779
0.428317 -0.945841 6.579030 133 0 0 0.998991
0.439650 -0.952416 6.556880 133 0 0 0.998781
0.422359 -0.941990 6.542650 133 0 0 0.998768
0.456577 -0.961295 6.570310 133 0 0 0.999029
0.450872 -0.958884 6.534860 133 0 0 0.998594
0.467814 -0.968135 6.548490 133 0 0 0.998751
0.478872 -0.974978 6.526690 137 0 0 0.998154
0.433595 -0.948074 6.520570 133 0 0 0.998858
0.461923 -0.965372 6.512970 137 0 0 0.998218
0.444682 -0.954137 6.498660 133 0 0 0.998841
0.484246 -0.976711 6.561630 133 0 0 0.998907
0.495328 -0.983862 6.539990 137 0 0 0.998224
0.473578 -0.969002 6.582400 128 0 0 0.999311
0.462744 -0.961070 6.603340 128 0 0 0.999286
0.445782 -0.953679 6.591360 128 0 0 0.999236
0.455119 -0.957722 6.475400 133 0 0 0.998934
0.471841 -0.970393 6.490340 137 0 0 0.997890
0.482235 -0.974252 6.467110 137 0 0 0.998188
0.465405 -0.961605 6.452220 133 0 0 0.998979
0.498813 -0.985590 6.481530 142 0 0 0.997119
0.492565 -0.978255 6.443790 137 0 0 0.998109
0.509342 -0.989740 6.458280 142 0 0 0.997108
0.519955 -0.993895 6.434850 146 0 0 0.996387
0.475685 -0.965533 6.429020 133 0 0 0.999042
0.502916 -0.982482 6.420370 142 0 0 0.997291
0.485908 -0.969626 6.405620 133 0 0 0.998566
0.525541 -1.000190 6.472210 146 0 0 0.996301
0.536353 -1.004460 6.448820 151 0 0 0.995797
0.515397 -0.994838 6.494860 142 0 0 0.997264
0.505320 -0.989413 6.517480 137 0 0 0.997778
0.488882 -0.980311 6.504120 137 0 0 0.997743
0.458268 -0.956726 6.416270 133 0 0 0.998646
0.448071 -0.952548 6.439400 133 0 0 0.999007
0.431035 -0.943224 6.426650 133 0 0 0.998920
0.437752 -0.949080 6.462610 133 0 0 0.998994
0.420745 -0.939861 6.449730 133 0 0 0.999157
0.410264 -0.936300 6.472840 133 0 0 0.999023
0.427310 -0.945944 6.485840 133 0 0 0.998621
0.404026 -0.929398 6.436710 133 0 0 0.999036
0.393533 -0.926262 6.459850 128 0 0 0.999376
0.376754 -0.916113 6.446910 133 0 0 0.998950
0.388269 -0.918664 6.423760 137 0 0 0.997753
0.415158 -0.932747 6.413660 133 0 0 0.998552
0.399428 -0.922132 6.400780 142 0 0 0.996984
0.426099 -0.936638 6.390740 137 0 0 0.998120
0.442050 -0.946778 6.403490 133 0 0 0.998753
0.452962 -0.950600 6.380280 137 0 0 0.997797
0.410338 -0.925964 6.377940 146 0 0 0.996589
0.437021 -0.940175 6.367620 142 0 0 0.997661
0.421225 -0.929760 6.354950 146 0 0 0.996288
0.469283 -0.960337 6.392950 137 0 0 0.998135
0.415620 -0.940531 6.508290 133 0 0 0.998556
0.404322 -0.934660 6.530400 133 0 0 0.998650
0.386539 -0.925949 6.517890 133 0 0 0.998791
0.392806 -0.929131 6.552650 133 0 0 0.998560
0.374847 -0.920525 6.540180 133 0 0 0.998668
0.357195 -0.911852 6.527890 133 0 0 0.998998
0.340146 -0.901711 6.514720 128 0 0 0.999197
0.369554 -0.916548 6.505000 128 0 0 0.999222
0.352627 -0.906271 6.491870 133 0 0 0.999174
0.381685 -0.920951 6.482280 128 0 0 0.999389
0.398587 -0.930750 6.495200 133 0 0 0.999050
0.364836 -0.910597 6.469130 133 0 0 0.998861
0.274618 -0.869568 6.469400 173 0 0 0.992169
0.290132 -0.878388 6.480890 142 0 0 0.997539
0.303159 -0.882545 6.457860 146 0 0 0.996266
0.287538 -0.873816 6.446430 178 0 0 0.990821
0.319029 -0.890909 6.469310 133 0 0 0.998634
0.315929 -0.887663 6.435290 151 0 0 0.996089
0.331792 -0.895791 6.446610 137 0 0 0.998130
0.344457 -0.900709 6.424230 142 0 0 0.997460
0.300287 -0.878726 6.424000 183 0 0 0.990396
0.328477 -0.892777 6.412960 151 0 0 0.996102
0.312553 -0.884978 6.401820 178 0 0 0.991460
0.348082 -0.903352 6.458020 133 0 0 0.998906
0.360552 -0.908559 6.435510 133 0 0 0.998722
0.335738 -0.899001 6.480620 128 0 0 0.999361
0.323106 -0.895193 6.503570 128 0 0 0.999439
0.306497 -0.886827 6.492120 133 0 0 0.998924
0.324724 -0.888625 6.379140 192 0 0 0.988546
0.340022 -0.896097 6.390240 164 0 0 0.993746
0.351981 -0.900176 6.367540 178 0 0 0.990909
0.336563 -0.893397 6.356480 192 0 0 0.988961
0.367347 -0.907376 6.378630 155 0 0 0.995086
0.363684 -0.905291 6.344950 173 0 0 0.991774
0.379116 -0.911415 6.355900 160 0 0 0.994436
0.390536 -0.916433 6.333120 164 0 0 0.993493
0.348390 -0.898945 6.333890 196 0 0 0.988068
0.375202 -0.910155 6.322070 173 0 0 0.992238
0.359859 -0.904552 6.311090 192 0 0 0.988890
0.394274 -0.919048 6.366920 146 0 0 0.996230
0.405766 -0.923438 6.344060 146 0 0 0.996158
0.383351 -0.914745 6.389640 146 0 0 0.996803
0.372070 -0.911464 6.412500 137 0 0 0.997693
0.356016 -0.903834 6.401340 151 0 0 0.995649
0.695058 -1.032050 6.278910 255 53 0 0.969827
0.684812 -1.037830 6.310610 242 8 0 0.980232
0.669241 -1.028850 6.297620 233 1 0 0.981775
0.659424 -1.034440 6.329340 201 0 0 0.987543
0.674571 -1.043430 6.341760 210 0 0 0.985435
0.643886 -1.025410 6.316360 192 0 0 0.988623
0.649181 -1.040130 6.360690 192 0 0 0.988648
0.634017 -1.030860 6.348180 178 0 0 0.990808
0.624173 -1.036910 6.379370 196 0 0 0.987843
0.664010 -1.049210 6.372700 214 0 0 0.984874
0.639073 -1.046180 6.391510 219 0 0 0.984394
0.653701 -1.055240 6.403270 251 16 0 0.978254
0.618194 -1.021380 6.335280 178 0 0 0.991278
0.608519 -1.027290 6.367060 183 0 0 0.990243
0.592112 -1.017200 6.354420 173 0 0 0.991736
0.602135 -1.012360 6.324380 173 0 0 0.991791
0.628226 -1.016740 6.305280 196 0 0 0.988046
0.612002 -1.007470 6.293820 192 0 0 0.988604
0.638152 -1.012030 6.274690 233 1 0 0.981917
0.654096 -1.020860 6.286300 233 1 0 0.981864
0.664077 -1.015640 6.256010 255 53 0 0.969861
0.621700 -1.001750 6.263120 223 0 0 0.983255
0.647712 -1.005920 6.244270 255 41 0 0.972417
0.631349 -0.995033 6.232600 255 23 0 0.977023
0.679983 -1.024050 6.267640 255 49 0 0.970684
0.643399 -1.053540 6.430900 219 0 0 0.983875
0.628589 -1.044760 6.417950 192 0 0 0.988508
0.618793 -1.043700 6.445880 183 0 0 0.990580
0.633372 -1.052300 6.458370 205 0 0 0.986203
0.603511 -1.034590 6.433000 164 0 0 0.993488
0.608822 -1.042760 6.473530 183 0 0 0.990488
0.593753 -1.033840 6.460830 164 0 0 0.993547
0.623353 -1.051360 6.485940 214 0 0 0.985042
0.577952 -1.024340 6.447760 155 0 0 0.995223
0.562170 -1.014460 6.435680 146 0 0 0.996506
0.588203 -1.024950 6.421150 151 0 0 0.995633
0.572258 -1.014870 6.408960 146 0 0 0.996894
0.598443 -1.025890 6.394240 160 0 0 0.994229
0.613842 -1.035540 6.406190 173 0 0 0.991922
0.582292 -1.015870 6.381890 151 0 0 0.995440
0.496038 -0.969225 6.379670 133 0 0 0.998759
0.512477 -0.982273 6.393570 137 0 0 0.997936
0.522498 -0.982280 6.367150 137 0 0 0.998054
0.506090 -0.969237 6.353360 137 0 0 0.998198
0.539030 -0.993998 6.380980 142 0 0 0.997497
0.532761 -0.982339 6.340470 142 0 0 0.997517
0.549418 -0.994752 6.354130 146 0 0 0.996445
0.559651 -0.995838 6.327090 169 0 0 0.992999
0.516467 -0.969299 6.326830 137 0 0 0.997867
0.543109 -0.982948 6.313340 151 0 0 0.995787
0.526843 -0.969493 6.299790 142 0 0 0.997061
0.565847 -1.005590 6.367840 151 0 0 0.995830
0.576103 -1.007000 6.340850 173 0 0 0.991874
0.556021 -1.004770 6.395160 142 0 0 0.997379
0.546324 -1.004420 6.422250 142 0 0 0.997345
0.529451 -0.993713 6.408070 137 0 0 0.997720
0.537359 -0.964101 6.271260 142 0 0 0.997075
0.552957 -0.976306 6.283020 146 0 0 0.996906
0.563811 -0.970862 6.254020 151 0 0 0.995579
0.548110 -0.958635 6.242280 151 0 0 0.995653
0.579336 -0.982917 6.265990 160 0 0 0.994208
0.574326 -0.965201 6.224930 160 0 0 0.993997
0.589802 -0.977473 6.236940 178 0 0 0.991419
0.600341 -0.971618 6.207810 205 0 0 0.986369
0.558806 -0.953444 6.212900 160 0 0 0.994609
0.585084 -0.959592 6.195770 183 0 0 0.990351
0.569521 -0.947724 6.183640 169 0 0 0.992752
0.605515 -0.989336 6.249140 196 0 0 0.987648
0.615781 -0.983689 6.220090 237 4 0 0.980832
0.595692 -0.996105 6.279920 178 0 0 0.990776
0.586051 -1.001870 6.310420 169 0 0 0.992882
0.569561 -0.989584 6.296630 155 0 0 0.995269
0.542488 -0.943649 6.201730 160 0 0 0.994172
0.531753 -0.948933 6.230940 155 0 0 0.995067
0.515470 -0.939651 6.219420 160 0 0 0.993935
0.521185 -0.954628 6.259790 146 0 0 0.996354
0.504872 -0.944740 6.248300 155 0 0 0.995210
0.494580 -0.950264 6.276730 146 0 0 0.996492
0.510593 -0.960227 6.288260 146 0 0 0.996765
0.488758 -0.935544 6.236650 155 0 0 0.994636
0.478506 -0.940673 6.264970 155 0 0 0.995282
0.462734 -0.931500 6.253110 160 0 0 0.994123
0.473583 -0.926832 6.226020 173 0 0 0.992287
0.499909 -0.930589 6.209110 164 0 0 0.993414
0.484611 -0.922202 6.198440 183 0 0 0.990657
0.511473 -0.925995 6.181180 164 0 0 0.993220
0.526914 -0.934796 6.191530 164 0 0 0.993446
0.538472 -0.930068 6.163260 173 0 0 0.991989
0.496041 -0.917445 6.170630 183 0 0 0.990095
0.523168 -0.921456 6.152790 173 0 0 0.991634
0.507869 -0.912703 6.142520 183 0 0 0.990212
0.553874 -0.938724 6.173500 169 0 0 0.992863
0.499612 -0.959672 6.314700 142 0 0 0.997332
0.489421 -0.959668 6.341000 137 0 0 0.997724
0.472963 -0.949862 6.328770 146 0 0 0.996797
0.479253 -0.959795 6.367110 137 0 0 0.998228
0.462989 -0.950235 6.354680 142 0 0 0.997660
0.446897 -0.940007 6.342140 146 0 0 0.996588
0.431790 -0.930014 6.330180 155 0 0 0.995034
0.457488 -0.940198 6.316960 151 0 0 0.995833
0.442238 -0.930146 6.305000 164 0 0 0.993615
0.467956 -0.940427 6.291160 151 0 0 0.995618
0.483662 -0.950165 6.302960 146 0 0 0.996588
0.452544 -0.930767 6.279360 160 0 0 0.994265
0.371043 -0.905960 6.286740 205 0 0 0.986106
0.385617 -0.911677 6.297440 183 0 0 0.990544
0.396894 -0.912965 6.272730 201 0 0 0.987126
0.382451 -0.907678 6.262190 223 0 0 0.982880
0.411235 -0.918604 6.283300 173 0 0 0.991753
0.407898 -0.914193 6.247660 192 0 0 0.988660
0.422162 -0.919544 6.258130 196 0 0 0.988175
0.433093 -0.920499 6.232490 187 0 0 0.989798
0.393538 -0.909375 6.237130 228 0 0 0.982407
0.418773 -0.915466 6.222140 205 0 0 0.986369
0.404618 -0.910734 6.211870 228 0 0 0.982199
0.436834 -0.925198 6.268610 173 0 0 0.992150
0.447779 -0.925979 6.242820 183 0 0 0.990705
0.426675 -0.924438 6.294210 169 0 0 0.992454
0.416358 -0.923645 6.319340 160 0 0 0.994080
0.400998 -0.917422 6.308420 173 0 0 0.992202
0.415720 -0.906535 6.186030 255 23 0 0.976747
0.429186 -0.911257 6.195500 210 0 0 0.985902
0.440395 -0.906687 6.169020 233 1 0 0.981882
0.426983 -0.901702 6.159760 255 27 0 0.975766
0.454165 -0.911691 6.178330 210 0 0 0.985368
0.452143 -0.901608 6.142360 233 1 0 0.981751
0.466049 -0.906701 6.151480 210 0 0 0.985409
0.478644 -0.902154 6.124170 201 0 0 0.986952
0.438707 -0.896771 6.133250 255 30 0 0.974935
0.464436 -0.896938 6.115310 223 0 0 0.983160
0.450778 -0.891884 6.106260 242 8 0 0.980194
0.480514 -0.911927 6.160670 201 0 0 0.987287
0.493022 -0.907318 6.133430 196 0 0 0.988383
0.469233 -0.916718 6.188370 192 0 0 0.988687
0.458284 -0.921361 6.215810 183 0 0 0.990037
0.443441 -0.916134 6.205640 192 0 0 0.988484
0.698314 -0.137466 5.975280 255 130 0 0.951544
0.722419 -0.137156 5.987650 255 141 0 0.948618
0.719355 -0.163113 5.970900 255 82 0 0.963091
0.748902 -0.138065 6.004170 255 112 0 0.956213
0.744641 -0.162953 5.984760 255 82 0 0.962852
0.772691 -0.164237 6.003520 255 41 0 0.972572
0.777800 -0.141174 6.025520 255 45 0 0.971737
0.740254 -0.189464 5.968340 255 19 0 0.977442
0.767208 -0.189496 5.983960 246 12 0 0.978886
0.761586 -0.215957 5.967350 214 0 0 0.984459
0.737976 -0.216564 5.956140 196 0 0 0.988240
0.717948 -0.189661 5.957980 233 1 0 0.981545
0.716071 -0.217342 5.946430 173 0 0 0.991985
0.696424 -0.189947 5.948780 210 0 0 0.985422
0.697592 -0.163584 5.961410 255 53 0 0.969928
0.676505 -0.163502 5.951970 255 34 0 0.974389
0.694921 -0.217566 5.936710 164 0 0 0.993571
0.675392 -0.190024 5.939100 201 0 0 0.987272
0.674017 -0.217222 5.926440 164 0 0 0.993629
0.677081 -0.137227 5.966020 255 108 0 0.956706
0.801054 -0.143141 6.039580 255 30 0 0.974682
0.825495 -0.144348 6.054220 255 19 0 0.977918
0.819949 -0.167634 6.032830 242 8 0 0.979752
0.849625 -0.145587 6.067790 251 16 0 0.978299
0.844315 -0.168706 6.046700 237 4 0 0.981086
0.868236 -0.169604 6.059910 228 0 0 0.982796
0.873843 -0.147051 6.081020 246 12 0 0.978925
0.838145 -0.192036 6.026150 219 0 0 0.983838
0.862302 -0.192919 6.039390 214 0 0 0.984607
0.855908 -0.216624 6.019760 219 0 0 0.984196
0.833587 -0.216723 6.008000 210 0 0 0.985527
0.815750 -0.191503 6.013930 233 1 0 0.981360
0.811043 -0.216216 5.995810 205 0 0 0.986204
0.792040 -0.190491 5.999470 237 4 0 0.981217
0.797085 -0.166457 6.019640 246 12 0 0.979257
0.786217 -0.216223 5.980850 219 0 0 0.984260
0.816472 -0.333842 5.957640 142 0 0 0.997178
0.795112 -0.334880 5.947710 137 0 0 0.998285
0.802936 -0.306604 5.960790 142 0 0 0.997416
0.781425 -0.307305 5.951200 133 0 0 0.998697
0.774778 -0.335121 5.938310 133 0 0 0.998590
0.789246 -0.277674 5.963090 146 0 0 0.996190
0.761239 -0.307237 5.942090 133 0 0 0.999162
0.767935 -0.277654 5.953500 142 0 0 0.997632
0.747637 -0.277508 5.945060 133 0 0 0.998724
0.755581 -0.334843 5.929720 133 0 0 0.998873
0.742007 -0.306581 5.933510 128 0 0 0.999331
0.737214 -0.334060 5.921000 133 0 0 0.998724
0.775571 -0.247345 5.965400 164 0 0 0.993528
0.754256 -0.247112 5.955970 151 0 0 0.995916
0.800850 -0.246724 5.978910 178 0 0 0.991452
0.824761 -0.246490 5.992280 173 0 0 0.991688
0.814452 -0.276533 5.976680 155 0 0 0.995152
0.838376 -0.275083 5.988570 164 0 0 0.993788
0.847558 -0.246435 6.003880 178 0 0 0.991432
0.827502 -0.304824 5.973460 146 0 0 0.996645
0.718684 -0.333601 5.912210 133 0 0 0.998503
0.721313 -0.307028 5.923240 128 0 0 0.999443
0.702759 -0.306342 5.914250 128 0 0 0.999357
0.700162 -0.333226 5.903220 137 0 0 0.998129
0.705492 -0.278566 5.924730 133 0 0 0.999109
0.684183 -0.306106 5.905610 128 0 0 0.999237
0.686844 -0.277826 5.915820 133 0 0 0.998988
0.668296 -0.277278 5.906680 133 0 0 0.998804
0.681623 -0.332756 5.894230 142 0 0 0.997475
0.665757 -0.305044 5.895790 133 0 0 0.998638
0.663152 -0.332169 5.884700 146 0 0 0.996375
0.689762 -0.249011 5.925790 137 0 0 0.998326
0.671005 -0.248003 5.916890 137 0 0 0.998159
0.710529 -0.248890 5.936150 137 0 0 0.998382
0.731835 -0.247944 5.945790 142 0 0 0.997627
0.726240 -0.278323 5.934960 133 0 0 0.999057
0.675851 -0.362970 5.886460 137 0 0 0.997776
0.694386 -0.363279 5.895590 133 0 0 0.998480
0.688493 -0.393025 5.887670 137 0 0 0.997805
0.712900 -0.363654 5.904630 133 0 0 0.998975
0.707087 -0.393297 5.896580 137 0 0 0.998414
0.725585 -0.393639 5.905260 133 0 0 0.998826
0.731394 -0.364286 5.913330 128 0 0 0.999196
0.701381 -0.422284 5.887820 146 0 0 0.996857
0.720046 -0.422211 5.896450 142 0 0 0.997443
0.714460 -0.450643 5.886940 164 0 0 0.993476
0.697087 -0.449676 5.879710 164 0 0 0.993225
0.684209 -0.420868 5.880080 146 0 0 0.996228
0.679725 -0.448467 5.872710 164 0 0 0.993427
0.666720 -0.419870 5.872780 146 0 0 0.996328
0.671383 -0.391574 5.879760 142 0 0 0.997367
0.653924 -0.390467 5.872240 142 0 0 0.997075
0.662075 -0.447617 5.865590 164 0 0 0.993202
0.649140 -0.418675 5.865400 151 0 0 0.995600
0.644243 -0.446896 5.858580 164 0 0 0.993180
0.658664 -0.361730 5.878330 142 0 0 0.996935
0.748174 -0.365898 5.921160 128 0 0 0.999248
0.766522 -0.366410 5.930040 128 0 0 0.999280
0.759237 -0.397010 5.920760 133 0 0 0.998901
0.785704 -0.366474 5.939130 133 0 0 0.999028
0.777417 -0.397257 5.929760 133 0 0 0.998890
0.796552 -0.397059 5.939100 133 0 0 0.998482
0.806044 -0.365983 5.948590 133 0 0 0.998836
0.770274 -0.427032 5.919110 133 0 0 0.998447
0.788713 -0.426912 5.928280 133 0 0 0.998666
0.781610 -0.456288 5.916360 155 0 0 0.995056
0.764932 -0.455114 5.908800 155 0 0 0.994680
0.753618 -0.425286 5.911490 137 0 0 0.998176
0.748269 -0.453598 5.901210 164 0 0 0.993689
0.736811 -0.424011 5.903960 137 0 0 0.997852
0.742381 -0.395337 5.913030 133 0 0 0.998925
0.731329 -0.452196 5.894250 164 0 0 0.993608
0.750518 -0.579197 5.895270 255 64 0 0.967086
0.741810 -0.547464 5.894040 214 0 0 0.984751
0.718787 -0.574893 5.884230 255 41 0 0.972996
0.732579 -0.515546 5.892620 178 0 0 0.991083
0.709790 -0.543026 5.882240 210 0 0 0.985965
0.700409 -0.510929 5.880060 173 0 0 0.991687
0.686460 -0.570600 5.873320 255 23 0 0.976492
0.723583 -0.483311 5.889830 164 0 0 0.993575
0.740533 -0.484601 5.896950 164 0 0 0.993572
0.757293 -0.485922 5.903980 160 0 0 0.993852
0.749466 -0.516825 5.899040 183 0 0 0.990600
0.766337 -0.517983 5.905950 183 0 0 0.990611
0.774003 -0.487056 5.911460 160 0 0 0.994559
0.758483 -0.548654 5.900570 223 0 0 0.983348
0.675873 -0.540211 5.870520 196 0 0 0.987923
0.653390 -0.567517 5.862650 251 16 0 0.978613
0.665001 -0.509550 5.867680 169 0 0 0.992771
0.642452 -0.537204 5.859480 187 0 0 0.989223
0.631710 -0.506262 5.855720 169 0 0 0.992787
0.619779 -0.564483 5.852500 228 0 0 0.982241
0.654550 -0.478390 5.863480 160 0 0 0.994208
0.672288 -0.479054 5.870330 160 0 0 0.993919
0.690093 -0.479745 5.876460 164 0 0 0.993266
0.682900 -0.510000 5.874000 169 0 0 0.992679
0.780435 -0.859793 6.037820 255 53 0 0.969878
0.769023 -0.885524 6.065600 228 0 0 0.982245
0.754382 -0.878566 6.055420 242 8 0 0.980393
0.743011 -0.904535 6.083590 210 0 0 0.985582
0.757731 -0.911824 6.093540 214 0 0 0.984689
0.728382 -0.896888 6.073170 214 0 0 0.984955
0.731835 -0.930498 6.111470 228 0 0 0.982454
0.717027 -0.922796 6.101260 219 0 0 0.984309
0.705822 -0.948582 6.129100 255 30 0 0.974710
0.746819 -0.937811 6.121620 228 0 0 0.982573
0.720887 -0.956254 6.139270 255 38 0 0.973496
0.735928 -0.963668 6.149150 255 45 0 0.971410
0.702018 -0.915160 6.091270 210 0 0 0.985664
0.690676 -0.940649 6.119350 251 16 0 0.978290
0.675323 -0.932208 6.109570 242 8 0 0.979871
0.687352 -0.909346 6.082890 214 0 0 0.984648
0.699252 -0.885667 6.056470 219 0 0 0.983821
0.725702 -0.868020 6.038500 251 16 0 0.978675
0.751845 -0.849831 6.021020 255 60 0 0.968364
0.711192 -0.862287 6.030360 255 19 0 0.977174
0.722863 -0.838979 6.004460 255 78 0 0.964484
0.725945 -0.981785 6.181770 242 8 0 0.979882
0.710201 -0.972679 6.169440 246 12 0 0.979306
0.700275 -0.990902 6.202000 242 8 0 0.980081
0.716089 -1.000090 6.214150 246 12 0 0.978918
0.684167 -0.980798 6.189920 228 0 0 0.982826
0.690109 -1.008350 6.234880 255 19 0 0.977404
0.674220 -0.998840 6.223010 246 12 0 0.979317
0.705521 -1.016830 6.246480 255 23 0 0.976959
0.657921 -0.988515 6.211000 228 0 0 0.982589
0.641913 -0.979361 6.201590 219 0 0 0.984105
0.668491 -0.972531 6.180120 223 0 0 0.983449
0.653090 -0.964004 6.170640 219 0 0 0.984436
0.679673 -0.956772 6.149600 223 0 0 0.983045
0.694762 -0.964551 6.159450 223 0 0 0.982973
0.664216 -0.948198 6.139940 219 0 0 0.983927
0.581295 -0.934968 6.154500 169 0 0 0.993002
0.596060 -0.945053 6.164530 173 0 0 0.992292
0.607547 -0.931905 6.135770 178 0 0 0.991406
0.592831 -0.922171 6.125520 173 0 0 0.992266
0.622464 -0.941475 6.145820 178 0 0 0.991187
0.619344 -0.918809 6.106800 196 0 0 0.988056
0.634121 -0.928185 6.117150 210 0 0 0.985935
0.646121 -0.914391 6.088430 242 8 0 0.979874
0.604858 -0.908639 6.096920 183 0 0 0.990302
0.631483 -0.905225 6.078060 237 4 0 0.980982
0.616685 -0.895451 6.068060 210 0 0 0.985728
0.649032 -0.937113 6.127480 201 0 0 0.987447
0.660780 -0.923521 6.098680 251 16 0 0.978738
0.637751 -0.952870 6.158060 196 0 0 0.988129
0.626684 -0.967832 6.189220 196 0 0 0.988169
0.611267 -0.956653 6.176720 183 0 0 0.990317
0.629279 -0.874869 6.043620 210 0 0 0.985889
0.643796 -0.882626 6.051250 205 0 0 0.986224
0.656076 -0.861728 6.027030 237 4 0 0.980752
0.641701 -0.854740 6.019060 233 1 0 0.981939
0.670590 -0.868774 6.035100 233 1 0 0.981549
0.668566 -0.841046 6.002930 255 34 0 0.974401
0.682891 -0.847738 6.010900 255 38 0 0.973734
0.694906 -0.826815 5.987100 255 104 0 0.957718
0.654129 -0.834254 5.994630 255 34 0 0.974054
0.680732 -0.820308 5.978950 255 112 0 0.956445
0.666194 -0.813761 5.970800 255 101 0 0.958737
0.696894 -0.853959 6.019770 255 27 0 0.976085
0.709077 -0.832767 5.995830 255 93 0 0.960997
0.685022 -0.877408 6.045720 228 0 0 0.982757
0.672758 -0.900356 6.072300 210 0 0 0.985538
0.658301 -0.891667 6.061680 214 0 0 0.984862
0.963602 -0.340857 6.012380 196 0 0 0.987947
0.957812 -0.312403 6.022750 192 0 0 0.988671
0.929691 -0.337633 6.001320 183 0 0 0.990239
0.951555 -0.283337 6.033680 196 0 0 0.988339
0.923925 -0.308693 6.011520 178 0 0 0.991019
0.917122 -0.279382 6.021840 178 0 0 0.990946
0.895649 -0.334771 5.989820 169 0 0 0.992506
0.944621 -0.254100 6.044530 201 0 0 0.986920
0.937214 -0.224106 6.056160 223 0 0 0.983451
0.955141 -0.226572 6.062950 237 4 0 0.980774
0.962567 -0.256286 6.051380 210 0 0 0.985250
0.973455 -0.229813 6.069730 251 16 0 0.978442
0.980561 -0.259113 6.057760 223 0 0 0.983239
0.969334 -0.285568 6.040290 201 0 0 0.987231
0.987003 -0.288006 6.046320 205 0 0 0.986302
0.991213 -0.232875 6.076930 255 23 0 0.976784
0.998282 -0.261502 6.064270 233 1 0 0.981246
1.009280 -0.235470 6.083770 255 19 0 0.977414
0.975343 -0.314486 6.029260 192 0 0 0.988680
0.876505 -0.334065 5.982520 164 0 0 0.993833
0.886793 -0.306597 5.997600 169 0 0 0.992943
0.867380 -0.305631 5.989880 160 0 0 0.993982
0.857472 -0.333185 5.975060 155 0 0 0.994854
0.877238 -0.277252 6.005000 173 0 0 0.991812
0.847657 -0.304758 5.981830 151 0 0 0.995492
0.857976 -0.276070 5.996810 169 0 0 0.992984
0.837398 -0.333284 5.967300 146 0 0 0.996691
0.867022 -0.247521 6.012670 183 0 0 0.990702
0.876297 -0.218611 6.029000 219 0 0 0.984164
0.887045 -0.248752 6.021290 187 0 0 0.989300
0.896706 -0.220714 6.038660 214 0 0 0.984804
0.907313 -0.250329 6.030500 187 0 0 0.989625
0.897141 -0.278333 6.013570 178 0 0 0.991098
0.917032 -0.222513 6.047720 214 0 0 0.985054
0.894439 -0.149475 6.090600 242 8 0 0.979640
0.916452 -0.152445 6.102040 233 1 0 0.981374
0.909296 -0.174234 6.078570 223 0 0 0.983083
0.937820 -0.154980 6.113220 246 12 0 0.979230
0.931193 -0.176909 6.089590 228 0 0 0.982056
0.953047 -0.179875 6.100900 223 0 0 0.983249
0.960264 -0.158869 6.124520 237 4 0 0.980453
0.923634 -0.199295 6.067290 214 0 0 0.984642
0.945378 -0.201575 6.078070 214 0 0 0.985041
0.903075 -0.197145 6.058160 219 0 0 0.983768
0.882616 -0.194960 6.048930 214 0 0 0.984674
0.888822 -0.171936 6.069470 219 0 0 0.983897
0.979304 -0.162380 6.132960 255 23 0 0.977095
0.999412 -0.166822 6.143220 255 27 0 0.976117
0.989854 -0.186505 6.115650 246 12 0 0.978996
1.018750 -0.171096 6.152610 251 16 0 0.978524
1.009670 -0.190717 6.125110 255 23 0 0.976990
1.029640 -0.195169 6.135180 246 12 0 0.979533
1.039010 -0.176105 6.162340 255 19 0 0.977314
1.000000 -0.211166 6.099890 242 8 0 0.979863
1.019910 -0.215043 6.109320 242 8 0 0.980410
0.981540 -0.208172 6.092630 228 0 0 0.982335
0.963422 -0.204459 6.084990 233 1 0 0.981707
0.971358 -0.183251 6.108630 233 1 0 0.981695
0.825075 -0.366171 5.957190 133 0 0 0.998433
0.845385 -0.365151 5.965840 137 0 0 0.997878
0.833500 -0.397623 5.956020 142 0 0 0.997424
0.865299 -0.365220 5.973590 142 0 0 0.997281
0.853237 -0.396634 5.963890 142 0 0 0.997125
0.872419 -0.396664 5.970970 146 0 0 0.996724
0.883373 -0.366230 5.980500 146 0 0 0.996877
0.842036 -0.428250 5.952730 142 0 0 0.997395
0.860886 -0.427552 5.960180 142 0 0 0.997158
0.850403 -0.458207 5.948250 146 0 0 0.996737
0.832550 -0.458928 5.940070 142 0 0 0.996946
0.823611 -0.428561 5.944560 137 0 0 0.998002
0.815193 -0.458509 5.932210 146 0 0 0.996649
0.805746 -0.428409 5.935950 133 0 0 0.998584
0.814708 -0.397756 5.947220 137 0 0 0.998124
0.798250 -0.457541 5.924550 146 0 0 0.996473
0.917293 -0.369093 5.992270 151 0 0 0.995410
0.905029 -0.400181 5.982300 151 0 0 0.996121
0.938481 -0.402701 5.993390 151 0 0 0.995544
0.950777 -0.372056 6.003260 160 0 0 0.994230
0.909707 -0.432260 5.977110 146 0 0 0.996293
0.914760 -0.463828 5.971020 155 0 0 0.994713
0.883249 -0.460327 5.960130 151 0 0 0.995709
0.869829 -0.594795 5.948630 242 8 0 0.980201
0.865006 -0.561392 5.948700 192 0 0 0.989122
0.840870 -0.592359 5.935150 255 30 0 0.974874
0.860305 -0.527198 5.949190 169 0 0 0.992388
0.835438 -0.558662 5.935040 201 0 0 0.987237
0.829700 -0.524822 5.935030 169 0 0 0.992688
0.811670 -0.588890 5.921220 255 45 0 0.971466
0.855252 -0.492878 5.949270 155 0 0 0.995335
0.887491 -0.494996 5.961140 160 0 0 0.994456
0.891474 -0.529575 5.961120 173 0 0 0.991672
0.804321 -0.556029 5.921090 210 0 0 0.985579
0.781271 -0.584521 5.907730 255 71 0 0.966069
0.796903 -0.523046 5.920270 169 0 0 0.992656
0.805796 -0.491218 5.926280 151 0 0 0.995690
0.822462 -0.491729 5.934190 151 0 0 0.995903
0.813312 -0.524072 5.927740 169 0 0 0.992502
0.677873 -0.786738 5.955480 255 78 0 0.963702
0.703979 -0.764022 5.946800 255 82 0 0.963510
0.715548 -0.736244 5.931920 255 104 0 0.957772
0.740840 -0.712456 5.924980 255 156 0 0.945260
0.711696 -0.704444 5.911750 255 178 0 0.939009
0.744747 -0.744358 5.945370 255 101 0 0.959061
0.769999 -0.719938 5.938510 255 134 0 0.950936
0.758690 -0.750080 5.953960 255 86 0 0.962642
0.732957 -0.774166 5.961680 255 71 0 0.965634
0.747111 -0.779851 5.970170 255 64 0 0.967428
0.720926 -0.803579 5.978350 255 64 0 0.967334
0.706943 -0.797523 5.970230 255 75 0 0.965347
0.735057 -0.809345 5.987260 255 67 0 0.966844
0.721427 -0.673820 5.906780 255 119 0 0.954279
0.746583 -0.645033 5.908030 255 78 0 0.964322
0.756426 -0.613431 5.904540 255 60 0 0.968362
0.786706 -0.618247 5.917210 255 49 0 0.970609
0.776232 -0.651343 5.921080 255 67 0 0.966835
0.765708 -0.684067 5.925890 255 93 0 0.960669
0.858441 -0.629629 5.951550 237 4 0 0.981223
0.833702 -0.661619 5.948240 255 34 0 0.974130
0.822876 -0.695973 5.952940 255 67 0 0.967024
0.798182 -0.726746 5.952310 255 116 0 0.955395
0.825840 -0.733163 5.966260 255 97 0 0.960034
0.794966 -0.689626 5.939030 255 82 0 0.963090
0.805249 -0.656804 5.934780 255 49 0 0.971093
0.815757 -0.623987 5.930990 255 30 0 0.975152
0.814592 -0.765186 5.982880 255 45 0 0.971646
0.789416 -0.792270 5.991950 255 41 0 0.972443
0.777754 -0.823791 6.010590 255 30 0 0.975263
0.786897 -0.757093 5.967510 255 71 0 0.965799
1.154030 -0.848298 6.189570 242 8 0 0.979920
1.153100 -0.826099 6.170840 233 1 0 0.981667
1.132570 -0.851530 6.182080 228 0 0 0.982676
1.152750 -0.803875 6.151750 237 4 0 0.980862
1.131340 -0.829282 6.163030 214 0 0 0.984612
1.131130 -0.807133 6.143860 223 0 0 0.983542
1.110620 -0.854620 6.174500 210 0 0 0.985785
1.152980 -0.781603 6.132720 255 23 0 0.977089
1.153090 -0.759372 6.113430 255 49 0 0.970551
1.173830 -0.758694 6.122130 255 67 0 0.966614
1.173730 -0.780942 6.141360 255 30 0 0.974987
1.173440 -0.803236 6.160320 255 23 0 0.976438
1.109750 -0.831235 6.154430 201 0 0 0.987238
1.087810 -0.858006 6.165910 196 0 0 0.988176
1.109890 -0.807695 6.134380 210 0 0 0.985437
1.087340 -0.834703 6.145820 192 0 0 0.988959
1.087020 -0.811153 6.125540 196 0 0 0.988310
1.065670 -0.861562 6.157330 192 0 0 0.988792
1.110010 -0.783933 6.114200 233 1 0 0.981435
1.110100 -0.760151 6.094000 255 49 0 0.970995
1.131900 -0.759709 6.103700 255 53 0 0.970253
1.131280 -0.783499 6.123790 246 12 0 0.978937
1.159450 -0.645961 6.060800 255 127 0 0.952191
1.157790 -0.674887 6.073700 255 86 0 0.962175
1.180090 -0.648550 6.070420 255 130 0 0.952037
1.156080 -0.703380 6.086760 255 67 0 0.966635
1.178020 -0.677255 6.083310 255 104 0 0.958027
1.176000 -0.705580 6.096400 255 90 0 0.961144
1.154550 -0.731510 6.099960 255 53 0 0.969990
1.133020 -0.731746 6.090250 255 41 0 0.972335
1.134300 -0.703473 6.077190 255 56 0 0.969295
1.185480 -0.732079 6.113730 255 75 0 0.964645
1.070730 -0.359506 6.041150 255 60 0 0.968461
1.071780 -0.331607 6.055820 255 41 0 0.972654
1.046040 -0.354215 6.034760 255 45 0 0.972008
1.072010 -0.303813 6.070700 255 38 0 0.973366
1.045180 -0.326822 6.048650 255 27 0 0.976255
1.045100 -0.298708 6.063440 255 27 0 0.975851
1.020280 -0.349243 6.028190 242 8 0 0.980344
1.071090 -0.276214 6.086050 255 41 0 0.972418
1.069430 -0.249021 6.102660 255 49 0 0.970854
1.096570 -0.255870 6.110130 255 67 0 0.966384
1.096990 -0.283146 6.092870 255 67 0 0.966509
1.096720 -0.310826 6.076830 255 45 0 0.971695
1.018780 -0.321062 6.041390 233 1 0 0.981522
0.992156 -0.344914 6.020400 214 0 0 0.984758
1.016300 -0.292576 6.054890 233 1 0 0.981369
1.027710 -0.267390 6.073440 255 23 0 0.976371
1.039910 -0.242064 6.093600 255 38 0 0.973386
1.060530 -0.202606 6.145390 255 41 0 0.972754
1.065600 -0.225197 6.123270 255 41 0 0.972786
1.143790 -0.377980 6.060610 255 97 0 0.960020
1.133280 -0.347424 6.071620 255 82 0 0.963187
1.119870 -0.371286 6.053670 255 71 0 0.965683
1.109030 -0.340885 6.065370 255 53 0 0.969762
1.096250 -0.364941 6.047920 255 64 0 0.967665
1.122520 -0.316699 6.084160 255 75 0 0.965172
1.181160 -0.617634 6.066060 255 119 0 0.954416
0.747040 -1.071190 6.598270 255 101 0 0.958492
0.736101 -1.061440 6.619510 255 45 0 0.971922
0.719673 -1.062280 6.608360 255 30 0 0.975045
0.708189 -1.052270 6.629570 214 0 0 0.984617
0.724672 -1.051660 6.640720 237 4 0 0.980480
0.692830 -1.054820 6.619720 242 8 0 0.980373
0.696499 -1.042220 6.650730 187 0 0 0.989766
0.681188 -1.044510 6.640960 196 0 0 0.987694
0.669512 -1.034120 6.662170 178 0 0 0.991503
0.713188 -1.041750 6.661910 205 0 0 0.986184
0.685422 -1.032310 6.672300 173 0 0 0.992048
0.702256 -1.032040 6.683500 196 0 0 0.988204
0.665383 -1.047300 6.631130 228 0 0 0.982744
0.653602 -1.036880 6.652530 192 0 0 0.988999
0.637159 -1.039940 6.642620 233 1 0 0.981402
0.647073 -1.047270 6.620690 237 4 0 0.980527
0.675305 -1.054650 6.609500 233 1 0 0.981479
0.656824 -1.054680 6.598870 246 12 0 0.978902
0.685223 -1.062070 6.587860 255 19 0 0.977681
0.702926 -1.061900 6.598270 251 16 0 0.978175
0.712868 -1.069200 6.576780 255 34 0 0.974153
0.666407 -1.062020 6.576840 255 38 0 0.973693
0.694777 -1.069370 6.566030 255 41 0 0.972391
0.676306 -1.069780 6.555200 255 71 0 0.965437
0.729269 -1.069180 6.586890 255 41 0 0.972258
0.692881 -1.024270 6.700660 192 0 0 0.988750
0.675342 -1.024000 6.691260 169 0 0 0.992564
0.665959 -1.016060 6.708460 169 0 0 0.992599
0.683645 -1.016470 6.717940 183 0 0 0.990426
0.648503 -1.016920 6.699640 169 0 0 0.992864
0.656629 -1.008270 6.725890 169 0 0 0.992631
0.639194 -1.009150 6.717180 173 0 0 0.992044
0.674403 -1.008700 6.735230 178 0 0 0.990789
0.622385 -1.011280 6.709320 173 0 0 0.991661
0.606109 -1.014280 6.699810 192 0 0 0.989002
0.632752 -1.019820 6.690380 183 0 0 0.990414
0.616430 -1.022770 6.680720 205 0 0 0.986174
0.643065 -1.028230 6.671380 183 0 0 0.990023
0.658809 -1.025450 6.680730 169 0 0 0.992895
0.626710 -1.031270 6.661530 219 0 0 0.984103
0.557007 -1.003090 6.670470 169 0 0 0.992719
0.567746 -1.011240 6.650780 169 0 0 0.992382
0.584051 -1.015550 6.661420 178 0 0 0.991247
0.578453 -1.019440 6.631200 173 0 0 0.991883
0.594827 -1.023670 6.641820 178 0 0 0.990946
0.605562 -1.031800 6.622290 187 0 0 0.989760
0.589070 -1.027630 6.611510 183 0 0 0.990626
0.610824 -1.027790 6.652100 192 0 0 0.988455
0.621565 -1.035860 6.632590 205 0 0 0.986430
0.600597 -1.019210 6.671360 187 0 0 0.989740
0.590232 -1.010710 6.690530 178 0 0 0.991331
0.573791 -1.007030 6.680740 173 0 0 0.991965
0.598650 -1.035140 6.589440 187 0 0 0.989386
0.608965 -1.041870 6.567760 196 0 0 0.987804
0.624814 -1.046730 6.578040 205 0 0 0.986454
0.619230 -1.048580 6.545960 214 0 0 0.985174
0.635035 -1.053420 6.556320 219 0 0 0.983876
0.645310 -1.060310 6.534490 251 16 0 0.978196
0.629378 -1.055480 6.523930 242 8 0 0.980154
0.650670 -1.058190 6.566490 246 12 0 0.979232
0.660936 -1.065070 6.544880 255 38 0 0.973747
0.640681 -1.050540 6.588330 219 0 0 0.984410
0.631302 -1.043290 6.610600 205 0 0 0.986141
0.615163 -1.039250 6.600150 192 0 0 0.988870
1.070380 -0.392770 6.035060 251 16 0 0.978451
1.070140 -0.425637 6.028270 233 1 0 0.981292
1.095150 -0.398355 6.041320 255 27 0 0.975511
1.094020 -0.431770 6.034620 251 16 0 0.978332
1.069490 -0.458786 6.021040 233 1 0 0.981817
1.070340 -0.490889 6.013840 255 38 0 0.973526
1.045320 -0.486140 6.006630 255 19 0 0.977878
1.045320 -0.453213 6.014670 201 0 0 0.986899
1.045580 -0.420254 6.022100 205 0 0 0.986406
1.020940 -0.481029 6.000020 214 0 0 0.984978
1.118960 -0.404622 6.048030 255 49 0 0.970760
1.117610 -0.437878 6.041700 255 23 0 0.976909
1.142420 -0.411242 6.054590 255 71 0 0.966022
1.140400 -0.444405 6.047960 255 64 0 0.967870
1.116970 -0.470388 6.035020 255 38 0 0.973326
1.116970 -0.502747 6.028460 255 90 0 0.961097
1.093560 -0.496843 6.020950 255 71 0 0.966101
1.093430 -0.464505 6.027960 255 27 0 0.975755
1.069420 -0.630746 6.020610 255 90 0 0.961771
1.068990 -0.596409 6.018330 255 34 0 0.974644
1.045890 -0.626452 6.011290 255 67 0 0.966720
1.069420 -0.561558 6.016640 255 19 0 0.977360
1.045720 -0.591658 6.009790 255 19 0 0.977259
1.045680 -0.556786 6.008190 242 8 0 0.980301
1.023270 -0.621652 6.002600 255 45 0 0.971439
1.069970 -0.526354 6.015310 237 4 0 0.980498
1.093040 -0.532211 6.022790 255 49 0 0.970923
1.092630 -0.567067 6.024690 255 49 0 0.970996
1.022290 -0.586857 6.001480 246 12 0 0.979413
0.999061 -0.616989 5.993820 255 49 0 0.971176
1.021670 -0.552005 6.000710 223 0 0 0.983581
0.998401 -0.582083 5.993340 237 4 0 0.980902
0.997234 -0.547163 5.993180 205 0 0 0.986522
0.975036 -0.612335 5.985280 255 45 0 0.971757
1.021310 -0.516686 6.000370 201 0 0 0.986886
1.045340 -0.521580 6.007450 223 0 0 0.982909
1.067830 -0.663543 6.032870 255 41 0 0.972986
1.092510 -0.634797 6.030660 255 86 0 0.962605
1.066390 -0.696029 6.045610 255 19 0 0.977817
1.090830 -0.667422 6.043310 255 41 0 0.972199
1.088910 -0.699778 6.056210 255 30 0 0.975218
1.115120 -0.639078 6.040570 255 123 0 0.953085
1.065190 -0.728224 6.058920 242 8 0 0.980291
1.063930 -0.759967 6.072660 255 23 0 0.976477
1.040260 -0.758809 6.061820 255 23 0 0.977056
1.041740 -0.727018 6.048100 246 12 0 0.979545
1.042660 -0.694652 6.035000 251 16 0 0.978773
1.016710 -0.757858 6.050710 255 34 0 0.974119
1.113760 -0.669833 6.053460 255 75 0 0.964809
1.137710 -0.642439 6.050800 255 116 0 0.954986
1.112710 -0.700081 6.066730 255 49 0 0.971179
1.136140 -0.673178 6.063920 255 78 0 0.964282
1.111420 -0.730344 6.080290 255 38 0 0.973220
1.087110 -0.760053 6.083460 255 27 0 0.976323
1.087920 -0.730165 6.069650 246 12 0 0.978875
1.064700 -0.836420 6.136280 178 0 0 0.991353
1.040770 -0.864594 6.147830 183 0 0 0.990423
1.064180 -0.811183 6.115040 187 0 0 0.989792
1.040090 -0.839540 6.126540 173 0 0 0.991541
1.039730 -0.814328 6.105190 183 0 0 0.989983
1.016430 -0.867873 6.138210 187 0 0 0.989502
1.064070 -0.785642 6.093820 205 0 0 0.986297
1.087260 -0.785652 6.104510 214 0 0 0.984660
1.015990 -0.840753 6.116360 178 0 0 0.991526
0.992458 -0.870019 6.128840 187 0 0 0.989772
1.016570 -0.813432 6.094390 178 0 0 0.990956
0.992062 -0.842867 6.106800 178 0 0 0.991320
0.991546 -0.815427 6.084450 192 0 0 0.989110
0.968053 -0.872362 6.119240 196 0 0 0.988127
1.017000 -0.785763 6.072550 210 0 0 0.985503
1.040120 -0.786672 6.083480 205 0 0 0.986738
0.962432 -0.646029 5.990660 255 27 0 0.976237
0.937865 -0.676947 5.992050 255 19 0 0.977788
0.926376 -0.710336 5.998370 255 19 0 0.977446
0.903007 -0.742269 6.000400 255 41 0 0.972767
0.927114 -0.745704 6.010800 255 38 0 0.973112
0.901670 -0.706490 5.988490 255 19 0 0.977427
0.878572 -0.739674 5.990210 255 45 0 0.972143
0.913078 -0.672761 5.982550 246 12 0 0.979011
0.924874 -0.638968 5.977440 246 12 0 0.979556
0.949952 -0.607593 5.976930 255 30 0 0.974677
0.924304 -0.603156 5.968360 255 23 0 0.976904
0.915399 -0.777528 6.027990 223 0 0 0.983436
0.891954 -0.807640 6.040830 205 0 0 0.986709
0.881795 -0.840424 6.059690 214 0 0 0.984959
0.860672 -0.872215 6.074000 251 16 0 0.978084
0.883190 -0.873407 6.084220 228 0 0 0.982328
0.858106 -0.838858 6.049570 219 0 0 0.983897
0.835920 -0.870119 6.063790 255 27 0 0.976220
0.868758 -0.806215 6.030510 223 0 0 0.983162
0.879337 -0.773292 6.012300 233 1 0 0.981701
0.805559 -0.830400 6.024810 246 12 0 0.978826
0.816889 -0.798713 6.006470 251 16 0 0.978667
0.841590 -0.768782 5.994870 255 27 0 0.975947
0.852796 -0.737103 5.978140 255 75 0 0.964745
0.843709 -0.802761 6.018820 237 4 0 0.981206
0.832906 -0.835438 6.037970 228 0 0 0.982755
0.808765 -0.865090 6.050820 255 30 0 0.975224
0.849946 -0.700393 5.965520 255 49 0 0.970595
0.860784 -0.665672 5.960680 255 23 0 0.976516
0.885585 -0.632193 5.962520 242 8 0 0.979867
0.897356 -0.598675 5.958820 251 16 0 0.978465
0.887381 -0.668207 5.972390 242 8 0 0.979633
0.876414 -0.703498 5.977440 255 30 0 0.975107
0.986305 -0.650313 5.999700 255 23 0 0.976717
0.973679 -0.683190 6.006070 255 19 0 0.977428
0.997276 -0.687677 6.015480 255 23 0 0.977094
1.010030 -0.654764 6.008820 255 27 0 0.976067
0.972992 -0.718131 6.017860 255 23 0 0.976918
0.972001 -0.752557 6.030610 255 34 0 0.974163
0.949611 -0.749021 6.020740 255 27 0 0.975701
0.950022 -0.714264 6.008280 251 16 0 0.978085
1.032610 -0.658559 6.018120 251 16 0 0.978076
1.019450 -0.690647 6.024950 246 12 0 0.978884
1.017860 -0.724394 6.037470 251 16 0 0.978712
0.994940 -0.755239 6.040740 255 34 0 0.974297
0.995989 -0.721637 6.027710 255 19 0 0.977209
0.969641 -0.843022 6.096870 192 0 0 0.989160
0.946355 -0.872692 6.110800 196 0 0 0.987923
0.970547 -0.813264 6.074500 196 0 0 0.988207
0.946595 -0.842960 6.088330 187 0 0 0.989453
0.947634 -0.813200 6.065640 192 0 0 0.988534
0.924365 -0.873575 6.102230 196 0 0 0.987868
0.971259 -0.783050 6.052310 214 0 0 0.984852
0.992886 -0.785567 6.062250 214 0 0 0.985195
0.925124 -0.842193 6.078810 187 0 0 0.989275
0.903417 -0.873012 6.093120 205 0 0 0.986334
0.926166 -0.810416 6.055360 201 0 0 0.987235
0.903688 -0.841194 6.069460 210 0 0 0.986012
0.937710 -0.779791 6.037660 223 0 0 0.983545
0.979456 -0.376093 6.011320 169 0 0 0.993060
0.967292 -0.406721 6.001620 155 0 0 0.995067
0.994530 -0.410977 6.009150 160 0 0 0.993850
1.007080 -0.380275 6.018930 183 0 0 0.990327
0.968576 -0.439422 5.994800 155 0 0 0.995199
0.970312 -0.471649 5.986840 173 0 0 0.991964
0.942593 -0.467940 5.978850 160 0 0 0.993892
0.940789 -0.435341 5.986910 151 0 0 0.995805
1.033380 -0.384798 6.025780 205 0 0 0.986192
1.020680 -0.415496 6.015960 173 0 0 0.991538
1.020450 -0.448515 6.008140 178 0 0 0.991048
0.995820 -0.476200 5.993630 192 0 0 0.988983
0.994915 -0.443921 6.001700 160 0 0 0.994146
0.973880 -0.577381 5.985740 223 0 0 0.983365
0.972897 -0.542397 5.986320 196 0 0 0.988314
0.948410 -0.572719 5.977960 210 0 0 0.985345
0.946550 -0.537865 5.978530 187 0 0 0.989679
0.971469 -0.507293 5.986820 169 0 0 0.992764
0.996553 -0.511931 5.993610 178 0 0 0.990761
0.922075 -0.568615 5.969550 201 0 0 0.986941
0.919736 -0.533984 5.970430 183 0 0 0.990468
0.894445 -0.564202 5.960130 201 0 0 0.987454
0.917114 -0.499136 5.970890 164 0 0 0.993542
0.944475 -0.503078 5.978980 164 0 0 0.993162
1.163360 -0.482988 6.050880 255 82 0 0.963626
1.163280 -0.514775 6.045430 255 104 0 0.958034
1.140370 -0.508673 6.037000 255 97 0 0.959670
1.140380 -0.476565 6.042570 255 67 0 0.966927
1.160110 -0.613616 6.056570 255 108 0 0.956685
1.161100 -0.581020 6.052580 255 90 0 0.961349
1.137660 -0.610141 6.046650 255 86 0 0.962156
1.138530 -0.577430 6.043000 255 75 0 0.964920
