ply
format ascii 1.0
comment Seamless Cloth Simulation with High Geometric Fidelity 
comment Sat Apr  6 09:57:23 2019
element vertex 1201
property float x
property float y
property float z
property float quality
end_header
0.0282115 -0.922034 5.62356 0.0230164 
0.0545647 -0.853954 5.59392 0.0297483 
0.0498393 -0.885388 5.61328 0.019807 
0.0212862 -0.950106 5.64468 0.0450003 
-0.0872722 -1.0298 5.78879 0.0119842 
-0.116798 -1.03084 5.81006 0.00493582 
-0.136644 -1.03153 5.83685 0.00346508 
-0.165045 -1.03478 5.85777 0.00780523 
-0.146185 -1.03267 5.86915 0.0101304 
-0.15534 -1.03415 5.82536 0.00313556 
-0.184061 -1.03662 5.84641 0.00700448 
-0.134641 -1.03417 5.79886 0.00513521 
-0.112795 -1.03707 5.77226 0.0154219 
-0.164702 -1.02921 5.89738 0.00498125 
-0.1929 -1.0257 5.92001 0.00212991 
-0.210826 -1.02267 5.94731 0.00610688 
-0.230829 -1.02401 5.93657 0.00588376 
-0.212426 -1.02771 5.90881 0.00212095 
-0.193695 -1.03131 5.88078 0.00233806 
-0.276222 -1.02752 5.91137 0.0076376 
-0.249062 -1.02986 5.8883 0.00153897 
-0.229476 -1.03347 5.86014 0.000829063 
-0.201203 -1.03783 5.83633 0.0051713 
-0.218544 -1.03896 5.82601 0.00349096 
-0.212358 -1.03232 5.87022 0.00131916 
-0.23118 -1.0288 5.89826 0.00177299 
-0.249408 -1.02548 5.92597 0.00673668 
-0.196912 -1.03908 5.79954 0.00280727 
-0.167195 -1.04004 5.77827 0.00473489 
-0.14459 -1.04405 5.75264 0.0158263 
-0.129383 -1.04097 5.76191 0.0190205 
-0.151338 -1.03728 5.78816 0.00493703 
-0.172163 -1.03632 5.81483 0.00325396 
-0.373356 -1.03449 5.86862 0.00997764 
-0.373369 -1.03826 5.83653 0.00337517 
-0.401179 -1.03585 5.8587 0.0107517 
-0.40144 -1.03947 5.82648 0.00388687 
-0.373571 -1.04091 5.804 0.00104943 
-0.373096 -1.04352 5.77094 0.00180978 
-0.336992 -1.04187 5.77861 0.00265111 
-0.337756 -1.0381 5.81174 0.00120424 
-0.338316 -1.03515 5.84419 0.00164726 
-0.301182 -1.04175 5.78631 0.00179125 
-0.436564 -1.0384 5.84876 0.0166279 
-0.454143 -1.03852 5.84233 0.014618 
-0.444976 -1.04202 5.81655 0.00826708 
-0.471952 -1.03916 5.83606 0.0144404 
-0.462707 -1.04251 5.81022 0.00798959 
-0.453011 -1.04431 5.78386 0.00353917 
-0.438848 -1.04427 5.75591 0.00112807 
-0.43133 -1.04275 5.78868 0.00152723 
-0.417208 -1.04345 5.76101 0.0018774 
-0.409398 -1.04168 5.7936 0.000898674 
-0.4231 -1.04044 5.82153 0.00478416 
-0.395319 -1.04322 5.76581 0.00218329 
-0.413633 -1.0502 5.68373 0.00246905 
-0.388092 -1.05094 5.68806 0.00358566 
-0.400203 -1.04765 5.71289 0.00404016 
-0.362143 -1.05281 5.69233 0.00274185 
-0.374647 -1.04784 5.71687 0.00475599 
-0.34873 -1.04919 5.72101 0.00355127 
-0.33611 -1.05542 5.69677 0.00196933 
-0.38682 -1.04522 5.74201 0.00405238 
-0.361188 -1.04531 5.74578 0.00447446 
-0.408737 -1.04489 5.73688 0.00342535 
-0.430399 -1.04512 5.73188 0.00257902 
-0.422098 -1.04702 5.70784 0.00339966 
-0.288828 -1.05671 5.70045 0.00227999 
-0.312125 -1.05081 5.72878 0.00290609 
-0.259783 -1.05734 5.70032 0.00416014 
-0.283279 -1.05014 5.72853 0.00329375 
-0.254121 -1.04994 5.72791 0.00433987 
-0.230722 -1.05789 5.69998 0.0102241 
-0.306516 -1.04574 5.75741 0.00308343 
-0.278074 -1.04388 5.75665 0.00708627 
0.019706 -1.00165 5.81771 0.0229447 
0.000157222 -1.00461 5.84554 0.00930351 
-0.0310288 -1.01027 5.86616 0.00639129 
-0.049788 -1.01441 5.89275 0.00404661 
-0.079212 -1.02117 5.91166 0.00913295 
-0.055813 -1.01739 5.9262 0.0086688 
-0.0731944 -1.0193 5.87829 0.00399236 
-0.102551 -1.02509 5.89697 0.00947508 
-0.0539005 -1.01611 5.85144 0.00546477 
-0.0343608 -1.01384 5.82398 0.00876361 
-0.00307058 -1.00847 5.80367 0.0243443 
-0.0258432 -1.01539 5.78914 0.0232246 
-0.0734859 -1.01599 5.95333 0.00466656 
-0.102784 -1.01593 5.97338 0.00466696 
-0.119721 -1.01422 5.99949 0.00920591 
-0.14364 -1.01637 5.98618 0.00776247 
-0.126425 -1.01861 5.95936 0.00405386 
-0.108891 -1.02093 5.93191 0.00417834 
-0.189624 -1.02054 5.95985 0.00670569 
-0.171777 -1.0235 5.93252 0.00295246 
-0.142571 -1.02536 5.91148 0.00369183 
-0.124292 -1.02886 5.88307 0.00914252 
-0.149305 -1.02115 5.94581 0.00361406 
-0.166671 -1.01876 5.97236 0.00746772 
-0.116869 -1.02803 5.84988 0.00361041 
-0.0974109 -1.026 5.823 0.00537594 
-0.0672293 -1.02254 5.80299 0.00922172 
-0.0459722 -1.02318 5.77558 0.0313618 
-0.076141 -1.02131 5.83697 0.00553705 
-0.094965 -1.02416 5.86358 0.0041618 
0.0883135 -0.615146 5.58309 0.00388093 
0.0876897 -0.643932 5.58228 0.00264817 
0.0955392 -0.672253 5.58887 0.00390001 
0.095124 -0.704404 5.58756 0.0133222 
0.109322 -0.700115 5.6039 0.0108331 
0.0809731 -0.675997 5.57243 0.00524332 
0.080707 -0.708079 5.57158 0.0154399 
0.0729308 -0.646818 5.56454 0.00240237 
0.0648967 -0.618892 5.55672 0.00378826 
0.11092 -0.730164 5.61462 0.00431018 
0.105873 -0.765018 5.61711 0.00471306 
0.107711 -0.797869 5.62722 0.0122449 
0.101982 -0.833914 5.6305 0.0356035 
0.116473 -0.82739 5.64479 0.033289 
0.0933447 -0.804484 5.61298 0.0151814 
0.0863091 -0.840214 5.61749 0.0329189 
0.0918499 -0.770482 5.60171 0.00772064 
0.0903571 -0.737712 5.59051 0.00873652 
0.0607514 -0.816227 5.58479 0.012845 
0.0669662 -0.77915 5.57696 0.00911452 
0.0659048 -0.744519 5.56418 0.0131742 
0.0689601 -0.710796 5.5586 0.0158671 
0.0577463 -0.712941 5.54533 0.0202789 
0.0771639 -0.741819 5.57651 0.0120468 
0.0785314 -0.775273 5.58849 0.00844575 
0.079689 -0.809326 5.60026 0.0153229 
0.0732657 -0.84614 5.60689 0.0356397 
0.0495335 -0.681175 5.53542 0.00963608 
0.0469075 -0.650972 5.53363 0.00526357 
0.0371408 -0.622706 5.52535 0.00605768 
0.0504849 -0.621268 5.5407 0.00509624 
0.0592205 -0.649143 5.54844 0.00394679 
0.0673386 -0.678396 5.55624 0.00682415 
-0.0498967 -0.676727 5.43018 0.0635669 
-0.036756 -0.699838 5.44374 0.103544 
-0.0256714 -0.726376 5.4597 0.119343 
-0.015462 -0.753043 5.47893 0.121937 
-0.0397031 -0.667267 5.4416 0.022707 
-0.0267396 -0.692079 5.45594 0.0540975 
-0.0120523 -0.716938 5.47508 0.0501537 
-0.000138063 -0.744315 5.49497 0.0441642 
-0.0151904 -0.879375 5.55314 0.0380191 
-0.0133585 -0.84634 5.53611 0.0841354 
-0.0128397 -0.814262 5.5181 0.0938069 
-0.028656 -0.879716 5.53798 0.075416 
-0.0265132 -0.847012 5.52077 0.0987767 
-0.0133742 -0.782518 5.49856 0.123682 
-0.00152484 -0.776091 5.5106 0.0678617 
-0.0403522 -0.877482 5.52216 0.140142 
-0.0278859 -0.816897 5.50018 0.149559 
-0.000255157 -0.807044 5.52896 0.0485745 
0.0108996 -0.768038 5.51982 0.0296056 
0.0118475 -0.735836 5.50428 0.0167797 
0.0125976 -0.801432 5.53837 0.0179265 
0.00434617 -0.839045 5.54986 0.0328315 
-0.00119859 -0.8754 5.56317 0.0148596 
-0.0168019 -0.681401 5.4668 0.00855613 
-0.0303373 -0.656342 5.45302 0.00990819 
-0.0181283 -0.645551 5.46469 0.0116305 
-0.00528458 -0.672047 5.47775 0.00560436 
0.00259748 -0.704194 5.48895 0.0116849 
-0.0022152 -0.633502 5.48014 0.0142778 
0.00591064 -0.663143 5.48823 0.00686903 
0.0174666 -0.693029 5.50108 0.0114852 
0.0232516 -0.727756 5.51248 0.0186893 
0.030882 -0.757094 5.53338 0.0102211 
0.0251485 -0.794076 5.54576 0.00611307 
0.0220556 -0.830989 5.56002 0.00626515 
-0.034541 -0.912796 5.56648 0.017793 
-0.0565422 -0.942279 5.57096 0.0159204 
-0.0759266 -0.972543 5.58326 0.0129926 
-0.0976352 -0.998991 5.58685 0.0226679 
-0.090052 -1.00377 5.60374 0.0335041 
-0.0828748 -0.967104 5.5664 0.0142835 
-0.105208 -0.99273 5.56965 0.0162034 
-0.0692594 -0.939124 5.55139 0.0334633 
-0.0466072 -0.910676 5.54786 0.0507313 
-0.11699 -1.02648 5.62048 0.0299332 
-0.116205 -1.02044 5.60209 0.0344892 
-0.143806 -1.04043 5.619 0.0302367 
-0.145665 -1.04399 5.63796 0.0356352 
-0.142886 -1.03536 5.6002 0.0407398 
-0.172293 -1.05709 5.6358 0.0557509 
-0.170829 -1.05288 5.6171 0.0563597 
-0.175681 -1.05759 5.65504 0.0500842 
-0.169077 -1.04923 5.5978 0.0542887 
-0.150734 -1.03052 5.58213 0.0230795 
-0.124447 -1.01522 5.58473 0.0209706 
-0.151265 -1.01903 5.5589 0.0108046 
-0.130024 -1.00346 5.5558 0.011981 
-0.108401 -0.986078 5.55244 0.0173882 
-0.173321 -1.04155 5.57694 0.0288873 
-0.0725266 -0.930792 5.53547 0.0509121 
-0.0905406 -0.959419 5.54404 0.0332986 
0.0659136 -0.878146 5.62334 0.0244438 
0.0573301 -0.909796 5.64032 0.0272994 
0.0720104 -0.903642 5.65019 0.0276045 
0.0798036 -0.872152 5.63338 0.0262549 
0.0543285 -0.936458 5.6638 0.046315 
0.0499759 -0.960625 5.6884 0.0737169 
0.0315537 -0.968298 5.67777 0.0712743 
0.0360977 -0.944148 5.6531 0.0451251 
0.0963517 -0.86468 5.64668 0.0241642 
0.0904256 -0.89523 5.66361 0.0279192 
0.105736 -0.888205 5.67668 0.0258871 
0.111612 -0.85827 5.66023 0.0220893 
0.0905311 -0.920979 5.68836 0.0464751 
0.089156 -0.944148 5.71416 0.0734912 
0.0700214 -0.952647 5.7009 0.0767689 
0.0718876 -0.929436 5.67489 0.0477463 
0.027922 -0.993373 5.78499 0.0160118 
0.0361196 -0.98439 5.75266 0.0200152 
0.00526169 -1.00079 5.77138 0.015079 
0.0131978 -0.992364 5.73931 0.017069 
0.0433199 -0.973883 5.72015 0.0391251 
0.06389 -0.966222 5.73283 0.0419573 
0.056172 -0.977076 5.76546 0.019566 
-0.0150845 -1.00795 5.75858 0.016985 
-0.00499157 -0.999683 5.72778 0.0198698 
-0.0362162 -1.01575 5.7453 0.0207312 
0.00464183 -0.98891 5.69704 0.0373259 
0.0229833 -0.981695 5.70794 0.0390049 
0.382767 -0.148561 5.79777 0.0103774 
0.402162 -0.14589 5.80844 0.0101027 
0.404982 -0.173944 5.79787 0.00516339 
0.42167 -0.143458 5.8192 0.00901525 
0.424413 -0.17166 5.80898 0.00385481 
0.44385 -0.169354 5.82027 0.00287068 
0.441313 -0.140789 5.83007 0.00882303 
0.426768 -0.200742 5.79874 0.004371 
0.446348 -0.198387 5.81024 0.00249171 
0.448203 -0.227956 5.79988 0.00706445 
0.429649 -0.230462 5.78953 0.0091767 
0.408385 -0.203122 5.78844 0.00580534 
0.410974 -0.233048 5.77957 0.00996554 
0.389914 -0.205925 5.7785 0.00629853 
0.386737 -0.176613 5.78784 0.00568591 
0.368462 -0.179596 5.77803 0.00542187 
0.391842 -0.236287 5.76985 0.00896833 
0.371227 -0.208833 5.76882 0.00594725 
0.372685 -0.239626 5.76064 0.00678097 
0.364511 -0.151605 5.788 0.00981626 
0.46095 -0.138025 5.83966 0.0102661 
0.481939 -0.135269 5.85022 0.0115753 
0.482935 -0.164042 5.84003 0.00368814 
0.502854 -0.132512 5.86076 0.0121429 
0.503645 -0.161676 5.85111 0.00345935 
0.504419 -0.19094 5.84125 0.0015188 
0.506458 -0.220982 5.83146 0.00298264 
0.485074 -0.193401 5.83083 0.00173116 
0.487272 -0.223069 5.82049 0.005366 
0.465716 -0.195891 5.82041 0.00217878 
0.46338 -0.166693 5.83009 0.00309526 
0.467823 -0.225338 5.80991 0.00697494 
0.498254 -0.347331 5.80204 0.00524578 
0.4997 -0.318289 5.80794 0.00323554 
0.480944 -0.320165 5.79918 0.00277696 
0.479644 -0.34913 5.79366 0.00505927 
0.482899 -0.288959 5.80438 0.00339158 
0.462388 -0.32182 5.79043 0.00246827 
0.464107 -0.291188 5.79587 0.0024123 
0.445324 -0.29346 5.78753 0.00158881 
0.46085 -0.351617 5.78534 0.00451675 
0.443455 -0.324566 5.78218 0.00170159 
0.441746 -0.354521 5.7774 0.00314318 
0.465843 -0.258765 5.80171 0.00446744 
0.447082 -0.261352 5.79316 0.00302081 
0.485809 -0.256279 5.81181 0.00488394 
0.505287 -0.253916 5.82241 0.00329521 
0.503246 -0.285987 5.81409 0.00444936 
0.424275 -0.356616 5.76838 0.004304 
0.424259 -0.327563 5.77261 0.00150386 
0.406731 -0.329964 5.76359 0.0018373 
0.406719 -0.359459 5.75954 0.0051454 
0.407122 -0.299181 5.76818 0.00120777 
0.389119 -0.332448 5.75455 0.00217088 
0.389167 -0.302332 5.75951 0.000966759 
0.371551 -0.305005 5.75067 0.000618354 
0.388912 -0.362362 5.75115 0.00484853 
0.371178 -0.335992 5.74637 0.00168595 
0.371489 -0.365001 5.74243 0.00537252 
0.390018 -0.270085 5.76409 0.00226579 
0.371985 -0.273513 5.75578 0.00132195 
0.409276 -0.267011 5.77349 0.00297647 
0.428268 -0.263938 5.78319 0.00319556 
0.426255 -0.29636 5.7778 0.00134103 
0.234208 -0.0092515 6.09393 0.000934418 
0.256935 -0.00924154 6.10596 0.00106526 
0.265739 -0.0187548 6.08969 0.0040217 
0.279691 -0.00953862 6.11794 0.0011504 
0.288342 -0.0189314 6.10181 0.00479146 
0.311234 -0.0194752 6.11401 0.00540271 
0.302478 -0.0105179 6.13024 0.00153378 
0.297362 -0.0270133 6.08472 0.00933903 
0.320198 -0.0273543 6.09687 0.0112284 
0.329672 -0.0333048 6.07895 0.0140215 
0.307319 -0.0333739 6.06647 0.0134397 
0.275266 -0.0271792 6.07241 0.00913795 
0.285188 -0.0335814 6.05433 0.013136 
0.253099 -0.0278075 6.06026 0.00992908 
0.243488 -0.0192226 6.07753 0.00442794 
0.220873 -0.0195478 6.06539 0.00443055 
0.262977 -0.0343732 6.04207 0.0139592 
0.230431 -0.0283408 6.04816 0.0102476 
0.240441 -0.0350858 6.02994 0.0142733 
0.211592 -0.00949065 6.08176 0.000889557 
0.326878 -0.0110378 6.14329 0.00162218 
0.35166 -0.0121346 6.15673 0.00196339 
0.360012 -0.0208792 6.14021 0.00619241 
0.376498 -0.0141014 6.17003 0.00274679 
0.384904 -0.0224901 6.15355 0.00767923 
0.393758 -0.0292438 6.13609 0.0131955 
0.403419 -0.0340156 6.11778 0.0156789 
0.369123 -0.0281815 6.12305 0.0120129 
0.378751 -0.0334832 6.10484 0.0146392 
0.344644 -0.0275146 6.10998 0.0111434 
0.335463 -0.0199413 6.12703 0.00556783 
0.354184 -0.0332333 6.09185 0.0140362 
0.431082 -0.0389024 6.05565 0.00666706 
0.407192 -0.0399736 6.04378 0.00717785 
0.396601 -0.0404759 6.06503 0.0165189 
0.383383 -0.0411582 6.03171 0.00798293 
0.372927 -0.0411475 6.05275 0.0169474 
0.349175 -0.0421179 6.04053 0.0169563 
0.35986 -0.0421778 6.01948 0.00801133 
0.362773 -0.0386017 6.07271 0.0187793 
0.339095 -0.0391644 6.06035 0.0196088 
0.387417 -0.0383428 6.08558 0.0190776 
0.412081 -0.0384526 6.09838 0.0197529 
0.421232 -0.0399893 6.07764 0.0167347 
0.337297 -0.0428867 6.00739 0.00687152 
0.31577 -0.0436827 5.99528 0.0062162 
0.304421 -0.0432474 6.01621 0.0147386 
0.294191 -0.0446003 5.9832 0.00594568 
0.282992 -0.0440971 6.00403 0.0145968 
0.261193 -0.0453297 5.99196 0.0148503 
0.27238 -0.0463094 5.97127 0.00705198 
0.272326 -0.0406248 6.02353 0.0169036 
0.25056 -0.0416342 6.01146 0.0177639 
0.294514 -0.0398067 6.03583 0.0164356 
0.316707 -0.0393251 6.04802 0.0187618 
0.326616 -0.0425538 6.02854 0.0151893 
-0.0561085 -0.899309 6.29513 0.0124373 
-0.0535983 -0.913016 6.26587 0.00808527 
-0.079389 -0.901591 6.28342 0.0107965 
-0.0771721 -0.914925 6.25402 0.00694599 
-0.0514655 -0.928988 6.23723 0.00273794 
-0.0490732 -0.94802 6.20959 0.00645363 
-0.0262166 -0.943942 6.22208 0.00574158 
-0.0288067 -0.924955 6.24993 0.00322887 
-0.0313546 -0.909417 6.2786 0.00848946 
-0.00368815 -0.939284 6.23424 0.00528225 
-0.101933 -0.903325 6.27081 0.0129327 
-0.0988542 -0.917611 6.24122 0.00725549 
-0.124842 -0.904288 6.25907 0.0155486 
-0.0961321 -0.934488 6.21251 0.00231082 
-0.0711651 -0.950731 6.19695 0.00492233 
-0.0740971 -0.93201 6.22528 0.00238982 
-0.0355277 -0.991168 6.11946 0.0193483 
-0.00895935 -0.999301 6.10127 0.0293637 
-0.0398917 -0.979037 6.1505 0.0155843 
-0.0133809 -0.98807 6.13289 0.0194537 
-0.0182206 -0.974998 6.16378 0.012776 
0.0132705 -0.996606 6.11464 0.0319912 
-0.044597 -0.963385 6.18032 0.00726139 
-0.0669183 -0.967094 6.16798 0.00981343 
0.00911585 -0.985207 6.14567 0.0211544 
0.035188 -0.992916 6.12784 0.0303656 
0.00478657 -0.970923 6.17579 0.0120973 
0.031052 -0.980558 6.15868 0.0185849 
0.026628 -0.96647 6.18858 0.0120618 
0.0574079 -0.989332 6.14071 0.0346179 
0.000541379 -0.955993 6.20522 0.00748218 
-0.0223931 -0.959884 6.19295 0.00710315 
0.127317 -0.837616 6.37658 0.0775043 
0.140119 -0.846444 6.35382 0.0728953 
0.114325 -0.857994 6.34328 0.0344228 
0.101092 -0.848255 6.36554 0.0394192 
0.13998 -0.864828 6.32686 0.0268329 
0.140269 -0.886474 6.30038 0.00454692 
0.16552 -0.873376 6.31133 0.0242897 
0.165449 -0.852343 6.33799 0.0807831 
0.0767234 -0.860848 6.35584 0.0186777 
0.090184 -0.871622 6.33337 0.0120291 
0.0655632 -0.882832 6.32382 0.01121 
0.0517241 -0.871803 6.34612 0.0150469 
0.0916829 -0.891497 6.30721 0.00691101 
0.0931901 -0.913633 6.28062 0.0183845 
0.116715 -0.901097 6.29074 0.00687971 
0.115161 -0.877874 6.31671 0.00876945 
0.150662 -0.966717 6.18681 0.0654495 
0.147487 -0.947821 6.2162 0.0296251 
0.173536 -0.955277 6.19769 0.0499515 
0.144518 -0.927721 6.24474 0.00993968 
0.170079 -0.935524 6.22698 0.0195693 
0.167098 -0.913565 6.25514 0.0053265 
0.196012 -0.941482 6.20828 0.0308424 
0.142202 -0.906973 6.27277 0.00271778 
0.118686 -0.920288 6.26279 0.00971472 
0.120961 -0.9391 6.23427 0.0152784 
0.19329 -0.920731 6.23706 0.0130302 
0.219646 -0.926967 6.21957 0.026278 
0.19209 -0.899901 6.2658 0.0183389 
0.217615 -0.906652 6.24896 0.0296399 
0.178565 -0.886579 6.28879 0.0188952 
0.0274533 -0.881091 6.33555 0.0155124 
0.0413984 -0.892405 6.31305 0.0120976 
0.0164739 -0.899421 6.30208 0.01111 
0.00279095 -0.887529 6.32458 0.0129463 
0.0429227 -0.910319 6.28547 0.0099062 
0.0443498 -0.928601 6.25779 0.010749 
0.068979 -0.922025 6.26944 0.01574 
0.067294 -0.902453 6.29663 0.0106558 
-0.0207381 -0.893014 6.31315 0.0116275 
-0.00711018 -0.905486 6.29022 0.00808673 
-0.00534458 -0.921565 6.26196 0.00449418 
0.0203641 -0.934367 6.24634 0.00711856 
0.0183409 -0.9162 6.27402 0.00644063 
0.0542214 -0.976702 6.17082 0.0210977 
0.0808721 -0.985473 6.15275 0.0405189 
0.0509656 -0.961718 6.20018 0.0128103 
0.0772069 -0.970836 6.18288 0.0232679 
0.0741926 -0.955655 6.21224 0.0155236 
0.103789 -0.980406 6.16454 0.0478321 
0.0476413 -0.945384 6.2292 0.00907738 
0.0234542 -0.95091 6.21751 0.00732374 
0.101268 -0.965881 6.19434 0.034117 
0.127283 -0.9745 6.176 0.0622568 
0.0981954 -0.948312 6.22328 0.0166283 
0.124407 -0.958565 6.20555 0.0384434 
0.0957487 -0.931175 6.25204 0.0161946 
0.0713987 -0.938418 6.24088 0.0108945 
0.166145 -0.972343 6.16102 0.0546125 
0.193368 -0.972454 6.141 0.059178 
0.208728 -0.974198 6.11462 0.0671424 
0.235762 -0.969673 6.09456 0.0939591 
0.213323 -0.978454 6.08136 0.0846604 
0.230842 -0.963597 6.1268 0.0672449 
0.256938 -0.955185 6.1066 0.0532618 
0.215489 -0.96071 6.15205 0.0512743 
0.200301 -0.95647 6.17769 0.0460262 
0.227155 -0.969852 6.05511 0.0469843 
0.252893 -0.956535 6.03678 0.0460022 
0.267388 -0.944833 6.01188 0.0439895 
0.289379 -0.933978 6.02673 0.0438659 
0.275426 -0.945473 6.0508 0.0415761 
0.261385 -0.954945 6.07546 0.0505868 
0.331658 -0.907178 6.05623 0.0282388 
0.31806 -0.917614 6.07942 0.0287818 
0.293252 -0.933541 6.09585 0.0329739 
0.279302 -0.940799 6.12 0.045483 
0.296677 -0.93145 6.06482 0.0288757 
0.310867 -0.920428 6.04137 0.0312102 
0.275444 -0.93329 6.15149 0.0316575 
0.260575 -0.930714 6.17614 0.0293022 
0.234194 -0.93429 6.1948 0.0256413 
0.237613 -0.945873 6.16359 0.0368799 
0.25295 -0.948403 6.1383 0.0395882 
0.166945 -0.557467 5.65351 0.00746555 
0.162993 -0.536212 5.64795 0.00629664 
0.171913 -0.513411 5.65095 0.00490454 
0.168337 -0.489558 5.64521 0.00390558 
0.194702 -0.488046 5.66173 0.00308714 
0.196732 -0.511306 5.66683 0.00367387 
0.187271 -0.534446 5.66394 0.00636458 
0.189791 -0.555386 5.66886 0.0073885 
0.181445 -0.577322 5.66526 0.0077369 
0.203495 -0.574916 5.68155 0.00744074 
0.149804 -0.467496 5.63641 0.00233521 
0.144379 -0.443205 5.63306 0.00247093 
0.159487 -0.44273 5.64277 0.00400894 
0.139347 -0.418264 5.62897 0.00157268 
0.154927 -0.417359 5.63837 0.00195797 
0.150431 -0.39137 5.63281 0.00300446 
0.134544 -0.391965 5.62445 0.0025858 
0.170285 -0.416934 5.64698 0.00187836 
0.16619 -0.390465 5.64146 0.00317097 
0.18162 -0.389756 5.64945 0.00342214 
0.187563 -0.44058 5.65768 0.00252809 
0.177155 -0.465843 5.65264 0.00242682 
0.243372 -0.383944 5.67872 0.0076116 
0.244656 -0.41074 5.68222 0.00318938 
0.231553 -0.437806 5.67953 0.00156656 
0.233045 -0.461987 5.68228 0.00147472 
0.221454 -0.486331 5.6762 0.00328822 
0.248198 -0.484198 5.69155 0.00187881 
0.205297 -0.464697 5.66805 0.00219374 
0.202701 -0.439943 5.66497 0.00231016 
0.200323 -0.414631 5.66084 0.00194425 
0.215671 -0.413464 5.66828 0.00188549 
0.21308 -0.387465 5.66357 0.007021 
0.197746 -0.388464 5.65638 0.00580473 
0.228521 -0.385647 5.67102 0.00740863 
0.248401 -0.507775 5.69643 0.00297843 
0.237024 -0.531893 5.69292 0.00610348 
0.23804 -0.552963 5.6977 0.00718389 
0.227121 -0.573757 5.69597 0.00770006 
0.251114 -0.572784 5.70971 0.00842873 
0.21401 -0.554098 5.68426 0.0066286 
0.212193 -0.533095 5.67861 0.00661247 
0.222996 -0.509956 5.68185 0.00381971 
0.387057 -0.392335 5.75003 0.00373996 
0.404445 -0.389932 5.75844 0.00371618 
0.402451 -0.419054 5.75851 0.00329309 
0.421827 -0.387629 5.76759 0.00247955 
0.419645 -0.417022 5.76698 0.00271295 
0.436843 -0.415541 5.77608 0.00224663 
0.439133 -0.385465 5.77623 0.00194882 
0.417919 -0.445038 5.7678 0.00388602 
0.435277 -0.443714 5.77631 0.00326862 
0.433745 -0.471107 5.77756 0.00480529 
0.417448 -0.471692 5.77029 0.00529976 
0.401588 -0.446624 5.76051 0.00418938 
0.401031 -0.47259 5.76237 0.00665514 
0.385273 -0.447784 5.75303 0.00413165 
0.386119 -0.420682 5.75121 0.00334536 
0.369516 -0.422876 5.74379 0.00277512 
0.384498 -0.473398 5.75543 0.00522188 
0.368828 -0.449633 5.74644 0.00283924 
0.367941 -0.474409 5.74813 0.00433229 
0.370531 -0.394537 5.74246 0.00351999 
0.456763 -0.383654 5.78379 0.00215047 
0.475325 -0.381181 5.79201 0.00206981 
0.471801 -0.411981 5.79078 0.00249703 
0.494054 -0.379015 5.80008 0.0020501 
0.490438 -0.409801 5.79858 0.00241114 
0.487268 -0.439766 5.79706 0.00379333 
0.485692 -0.46799 5.7974 0.00635512 
0.469756 -0.441296 5.79046 0.00364898 
0.468499 -0.468896 5.79072 0.006239 
0.452493 -0.442507 5.78317 0.00376349 
0.454416 -0.413807 5.7833 0.00237816 
0.451185 -0.469822 5.78421 0.00568806 
0.475231 -0.550435 5.81086 0.00322363 
0.456122 -0.573282 5.80828 0.00297923 
0.461211 -0.524522 5.8005 0.00289323 
0.441895 -0.548692 5.79895 0.00272939 
0.428107 -0.523076 5.78838 0.00215124 
0.42273 -0.57143 5.79611 0.00204771 
0.447125 -0.498124 5.78979 0.00298314 
0.464599 -0.497541 5.7965 0.00342989 
0.481945 -0.497366 5.80261 0.00350206 
0.478565 -0.524674 5.80694 0.00399103 
0.408595 -0.547609 5.78568 0.00209495 
0.391307 -0.5704 5.78163 0.00226594 
0.394401 -0.522559 5.77444 0.00233889 
0.37655 -0.547037 5.772 0.00199416 
0.362811 -0.52323 5.76081 0.00312466 
0.36006 -0.569625 5.7669 0.00399969 
0.380842 -0.498427 5.76164 0.00149773 
0.397713 -0.49814 5.76863 0.00169586 
0.414448 -0.498068 5.7756 0.00203375 
0.411246 -0.522837 5.78144 0.00222154 
0.345275 -0.546766 5.75636 0.00215817 
0.331014 -0.569454 5.7519 0.00680497 
0.331555 -0.524369 5.7451 0.00243846 
0.316696 -0.547993 5.74127 0.00298641 
0.303219 -0.526415 5.73081 0.00293242 
0.302753 -0.570071 5.73771 0.00758067 
0.318088 -0.501883 5.73268 0.00183189 
0.305786 -0.478783 5.72032 0.00193677 
0.336705 -0.47597 5.73365 0.00331569 
0.349312 -0.500145 5.74786 0.00159589 
0.288648 -0.549056 5.72578 0.00536944 
0.276422 -0.57119 5.72344 0.00894588 
0.275137 -0.527953 5.71434 0.00366895 
0.262775 -0.551006 5.71177 0.0066688 
0.275573 -0.505448 5.71047 0.00213163 
0.276766 -0.481562 5.70543 0.00211503 
0.259223 -0.38183 5.6855 0.0105505 
0.274962 -0.40698 5.69513 0.00586557 
0.274775 -0.379883 5.69327 0.00989847 
0.274646 -0.432846 5.69852 0.00243243 
0.290537 -0.405244 5.70287 0.00587087 
0.290328 -0.431542 5.70592 0.00302451 
0.306068 -0.429846 5.714 0.00284619 
0.29013 -0.377575 5.70104 0.00890846 
0.305993 -0.403028 5.71073 0.0051846 
0.305577 -0.375391 5.70946 0.00653919 
0.290061 -0.456248 5.70909 0.00208645 
0.305658 -0.455478 5.71742 0.00159937 
0.260942 -0.459201 5.69561 0.00158949 
0.32185 -0.372722 5.71679 0.00816942 
0.337673 -0.398515 5.72527 0.00592354 
0.338281 -0.370194 5.72497 0.0080208 
0.336725 -0.42606 5.72704 0.00538349 
0.354042 -0.396847 5.73387 0.00425375 
0.353056 -0.424301 5.73537 0.00362973 
0.35481 -0.367781 5.73369 0.00621905 
0.352015 -0.450911 5.73794 0.00338039 
0.372159 -0.593443 5.78053 0.00516171 
0.384119 -0.616184 5.79363 0.00736222 
0.402904 -0.594511 5.79502 0.00365208 
0.414912 -0.618236 5.80709 0.00631892 
0.396257 -0.639281 5.80451 0.0114956 
0.408135 -0.66184 5.81555 0.0176717 
0.379552 -0.659738 5.80334 0.0199506 
0.367398 -0.637132 5.79148 0.0124436 
0.355209 -0.613991 5.77975 0.00797852 
0.350627 -0.657132 5.79277 0.0106465 
0.434089 -0.595738 5.80895 0.00407895 
0.44514 -0.620876 5.82073 0.00665826 
0.467058 -0.598509 5.82128 0.00562312 
0.456953 -0.644942 5.82979 0.00781425 
0.438082 -0.664902 5.82729 0.0165847 
0.426488 -0.641649 5.81787 0.00884241 
0.418083 -0.726477 5.85805 0.0134329 
0.42411 -0.705553 5.84661 0.0122546 
0.396305 -0.702775 5.83684 0.0088674 
0.39085 -0.724117 5.84835 0.00850677 
0.416216 -0.683534 5.83154 0.0118839 
0.446297 -0.687194 5.84139 0.0162307 
0.364283 -0.722781 5.83922 0.00862857 
0.368557 -0.701029 5.82708 0.00548722 
0.341838 -0.69935 5.81782 0.0103364 
0.338304 -0.722266 5.82953 0.0163932 
0.359368 -0.678872 5.81078 0.00502632 
0.387876 -0.681143 5.82066 0.00955573 
0.187503 -0.962242 5.92187 0.0524608 
0.172499 -0.97256 5.94861 0.0256918 
0.146074 -0.983968 5.96942 0.0157282 
0.129874 -0.992015 5.99735 0.0158735 
0.102495 -1.0007 6.01864 0.026145 
0.123868 -0.997561 6.03173 0.0308598 
0.108339 -0.994752 5.98441 0.0121534 
0.080471 -1.00257 6.00582 0.0193378 
0.125187 -0.987338 5.9562 0.0130902 
0.141754 -0.978949 5.92863 0.0248489 
0.167864 -0.967079 5.90791 0.0487271 
0.147302 -0.971827 5.89451 0.0448982 
0.106968 -0.998068 6.06002 0.0215999 
0.0790355 -0.998475 6.08153 0.0183936 
0.0628472 -0.99541 6.10838 0.0223512 
0.0406813 -0.998228 6.09552 0.0187148 
0.0570789 -1.00115 6.06852 0.0133845 
0.0742948 -1.00139 6.04086 0.0129602 
-0.0149096 -1.00487 6.06136 0.0143144 
0.0128231 -1.00521 6.04169 0.00856295 
0.0296166 -1.00575 6.01433 0.00821801 
0.0581138 -1.00428 5.99284 0.0128606 
0.0359652 -1.00645 5.97956 0.0115364 
0.0519681 -1.00381 6.02775 0.0106962 
0.0349674 -1.00302 6.05542 0.0112163 
0.0185712 -1.00108 6.08203 0.0164072 
0.0532916 -1.00007 5.95217 0.00412894 
0.0818581 -0.992911 5.93049 0.00752102 
0.0991533 -0.986012 5.90262 0.0161505 
0.126917 -0.976572 5.88084 0.0436963 
0.105724 -0.980877 5.86797 0.033889 
0.120525 -0.98248 5.91563 0.0188688 
0.103626 -0.990237 5.94345 0.00999684 
0.086318 -0.997192 5.97149 0.00877497 
-0.0377414 -1.00706 6.04741 0.0117028 
-0.0209981 -1.00908 6.02078 0.00886812 
-0.044371 -1.01069 6.00725 0.00677877 
-0.0608976 -1.00917 6.03359 0.011586 
-0.0154955 -1.01033 5.98696 0.00646105 
-0.00974019 -1.01134 5.95333 0.00890457 
0.0131276 -1.00906 5.96645 0.0105709 
0.00724456 -1.00808 6.00062 0.00742872 
-0.0840885 -1.01158 6.01938 0.0104053 
-0.0673236 -1.01367 5.99297 0.00715691 
-0.0504398 -1.01381 5.96654 0.00564322 
-0.032904 -1.01422 5.93962 0.00872531 
0.0226722 -0.999907 5.85806 0.0100353 
0.0417041 -0.996032 5.83033 0.0232688 
0.00397067 -1.0039 5.88577 0.0060389 
0.0261774 -0.999608 5.89919 0.0051105 
0.044743 -0.995143 5.87114 0.0104558 
0.0632473 -0.990501 5.84307 0.0236556 
-0.00321145 -1.00691 5.91961 0.00389106 
-0.0264843 -1.01031 5.9065 0.00459907 
0.0670611 -0.991439 5.88312 0.0129698 
0.0846643 -0.985663 5.85522 0.0292851 
0.0489335 -0.996533 5.91145 0.00634816 
0.0310448 -1.00264 5.9391 0.00363813 
0.122073 -0.791685 5.64326 0.00813696 
0.120586 -0.759246 5.6332 0.00318007 
0.126361 -0.725431 5.63199 0.00350668 
0.124331 -0.695421 5.62163 0.00815042 
0.139166 -0.690174 5.63952 0.00603526 
0.140772 -0.719316 5.6493 0.00214893 
0.135931 -0.753542 5.64993 0.00291051 
0.13705 -0.785129 5.6593 0.0082844 
0.131083 -0.820735 5.66049 0.0275214 
0.145793 -0.813636 5.67691 0.0229156 
0.110306 -0.668849 5.60723 0.00248706 
0.103109 -0.640398 5.60051 0.00339478 
0.105615 -0.61241 5.60288 0.00452043 
0.122729 -0.608868 5.62066 0.00684642 
0.119811 -0.636835 5.61891 0.00510083 
0.125603 -0.66405 5.62473 0.00262985 
0.16093 -0.602189 5.65735 0.0110188 
0.154657 -0.628778 5.65625 0.0120061 
0.158062 -0.654509 5.66254 0.00728027 
0.154922 -0.684368 5.65839 0.00471224 
0.170894 -0.678509 5.67701 0.00530454 
0.142004 -0.659603 5.64437 0.00431041 
0.136506 -0.632732 5.63773 0.00871854 
0.141627 -0.606162 5.64002 0.00954319 
0.172181 -0.70596 5.68648 0.00370046 
0.166488 -0.739909 5.6861 0.00240819 
0.167859 -0.770737 5.69446 0.00617888 
0.161576 -0.806664 5.69396 0.0236029 
0.176451 -0.798598 5.71166 0.0184253 
0.152644 -0.778117 5.67725 0.00653731 
0.151407 -0.746961 5.66762 0.00295976 
0.156492 -0.713045 5.66823 0.00189381 
0.193159 -0.968172 5.96209 0.0330424 
0.207452 -0.956787 5.93631 0.0536829 
0.178286 -0.977813 5.98864 0.0193012 
0.198898 -0.973041 6.00183 0.0234863 
0.213462 -0.962373 5.97592 0.0332033 
0.227393 -0.950738 5.95075 0.0504364 
0.173263 -0.984449 6.02248 0.0247981 
0.167977 -0.990243 6.05649 0.0507403 
0.146265 -0.994286 6.04412 0.0398164 
0.151208 -0.988803 6.01004 0.0196358 
0.234309 -0.956124 5.99014 0.0366229 
0.248091 -0.944351 5.96543 0.0536769 
0.220582 -0.967291 6.0151 0.0350992 
0.205723 -0.977161 6.04194 0.0407934 
0.190738 -0.985305 6.06886 0.0697782 
0.143605 -0.979939 6.1499 0.0478396 
0.159303 -0.983677 6.12305 0.0486216 
0.135976 -0.989494 6.11166 0.0336519 
0.119834 -0.985652 6.13844 0.0361544 
0.16365 -0.988201 6.09002 0.0435285 
0.186468 -0.982427 6.10226 0.0636646 
0.0972011 -0.990412 6.12655 0.0295412 
0.113526 -0.993627 6.09932 0.0256899 
0.129801 -0.994844 6.0719 0.027996 
0.343844 -0.592297 5.76611 0.00802119 
0.327641 -0.61352 5.76665 0.00788693 
0.338979 -0.635246 5.77976 0.00816371 
0.323482 -0.655943 5.78189 0.00614192 
0.311511 -0.634212 5.76818 0.00500807 
0.296493 -0.655308 5.77082 0.00622466 
0.298722 -0.612706 5.75404 0.00555616 
0.314945 -0.591846 5.75197 0.00792861 
0.332887 -0.677474 5.80065 0.00687192 
0.316582 -0.699919 5.80725 0.0163734 
0.314185 -0.724003 5.8179 0.017383 
0.312391 -0.749821 5.82753 0.0165342 
0.289006 -0.753481 5.81428 0.017722 
0.289797 -0.726102 5.8052 0.0226846 
0.29077 -0.700509 5.79561 0.0296526 
0.306503 -0.677127 5.78942 0.0140629 
0.246024 -0.765077 5.78302 0.0157075 
0.245728 -0.735669 5.77513 0.0215608 
0.256459 -0.706033 5.77453 0.036117 
0.257063 -0.68048 5.76441 0.0324938 
0.271638 -0.656426 5.75866 0.0156631 
0.24781 -0.658393 5.74547 0.0214561 
0.281275 -0.67819 5.77789 0.0258775 
0.267631 -0.730647 5.79107 0.0218316 
0.267226 -0.75899 5.79938 0.0177352 
0.247271 -0.635573 5.73785 0.0212571 
0.260621 -0.613598 5.73535 0.0108522 
0.261917 -0.592759 5.72588 0.0055665 
0.287899 -0.592143 5.73898 0.00609189 
0.284444 -0.633647 5.75695 0.00782826 
0.183923 -0.763104 5.71318 0.00530784 
0.182281 -0.732462 5.70486 0.00474081 
0.189242 -0.69986 5.70535 0.00789141 
0.188385 -0.672918 5.69536 0.00935377 
0.206341 -0.667501 5.71282 0.0143986 
0.206305 -0.693317 5.72281 0.0160687 
0.198911 -0.725062 5.72302 0.00950088 
0.19989 -0.75456 5.73119 0.0060144 
0.192093 -0.789898 5.72997 0.0132984 
0.208641 -0.781176 5.7479 0.0123998 
0.176194 -0.64975 5.68161 0.0135642 
0.173399 -0.624612 5.67442 0.0167933 
0.18195 -0.599458 5.67493 0.0118658 
0.202871 -0.5967 5.69052 0.0110234 
0.19304 -0.620817 5.69181 0.0221365 
0.194582 -0.644841 5.69863 0.0163928 
0.237903 -0.594008 5.71337 0.00699676 
0.236753 -0.615041 5.72248 0.01603 
0.225152 -0.638451 5.72385 0.0271334 
0.226102 -0.662515 5.72997 0.0192895 
0.214022 -0.617401 5.70776 0.0234301 
0.235479 -0.684933 5.7496 0.0327419 
0.235401 -0.711421 5.75863 0.0295416 
0.22623 -0.742841 5.75855 0.0175365 
0.226835 -0.772925 5.76587 0.0143508 
0.216371 -0.717819 5.74115 0.0198966 
0.110907 -0.968329 5.83565 0.0248838 
0.115882 -0.955607 5.80376 0.0276305 
0.0903771 -0.974231 5.8229 0.0205968 
0.0960341 -0.962552 5.79075 0.0225428 
0.120684 -0.94274 5.77225 0.0434066 
0.124778 -0.927978 5.7417 0.0771344 
0.142119 -0.920134 5.75606 0.0737853 
0.138601 -0.935375 5.78637 0.0416519 
0.134723 -0.949355 5.81744 0.0281202 
0.158516 -0.911981 5.77152 0.0617048 
0.0699339 -0.980071 5.81039 0.0162354 
0.077252 -0.969516 5.77778 0.0230641 
0.0486986 -0.986588 5.79773 0.0154329 
0.083927 -0.958015 5.74574 0.0429821 
0.10744 -0.936135 5.72782 0.0726066 
0.102252 -0.950417 5.75884 0.0405021 
0.127005 -0.851096 5.67561 0.0196899 
0.122327 -0.880165 5.69152 0.023375 
0.137839 -0.873517 5.7067 0.0237583 
0.142235 -0.844329 5.69113 0.0179918 
0.124097 -0.904804 5.71613 0.0447757 
0.107302 -0.913194 5.70158 0.0434018 
0.157572 -0.83593 5.7081 0.0138806 
0.153482 -0.865147 5.7227 0.0190758 
0.168754 -0.857359 5.74015 0.012952 
0.172494 -0.827848 5.72595 0.00981788 
0.156209 -0.889226 5.74668 0.0329654 
0.140172 -0.897549 5.73124 0.0398911 
0.189737 -0.945997 5.89169 0.0322072 
0.19134 -0.929863 5.86176 0.0290412 
0.170414 -0.952168 5.87705 0.0360115 
0.172408 -0.93654 5.84673 0.0301074 
0.191989 -0.913397 5.83292 0.0325185 
0.192033 -0.895979 5.80453 0.0432524 
0.209553 -0.887669 5.82183 0.0337556 
0.210037 -0.906012 5.84932 0.0254741 
0.209846 -0.923234 5.87769 0.0235082 
0.227834 -0.878954 5.8389 0.0229553 
0.150937 -0.957691 5.86243 0.0317488 
0.15389 -0.942877 5.83156 0.0336315 
0.130918 -0.9631 5.84883 0.0271086 
0.156431 -0.927773 5.80111 0.0379982 
0.175371 -0.904095 5.78743 0.0530214 
0.174123 -0.920581 5.81695 0.0335581 
0.188076 -0.818865 5.74392 0.00704845 
0.184444 -0.847875 5.75751 0.00919462 
0.2008 -0.83936 5.7758 0.00876719 
0.204729 -0.810667 5.76207 0.00842788 
0.188161 -0.871895 5.78086 0.0199923 
0.172126 -0.88101 5.76358 0.0243872 
0.222841 -0.801688 5.77994 0.0112531 
0.218548 -0.830145 5.79365 0.00971249 
0.23786 -0.822349 5.8112 0.0111004 
0.242249 -0.793473 5.79733 0.0149494 
0.22333 -0.85453 5.81637 0.0123224 
0.205251 -0.863456 5.79894 0.0147934 
0.319027 -0.772901 5.84962 0.0187362 
0.313382 -0.79786 5.86526 0.0193276 
0.29616 -0.82788 5.87303 0.0139579 
0.290078 -0.855895 5.88723 0.017361 
0.268108 -0.863285 5.8719 0.0177179 
0.273839 -0.834964 5.858 0.0124387 
0.290793 -0.803857 5.85157 0.0163249 
0.296401 -0.777561 5.83598 0.0168119 
0.290934 -0.875302 5.91381 0.0118995 
0.280614 -0.8974 5.93332 0.0124981 
0.259522 -0.923631 5.94499 0.0227449 
0.23851 -0.930496 5.92952 0.0240658 
0.259105 -0.9051 5.9178 0.0121996 
0.269296 -0.882587 5.89848 0.0113331 
0.208823 -0.940582 5.90713 0.0296712 
0.229039 -0.917112 5.89403 0.0193412 
0.228715 -0.898622 5.86611 0.0191011 
0.247659 -0.871051 5.85582 0.020046 
0.24835 -0.890632 5.88273 0.0136628 
0.243082 -0.847238 5.83404 0.0111047 
0.258833 -0.815579 5.82819 0.0116124 
0.262966 -0.786469 5.81422 0.0179309 
0.212166 -0.150682 5.71494 0.0261899 
0.217838 -0.179858 5.70703 0.00975013 
0.200387 -0.184176 5.69702 0.00975532 
0.205187 -0.213971 5.69045 0.00324249 
0.222495 -0.209887 5.70016 0.00327687 
0.187434 -0.218076 5.68089 0.00281656 
0.209045 -0.243593 5.68483 0.00137768 
0.1918 -0.246934 5.67514 0.00148507 
0.196424 -0.274439 5.66937 0.00317678 
0.226207 -0.239949 5.69434 0.00125101 
0.213611 -0.27142 5.67874 0.00302189 
0.230334 -0.268749 5.68857 0.00163923 
0.174339 -0.249715 5.66563 0.00149721 
0.179198 -0.276717 5.65986 0.00438172 
0.161728 -0.278972 5.65073 0.00401664 
0.155908 -0.251827 5.65611 0.00129445 
0.169019 -0.221217 5.67095 0.00261799 
0.150457 -0.224072 5.66103 0.00257293 
0.163212 -0.191593 5.67651 0.00883882 
0.1819 -0.187931 5.68672 0.00951027 
0.175576 -0.158117 5.69386 0.0292178 
0.144491 -0.194929 5.66642 0.00823124 
0.156817 -0.162052 5.68337 0.0271222 
0.137994 -0.165925 5.67289 0.0250679 
0.194084 -0.154199 5.7044 0.0291344 
0.233402 -0.299205 5.68523 0.000831755 
0.217861 -0.302289 5.67684 0.000995478 
0.221662 -0.331495 5.674 0.0015733 
0.237033 -0.328647 5.68245 0.00120795 
0.206293 -0.33377 5.66577 0.00171302 
0.225161 -0.359625 5.6717 0.00443191 
0.209944 -0.361492 5.66408 0.00424253 
0.240436 -0.356972 5.67958 0.00380463 
0.194101 -0.363658 5.65658 0.00376564 
0.177279 -0.364166 5.64871 0.00266404 
0.18933 -0.335661 5.65676 0.00278601 
0.17216 -0.336963 5.64858 0.00221344 
0.184059 -0.306673 5.65841 0.00202879 
0.201156 -0.304492 5.66748 0.00152129 
0.166859 -0.308311 5.64934 0.00210472 
0.112243 -0.367084 5.61485 0.00103918 
0.129606 -0.366945 5.62433 0.00148276 
0.123111 -0.340522 5.62254 0.00181695 
0.10567 -0.341001 5.61346 0.00133729 
0.140372 -0.339836 5.63226 0.00166024 
0.116044 -0.313037 5.62185 0.00240297 
0.133308 -0.3117 5.63149 0.00202873 
0.126586 -0.283166 5.63111 0.00473889 
0.0987085 -0.314415 5.61199 0.00257568 
0.109033 -0.285296 5.62146 0.00444103 
0.0915584 -0.28676 5.61165 0.00450121 
0.150799 -0.310556 5.64094 0.00201907 
0.144088 -0.280989 5.6409 0.00455914 
0.156314 -0.338736 5.64023 0.00213062 
0.161543 -0.365471 5.64053 0.00260313 
0.145541 -0.366506 5.63224 0.00210999 
0.084301 -0.261697 5.61544 0.00155547 
0.10271 -0.25987 5.62614 0.00151814 
0.0959048 -0.233211 5.62953 0.002695 
0.0773068 -0.23527 5.61955 0.00233768 
0.114647 -0.230955 5.64013 0.00268751 
0.0889269 -0.206 5.63383 0.00805114 
0.107764 -0.202869 5.64456 0.00850777 
0.100029 -0.174464 5.65007 0.0261518 
0.0702775 -0.208653 5.62345 0.00743729 
0.0814473 -0.178065 5.63872 0.0272309 
0.0628308 -0.181273 5.62744 0.0285115 
0.126472 -0.199467 5.65572 0.00807875 
0.118884 -0.170441 5.66148 0.0241914 
0.132616 -0.227591 5.65046 0.00278669 
0.138157 -0.254694 5.64569 0.00167662 
0.120387 -0.257518 5.63599 0.00160665 
0.347198 -0.154742 5.77763 0.0104633 
0.350854 -0.182931 5.76783 0.00648804 
0.33292 -0.186252 5.75802 0.00664492 
0.353055 -0.212534 5.75903 0.00575945 
0.334793 -0.216136 5.74939 0.00526467 
0.336012 -0.246385 5.74139 0.00650344 
0.354345 -0.243145 5.75096 0.00659348 
0.3165 -0.219878 5.74002 0.00440201 
0.317793 -0.249966 5.73227 0.0054935 
0.29958 -0.253773 5.72363 0.00336238 
0.297178 -0.2237 5.73055 0.00315214 
0.313729 -0.189613 5.74773 0.00652394 
0.294498 -0.193592 5.73796 0.00530692 
0.309811 -0.160759 5.75653 0.0118957 
0.328587 -0.157497 5.76704 0.0120452 
0.322953 -0.13022 5.77682 0.0248137 
0.290814 -0.164384 5.74642 0.0112161 
0.304351 -0.133454 5.7663 0.0251241 
0.285406 -0.136744 5.75595 0.025735 
0.341472 -0.12727 5.78761 0.0240998 
0.354684 -0.276595 5.74693 0.001136 
0.354377 -0.30851 5.74192 0.00060163 
0.337381 -0.311795 5.73327 0.000501278 
0.35416 -0.339369 5.7378 0.00176899 
0.337354 -0.342259 5.72918 0.00211611 
0.320854 -0.344837 5.72078 0.00244908 
0.303394 -0.347442 5.71207 0.00244373 
0.319459 -0.314914 5.72435 0.000657252 
0.301705 -0.317649 5.71549 0.000663188 
0.318381 -0.283056 5.72816 0.00109799 
0.33639 -0.27993 5.73734 0.00114844 
0.300414 -0.286442 5.71964 0.000764385 
0.256936 -0.355274 5.68783 0.00370445 
0.25375 -0.326383 5.69055 0.00106506 
0.270486 -0.323994 5.69952 0.000970832 
0.250706 -0.296172 5.69373 0.000943084 
0.267695 -0.293056 5.70243 0.000931442 
0.265332 -0.261296 5.7056 0.00342959 
0.247903 -0.265029 5.69699 0.00258663 
0.284571 -0.2897 5.71107 0.000920227 
0.282424 -0.25762 5.71452 0.00354793 
0.286216 -0.320755 5.70729 0.000822473 
0.287836 -0.350507 5.70382 0.0026892 
0.272339 -0.352951 5.69564 0.00315164 
0.244905 -0.236061 5.70336 0.00174133 
0.241241 -0.205965 5.70946 0.00426155 
0.259609 -0.202295 5.71906 0.00476735 
0.236741 -0.175892 5.71668 0.0121926 
0.255209 -0.171993 5.72648 0.0133213 
0.249369 -0.143208 5.73486 0.0296331 
0.231018 -0.146853 5.72479 0.0288509 
0.27344 -0.168352 5.73654 0.0129973 
0.267452 -0.139804 5.74522 0.0281884 
0.277149 -0.197787 5.72827 0.00529185 
0.279915 -0.227677 5.72115 0.00308361 
0.262514 -0.231913 5.71211 0.00243814 
0.19076 -0.00949755 6.0701 0.000828086 
0.200093 -0.0196144 6.05372 0.00349072 
0.179339 -0.0199268 6.04207 0.00297152 
0.209685 -0.0284111 6.03655 0.00870645 
0.188919 -0.028824 6.02495 0.008047 
0.198901 -0.035822 6.00689 0.0100368 
0.219657 -0.0352835 6.01838 0.010532 
0.167742 -0.0294615 6.01345 0.00630394 
0.177803 -0.0367175 5.99539 0.00776501 
0.156462 -0.0378165 5.98376 0.00836584 
0.14648 -0.0303521 6.00224 0.0051964 
0.158026 -0.0203137 6.03104 0.00223817 
0.13667 -0.021113 6.01998 0.00258025 
0.148473 -0.00999782 6.04802 0.000793281 
0.169744 -0.00970056 6.05897 0.000858379 
0.12707 -0.0106328 6.03691 0.00078022 
0.230078 -0.0421809 5.99964 0.0164924 
0.240788 -0.0460753 5.98006 0.013265 
0.220194 -0.04704 5.96829 0.0128434 
0.252043 -0.0471255 5.95928 0.00591841 
0.231434 -0.0482559 5.94743 0.00568203 
0.243136 -0.0475642 5.9257 0.00178692 
0.263693 -0.0462689 5.93761 0.00168524 
0.210563 -0.049833 5.93557 0.00620019 
0.222314 -0.0493692 5.91388 0.00116423 
0.201231 -0.051253 5.90212 0.00101358 
0.189238 -0.0513395 5.92407 0.00664011 
0.199093 -0.0482764 5.95685 0.0134547 
0.177732 -0.0499161 5.94522 0.0154216 
0.188152 -0.0439256 5.97672 0.0142815 
0.209314 -0.0428303 5.98821 0.013587 
0.166828 -0.0453233 5.96509 0.0159076 
0.123917 -0.0569167 5.85576 0.00146913 
0.112066 -0.0563811 5.87769 0.00369473 
0.131635 -0.0550392 5.88845 0.00345327 
0.120092 -0.0529862 5.90971 0.00970737 
0.100612 -0.0541604 5.89867 0.0101538 
0.139491 -0.051817 5.92086 0.0107873 
0.109172 -0.0481359 5.93016 0.0108201 
0.128454 -0.0470798 5.94159 0.0119287 
0.117899 -0.0391042 5.96109 0.00575206 
0.0897607 -0.0491055 5.9188 0.0109893 
0.0985954 -0.0402016 5.94963 0.00597852 
0.0794439 -0.0412266 5.93809 0.00548235 
0.147738 -0.0460581 5.95288 0.0128646 
0.137317 -0.0383464 5.97239 0.00660484 
0.158779 -0.0504731 5.93294 0.0116063 
0.170187 -0.0524466 5.91217 0.00533553 
0.151003 -0.0537367 5.90016 0.00440945 
0.162859 -0.0537722 5.87883 0.00131969 
0.182134 -0.0523854 5.89037 0.00129616 
0.143544 -0.0553534 5.86718 0.00143724 
0.0692327 -0.0331601 5.95754 0.00369055 
0.0884796 -0.0325279 5.96829 0.00382352 
0.0786588 -0.0226705 5.98688 0.00105449 
0.0594626 -0.0235568 5.97621 0.0012927 
0.0980122 -0.022091 5.99741 0.00104795 
0.0693191 -0.0121483 6.00477 0.000901159 
0.0885865 -0.0115081 6.0152 0.000920108 
0.0501406 -0.0131153 5.99425 0.000643417 
0.107875 -0.0111777 6.02571 0.000750865 
0.117412 -0.0214243 6.00875 0.00130673 
0.127216 -0.0308241 5.99103 0.00423925 
0.107781 -0.0315334 5.97967 0.00366505 
0.186334 -0.130729 5.71692 0.0290978 
0.167919 -0.134235 5.7062 0.029616 
0.159005 -0.113802 5.71986 0.0303361 
0.149265 -0.138155 5.69548 0.0279937 
0.140564 -0.117311 5.70903 0.0295573 
0.121863 -0.121129 5.69814 0.0273482 
0.130414 -0.142171 5.68484 0.0252468 
0.130641 -0.0998182 5.72389 0.0318468 
0.112322 -0.10324 5.71269 0.0314323 
0.101987 -0.0882343 5.72875 0.039129 
0.119985 -0.0851998 5.73968 0.0396351 
0.148761 -0.0967911 5.73456 0.030282 
0.137852 -0.0824553 5.75074 0.0382908 
0.166724 -0.0937443 5.74524 0.0298405 
0.177035 -0.110802 5.73026 0.0279995 
0.19474 -0.107923 5.74079 0.026196 
0.155666 -0.0797219 5.76168 0.0372911 
0.184331 -0.0910682 5.75612 0.0300103 
0.17328 -0.0770844 5.77267 0.0359201 
0.204118 -0.127908 5.72718 0.0260483 
0.111639 -0.146195 5.67425 0.0222982 
0.0927912 -0.150658 5.6625 0.0217593 
0.0845502 -0.129117 5.67663 0.0215342 
0.0740623 -0.154906 5.65085 0.023039 
0.0658047 -0.133688 5.66471 0.0203051 
0.0475327 -0.137409 5.65245 0.0237221 
0.0555262 -0.158803 5.63935 0.0228597 
0.057288 -0.114244 5.67943 0.0263776 
0.0389794 -0.11828 5.6671 0.0268949 
0.0299442 -0.101279 5.6827 0.0394091 
0.0478182 -0.098115 5.6942 0.0392993 
0.0756175 -0.110637 5.69063 0.0272535 
0.0659169 -0.0947536 5.70579 0.0365997 
0.0940162 -0.106925 5.70167 0.0290987 
0.103159 -0.125153 5.68735 0.0240894 
0.0839996 -0.091549 5.71726 0.0362636 
-0.0114768 -0.0677393 5.76723 0.00338591 
0.00523026 -0.066498 5.77833 0.00306717 
0.0163891 -0.0723903 5.75805 0.00386173 
0.0335912 -0.0706355 5.76896 0.00343353 
0.0221372 -0.065185 5.78954 0.00244296 
0.0449711 -0.076763 5.74838 0.00950735 
0.0508192 -0.0688906 5.77976 0.00382553 
0.0623174 -0.0746335 5.75895 0.00930952 
0.0795626 -0.0723628 5.76931 0.00967598 
0.0392777 -0.0635907 5.80047 0.00254568 
0.0678542 -0.0668758 5.79037 0.0041803 
0.0560631 -0.0623746 5.81154 0.00221287 
0.0734822 -0.0818792 5.73878 0.0171877 
0.0907987 -0.0792896 5.74887 0.0201559 
0.055737 -0.0845145 5.72666 0.0213014 
0.0378703 -0.0874507 5.71475 0.0206946 
0.027333 -0.0790726 5.736 0.00968382 
0.00999436 -0.081239 5.72357 0.0119213 
0.0201571 -0.0901431 5.70281 0.023138 
-0.000769705 -0.0740888 5.74522 0.00545468 
0.0729859 -0.0607444 5.82232 0.00238749 
0.0850194 -0.0650504 5.8022 0.00334998 
0.102276 -0.0631994 5.81291 0.00409058 
0.0899908 -0.0592952 5.83328 0.00232737 
0.114542 -0.0678637 5.79228 0.00931719 
0.119495 -0.0614644 5.82375 0.00400665 
0.131964 -0.0656135 5.80273 0.0099281 
0.149284 -0.06341 5.81319 0.0104885 
0.107017 -0.0581296 5.84455 0.00185628 
0.136628 -0.0597154 5.83462 0.00389803 
0.144066 -0.0716156 5.78238 0.0193938 
0.161408 -0.0692323 5.7926 0.0201124 
0.126345 -0.074134 5.77117 0.0197049 
0.108614 -0.076639 5.75998 0.0201047 
0.0969995 -0.0700516 5.78074 0.00957673 
-0.0689023 -0.0186504 5.92569 0.000571387 
-0.0518613 -0.0179678 5.93514 0.000589853 
-0.0420886 -0.027786 5.91571 0.000869279 
-0.0347988 -0.0170944 5.9447 0.000669226 
-0.0250616 -0.0271843 5.92533 0.000899641 
-0.00775569 -0.0265209 5.93502 0.000770199 
-0.0175475 -0.0160812 5.95435 0.000844685 
-0.0150855 -0.0364194 5.90585 0.00230353 
0.00213718 -0.0359249 5.91541 0.00228744 
0.0125113 -0.0435212 5.89525 0.00243222 
-0.00433739 -0.0441653 5.88487 0.00245501 
-0.0317177 -0.0370425 5.89538 0.00198671 
-0.0211212 -0.0447567 5.87453 0.00215918 
-0.0481484 -0.0376729 5.88487 0.00152861 
-0.058535 -0.0285529 5.9053 0.000673902 
-0.0747514 -0.0291878 5.89487 0.000459297 
-0.0376424 -0.045151 5.86416 0.00159242 
-0.0643022 -0.0381116 5.87443 0.000886947 
-0.0538112 -0.0454324 5.85379 0.00113543 
-0.0850885 -0.0195658 5.91519 0.000669549 
-0.00102474 -0.0148483 5.96512 0.000847876 
0.0160208 -0.0141696 5.97493 0.00075622 
0.0253771 -0.0244439 5.95677 0.000955553 
0.0331554 -0.0135292 5.98465 0.000676633 
0.0424345 -0.0239673 5.96652 0.0010702 
0.0521296 -0.0335696 5.94794 0.00340186 
0.0626595 -0.0419366 5.92727 0.00477541 
0.0353878 -0.0344389 5.93702 0.00301139 
0.0457901 -0.0424021 5.9165 0.00371215 
0.018818 -0.0351288 5.92623 0.00255674 
0.0087388 -0.0254542 5.94587 0.000869343 
0.0290682 -0.0429543 5.90604 0.00323694 
0.0951473 -0.0570722 5.86756 0.00286319 
0.0781638 -0.0580315 5.85606 0.00209016 
0.0668136 -0.0551431 5.87791 0.00632943 
0.0613202 -0.0590872 5.84478 0.0017918 
0.0500983 -0.0558915 5.86624 0.0051289 
0.0334947 -0.0566104 5.85465 0.00416654 
0.044587 -0.0601214 5.83356 0.00156979 
0.0393339 -0.0506129 5.88718 0.00628092 
0.0227443 -0.0512544 5.87526 0.00507352 
0.0561279 -0.0501397 5.89764 0.00767917 
0.0729292 -0.0496037 5.9082 0.00934552 
0.0837279 -0.0546197 5.88832 0.00814048 
0.0274528 -0.0612244 5.82388 0.00182513 
0.0106451 -0.0621485 5.81268 0.00144343 
-0.000527437 -0.0581713 5.83484 0.00408353 
-0.00602378 -0.0631485 5.80137 0.00107108 
-0.017054 -0.0588046 5.82352 0.00306136 
-0.0331961 -0.0593813 5.81196 0.00203118 
-0.0224672 -0.0639558 5.78985 0.000967325 
-0.0277121 -0.05292 5.84486 0.00371804 
-0.0436435 -0.0533782 5.83334 0.00245405 
-0.0110593 -0.0525972 5.85507 0.00457241 
0.00589387 -0.0519335 5.86515 0.00481614 
0.016494 -0.0574247 5.84477 0.00412361 
0.275803 -0.0476626 5.91574 0.00568499 
0.287014 -0.049182 5.89371 0.0173887 
0.267311 -0.0506353 5.88165 0.0161636 
0.298002 -0.0519856 5.8718 0.0274347 
0.278263 -0.0538961 5.86008 0.0290136 
0.288699 -0.0601909 5.83967 0.0463276 
0.308489 -0.0581199 5.8511 0.0470782 
0.25847 -0.0561953 5.84857 0.0285007 
0.268929 -0.0627431 5.82835 0.0448808 
0.248894 -0.0657602 5.81714 0.0407863 
0.237597 -0.0589656 5.83735 0.0239889 
