ply
format ascii 1.0
comment Seamless Cloth Simulation with High Geometric Fidelity 
comment Sat Apr  6 09:54:10 2019
element vertex 1195
property float x
property float y
property float z
property float quality
end_header
1.10993 -1.03232 6.55085 0.0214098 
1.10811 -1.03385 6.57547 0.0260664 
-0.45288 -0.561837 5.1483 0.00346066 
-0.43834 -0.554104 5.1534 0.00233182 
-0.420234 -0.552987 5.15377 0.00172163 
-0.405742 -0.54485 5.15866 0.00266136 
-0.387668 -0.543265 5.15866 0.00541506 
-0.39499 -0.529797 5.16803 0.00672394 
-0.398303 -0.558177 5.14929 0.00206203 
-0.380275 -0.556599 5.14932 0.00537834 
-0.407632 -0.573003 5.13877 0.00174229 
-0.425885 -0.574382 5.13846 0.00137395 
-0.444082 -0.575466 5.13795 0.00265802 
-0.435057 -0.588794 5.12766 0.00302324 
-0.379277 -0.525145 5.1742 0.00421124 
-0.361437 -0.526637 5.17607 0.0035269 
-0.345675 -0.521854 5.18211 0.00466168 
-0.32793 -0.523344 5.18365 0.00638047 
-0.337828 -0.54107 5.16864 0.00430042 
-0.369812 -0.54485 5.16049 0.00385873 
-0.310121 -0.558859 5.16073 0.00822922 
-0.327656 -0.558376 5.15803 0.00429314 
-0.33631 -0.570138 5.14763 0.00363679 
-0.353859 -0.569586 5.14465 0.00281336 
-0.362459 -0.581095 5.13422 0.00437942 
-0.348567 -0.55214 5.15866 0.00416431 
-0.320311 -0.541597 5.17145 0.00804903 
-0.380526 -0.583218 5.13278 0.00181532 
-0.388175 -0.597586 5.1229 0.00186676 
-0.406302 -0.599464 5.12134 0.00133417 
-0.424483 -0.601162 5.11944 0.00236832 
-0.41388 -0.613363 5.1112 0.00278815 
-0.41684 -0.587122 5.12951 0.00119128 
-0.107277 -0.670922 5.39908 0.060434 
-0.101335 -0.694385 5.41197 0.0958851 
-0.0974175 -0.719941 5.42127 0.118318 
-0.0923482 -0.744389 5.43448 0.116247 
-0.0893066 -0.770853 5.44406 0.114887 
-0.107451 -0.70353 5.39844 0.121219 
-0.113241 -0.681299 5.38567 0.0888344 
-0.0884155 -0.791662 5.46253 0.125977 
-0.0925942 -0.81557 5.46903 0.128685 
-0.0956499 -0.839326 5.48014 0.111801 
-0.100094 -0.863288 5.4864 0.0940724 
-0.0946101 -0.795959 5.44733 0.146662 
-0.103981 -0.864227 5.46398 0.105835 
-0.101314 -0.842469 5.45451 0.126415 
-0.0983162 -0.81982 5.44777 0.146052 
-0.0942315 -0.776211 5.42821 0.134548 
-0.0995761 -0.754521 5.4126 0.153873 
-0.103988 -0.73034 5.40242 0.156582 
-0.0967814 -0.800333 5.4277 0.189748 
-0.0992082 -0.863278 5.44755 0.107248 
-0.0962808 -0.822265 5.42942 0.156743 
-0.0961745 -0.842718 5.43592 0.152665 
-0.091825 -0.781393 5.40552 0.150667 
-0.116545 -0.701004 5.35278 0.140673 
-0.110685 -0.719668 5.36841 0.188913 
-0.1049 -0.739119 5.38422 0.173582 
-0.0982143 -0.759892 5.3948 0.175157 
-0.117272 -0.692383 5.36904 0.135989 
-0.109173 -0.885388 5.50277 0.0575259 
-0.12157 -0.906782 5.50439 0.0511397 
-0.133603 -0.928758 5.5116 0.034895 
-0.14603 -0.949561 5.51284 0.0279583 
-0.113655 -0.88499 5.48379 0.1017 
-0.163362 -0.969037 5.52747 0.0122452 
-0.180388 -0.984372 5.52315 0.00959178 
-0.19828 -1.00116 5.52601 0.00757745 
-0.215009 -1.01602 5.52159 0.0121664 
-0.196715 -0.996658 5.50584 0.0134096 
-0.180164 -0.980529 5.50445 0.0219759 
-0.163092 -0.9652 5.5087 0.0242705 
-0.208991 -1.00708 5.48885 0.0134415 
-0.193211 -0.991598 5.48826 0.0183881 
-0.177334 -0.975853 5.48746 0.0385579 
-0.161721 -0.960887 5.49062 0.0458494 
-0.146031 -0.945711 5.49358 0.0426493 
-0.134803 -0.92433 5.48048 0.0720951 
-0.124293 -0.904379 5.47859 0.0972113 
-0.192429 -0.996414 5.45751 0.0272942 
-0.177953 -0.981726 5.45825 0.0436236 
-0.165245 -0.967736 5.46202 0.060366 
-0.150573 -0.952885 5.46257 0.0700386 
-0.137693 -0.938695 5.46615 0.0646261 
-0.187381 -0.986408 5.47251 0.034487 
-0.202481 -1.00121 5.47256 0.0204859 
-0.124425 -0.918655 5.45598 0.0849757 
-0.116301 -0.900417 5.45423 0.0855793 
-0.107112 -0.881808 5.44968 0.123107 
-0.113227 -0.883574 5.4663 0.110225 
-0.329792 -1.0631 5.39925 0.00215318 
-0.312697 -1.05649 5.40775 0.00234687 
-0.298983 -1.05116 5.42088 0.00420179 
-0.281541 -1.04494 5.4294 0.00617241 
-0.267512 -1.03992 5.44247 0.00687578 
-0.293368 -1.04835 5.44373 0.00479759 
-0.3122 -1.05446 5.43579 0.00351694 
-0.326036 -1.05969 5.42266 0.00222138 
-0.344605 -1.06613 5.41477 0.00301402 
-0.24378 -1.02722 5.43933 0.012299 
-0.229353 -1.0182 5.44916 0.0185205 
-0.212261 -1.0079 5.45522 0.0209472 
-0.256599 -1.03218 5.45694 0.00816831 
-0.228069 -1.01728 5.48461 0.0104708 
-0.244655 -1.02594 5.47539 0.00923145 
-0.279578 -1.04514 5.46174 0.00556311 
-0.266033 -1.03746 5.47612 0.00640723 
-0.304947 -1.05337 5.46465 0.00387823 
-0.321313 -1.05804 5.45169 0.00274301 
-0.341403 -1.06381 5.44446 0.0021923 
-0.357436 -1.06895 5.43148 0.00368559 
-0.250844 -1.03026 5.49129 0.007221 
-0.2331 -1.02275 5.50392 0.00736712 
-0.271661 -1.04155 5.49256 0.00506467 
-0.292347 -1.05271 5.49385 0.00719863 
-0.286634 -1.04899 5.47735 0.00591334 
-0.256843 -1.03589 5.51767 0.00586692 
-0.236756 -1.02797 5.52686 0.00725102 
-0.278488 -1.04737 5.52294 0.00510026 
-0.300161 -1.05858 5.52827 0.0103338 
-0.296276 -1.05575 5.51107 0.00931648 
-0.388874 -1.0761 5.50723 0.00642714 
-0.364814 -1.07025 5.50389 0.00301288 
-0.382882 -1.07492 5.48807 0.00579276 
-0.340642 -1.0646 5.50055 0.00365323 
-0.358802 -1.06896 5.48471 0.00272539 
-0.3347 -1.06304 5.4814 0.00314996 
-0.376822 -1.07356 5.46888 0.00489638 
-0.316477 -1.05876 5.4972 0.00378699 
-0.320512 -1.06144 5.51441 0.00522174 
-0.344681 -1.06708 5.51775 0.00423344 
-0.350963 -1.06641 5.46311 0.00267175 
-0.36818 -1.07139 5.44951 0.0042902 
-0.363706 -1.02765 5.16691 0.0100525 
-0.362681 -1.03834 5.19102 0.00803582 
-0.361713 -1.04926 5.21508 0.012861 
-0.342234 -1.04311 5.19664 0.0102832 
-0.382263 -1.04439 5.20946 0.00762857 
-0.404784 -1.03855 5.2018 0.0057889 
-0.384176 -1.03309 5.18432 0.00837387 
-0.406833 -1.02732 5.17673 0.00853468 
-0.326249 -1.05087 5.21665 0.0115773 
-0.341576 -1.05507 5.23701 0.00847962 
-0.320554 -1.05684 5.242 0.00811706 
-0.299648 -1.0586 5.24704 0.0112553 
-0.335922 -1.06113 5.26233 0.00971927 
-0.358118 -1.05899 5.25648 0.00696784 
-0.378279 -1.05303 5.23462 0.00632009 
-0.38314 -1.06645 5.28653 0.00829731 
-0.395723 -1.05886 5.2591 0.00415549 
-0.408428 -1.05143 5.23167 0.00763405 
-0.417136 -1.05615 5.25135 0.00440447 
-0.375642 -1.0612 5.26605 0.00603478 
-0.437668 -1.04641 5.22777 0.00461484 
-0.424875 -1.03983 5.20977 0.00458654 
-0.445005 -1.03374 5.20099 0.00470598 
-0.465155 -1.02782 5.19206 0.0079184 
-0.432235 -1.02733 5.18301 0.00816878 
-0.211543 -0.539988 5.26342 0.0143172 
-0.225394 -0.538207 5.24905 0.0159655 
-0.2391 -0.536578 5.23487 0.0161551 
-0.211815 -0.553699 5.25097 0.0209361 
-0.225574 -0.552072 5.23674 0.0179068 
-0.252675 -0.534853 5.22039 0.0140355 
-0.266315 -0.533103 5.20585 0.0162676 
-0.268829 -0.516336 5.21876 0.0117962 
-0.255014 -0.518179 5.23333 0.011877 
-0.235054 -0.555919 5.21909 0.0176583 
-0.209034 -0.570358 5.23589 0.02023 
-0.220665 -0.569227 5.22191 0.0178964 
-0.246647 -0.554757 5.20517 0.0144252 
-0.258173 -0.553486 5.19122 0.0169183 
-0.30258 -0.546728 5.17559 0.00727481 
-0.29496 -0.534508 5.19056 0.00768765 
-0.275326 -0.54477 5.19102 0.0107154 
-0.284098 -0.556263 5.17584 0.0108885 
-0.312297 -0.523289 5.1914 0.00503179 
-0.298783 -0.517021 5.20347 0.00690797 
-0.285105 -0.510786 5.21534 0.0102424 
-0.119762 -0.650077 5.38194 0.0590189 
-0.132286 -0.629874 5.36503 0.0505975 
-0.144368 -0.610243 5.3482 0.0426979 
-0.156218 -0.590604 5.33142 0.0263528 
-0.151115 -0.577627 5.34308 0.0162888 
-0.139443 -0.597305 5.35996 0.0276759 
-0.12527 -0.661629 5.36837 0.0889812 
-0.137263 -0.642891 5.35116 0.0748548 
-0.14899 -0.624401 5.33421 0.0625406 
-0.16015 -0.60607 5.31701 0.0427819 
-0.198211 -0.552842 5.2806 0.0210176 
-0.184565 -0.565327 5.2977 0.0267065 
-0.208146 -0.523271 5.27686 0.0151265 
-0.194762 -0.53633 5.2941 0.0162517 
-0.170597 -0.578059 5.31469 0.027279 
-0.203177 -0.505538 5.2907 0.0114856 
-0.17897 -0.545669 5.31459 0.0147688 
-0.189443 -0.519658 5.3075 0.0119687 
-0.164402 -0.559387 5.33089 0.0137245 
-0.239916 -0.519049 5.24859 0.0156162 
-0.268105 -0.497486 5.2331 0.0154452 
-0.252792 -0.498433 5.24853 0.0113388 
-0.236598 -0.50115 5.26254 0.0153138 
-0.223068 -0.514989 5.26745 0.012892 
-0.301498 -0.496597 5.21896 0.00831143 
-0.316767 -0.503671 5.20568 0.00551116 
-0.332848 -0.496515 5.20339 0.00730033 
-0.317469 -0.48937 5.21667 0.00605635 
-0.333476 -0.481995 5.21435 0.00799605 
-0.283938 -0.49037 5.23111 0.00981769 
-0.329686 -0.452344 5.23738 0.0105655 
-0.312164 -0.453263 5.24417 0.00723917 
-0.296371 -0.461278 5.24573 0.00916435 
-0.278996 -0.4622 5.25222 0.0114206 
-0.263224 -0.470149 5.25346 0.0189651 
-0.298945 -0.475721 5.23489 0.00923488 
-0.314786 -0.467823 5.2333 0.0072045 
-0.331745 -0.467241 5.22598 0.00883985 
-0.244864 -0.465465 5.27305 0.0125204 
-0.231629 -0.481012 5.27756 0.010416 
-0.216455 -0.490234 5.28673 0.00943561 
-0.128346 -0.672321 5.35369 0.119009 
-0.140117 -0.654549 5.33612 0.109538 
-0.151367 -0.637003 5.3184 0.0969135 
-0.161684 -0.617999 5.30335 0.0646043 
-0.138949 -0.6642 5.32121 0.130721 
-0.12757 -0.682097 5.33681 0.134961 
-0.196855 -0.585452 5.2502 0.0361311 
-0.185485 -0.596667 5.26803 0.0436598 
-0.173816 -0.607373 5.28584 0.0446138 
-0.199309 -0.570489 5.26464 0.0265335 
-0.186658 -0.582323 5.28235 0.0364145 
-0.173608 -0.594339 5.29976 0.0419987 
-0.187521 -0.605763 5.20736 0.0327559 
-0.199609 -0.608412 5.18151 0.0309124 
-0.184509 -0.615076 5.18929 0.0349853 
-0.169101 -0.621372 5.19709 0.0301323 
-0.211826 -0.61098 5.15583 0.029727 
-0.215681 -0.600187 5.17427 0.026272 
-0.231507 -0.591834 5.16711 0.027762 
-0.160887 -0.6273 5.18114 0.0264458 
-0.152318 -0.63262 5.16498 0.0282319 
-0.140704 -0.632611 5.18918 0.0216279 
-0.172316 -0.627263 5.15712 0.0318145 
-0.192802 -0.620258 5.14984 0.0310977 
-0.216914 -0.640199 5.11182 0.0255629 
-0.225425 -0.628219 5.126 0.0174905 
-0.233971 -0.616251 5.1405 0.0210943 
-0.246184 -0.625815 5.12166 0.014014 
-0.204815 -0.630282 5.13077 0.0246536 
-0.184356 -0.632038 5.13582 0.0279789 
-0.261142 -0.616179 5.12819 0.0109879 
-0.260195 -0.603911 5.14142 0.0134068 
-0.276703 -0.601137 5.13702 0.00976105 
-0.232713 -0.604005 5.15363 0.0202746 
-0.113097 -0.639555 5.1837 0.0281086 
-0.0953146 -0.643299 5.18113 0.0295242 
-0.115957 -0.641367 5.15864 0.0297758 
-0.0982084 -0.645116 5.15606 0.0304911 
-0.0806168 -0.649243 5.15362 0.0279862 
-0.0776762 -0.647483 5.17855 0.0274534 
-0.0598323 -0.651376 5.17639 0.0315852 
-0.101149 -0.64687 5.13105 0.0456972 
-0.119233 -0.642411 5.13388 0.0489698 
-0.137197 -0.637729 5.13692 0.0498806 
-0.134155 -0.636937 5.16165 0.0269427 
-0.155325 -0.633488 5.14028 0.0393191 
-0.0380352 -0.655266 5.17285 0.0324067 
-0.0260739 -0.658508 5.15791 0.0282796 
-0.00452619 -0.662495 5.15464 0.031902 
-0.0240797 -0.661343 5.13162 0.0350583 
-0.046274 -0.65672 5.13506 0.036721 
-0.0686371 -0.6524 5.13853 0.0317022 
-0.074188 -0.671877 5.08355 0.0368364 
-0.0865655 -0.664507 5.09626 0.0387849 
-0.109484 -0.659824 5.10027 0.0307804 
-0.122142 -0.652732 5.11337 0.0314376 
-0.142929 -0.658282 5.09602 0.038196 
-0.0884969 -0.654065 5.11801 0.0395773 
-0.0663853 -0.658639 5.11434 0.0397896 
-0.0442759 -0.663118 5.11084 0.0350094 
-0.161396 -0.653548 5.0996 0.0368374 
-0.17998 -0.649153 5.10355 0.0319672 
-0.157942 -0.643472 5.11954 0.0383291 
-0.198523 -0.644724 5.10768 0.031003 
-0.139995 -0.648049 5.11635 0.0362355 
-0.273814 -0.589266 5.15034 0.0117053 
-0.270649 -0.577041 5.16358 0.0110974 
-0.290113 -0.586007 5.14559 0.0102975 
-0.254243 -0.58016 5.16806 0.0179173 
-0.289449 -0.568562 5.16212 0.00846883 
-0.264389 -0.565334 5.17724 0.0143428 
-0.227432 -0.5737 5.20524 0.0190658 
-0.202175 -0.586261 5.2224 0.0251768 
-0.23506 -0.577432 5.18847 0.0182626 
-0.208065 -0.590672 5.20604 0.0272703 
-0.289039 -0.623405 5.11793 0.0056479 
-0.289849 -0.638999 5.10529 0.00540226 
-0.306606 -0.639937 5.10129 0.00520978 
-0.306112 -0.624371 5.11388 0.00403241 
-0.323294 -0.625287 5.10997 0.00373878 
-0.258044 -0.642594 5.10548 0.00909885 
-0.237584 -0.641417 5.10866 0.0140428 
-0.249428 -0.657904 5.09249 0.012596 
-0.270519 -0.659067 5.08912 0.00903999 
-0.301002 -0.694861 5.06609 0.00846298 
-0.31206 -0.677965 5.07709 0.0050803 
-0.323123 -0.660737 5.08798 0.0029819 
-0.33417 -0.680895 5.07427 0.00652245 
-0.301017 -0.657458 5.09045 0.00499526 
-0.290754 -0.674737 5.07921 0.0058785 
-0.351577 -0.671475 5.07955 0.00490915 
-0.352307 -0.65428 5.09038 0.00206282 
-0.370345 -0.65716 5.0869 0.00316965 
-0.323218 -0.643158 5.09886 0.00339064 
-0.3659 -0.600896 5.12224 0.00171186 
-0.34844 -0.59843 5.12463 0.00318728 
-0.373401 -0.614755 5.1132 0.00138551 
-0.391047 -0.617017 5.11068 0.00136309 
-0.398142 -0.630677 5.10141 0.00216116 
-0.315403 -0.575661 5.14804 0.00399407 
-0.319086 -0.592567 5.13495 0.00351396 
-0.293371 -0.60209 5.13315 0.00682555 
-0.321774 -0.608886 5.1225 0.00320251 
-0.340583 -0.628211 5.10712 0.0022208 
-0.35797 -0.631178 5.10436 0.00120342 
-0.37536 -0.633737 5.10118 0.00122537 
0.0694273 -0.728559 5.28106 0.0147117 
0.0744679 -0.745789 5.2957 0.00874657 
0.0550312 -0.743601 5.30027 0.00924464 
0.0499405 -0.726573 5.28568 0.0130592 
0.0599733 -0.760881 5.31468 0.00741562 
0.0353695 -0.741444 5.30461 0.00873342 
0.0404866 -0.758774 5.31885 0.00730236 
0.0210866 -0.75684 5.3232 0.00661127 
0.030056 -0.724524 5.29 0.0120889 
0.0157561 -0.739612 5.30886 0.00781574 
0.0103707 -0.722815 5.29436 0.0132669 
0.0454374 -0.776436 5.333 0.00911904 
0.0261989 -0.774531 5.33732 0.00910679 
0.0310905 -0.792335 5.35112 0.0137528 
0.0483686 -0.793777 5.34661 0.0146115 
0.0628955 -0.778057 5.32844 0.00801744 
0.0656064 -0.795521 5.34208 0.0146823 
0.0802484 -0.779892 5.32334 0.00643699 
0.0774039 -0.762796 5.3097 0.00655882 
0.0828323 -0.797243 5.33721 0.0145996 
-0.0138768 -0.737628 5.3162 0.0067612 
-0.0209875 -0.720442 5.30172 0.00972935 
-0.00687507 -0.755069 5.33058 0.00731912 
-0.0379281 -0.752529 5.33807 0.0295993 
-0.0452783 -0.735083 5.32364 0.0324894 
-0.0527915 -0.718041 5.30936 0.0319866 
-0.015545 -0.771784 5.34847 0.0105256 
-0.0243812 -0.788509 5.36597 0.0272122 
0.00337242 -0.790449 5.35842 0.0121488 
-0.019812 -0.865894 5.40432 0.0266532 
-0.0069041 -0.847727 5.39118 0.0133213 
0.00602795 -0.868184 5.39661 0.0342215 
0.00586499 -0.829134 5.37786 0.0145539 
0.0189723 -0.849661 5.3836 0.0194884 
0.0317045 -0.831108 5.37053 0.0111845 
0.0317956 -0.870109 5.3892 0.0432365 
0.0185334 -0.810818 5.36466 0.0107225 
-0.00911645 -0.808688 5.37191 0.0119557 
-0.0217295 -0.827073 5.38539 0.0152275 
0.0488546 -0.852073 5.37529 0.0213477 
0.0636539 -0.87237 5.379 0.0410261 
0.065993 -0.834006 5.36107 0.0133765 
0.0658797 -0.814739 5.35177 0.0112219 
0.0486705 -0.813117 5.35636 0.0115623 
0.0488863 -0.832637 5.36593 0.0122174 
-0.130083 -0.641716 5.20383 0.0177681 
-0.129124 -0.647478 5.22119 0.0221538 
-0.149352 -0.634671 5.20908 0.0303212 
-0.148407 -0.640246 5.2263 0.043955 
-0.127894 -0.652794 5.23842 0.0341005 
-0.126542 -0.658238 5.25563 0.0478225 
-0.10816 -0.66217 5.25041 0.0266943 
-0.10946 -0.656528 5.23304 0.0170683 
-0.110672 -0.650944 5.2157 0.0160386 
-0.0900683 -0.666379 5.24522 0.0119779 
-0.167664 -0.624902 5.21676 0.0421036 
-0.165754 -0.627894 5.23628 0.046502 
-0.149897 -0.642673 5.24841 0.0625739 
-0.143088 -0.649486 5.26542 0.0538774 
-0.10082 -0.712428 5.32952 0.132772 
-0.107302 -0.698265 5.31107 0.127358 
-0.113808 -0.684461 5.29265 0.0983576 
-0.0856572 -0.715078 5.32035 0.100133 
-0.120262 -0.671192 5.27413 0.0653094 
-0.0869562 -0.702554 5.3017 0.0739794 
-0.0880084 -0.690174 5.28287 0.0416203 
-0.0621638 -0.704641 5.2933 0.0324185 
-0.0891024 -0.678105 5.26399 0.0257495 
0.0148342 -0.669574 5.18067 0.02815 
-0.00685392 -0.665451 5.18365 0.0267903 
0.00283934 -0.671779 5.19819 0.0183149 
-0.0284592 -0.661393 5.18708 0.0264795 
-0.0189827 -0.66769 5.20133 0.0178716 
-0.0406935 -0.663726 5.20467 0.0140585 
-0.050393 -0.657714 5.1906 0.0189179 
-0.00922724 -0.67407 5.21574 0.0149479 
-0.0312238 -0.670087 5.21907 0.0167256 
-0.0214736 -0.676411 5.23335 0.0149423 
0.0208001 -0.682018 5.2255 0.0211386 
0.0328316 -0.679651 5.20794 0.0206928 
-0.0852132 -0.651077 5.1959 0.0140929 
-0.0749774 -0.658732 5.21074 0.00973681 
-0.102906 -0.647045 5.19827 0.0161661 
-0.0929143 -0.654907 5.21325 0.00974004 
-0.0825527 -0.662525 5.22798 0.0111475 
-0.0558757 -0.671371 5.23903 0.0121703 
-0.0291767 -0.708519 5.28659 0.00727968 
-0.0376495 -0.697054 5.27136 0.00750396 
-0.00539766 -0.699132 5.26384 0.00984129 
0.0025215 -0.710867 5.27915 0.00925678 
-0.0296706 -0.686683 5.25234 0.00846754 
-0.0636368 -0.681242 5.25821 0.00931319 
0.02324 -0.713895 5.27542 0.00923647 
0.043151 -0.715696 5.27097 0.00819359 
0.0365132 -0.705164 5.25651 0.00925004 
0.0628449 -0.717706 5.26652 0.0112354 
0.056169 -0.707124 5.25191 0.0111775 
0.0495366 -0.69671 5.23724 0.0110695 
0.028689 -0.693494 5.24102 0.0110068 
0.00765594 -0.690481 5.24477 0.0118812 
0.0154817 -0.702172 5.26011 0.00984811 
-0.179412 -0.614117 5.22491 0.042013 
-0.177764 -0.615029 5.24833 0.0498095 
-0.162819 -0.63083 5.26001 0.0687906 
-0.154151 -0.638915 5.27749 0.059624 
-0.190508 -0.599972 5.23701 0.0343426 
-0.170506 -0.619391 5.27264 0.067343 
-0.145365 -0.654091 5.2964 0.0882657 
-0.127386 -0.677285 5.30313 0.0979006 
-0.135376 -0.663295 5.28433 0.0822392 
-0.0695836 -0.733234 5.33179 0.0926848 
-0.0617163 -0.751033 5.34617 0.0846406 
-0.0544578 -0.769461 5.36022 0.0791729 
-0.0555744 -0.787227 5.37678 0.0747228 
-0.0783695 -0.750443 5.35296 0.123384 
-0.0895475 -0.731151 5.34124 0.134626 
-0.0751551 -0.768839 5.36912 0.130382 
-0.0723685 -0.787674 5.38503 0.124825 
-0.0717726 -0.865633 5.4229 0.0641215 
-0.0672875 -0.845829 5.41176 0.083892 
-0.0630618 -0.826154 5.4003 0.0781468 
-0.051803 -0.864499 5.41508 0.0398893 
-0.0591718 -0.8066 5.38866 0.076372 
-0.0446089 -0.845433 5.40306 0.0393342 
-0.0309295 -0.807304 5.37846 0.0266654 
-0.0454431 -0.826019 5.39352 0.0618955 
-0.0944351 -0.746313 5.36535 0.180736 
-0.0848745 -0.82437 5.41418 0.141348 
-0.0864113 -0.864177 5.43244 0.0960485 
-0.0869379 -0.804157 5.40704 0.142293 
-0.0825864 -0.844936 5.42088 0.107147 
0.035998 -0.979944 5.3657 0.0480846 
0.0265812 -0.966534 5.37631 0.0498179 
0.0515693 -0.953633 5.37454 0.0439325 
0.0421925 -0.940145 5.38497 0.0653999 
0.0170586 -0.953082 5.38669 0.0436118 
0.00762163 -0.939636 5.39689 0.0480992 
-0.0124712 -0.967499 5.38927 0.0420188 
-0.00291832 -0.980716 5.3789 0.0446646 
0.00665874 -0.993953 5.3683 0.0721438 
-0.0325571 -0.994836 5.38137 0.0501948 
0.0653706 -0.923254 5.37717 0.0443936 
0.0542675 -0.90572 5.38154 0.0329974 
0.0747398 -0.890498 5.37475 0.0361227 
0.042973 -0.88798 5.3856 0.0399962 
0.0257888 -0.887755 5.39135 0.0333857 
0.0369378 -0.905317 5.38751 0.0386483 
0.0198034 -0.905027 5.39329 0.033847 
-0.0270656 -0.883843 5.40742 0.0270031 
-0.0200613 -0.902485 5.40564 0.0243803 
-0.0274892 -0.920383 5.40831 0.0204533 
-0.0207151 -0.938473 5.40628 0.041981 
-0.0493554 -0.937338 5.41565 0.0289898 
0.000812615 -0.921576 5.39898 0.0277588 
0.000122066 -0.885526 5.3989 0.030526 
-0.0616046 -0.951862 5.41274 0.0267205 
-0.0738403 -0.96603 5.40965 0.0303714 
-0.0410252 -0.966392 5.39873 0.0315019 
-0.0531551 -0.980588 5.39554 0.0388528 
-0.0654389 -0.994486 5.3922 0.047688 
-0.0862845 -0.979921 5.40649 0.0293093 
-0.0985471 -0.993655 5.40334 0.035668 
-0.0914906 -0.965164 5.41599 0.0224506 
-0.0791585 -0.951061 5.41893 0.0266232 
-0.0667375 -0.936714 5.42179 0.0264798 
-0.0843597 -0.936003 5.428 0.0278739 
-0.0975886 -0.950335 5.42573 0.0247931 
-0.110837 -0.964497 5.4232 0.0263634 
-0.10478 -0.979104 5.41336 0.0241605 
-0.117894 -0.993007 5.41062 0.0222707 
-0.123901 -0.978476 5.42064 0.0172584 
-0.136963 -0.992278 5.41791 0.0201223 
-0.0423001 -0.90146 5.41299 0.0221494 
-0.0597191 -0.882591 5.41865 0.045617 
-0.0679133 -0.90058 5.42197 0.0426774 
-0.0584947 -0.919033 5.41881 0.0233977 
-0.0761338 -0.918369 5.42501 0.0306555 
-0.0802573 -0.883619 5.42683 0.0600313 
-0.0887918 -0.901313 5.43046 0.0576409 
-0.0971569 -0.918831 5.43397 0.0495829 
-0.10569 -0.936189 5.43722 0.0351306 
-0.119235 -0.950586 5.43547 0.0399039 
-0.132804 -0.964747 5.43338 0.029617 
-0.146223 -0.978659 5.43138 0.0225821 
-0.159518 -0.992454 5.42936 0.0234163 
-0.125073 -0.936335 5.45121 0.0526204 
-0.1042 -0.900547 5.44065 0.0773252 
-0.0953261 -0.882422 5.43658 0.0787398 
-0.178016 -0.99354 5.44295 0.0262014 
-0.164118 -0.979439 5.4443 0.0375298 
-0.153114 -0.965244 5.44869 0.0593806 
-0.136122 -0.950777 5.44699 0.0577329 
-0.279343 -1.05424 5.36472 0.00341906 
-0.298575 -1.05915 5.34154 0.00396445 
-0.317619 -1.06424 5.31845 0.0066308 
-0.319975 -1.06343 5.33668 0.00393626 
-0.296263 -1.05989 5.32332 0.00459945 
-0.276156 -1.05611 5.3297 0.00480762 
-0.277823 -1.0552 5.3472 0.00413832 
-0.257642 -1.05159 5.35357 0.00521852 
-0.345842 -1.06653 5.3171 0.00480973 
-0.340774 -1.0642 5.2974 0.00494827 
-0.361907 -1.06535 5.29194 0.00548012 
-0.324917 -1.0619 5.28852 0.00493633 
-0.289261 -1.05939 5.27334 0.00554903 
-0.278878 -1.06032 5.29974 0.00920379 
-0.266898 -1.05862 5.27921 0.00705065 
-0.301253 -1.06104 5.29394 0.00578325 
-0.312268 -1.06023 5.26775 0.00965756 
-0.243664 -1.05611 5.30061 0.00558416 
-0.253239 -1.05457 5.31987 0.0051184 
-0.229896 -1.05166 5.3263 0.00527241 
-0.206462 -1.04888 5.33272 0.00885516 
-0.239464 -1.05022 5.34556 0.00633601 
-0.251236 -1.03543 5.42505 0.00794694 
-0.22979 -1.02404 5.42701 0.0145874 
-0.213726 -1.01443 5.43347 0.018695 
-0.197799 -1.00432 5.44006 0.0206107 
-0.283656 -1.04762 5.40718 0.00405442 
-0.294904 -1.05316 5.39417 0.00285144 
-0.312008 -1.05977 5.38556 0.00255887 
-0.262763 -1.04059 5.41199 0.00704109 
-0.264603 -1.04815 5.37396 0.00403505 
-0.249685 -1.04217 5.38328 0.00666411 
-0.245869 -1.03768 5.40003 0.00687249 
-0.230781 -1.03177 5.40936 0.00857741 
-0.267559 -1.04462 5.3948 0.00555059 
-0.204755 -1.02103 5.40881 0.0140544 
-0.189737 -1.01169 5.41558 0.0169707 
-0.174653 -1.00218 5.42249 0.0208174 
-0.388833 -1.07302 5.44207 0.00199723 
-0.412426 -1.07542 5.44112 0.00162389 
-0.397571 -1.07507 5.4615 0.00331761 
-0.436013 -1.07789 5.44019 0.00238434 
-0.459618 -1.08035 5.43934 0.00646635 
-0.447212 -1.07966 5.41843 0.00532138 
-0.423648 -1.07694 5.4194 0.0020469 
-0.404859 -1.07562 5.48104 0.0031338 
-0.426787 -1.07656 5.474 0.00269447 
-0.432912 -1.07745 5.4932 0.00302268 
-0.41092 -1.07653 5.50018 0.00312464 
-0.451785 -1.07811 5.47658 0.00321923 
-0.476823 -1.07968 5.47912 0.00643151 
-0.468283 -1.08007 5.45925 0.00606688 
-0.443274 -1.0783 5.4567 0.00267814 
-0.559581 -1.06984 5.44172 0.0104227 
-0.534605 -1.0724 5.44101 0.00487157 
-0.547414 -1.07199 5.42206 0.0093599 
-0.509628 -1.07505 5.44034 0.00269047 
-0.522385 -1.07448 5.42147 0.00481357 
-0.497358 -1.07695 5.42088 0.00345194 
-0.535049 -1.07402 5.40241 0.0104178 
-0.484649 -1.07769 5.43983 0.00285602 
-0.493226 -1.07731 5.45974 0.00418026 
-0.518226 -1.07451 5.46039 0.00367757 
-0.512049 -1.0753 5.40463 0.00422299 
-0.524031 -1.07448 5.38806 0.00804462 
-0.500981 -1.07575 5.39029 0.00422166 
-0.483471 -1.07683 5.39969 0.00259231 
-0.512919 -1.07487 5.37366 0.00758261 
-0.465994 -1.07794 5.40915 0.00271442 
-0.0524454 -1.04492 5.30148 0.0180865 
-0.0617487 -1.04002 5.31785 0.0218638 
-0.0290819 -1.03448 5.32115 0.0240748 
-0.0384776 -1.02963 5.33736 0.0378913 
-0.0712693 -1.03517 5.33391 0.025971 
-0.0807802 -1.03014 5.3501 0.035875 
-0.106569 -1.03991 5.32983 0.0150222 
-0.0967386 -1.04497 5.31371 0.0157608 
-0.0872286 -1.04989 5.29756 0.0182144 
-0.132049 -1.04958 5.30979 0.0165576 
-0.00532363 -1.02038 5.33882 0.0344781 
-0.0142963 -1.01195 5.35307 0.0404934 
0.0156242 -1.00256 5.35405 0.0466738 
-0.0235212 -1.00352 5.36721 0.0499665 
-0.0568308 -1.01286 5.36569 0.0362011 
-0.0475825 -1.02131 5.35162 0.0343181 
-0.107753 -1.01193 5.38245 0.0258933 
-0.125903 -1.01157 5.38807 0.0203079 
-0.0896346 -1.01214 5.37679 0.0279311 
-0.116886 -1.02963 5.36145 0.0324135 
-0.134919 -1.02924 5.36717 0.0218394 
-0.152787 -1.02882 5.37287 0.0186706 
-0.0986334 -1.02999 5.35569 0.0320124 
-0.161442 -1.03898 5.3471 0.0103355 
-0.17989 -1.03877 5.35274 0.00738558 
-0.142678 -1.03928 5.34143 0.0119723 
-0.169894 -1.04911 5.3214 0.0115475 
-0.18823 -1.04901 5.32708 0.0102019 
-0.151115 -1.04931 5.31562 0.0123228 
-0.124605 -1.03961 5.33562 0.0130808 
-0.200398 -1.03881 5.36079 0.00666037 
-0.173564 -1.02883 5.38088 0.0127593 
-0.194088 -1.0288 5.38887 0.0109961 
-0.20836 -1.03419 5.37907 0.00712563 
-0.222493 -1.03971 5.36931 0.00664111 
-0.214508 -1.0442 5.351 0.00543897 
-0.145028 -1.01067 5.39552 0.0153339 
-0.151349 -1.00165 5.41074 0.0197216 
-0.165645 -1.01085 5.40338 0.0187949 
-0.159405 -1.01972 5.38813 0.0149212 
-0.179968 -1.01988 5.39612 0.0134371 
-0.227421 -1.03533 5.38894 0.00723344 
-0.24285 -1.0455 5.3629 0.00541454 
-0.142829 -1.05856 5.21528 0.0125539 
-0.155487 -1.05854 5.23221 0.0111413 
-0.122002 -1.05882 5.2369 0.011693 
-0.134503 -1.05886 5.25384 0.0121889 
-0.16834 -1.0584 5.2492 0.00828969 
-0.181247 -1.05824 5.26628 0.0120552 
-0.20305 -1.05777 5.24478 0.00983329 
-0.190265 -1.05801 5.22766 0.00993316 
-0.177444 -1.05818 5.21065 0.0147992 
-0.224592 -1.05757 5.22322 0.0146283 
-0.0993785 -1.05682 5.25872 0.0103261 
-0.110054 -1.05453 5.27569 0.010714 
-0.0765217 -1.05218 5.28044 0.0126527 
-0.120986 -1.05211 5.29276 0.0114039 
-0.15679 -1.05381 5.28803 0.00885023 
-0.145429 -1.05643 5.27083 0.00870559 
-0.212752 -1.05355 5.30544 0.00543283 
-0.194072 -1.0535 5.29954 0.00789368 
-0.218964 -1.05841 5.27819 0.0106398 
-0.237503 -1.05855 5.28409 0.0105541 
-0.18771 -1.05586 5.28293 0.00832134 
-0.259109 -1.05835 5.26251 0.00747245 
-0.240445 -1.05811 5.25658 0.00852901 
-0.262278 -1.05808 5.23514 0.0140455 
-0.280908 -1.05833 5.24104 0.0128251 
-0.232557 -1.05785 5.23991 0.00872837 
-0.211075 -1.05813 5.26147 0.00814159 
-0.345735 -1.06601 5.39089 0.00241173 
-0.36164 -1.06899 5.38252 0.00278177 
-0.34712 -1.06702 5.37259 0.00296176 
-0.362993 -1.07008 5.36429 0.00320912 
-0.378824 -1.07324 5.35593 0.00753876 
-0.377513 -1.07204 5.37422 0.00286996 
-0.393385 -1.07519 5.36587 0.00685517 
-0.36421 -1.07121 5.346 0.00747184 
-0.413667 -1.07363 5.34137 0.00511277 
-0.433965 -1.07213 5.31704 0.00616843 
-0.436098 -1.07396 5.33711 0.00430028 
-0.411505 -1.07175 5.32126 0.00645831 
-0.390827 -1.07093 5.32619 0.00475015 
-0.365998 -1.06766 5.31159 0.00485246 
-0.348843 -1.06893 5.33667 0.00661909 
-0.387002 -1.06869 5.30635 0.00584178 
-0.408945 -1.06963 5.30143 0.00715511 
-0.319853 -1.06246 5.35418 0.00329256 
-0.299618 -1.05833 5.35942 0.00309075 
-0.435335 -1.07563 5.35746 0.00395704 
-0.41436 -1.07543 5.36164 0.00463008 
-0.413537 -1.07715 5.38198 0.00547356 
-0.435973 -1.077 5.37785 0.00387848 
-0.451743 -1.07627 5.36838 0.00325829 
-0.451122 -1.07495 5.34796 0.00404477 
-0.466855 -1.07428 5.33847 0.00557519 
-0.467523 -1.07557 5.35887 0.00379831 
-0.483336 -1.07492 5.34934 0.00633045 
-0.360603 -1.06892 5.40639 0.00297417 
-0.378288 -1.07151 5.39827 0.00264017 
-0.395913 -1.07433 5.39018 0.00270697 
-0.398557 -1.07425 5.42122 0.00189212 
-0.431648 -1.07865 5.39943 0.00526813 
-0.375154 -1.07132 5.42337 0.00251571 
-0.453166 -1.07814 5.39597 0.00394124 
-0.470607 -1.07701 5.38648 0.00310811 
-0.488066 -1.07593 5.37703 0.00369452 
-0.498147 -1.07494 5.36152 0.00599057 
-0.545117 -1.07119 5.4661 0.00589176 
-0.53061 -1.07263 5.49049 0.00440202 
-0.503719 -1.07612 5.48481 0.00362468 
-0.48917 -1.07788 5.50917 0.00539972 
-0.516008 -1.07426 5.51485 0.00431392 
-0.501371 -1.07607 5.53923 0.00639976 
-0.546111 -1.06775 5.51899 0.00204673 
-0.560713 -1.06637 5.49471 0.004121 
-0.575296 -1.06508 5.47033 0.00854003 
-0.590914 -1.06033 5.49889 0.00831053 
-0.459607 -1.07883 5.50113 0.00484812 
-0.442305 -1.0782 5.52312 0.00377421 
-0.420274 -1.07747 5.53014 0.00384299 
-0.39817 -1.07717 5.53711 0.00729746 
-0.407448 -1.07801 5.56711 0.00734208 
-0.430978 -1.07703 5.56013 0.00286985 
-0.454451 -1.07647 5.55315 0.00191782 
-0.471841 -1.07697 5.53114 0.00275534 
-0.449037 -1.07429 5.61948 0.00222216 
-0.473112 -1.07265 5.61202 0.00119258 
-0.466492 -1.07475 5.59262 0.00183249 
-0.49718 -1.07121 5.60454 0.00164828 
-0.490543 -1.07321 5.5852 0.00213353 
-0.514585 -1.07206 5.57779 0.00427524 
-0.521226 -1.07014 5.59711 0.0046588 
-0.48392 -1.07531 5.56592 0.00286678 
-0.507977 -1.07405 5.55854 0.00482347 
-0.460457 -1.07558 5.57291 0.00177422 
-0.436972 -1.07614 5.57991 0.00203625 
-0.443014 -1.07515 5.59965 0.00195551 
-0.419527 -1.07587 5.6067 0.00365267 
-0.413487 -1.07693 5.58688 0.0044865 
-0.425546 -1.07502 5.62655 0.00408696 
-0.543645 -1.06597 5.5868 0.00220912 
-0.567395 -1.06071 5.57578 0.00109395 
-0.559411 -1.06386 5.55738 0.00168224 
-0.591146 -1.05587 5.56478 0.00201393 
-0.583148 -1.05889 5.54644 0.00271237 
-0.606895 -1.05415 5.53552 0.00623456 
-0.614894 -1.05116 5.55384 0.00555834 
-0.575151 -1.06209 5.52816 0.00340984 
-0.598893 -1.05721 5.51722 0.00693909 
-0.552731 -1.06581 5.53824 0.00168156 
-0.530344 -1.06975 5.54833 0.00187274 
-0.536989 -1.06782 5.5675 0.00184814 
-0.0840472 -0.643989 5.43566 0.00925163 
-0.0979674 -0.62132 5.41783 0.0129527 
-0.111739 -0.599255 5.39987 0.0128324 
-0.0942167 -0.654994 5.42133 0.0136736 
-0.10808 -0.632665 5.40311 0.0127322 
-0.125538 -0.577935 5.38219 0.0107722 
-0.138756 -0.556738 5.36441 0.00804056 
-0.12787 -0.543964 5.37877 0.00539616 
-0.114889 -0.565495 5.39651 0.00724035 
-0.124018 -0.614947 5.3817 0.0231946 
-0.196506 -0.488324 5.30444 0.010977 
-0.181952 -0.50433 5.321 0.00747486 
-0.169963 -0.525252 5.33286 0.0117164 
-0.187523 -0.472873 5.31749 0.0137708 
-0.154622 -0.541 5.3487 0.0105316 
-0.172493 -0.489823 5.33454 0.00620811 
-0.15687 -0.506446 5.35114 0.00603151 
-0.176097 -0.458999 5.33179 0.0165041 
-0.160947 -0.47605 5.34887 0.00554137 
-0.140872 -0.523116 5.36743 0.00626391 
-0.154543 -0.933328 6.25335 0.000257708 
-0.152134 -0.94407 6.22223 0.000377063 
-0.178024 -0.937795 6.2419 0.000150481 
-0.175656 -0.948493 6.2108 0.000277833 
-0.149758 -0.955312 6.19122 0.00128518 
-0.147382 -0.966718 6.16018 0.00476161 
-0.124267 -0.961637 6.17271 0.00487526 
-0.126653 -0.950156 6.2037 0.00127586 
-0.129089 -0.938916 6.23477 0.000441042 
-0.101145 -0.9565 6.18518 0.0054046 
-0.201451 -0.942346 6.22988 0.000106814 
-0.199046 -0.953202 6.19825 0.000265104 
-0.225037 -0.946276 6.21817 3.16089e-05 
-0.222652 -0.957215 6.18657 0.000234637 
-0.196643 -0.964443 6.16666 0.0011191 
-0.194301 -0.976065 6.13509 0.00488182 
-0.170816 -0.971444 6.14766 0.00474849 
-0.17324 -0.959797 6.17922 0.00106443 
-0.135273 -0.997868 6.02994 0.0100969 
-0.138262 -0.990243 6.06262 0.00474268 
-0.111846 -0.992386 6.04342 0.0107485 
-0.141273 -0.982492 6.0953 0.00267189 
-0.114909 -0.984691 6.07618 0.00502296 
-0.117976 -0.976837 6.10883 0.00229268 
-0.0884798 -0.98684 6.05689 0.01121 
-0.144313 -0.974682 6.1278 0.00275802 
-0.167827 -0.979222 6.11524 0.0023085 
-0.164815 -0.987197 6.08273 0.00248041 
-0.091619 -0.979383 6.08916 0.00558799 
-0.0656258 -0.981107 6.07038 0.0117879 
-0.0947491 -0.971939 6.12132 0.00295349 
-0.0687927 -0.973743 6.10264 0.00548897 
-0.0720148 -0.966254 6.13481 0.00330333 
-0.0428454 -0.975043 6.0837 0.01136 
-0.0979303 -0.964313 6.1533 0.00310602 
-0.121073 -0.969361 6.14083 0.00265639 
-0.248908 -0.950405 6.20585 1.19188e-05 
-0.246823 -0.961354 6.17358 0.000176376 
-0.273355 -0.953982 6.19357 0.0718268 
-0.271306 -0.965044 6.16131 0.00021427 
-0.244797 -0.972831 6.14138 0.00107293 
-0.242796 -0.984365 6.10909 0.0038713 
-0.218536 -0.980126 6.12209 0.00387909 
-0.22056 -0.968518 6.15433 0.000989707 
-0.297164 -0.957673 6.18117 0.0719198 
-0.294444 -0.968727 6.1488 0.000199785 
-0.320623 -0.960709 6.1692 2.87929e-05 
-0.317946 -0.971812 6.13685 0.000210179 
-0.29182 -0.98021 6.11649 0.00112514 
-0.289214 -0.991598 6.08408 0.00344998 
-0.265995 -0.987871 6.09658 0.00309412 
-0.268636 -0.976516 6.12899 0.000957111 
-0.229314 -1.01769 5.97575 0.00830369 
-0.232633 -1.00964 6.00917 0.00490514 
-0.206388 -1.01286 5.98896 0.00747815 
-0.236002 -1.0012 6.04249 0.00218544 
-0.209768 -1.00483 6.02241 0.00397333 
-0.213163 -0.996397 6.05581 0.00174658 
-0.183458 -1.00841 6.00217 0.00860673 
-0.239384 -0.992645 6.07579 0.00167386 
-0.262622 -0.996263 6.06329 0.0015198 
-0.259291 -1.00482 6.03005 0.0018224 
-0.186125 -1.00043 6.03543 0.00448358 
-0.159376 -1.00305 6.01607 0.00875256 
-0.188833 -0.992336 6.06874 0.00245827 
-0.162075 -0.99511 6.0494 0.00421392 
-0.191553 -0.984104 6.10191 0.0023182 
-0.215832 -0.988346 6.08898 0.00202486 
-0.342513 -0.963706 6.15765 8.55828e-05 
-0.338236 -0.974538 6.12565 0.000170815 
-0.363094 -0.965872 6.14692 1.68217e-06 
-0.358886 -0.976758 6.11499 0.000124509 
-0.334038 -0.985659 6.09369 0.000795358 
-0.329865 -0.996714 6.06165 0.00222066 
-0.309523 -0.994122 6.07288 0.00265888 
-0.313736 -0.982931 6.10486 0.000820707 
-0.382671 -0.968084 6.13641 1.42787e-05 
-0.377396 -0.978864 6.10462 0.000106038 
-0.401427 -0.969807 6.12656 4.56285e-06 
-0.396165 -0.980518 6.09474 0.00011345 
-0.372132 -0.989858 6.07285 0.000524527 
-0.366916 -1.00105 6.0411 0.00199065 
-0.348373 -0.998817 6.05137 0.00197007 
-0.353602 -0.98773 6.08317 0.000527102 
-0.30516 -1.02985 5.93154 0.00600395 
-0.311288 -1.02196 5.96419 0.00346133 
-0.287066 -1.02716 5.94216 0.00705712 
-0.317433 -1.0135 5.99667 0.0012269 
-0.293251 -1.0191 5.97473 0.00339274 
-0.299447 -1.0107 6.00726 0.00124671 
-0.269004 -1.02441 5.95266 0.00743141 
-0.32363 -1.00509 6.02914 0.00112815 
-0.342171 -1.00711 6.01885 0.000804924 
-0.336018 -1.01563 5.98643 0.0010191 
-0.274013 -1.01651 5.98558 0.00389417 
-0.249162 -1.02091 5.96417 0.0071696 
-0.279057 -1.00842 6.01848 0.00210531 
-0.254195 -1.01302 5.99716 0.00387606 
-0.28413 -0.999826 6.05122 0.00160997 
-0.304491 -1.00235 6.04004 0.00101072 
-0.370049 -1.07334 5.52642 0.00617277 
-0.351187 -1.07057 5.54563 0.00684575 
-0.325672 -1.06469 5.53696 0.00653842 
-0.306516 -1.06263 5.55612 0.0139938 
-0.332132 -1.06827 5.56486 0.00996584 
-0.312959 -1.06628 5.58401 0.0164522 
-0.360338 -1.07171 5.57558 0.00429961 
-0.379267 -1.07429 5.55635 0.0050725 
-0.280887 -1.05166 5.5422 0.00883732 
-0.260092 -1.04196 5.54411 0.00788962 
-0.239107 -1.0323 5.54598 0.00928653 
-0.219625 -1.02509 5.55967 0.0175658 
-0.242082 -1.03747 5.56983 0.0127211 
-0.222232 -1.03048 5.58338 0.0234944 
-0.264613 -1.04673 5.56996 0.00761861 
-0.287158 -1.05573 5.57003 0.00811351 
-0.233659 -1.04304 5.65945 0.0287813 
-0.259704 -1.0494 5.66032 0.0158628 
-0.253502 -1.04907 5.6407 0.0232282 
-0.279424 -1.05535 5.64144 0.0125542 
-0.285672 -1.0556 5.66103 0.00914646 
-0.273275 -1.05499 5.62188 0.0180024 
-0.305379 -1.06139 5.64212 0.00792939 
-0.299163 -1.06125 5.62251 0.0103078 
-0.325056 -1.06718 5.62312 0.00958563 
-0.311535 -1.06165 5.66166 0.00605044 
-0.331141 -1.06763 5.64267 0.00915129 
-0.337351 -1.06781 5.66225 0.00911139 
-0.293075 -1.06078 5.60295 0.0152217 
-0.318935 -1.06687 5.60358 0.0124281 
-0.270513 -1.05185 5.60287 0.0122996 
-0.247757 -1.04291 5.60268 0.017293 
-0.250548 -1.04609 5.62167 0.0231187 
-0.227856 -1.03695 5.62138 0.0289346 
-0.224959 -1.03387 5.60236 0.0234418 
-0.230694 -1.04011 5.64042 0.02874 
-0.360992 -1.06914 5.65829 0.00381253 
-0.354864 -1.07031 5.63838 0.00566126 
-0.378491 -1.07159 5.63447 0.00270227 
-0.384618 -1.07044 5.6543 0.00193926 
-0.372428 -1.07267 5.61458 0.00382246 
-0.402042 -1.07321 5.6305 0.00222629 
-0.395973 -1.07428 5.61068 0.00261935 
-0.408111 -1.07224 5.65035 0.00219602 
-0.389935 -1.07531 5.59085 0.00427674 
-0.366328 -1.07232 5.59509 0.00382267 
-0.342667 -1.06955 5.59934 0.0062099 
-0.348737 -1.06995 5.61886 0.00560078 
0.0618462 -0.58143 5.5655 0.00461448 
0.0554763 -0.553837 5.55913 0.00219459 
0.0606686 -0.525402 5.56332 0.0019038 
0.0545816 -0.498023 5.5565 0.00182589 
0.0605426 -0.469398 5.55972 0.00447886 
0.0365881 -0.471866 5.53926 0.00415822 
0.0781841 -0.495751 5.57719 0.00208294 
0.0844263 -0.467092 5.58006 0.00405742 
0.0835465 -0.522168 5.58232 0.00233411 
0.089101 -0.548697 5.5871 0.00285507 
0.0836658 -0.577251 5.5831 0.00535089 
0.105408 -0.573149 5.60071 0.00578668 
0.0275682 -0.446431 5.53546 0.00184963 
0.0405736 -0.445607 5.54772 0.00144274 
0.0318049 -0.420034 5.54365 0.001678 
0.0187418 -0.420938 5.53142 0.00188604 
0.0449594 -0.419131 5.55571 0.001518 
0.0232955 -0.394257 5.53912 0.00181057 
0.0364381 -0.393305 5.55129 0.00160745 
0.028199 -0.367318 5.54637 0.00522959 
0.0101104 -0.395257 5.52706 0.00220964 
0.0150002 -0.368391 5.53429 0.00588824 
0.0016704 -0.369506 5.52244 0.00518527 
0.0496925 -0.392353 5.56328 0.001234 
0.0414672 -0.366314 5.55833 0.00434597 
0.054655 -0.365341 5.57041 0.00364611 
0.0693273 -0.416439 5.57577 0.000903278 
0.0646967 -0.443099 5.56802 0.00154854 
0.113402 -0.362763 5.61992 0.00256802 
0.119091 -0.388007 5.62088 0.00122307 
0.111568 -0.414289 5.61134 0.00135249 
0.117548 -0.439116 5.61183 0.00186291 
0.11064 -0.464874 5.60133 0.00525213 
0.136695 -0.462672 5.62264 0.00484245 
0.091205 -0.441418 5.59077 0.00135888 
0.0837591 -0.415973 5.58841 0.00114945 
0.0765174 -0.390413 5.58574 0.00108743 
0.0911196 -0.389848 5.59819 0.00102074 
0.084113 -0.364039 5.59516 0.00342929 
0.0694255 -0.364683 5.58274 0.00368062 
0.0987143 -0.363348 5.6077 0.00277569 
0.140476 -0.488432 5.62661 0.00289888 
0.132301 -0.516081 5.62159 0.00287422 
0.136408 -0.541585 5.62495 0.00348505 
0.12888 -0.56914 5.61906 0.00664852 
0.152241 -0.565136 5.63738 0.00682957 
0.112661 -0.545621 5.60692 0.00284637 
0.107642 -0.519131 5.60152 0.00298922 
0.10254 -0.492556 5.59631 0.0028857 
-0.00879181 -0.596329 5.50749 0.00233396 
-0.0157849 -0.568883 5.4989 0.00124789 
-0.0146309 -0.539644 5.49814 0.00105598 
-0.0213831 -0.512238 5.48944 0.0013122 
-0.0198216 -0.482998 5.48814 0.00316032 
-0.0362573 -0.487161 5.47295 0.00245386 
-0.00526841 -0.508287 5.50487 0.00143812 
-0.00353738 -0.478805 5.50346 0.00317936 
0.00158213 -0.535657 5.51231 0.0013321 
0.00834944 -0.563192 5.51967 0.00134286 
0.0072714 -0.592753 5.52041 0.00350621 
0.0229901 -0.589087 5.53369 0.00370633 
-0.0456732 -0.463235 5.46637 0.00148268 
-0.0466945 -0.436236 5.46868 0.00163106 
-0.055657 -0.412186 5.46145 0.0035003 
-0.055971 -0.384898 5.46287 0.0107604 
-0.0726077 -0.391185 5.44489 0.0133609 
-0.0390185 -0.406051 5.47952 0.00244145 
-0.0392792 -0.378659 5.4808 0.0086759 
-0.0301313 -0.431022 5.48531 0.00184648 
-0.0210574 -0.456038 5.49081 0.00132644 
-0.00162556 -0.424616 5.51385 0.00187135 
0.00748582 -0.449944 5.51767 0.00154256 
0.0165627 -0.475267 5.52142 0.00393108 
-0.0206227 -0.401607 5.49757 0.00218955 
-0.0188668 -0.374067 5.50173 0.00693833 
0.0327114 -0.501195 5.53845 0.00162748 
0.0392199 -0.528497 5.54491 0.00154199 
0.0359705 -0.557703 5.54339 0.00112268 
0.0425518 -0.585278 5.54957 0.0048383 
0.0193658 -0.532127 5.52808 0.00147313 
0.0128586 -0.504574 5.52029 0.00154778 
-0.10018 -0.58718 5.4145 0.0076505 
-0.114849 -0.531269 5.39383 0.00284599 
-0.10059 -0.552876 5.41173 0.00388475 
-0.0865198 -0.574687 5.42903 0.00503033 
-0.0809428 -0.60499 5.43664 0.00544518 
-0.0709517 -0.631531 5.44941 0.00574886 
-0.14438 -0.493339 5.36657 0.00456365 
-0.162619 -0.445929 5.34797 0.0187167 
-0.146416 -0.463535 5.36617 0.0050737 
-0.129931 -0.480381 5.38245 0.00321859 
-0.122642 -0.505934 5.38835 0.00235062 
-0.129663 -0.42173 5.38546 0.0138782 
-0.118706 -0.443223 5.39592 0.00511767 
-0.112916 -0.468635 5.40082 0.00249387 
-0.101329 -0.489972 5.41066 0.00135692 
-0.0944648 -0.5149 5.4146 0.0024202 
-0.135836 -0.455076 5.37768 0.00507128 
-0.141259 -0.429476 5.37229 0.0195153 
-0.0751365 -0.533454 5.43711 0.00130433 
-0.0709154 -0.563518 5.44415 0.00157353 
-0.0617323 -0.590017 5.45564 0.00248396 
-0.0570113 -0.620275 5.46275 0.00422223 
-0.100645 -0.996694 5.75635 0.0364686 
-0.0922085 -0.981973 5.72982 0.0142468 
-0.117402 -1.00245 5.74449 0.0353437 
-0.0837777 -0.96698 5.70337 0.0098365 
-0.108979 -0.987885 5.71807 0.015813 
-0.100576 -0.972891 5.6917 0.00848033 
-0.13415 -1.00821 5.73257 0.0393456 
-0.0755048 -0.951649 5.67706 0.0126952 
-0.067268 -0.935882 5.65076 0.0263168 
-0.0536579 -0.930362 5.66058 0.0267868 
-0.0619573 -0.946215 5.68701 0.010581 
-0.0703129 -0.961636 5.71348 0.00683796 
-0.0401659 -0.924838 5.6705 0.0279704 
-0.122969 -0.992993 5.70801 0.0178885 
-0.148822 -1.013 5.72255 0.0409665 
-0.137847 -0.997673 5.69814 0.0145745 
-0.119272 -0.979809 5.6786 0.00886926 
-0.163597 -1.01761 5.71255 0.033248 
-0.100831 -0.961393 5.6589 0.011244 
-0.0899905 -0.945019 5.63462 0.0217708 
-0.0368665 -0.839248 5.57401 0.0153087 
-0.0442447 -0.863913 5.59293 0.00982616 
-0.0517532 -0.888103 5.61201 0.00705334 
-0.0201666 -0.831357 5.58646 0.0167433 
-0.0594441 -0.912095 5.63143 0.0108004 
-0.0765027 -0.919023 5.6194 0.010695 
-0.0249144 -0.855047 5.60735 0.0093496 
-0.0298525 -0.878537 5.62838 0.00542019 
-0.00421149 -0.824691 5.59844 0.0191625 
-0.0089981 -0.848305 5.6195 0.00879701 
-0.0349587 -0.90191 5.64944 0.0114913 
-0.116819 -1.00374 5.78307 0.0149753 
-0.142405 -1.01284 5.80377 0.00742268 
-0.158575 -1.01934 5.83026 0.00743562 
-0.184068 -1.02796 5.85057 0.0177304 
-0.165218 -1.02337 5.86262 0.018645 
-0.177387 -1.02406 5.81821 0.00666234 
-0.202893 -1.03251 5.8385 0.0170236 
-0.160208 -1.01801 5.79179 0.00750285 
-0.142882 -1.01201 5.76511 0.0156511 
-0.181269 -1.02238 5.89116 0.00887329 
-0.207421 -1.02231 5.91382 0.00326823 
-0.223423 -1.02082 5.94202 0.00315034 
-0.243342 -1.02422 5.93047 0.00225277 
-0.226815 -1.02633 5.902 0.00281208 
-0.210199 -1.02834 5.87341 0.00676148 
-0.288236 -1.03254 5.90322 0.00269757 
-0.262794 -1.03302 5.88003 0.00212745 
-0.245587 -1.03551 5.85139 0.00539873 
-0.219834 -1.03617 5.82787 0.0161481 
-0.236808 -1.03976 5.81717 0.014951 
-0.228654 -1.03193 5.86208 0.00581839 
-0.245274 -1.0298 5.89068 0.00235143 
-0.261716 -1.02789 5.9191 0.00254286 
-0.218574 -1.03449 5.79115 0.00710611 
-0.192881 -1.02692 5.7701 0.00624445 
-0.174456 -1.02134 5.74383 0.0153927 
-0.159701 -1.01687 5.75387 0.0156713 
-0.177133 -1.02254 5.78049 0.00557231 
-0.194254 -1.02859 5.80691 0.00663706 
-0.380931 -1.04574 5.85868 0.0046722 
-0.380856 -1.05096 5.82634 0.00310099 
-0.406934 -1.04732 5.84853 0.00423661 
-0.406907 -1.05245 5.81619 0.00263933 
-0.380792 -1.05594 5.79395 0.0029667 
-0.3807 -1.06076 5.76138 0.00452506 
-0.347672 -1.05713 5.76918 0.00490536 
-0.34786 -1.05206 5.80171 0.00239449 
-0.347997 -1.04693 5.83411 0.0016829 
-0.314705 -1.05353 5.77683 0.00801478 
-0.440259 -1.04909 5.83832 0.00590782 
-0.456875 -1.04869 5.83164 0.00435684 
-0.447604 -1.05403 5.80589 0.00410161 
-0.473505 -1.04841 5.82501 0.00428401 
-0.464251 -1.05369 5.79925 0.00356637 
-0.454941 -1.05875 5.77335 0.00396932 
-0.441875 -1.06232 5.7459 0.00273758 
-0.434595 -1.05789 5.77852 0.00233524 
-0.421512 -1.0616 5.75108 0.00192017 
-0.414212 -1.05711 5.78366 0.00184827 
-0.427272 -1.05318 5.81102 0.00277355 
-0.401114 -1.0611 5.75623 0.0019163 
-0.418852 -1.07073 5.67513 0.00246142 
-0.395375 -1.06888 5.67913 0.0015046 
-0.406124 -1.06745 5.7039 0.0019265 
-0.371808 -1.06731 5.68308 0.00212808 
-0.38264 -1.06564 5.7079 0.00174906 
-0.359061 -1.06409 5.71185 0.00337894 
-0.348218 -1.06593 5.68708 0.0048274 
-0.393432 -1.06406 5.73267 0.00293379 
-0.36992 -1.06237 5.73663 0.00333116 
-0.413834 -1.06449 5.7275 0.00170689 
-0.434201 -1.06511 5.72235 0.00206496 
-0.426539 -1.06789 5.69875 0.00201261 
-0.305824 -1.05814 5.69034 0.00397073 
-0.325901 -1.06089 5.71956 0.007104 
-0.279966 -1.05198 5.68966 0.00535459 
-0.300178 -1.05452 5.71894 0.00340301 
-0.274305 -1.04827 5.71829 0.0033048 
-0.254014 -1.04569 5.68889 0.00962759 
-0.320296 -1.05726 5.74823 0.00742419 
-0.294555 -1.05089 5.7476 0.00384073 
-0.0143159 -0.964122 5.82055 0.0257303 
-0.0290264 -0.972705 5.84632 0.0113706 
-0.0557115 -0.984624 5.86445 0.00768694 
-0.0705492 -0.992512 5.89005 0.0107733 
-0.0970899 -1.00372 5.90778 0.0201333 
-0.0735718 -0.996653 5.92333 0.0206218 
-0.0941096 -0.999808 5.87456 0.00885348 
-0.1207 -1.01063 5.89221 0.0187856 
-0.0786258 -0.99247 5.84834 0.00716795 
-0.0632161 -0.984831 5.82202 0.0123803 
-0.0366735 -0.972652 5.80399 0.0265238 
-0.0590868 -0.981059 5.78737 0.0310878 
-0.089084 -0.997281 5.95024 0.00929176 
-0.116587 -1.00037 5.97016 0.00449643 
-0.132016 -1.00045 5.99663 0.00466319 
-0.156131 -1.0058 5.98286 0.00369318 
-0.140429 -1.0065 5.95544 0.00417452 
-0.124706 -1.00693 5.92781 0.0080378 
-0.202328 -1.01611 5.95522 0.00351572 
-0.186313 -1.01755 5.92699 0.00340112 
-0.159055 -1.01584 5.90602 0.00825472 
-0.142907 -1.01699 5.87743 0.0173186 
-0.163721 -1.01216 5.94105 0.00353945 
-0.179355 -1.01151 5.9684 0.00416694 
-0.138695 -1.01337 5.84408 0.00774341 
-0.122552 -1.00674 5.81751 0.00704695 
-0.0960564 -0.996051 5.79868 0.0138517 
-0.079787 -0.988966 5.77181 0.0329999 
-0.100946 -0.999825 5.83264 0.00636132 
-0.116405 -1.007 5.85881 0.00879711 
0.0652695 -0.608532 5.57441 0.00242021 
0.0592848 -0.638462 5.57624 0.00170912 
0.0627327 -0.666026 5.58513 0.00467957 
0.0565608 -0.696351 5.58698 0.0100715 
0.0748244 -0.691363 5.60141 0.0107912 
0.0442529 -0.670973 5.57075 0.00397008 
0.0381715 -0.701149 5.5727 0.00890507 
0.0405773 -0.642817 5.56098 0.00160386 
0.0367872 -0.614824 5.55122 0.00216722 
0.0732791 -0.717725 5.6145 0.00426221 
0.0625639 -0.74746 5.62051 0.00358342 
0.0608297 -0.774317 5.63365 0.00765813 
0.0499305 -0.804247 5.63987 0.019575 
0.0678937 -0.797792 5.65392 0.018237 
0.0427352 -0.78073 5.61961 0.00785547 
0.0318208 -0.810655 5.62596 0.0195374 
0.0444447 -0.753242 5.60624 0.00331801 
0.0461549 -0.725924 5.59297 0.00462692 
0.00323379 -0.794085 5.58909 0.00628786 
0.0126845 -0.763705 5.58144 0.00370441 
0.014387 -0.735557 5.56814 0.0038741 
0.0233262 -0.705528 5.56087 0.00841832 
0.00829566 -0.709817 5.54907 0.00813654 
0.0292636 -0.731257 5.57988 0.00424484 
0.027765 -0.758609 5.5931 0.00337359 
0.0260689 -0.786045 5.60656 0.00699511 
0.0164726 -0.816522 5.61413 0.0198641 
0.00440517 -0.680924 5.53844 0.00357057 
0.00825009 -0.650839 5.53436 0.00178382 
0.00386392 -0.622497 5.52404 0.00192868 
0.0195249 -0.618979 5.53736 0.00192417 
0.0235422 -0.646839 5.547 0.00173801 
0.0272075 -0.674963 5.55676 0.00409219 
-0.0935638 -0.68611 5.42553 0.0450765 
-0.0874447 -0.711258 5.43907 0.057834 
-0.0818731 -0.736982 5.45273 0.0638207 
-0.0745006 -0.760144 5.47061 0.05341 
-0.0838373 -0.676656 5.43951 0.0158969 
-0.0774934 -0.702621 5.45336 0.0186678 
-0.0683056 -0.725653 5.47199 0.0195616 
-0.0595668 -0.749093 5.49061 0.0176927 
-0.0707919 -0.85561 5.54452 0.0192166 
-0.0712089 -0.831506 5.52607 0.0255665 
-0.0720107 -0.807572 5.50759 0.0396032 
-0.0821163 -0.859841 5.52613 0.0321112 
-0.0825925 -0.835683 5.50774 0.0497493 
-0.0730536 -0.783756 5.48907 0.0373836 
-0.0619106 -0.775426 5.50414 0.0158616 
-0.091671 -0.862149 5.50759 0.0566977 
-0.0853755 -0.814352 5.48581 0.0795016 
-0.0604751 -0.798825 5.52172 0.0190966 
