ply
format ascii 1.0
comment VCGLIB generated
element vertex 975
property float x
property float y
property float z
property uchar red
property uchar green
property uchar blue
property float quality
end_header
-0.026309 -0.115670 5.644110 58 255 190 0.031665
0.000947 -0.129484 5.641350 22 255 225 0.020056
-0.007615 -0.111656 5.655960 58 255 190 0.030797
0.020573 -0.125012 5.652980 32 255 216 0.022505
0.028768 -0.144355 5.638940 19 253 229 0.019055
0.011602 -0.107271 5.667840 71 255 177 0.036039
-0.040726 -0.181228 5.583250 0 217 255 0.013073
-0.061715 -0.185244 5.569760 0 229 248 0.014719
-0.067639 -0.163432 5.586780 0 189 255 0.009464
-0.082244 -0.188815 5.555850 13 245 235 0.017727
-0.087890 -0.167480 5.572080 0 197 255 0.010427
-0.107701 -0.170609 5.557250 13 245 235 0.018071
-0.102453 -0.191744 5.541310 48 255 200 0.027591
-0.094301 -0.146610 5.590580 0 189 255 0.009533
-0.114043 -0.150217 5.574780 3 233 245 0.015553
-0.120831 -0.130217 5.594220 13 245 235 0.018221
-0.102489 -0.128220 5.603810 19 253 229 0.019478
-0.075440 -0.144190 5.599360 0 205 255 0.011377
-0.083762 -0.125670 5.613310 35 255 213 0.023701
-0.056229 -0.141328 5.608060 6 237 242 0.016275
-0.048188 -0.160937 5.594760 0 209 255 0.011869
-0.064514 -0.122741 5.622730 45 255 203 0.026870
-0.155649 -0.080391 5.684640 0 145 255 0.005159
-0.137808 -0.079444 5.694060 0 129 255 0.004152
-0.128334 -0.089353 5.671270 0 141 255 0.004870
-0.110076 -0.087624 5.680230 0 145 255 0.005195
-0.119767 -0.077969 5.703050 0 133 255 0.004460
-0.100738 -0.098534 5.657960 0 181 255 0.008275
-0.091507 -0.085666 5.689140 0 157 255 0.006074
-0.081932 -0.095909 5.666540 0 209 255 0.011978
-0.062668 -0.093009 5.674860 3 233 245 0.015589
-0.101582 -0.076542 5.712210 0 137 255 0.004603
-0.072831 -0.083277 5.697890 0 177 255 0.008146
-0.083146 -0.074850 5.721370 0 145 255 0.005339
-0.072662 -0.108215 5.644890 13 245 235 0.017853
-0.053409 -0.105040 5.652930 38 255 209 0.024906
-0.091905 -0.110980 5.634790 6 237 242 0.016196
-0.110726 -0.113512 5.624620 0 221 255 0.013968
-0.119376 -0.100672 5.647310 0 181 255 0.008351
-0.137762 -0.102299 5.636520 0 193 255 0.009631
-0.129137 -0.115484 5.614240 0 225 251 0.014155
-0.146596 -0.090903 5.660240 0 157 255 0.006086
-0.065774 -0.073748 5.731840 0 125 255 0.003970
-0.055598 -0.081533 5.710980 0 149 255 0.005370
-0.037308 -0.079562 5.721140 0 145 255 0.005316
-0.047810 -0.072369 5.742380 0 117 255 0.003390
-0.026973 -0.087847 5.700470 0 189 255 0.009553
-0.018421 -0.077428 5.731560 0 149 255 0.005481
-0.007928 -0.085167 5.710440 0 205 255 0.011249
-0.029237 -0.070764 5.753380 0 113 255 0.003183
0.002019 -0.094771 5.690190 19 253 229 0.019827
-0.017012 -0.098412 5.677650 22 255 225 0.020114
-0.035346 -0.101936 5.665330 32 255 216 0.023059
-0.045153 -0.090610 5.687760 0 205 255 0.011503
-0.165932 -0.073622 5.707130 0 61 255 0.001290
-0.148319 -0.073024 5.716220 0 45 255 0.000927
-0.158676 -0.066327 5.738460 0 9 255 0.000414
-0.176479 -0.066917 5.729460 0 0 255 0.000257
-0.140971 -0.065810 5.747530 0 37 255 0.000734
-0.169105 -0.059311 5.760310 0 17 255 0.000482
-0.151171 -0.058736 5.769570 0 41 255 0.000838
-0.161374 -0.050243 5.791310 0 0 255 0.000282
-0.186845 -0.059511 5.751370 0 0 255 0.000214
-0.179302 -0.050871 5.781960 0 0 255 0.000236
-0.197444 -0.051124 5.772740 0 17 255 0.000492
-0.133263 -0.057849 5.778790 0 45 255 0.000892
-0.143392 -0.049442 5.800570 0 1 255 0.000344
-0.125389 -0.048451 5.810040 0 17 255 0.000467
-0.115198 -0.057033 5.788510 0 49 255 0.001006
-0.123025 -0.064998 5.756870 0 45 255 0.000873
-0.104846 -0.064225 5.766380 0 49 255 0.001010
-0.112351 -0.071091 5.734600 0 41 255 0.000860
-0.130366 -0.072051 5.725410 0 45 255 0.000899
-0.094138 -0.069857 5.743840 0 53 255 0.001055
-0.208370 -0.044135 5.793340 0 0 255 0.000216
-0.190255 -0.043540 5.803100 0 0 233 0.000146
-0.201337 -0.035976 5.824130 0 0 242 0.000173
-0.219544 -0.036663 5.814270 0 0 228 0.000132
-0.183438 -0.035028 5.833810 0 0 255 0.000263
-0.212617 -0.027870 5.845120 0 0 233 0.000137
-0.194451 -0.026841 5.854760 0 0 251 0.000196
-0.231021 -0.028595 5.835310 0 0 237 0.000150
-0.176307 -0.025340 5.864400 0 0 251 0.000197
-0.157911 -0.023966 5.873490 0 9 255 0.000399
-0.165271 -0.034062 5.843060 0 0 255 0.000273
-0.147090 -0.032820 5.852340 0 0 255 0.000268
-0.154290 -0.042117 5.821840 0 0 255 0.000297
-0.172320 -0.042916 5.812410 0 0 251 0.000209
-0.136166 -0.041075 5.831160 0 0 255 0.000304
-0.103357 -0.020892 5.903870 0 25 255 0.000600
-0.092927 -0.030622 5.883270 0 21 255 0.000519
-0.111203 -0.031643 5.872550 0 21 255 0.000513
-0.082439 -0.039670 5.862550 0 53 255 0.001095
-0.100802 -0.040287 5.851870 0 37 255 0.000795
-0.090217 -0.047862 5.830810 0 49 255 0.000948
-0.071790 -0.047223 5.841600 0 57 255 0.001151
-0.118497 -0.040763 5.841250 0 13 255 0.000443
-0.108006 -0.048341 5.820290 0 29 255 0.000617
-0.129382 -0.032309 5.862350 0 5 255 0.000380
-0.140101 -0.023224 5.883490 0 5 255 0.000366
-0.121987 -0.022098 5.893650 0 13 255 0.000448
-0.061163 -0.055450 5.819750 0 97 255 0.002450
-0.050814 -0.061893 5.798310 0 93 255 0.002263
-0.068958 -0.062811 5.786720 0 81 255 0.001865
-0.040279 -0.066697 5.776210 0 49 255 0.000964
-0.058574 -0.068013 5.764920 0 49 255 0.000948
-0.076369 -0.068946 5.753600 0 41 255 0.000844
-0.087080 -0.063652 5.776450 0 73 255 0.001534
-0.097568 -0.056826 5.798720 0 77 255 0.001759
-0.079681 -0.056264 5.809070 0 93 255 0.002310
-0.166663 -0.091276 5.654240 0 153 255 0.005749
-0.157772 -0.103065 5.630620 0 169 255 0.007361
-0.177871 -0.103033 5.624290 0 157 255 0.006248
-0.149216 -0.116081 5.608730 0 189 255 0.009255
-0.169290 -0.116087 5.602270 0 169 255 0.007338
-0.161286 -0.130379 5.581730 0 197 255 0.010365
-0.140999 -0.130588 5.588440 0 217 255 0.012886
-0.190163 -0.115724 5.594950 0 169 255 0.007202
-0.182161 -0.129856 5.574180 0 189 255 0.009328
-0.204071 -0.128869 5.565850 0 197 255 0.010290
-0.210671 -0.116349 5.586410 0 169 255 0.007106
-0.197196 -0.103964 5.616670 0 153 255 0.005850
-0.217719 -0.104556 5.608050 0 165 255 0.006993
-0.204635 -0.093356 5.639400 0 125 255 0.003916
-0.185435 -0.092494 5.647010 0 133 255 0.004376
-0.192945 -0.083035 5.670680 0 97 255 0.002513
-0.224765 -0.093788 5.630910 0 137 255 0.004601
-0.212118 -0.083706 5.663190 0 97 255 0.002482
-0.232066 -0.084011 5.654970 0 117 255 0.003323
-0.174150 -0.081865 5.677810 0 121 255 0.003601
-0.138371 -0.144060 5.570770 0 225 251 0.014668
-0.132237 -0.163968 5.552840 0 213 255 0.012589
-0.157024 -0.156928 5.547740 0 221 255 0.013726
-0.126948 -0.184919 5.536650 0 229 248 0.015185
-0.151308 -0.177249 5.531030 0 205 255 0.011220
-0.146507 -0.198462 5.515810 0 209 255 0.011840
-0.122322 -0.206293 5.522520 13 245 235 0.017795
-0.176512 -0.169506 5.524050 3 233 245 0.015754
-0.171459 -0.189978 5.508600 0 189 255 0.009221
-0.197205 -0.181493 5.500270 13 245 235 0.018171
-0.198371 -0.167855 5.514770 0 221 255 0.013768
-0.177944 -0.156005 5.539340 0 217 255 0.013382
-0.199990 -0.154521 5.530640 0 209 255 0.012090
-0.180009 -0.142604 5.556270 0 205 255 0.011619
-0.158944 -0.143578 5.563850 0 201 255 0.010984
-0.201928 -0.141548 5.547800 0 213 255 0.012300
-0.296206 -0.169567 5.476000 25 255 222 0.020822
-0.296794 -0.158218 5.491130 9 241 238 0.017170
-0.271640 -0.158974 5.498160 0 205 255 0.011226
-0.272460 -0.148239 5.513650 0 181 255 0.008430
-0.297938 -0.147565 5.506690 0 225 251 0.014447
-0.247728 -0.149279 5.520720 0 165 255 0.006836
-0.273154 -0.137785 5.530210 0 169 255 0.007162
-0.248807 -0.138401 5.536780 0 153 255 0.005869
-0.249728 -0.128007 5.553880 0 161 255 0.006339
-0.298854 -0.137307 5.523350 0 197 255 0.010427
-0.274230 -0.127288 5.547480 0 169 255 0.007214
-0.300099 -0.126756 5.540980 0 197 255 0.010455
-0.225296 -0.139212 5.543180 0 173 255 0.007557
-0.226473 -0.128448 5.560040 0 157 255 0.006101
-0.223563 -0.151854 5.525990 0 161 255 0.006399
-0.221652 -0.164831 5.509530 0 201 255 0.010627
-0.246315 -0.161749 5.504090 0 181 255 0.008258
-0.244978 -0.174747 5.487700 0 221 255 0.013934
-0.220464 -0.177922 5.494110 0 221 255 0.013798
-0.270088 -0.171873 5.481940 0 225 251 0.014546
-0.305753 -0.116471 5.560480 0 181 255 0.008389
-0.281657 -0.114929 5.568450 0 165 255 0.006971
-0.287602 -0.105114 5.588710 0 153 255 0.005805
-0.311525 -0.106749 5.580930 0 161 255 0.006565
-0.264476 -0.103693 5.596640 0 153 255 0.005664
-0.293348 -0.095895 5.609800 0 141 255 0.004992
-0.269906 -0.094686 5.617920 0 125 255 0.003893
-0.275092 -0.086259 5.639700 0 93 255 0.002227
-0.317531 -0.097207 5.601800 0 161 255 0.006387
-0.298552 -0.087193 5.631550 0 117 255 0.003399
-0.323107 -0.088250 5.623100 0 153 255 0.005791
-0.247720 -0.093379 5.625610 0 137 255 0.004671
-0.252955 -0.085425 5.647770 0 85 255 0.001925
-0.240436 -0.104166 5.602570 0 145 255 0.005224
-0.233312 -0.115996 5.580610 0 153 255 0.005755
-0.257076 -0.115480 5.574530 0 145 255 0.005242
-0.248871 -0.029967 5.827470 0 0 214 0.000103
-0.237364 -0.038052 5.806290 0 0 233 0.000142
-0.255570 -0.039014 5.798180 0 0 242 0.000177
-0.226116 -0.045512 5.785420 0 0 214 0.000103
-0.244206 -0.046528 5.777540 0 0 233 0.000147
-0.233013 -0.053421 5.757270 0 0 201 0.000088
-0.215101 -0.052472 5.765070 0 0 228 0.000131
-0.262670 -0.047095 5.769500 0 0 178 0.000075
-0.251299 -0.054018 5.749220 0 0 201 0.000088
-0.270485 -0.054379 5.740650 0 5 255 0.000372
-0.281386 -0.047759 5.760350 0 0 242 0.000164
-0.273686 -0.040068 5.789320 0 0 228 0.000128
-0.292341 -0.040792 5.780110 0 0 223 0.000117
-0.284720 -0.032535 5.809650 0 0 223 0.000125
-0.266503 -0.031426 5.818710 0 0 246 0.000188
-0.303553 -0.033342 5.800290 0 0 223 0.000123
-0.205613 -0.060128 5.744380 0 0 237 0.000155
-0.195048 -0.067749 5.722420 0 0 255 0.000232
-0.213714 -0.068333 5.715280 0 0 251 0.000208
-0.184544 -0.074828 5.700170 0 33 255 0.000702
-0.203189 -0.075829 5.693110 0 21 255 0.000526
-0.222327 -0.076114 5.685410 0 29 255 0.000642
-0.241390 -0.076871 5.676590 0 41 255 0.000829
-0.231850 -0.069283 5.707060 0 0 237 0.000153
-0.250877 -0.069700 5.698240 0 0 237 0.000151
-0.241475 -0.061931 5.728290 0 0 214 0.000108
-0.223366 -0.061234 5.736570 0 0 255 0.000251
-0.260511 -0.062321 5.719650 0 0 192 0.000081
-0.331087 -0.081161 5.643260 0 121 255 0.003618
-0.308050 -0.079324 5.652820 0 89 255 0.002082
-0.316056 -0.072504 5.673610 0 45 255 0.000913
-0.339008 -0.074071 5.663910 0 97 255 0.002418
-0.293911 -0.071228 5.682880 0 1 255 0.000322
-0.324330 -0.065481 5.694400 0 29 255 0.000661
-0.302244 -0.064265 5.703680 0 0 246 0.000194
-0.310518 -0.057117 5.723950 0 0 255 0.000240
-0.346976 -0.066917 5.684760 0 85 255 0.001908
-0.332443 -0.058351 5.715070 0 29 255 0.000623
-0.354963 -0.059546 5.705540 0 81 255 0.001864
-0.281395 -0.062923 5.712480 0 0 201 0.000089
-0.289701 -0.055832 5.732810 0 0 223 0.000122
-0.271742 -0.070567 5.690860 0 0 219 0.000110
-0.262352 -0.078039 5.669270 0 17 255 0.000473
-0.284696 -0.078604 5.661010 0 49 255 0.001020
-0.364631 -0.053274 5.724960 0 57 255 0.001189
-0.343167 -0.051589 5.735100 0 13 255 0.000438
-0.352789 -0.045125 5.754300 0 5 255 0.000356
-0.374257 -0.046731 5.744210 0 45 255 0.000932
-0.332122 -0.043424 5.764000 0 0 255 0.000277
-0.362615 -0.038185 5.773420 0 9 255 0.000392
-0.342215 -0.036505 5.783090 0 0 255 0.000287
-0.383673 -0.039903 5.763110 0 49 255 0.001004
-0.322804 -0.034770 5.792460 0 0 237 0.000159
-0.311804 -0.042188 5.772390 0 0 242 0.000162
-0.300767 -0.049175 5.752570 0 0 223 0.000119
-0.321388 -0.050415 5.744070 0 0 242 0.000172
-0.345501 -0.091340 5.616120 0 129 255 0.004075
-0.353144 -0.084641 5.634800 0 105 255 0.002739
-0.375381 -0.087868 5.628310 0 97 255 0.002367
-0.367918 -0.094646 5.609450 0 121 255 0.003691
-0.382977 -0.081005 5.646750 0 85 255 0.001991
-0.397766 -0.091472 5.621160 0 117 255 0.003364
-0.404751 -0.084573 5.640390 0 93 255 0.002276
-0.426701 -0.088350 5.633210 0 133 255 0.004283
-0.389947 -0.098618 5.603130 0 117 255 0.003510
-0.419445 -0.095500 5.614930 0 141 255 0.004849
-0.412030 -0.102709 5.596650 0 157 255 0.006034
-0.412061 -0.077374 5.659030 0 97 255 0.002457
-0.434027 -0.081220 5.652240 0 129 255 0.004109
-0.441305 -0.073910 5.671180 0 125 255 0.003939
-0.419662 -0.069634 5.679500 0 93 255 0.002240
-0.390701 -0.073540 5.667240 0 77 255 0.001737
-0.398286 -0.065933 5.687820 0 69 255 0.001508
-0.368808 -0.070040 5.675900 0 69 255 0.001493
-0.361089 -0.077348 5.654990 0 85 255 0.001968
-0.376287 -0.062544 5.696820 0 61 255 0.001276
-0.433149 -0.108996 5.591760 0 129 255 0.004214
-0.439999 -0.102157 5.608720 0 121 255 0.003635
-0.460872 -0.108684 5.604030 0 117 255 0.003415
-0.453962 -0.115773 5.587280 0 121 255 0.003551
-0.467721 -0.101672 5.621210 0 105 255 0.002764
-0.481612 -0.115686 5.600060 0 121 255 0.003578
-0.488353 -0.108437 5.616760 0 117 255 0.003305
-0.509181 -0.115673 5.612920 0 137 255 0.004730
-0.474485 -0.122903 5.583380 0 125 255 0.003846
-0.501659 -0.122910 5.596610 0 133 255 0.004486
-0.494682 -0.130370 5.580260 0 149 255 0.005473
-0.495754 -0.101284 5.633900 0 109 255 0.002901
-0.516134 -0.108160 5.629780 0 133 255 0.004462
-0.523187 -0.100829 5.646780 0 137 255 0.004598
-0.503338 -0.093465 5.652290 0 109 255 0.002943
-0.475347 -0.094236 5.639390 0 97 255 0.002385
-0.483015 -0.086687 5.657970 0 85 255 0.002030
-0.454901 -0.087559 5.645360 0 109 255 0.002900
-0.447363 -0.094885 5.626910 0 109 255 0.003058
-0.462245 -0.080184 5.664060 0 101 255 0.002673
-0.529808 -0.074644 5.704270 0 81 255 0.001885
-0.509693 -0.067507 5.711480 0 73 255 0.001591
-0.500491 -0.074232 5.693280 0 73 255 0.001568
-0.489094 -0.060911 5.719040 0 69 255 0.001496
-0.480085 -0.067495 5.701060 0 69 255 0.001482
-0.459547 -0.061253 5.708490 0 97 255 0.002400
-0.468086 -0.054688 5.726920 0 89 255 0.002187
-0.471295 -0.074001 5.682070 0 97 255 0.002450
-0.450352 -0.067636 5.690130 0 105 255 0.002840
-0.491763 -0.080406 5.675710 0 77 255 0.001696
-0.512459 -0.087272 5.669820 0 97 255 0.002420
-0.521197 -0.080883 5.687150 0 89 255 0.002077
-0.541121 -0.087986 5.681450 0 121 255 0.003564
-0.532230 -0.094303 5.664300 0 129 255 0.004140
-0.549339 -0.081298 5.698600 0 117 255 0.003436
-0.446642 -0.050670 5.735240 0 61 255 0.001232
-0.425268 -0.046797 5.744370 0 49 255 0.001001
-0.416054 -0.053560 5.725550 0 37 255 0.000764
-0.404375 -0.043118 5.753940 0 41 255 0.000813
-0.394932 -0.050009 5.734990 0 37 255 0.000733
-0.385391 -0.056504 5.715850 0 45 255 0.000883
-0.407058 -0.059779 5.707070 0 45 255 0.000913
-0.428760 -0.063547 5.698470 0 65 255 0.001407
-0.437678 -0.057240 5.716990 0 57 255 0.001160
-0.007936 -0.672615 5.058700 90 255 158 0.044998
0.015916 -0.674517 5.052650 87 255 161 0.042633
0.031050 -0.684997 5.040440 106 255 142 0.053289
0.054666 -0.687685 5.035120 132 255 116 0.067433
0.038083 -0.705212 5.022200 96 255 151 0.047095
0.013463 -0.701924 5.027790 80 255 167 0.039683
-0.001713 -0.691132 5.039620 74 255 174 0.037833
-0.026806 -0.689056 5.044600 100 255 148 0.048676
-0.042582 -0.679923 5.057030 84 255 164 0.041386
-0.061012 -0.695055 5.044850 90 255 158 0.044385
0.087167 -0.682731 5.034740 184 255 64 0.108641
0.110934 -0.686396 5.027240 196 255 51 0.120870
0.094850 -0.704613 5.014020 158 255 90 0.086751
0.070691 -0.700308 5.021180 138 255 109 0.072211
0.082936 -0.759543 4.983220 119 255 129 0.059051
0.064952 -0.745022 4.995110 87 255 161 0.043662
0.040010 -0.740931 5.002540 51 255 196 0.028978
0.022810 -0.726231 5.013920 29 255 219 0.021721
0.007682 -0.746623 5.005450 25 255 222 0.020736
0.055538 -0.719300 5.011200 93 255 155 0.046261
0.079866 -0.723735 5.003360 125 255 122 0.064534
-0.017790 -0.742551 5.012570 19 253 229 0.019183
-0.034775 -0.729325 5.022310 22 255 225 0.019908
-0.060357 -0.726323 5.027760 38 255 209 0.024559
-0.077661 -0.714060 5.037110 38 255 209 0.024860
-0.094299 -0.732880 5.029530 35 255 213 0.023442
-0.043634 -0.707304 5.034880 64 255 184 0.033058
-0.018808 -0.709818 5.029480 55 255 193 0.029653
-0.001887 -0.722776 5.019890 32 255 216 0.023273
0.082119 -0.804668 4.968260 122 255 126 0.062327
0.071802 -0.825246 4.968280 103 255 145 0.051107
0.061540 -0.845410 4.967480 109 255 138 0.054822
0.040550 -0.924959 4.980160 177 255 71 0.100867
0.010204 -0.922930 4.987610 129 255 119 0.065372
-0.016381 -0.910721 4.993040 61 255 187 0.032678
-0.045242 -0.908781 4.999690 38 255 209 0.024622
-0.071246 -0.896042 5.004460 13 245 235 0.018163
-0.076721 -0.917032 5.007800 51 255 196 0.028733
-0.039857 -0.887983 4.996350 0 229 248 0.014930
-0.065893 -0.875148 5.001030 3 233 245 0.015825
-0.011735 -0.890922 4.989250 48 255 200 0.027988
0.016553 -0.893961 4.982190 90 255 158 0.044780
0.043696 -0.906154 4.976540 151 255 96 0.080195
0.047245 -0.886982 4.971990 142 255 106 0.073610
-0.105255 -0.914113 5.013180 61 255 187 0.032594
-0.130129 -0.899691 5.017570 29 255 219 0.021596
-0.158539 -0.896139 5.023150 19 253 229 0.019282
-0.183404 -0.880557 5.027480 0 221 255 0.013648
-0.191998 -0.902983 5.029730 55 255 193 0.030361
-0.151282 -0.873689 5.020760 0 209 255 0.011746
-0.175702 -0.858542 5.024770 0 177 255 0.007897
-0.123694 -0.877849 5.014760 0 213 255 0.012400
-0.096348 -0.881865 5.008870 3 233 245 0.015992
-0.153239 -0.813530 5.022440 0 161 255 0.006345
-0.127033 -0.818199 5.016390 0 177 255 0.008158
-0.105518 -0.833654 5.011240 0 193 255 0.009830
-0.078846 -0.838101 5.004820 0 205 255 0.011321
-0.056552 -0.853106 4.999470 0 209 255 0.012145
-0.047044 -0.830474 4.997260 0 217 255 0.013251
-0.088017 -0.860190 5.006650 0 205 255 0.011412
-0.115631 -0.855953 5.012680 0 197 255 0.010293
-0.142693 -0.851712 5.018730 0 181 255 0.008557
-0.164323 -0.836020 5.024160 0 153 255 0.005756
-0.019937 -0.834438 4.989910 3 233 245 0.015476
0.003431 -0.848737 4.983700 16 249 232 0.018469
0.030575 -0.852493 4.976320 64 255 184 0.033593
0.054520 -0.866488 4.969890 125 255 122 0.062950
0.023181 -0.873424 4.978910 71 255 177 0.036623
-0.005162 -0.870317 4.986030 45 255 203 0.026516
-0.033362 -0.867295 4.993260 0 221 255 0.013484
-0.120254 -0.729446 5.033870 58 255 190 0.031017
-0.136891 -0.717403 5.041660 71 255 177 0.036441
-0.163899 -0.714563 5.046480 80 255 167 0.040601
-0.181287 -0.703186 5.056040 93 255 155 0.045300
-0.199537 -0.719266 5.050000 87 255 161 0.043584
-0.144982 -0.697139 5.053940 96 255 151 0.047022
-0.163085 -0.686320 5.064050 142 255 106 0.073541
-0.119366 -0.699804 5.049270 96 255 151 0.046949
-0.094042 -0.702004 5.044970 74 255 174 0.036993
-0.220562 -0.715568 5.054030 90 255 158 0.045209
-0.231259 -0.704761 5.061700 90 255 158 0.044635
-0.251621 -0.702555 5.065940 84 255 164 0.041279
-0.232806 -0.687962 5.076080 96 255 151 0.047894
-0.212961 -0.689416 5.070420 122 255 126 0.062129
-0.192918 -0.692258 5.065520 119 255 129 0.060582
-0.183840 -0.669784 5.088040 129 255 119 0.064616
-0.163615 -0.671024 5.081710 135 255 113 0.070714
-0.143218 -0.672498 5.076180 106 255 142 0.052254
-0.214640 -0.675535 5.088730 96 255 151 0.047008
-0.107034 -0.665946 5.077130 151 255 96 0.080812
-0.082640 -0.668244 5.071750 125 255 122 0.063905
-0.066862 -0.678123 5.061210 96 255 151 0.047949
-0.100992 -0.682749 5.059140 113 255 135 0.055440
-0.126869 -0.680831 5.064130 135 255 113 0.070007
-0.179611 -0.808670 5.027310 0 165 255 0.006970
-0.199625 -0.793008 5.033610 0 161 255 0.006571
-0.226476 -0.787259 5.037460 0 165 255 0.006854
-0.245213 -0.772793 5.041310 0 213 255 0.012239
-0.259207 -0.791309 5.038920 0 189 255 0.009536
-0.212218 -0.768039 5.038370 0 201 255 0.010814
-0.231241 -0.753742 5.042180 42 255 206 0.025830
-0.185151 -0.773736 5.033360 0 201 255 0.011044
-0.158896 -0.778582 5.028170 0 201 255 0.011039
-0.139603 -0.793108 5.023200 0 177 255 0.007998
-0.125782 -0.772081 5.023090 0 225 251 0.014077
-0.279802 -0.786324 5.039840 0 201 255 0.011081
-0.292806 -0.772660 5.042920 0 217 255 0.013370
-0.313463 -0.767854 5.044370 6 237 242 0.016173
-0.327548 -0.754112 5.048030 25 255 222 0.021070
-0.342305 -0.771932 5.044390 13 245 235 0.017952
-0.299310 -0.750400 5.047710 25 255 222 0.020835
-0.313305 -0.737025 5.051520 58 255 190 0.031595
-0.279172 -0.754673 5.045950 13 245 235 0.017508
-0.259086 -0.758972 5.044230 0 229 248 0.014702
-0.268425 -0.717327 5.058330 74 255 174 0.037377
-0.248718 -0.720921 5.055040 77 255 171 0.038904
-0.235973 -0.732704 5.049450 35 255 213 0.023368
-0.215268 -0.736877 5.046090 29 255 219 0.021605
-0.264283 -0.737420 5.049680 35 255 213 0.023921
-0.284478 -0.733341 5.051990 55 255 193 0.030150
-0.296818 -0.721699 5.058240 58 255 190 0.030590
-0.180682 -0.732196 5.042200 58 255 190 0.031013
-0.154137 -0.736164 5.037050 38 255 209 0.024976
-0.135918 -0.749297 5.030900 19 253 229 0.019576
-0.110159 -0.752911 5.026660 0 229 248 0.014775
-0.169833 -0.754641 5.034250 16 249 232 0.018284
-0.196864 -0.749989 5.039720 35 255 213 0.023425
-0.076458 -0.746200 5.022980 3 233 245 0.015834
-0.050747 -0.749736 5.016700 0 229 248 0.014752
-0.032627 -0.763778 5.008860 0 205 255 0.011178
-0.006630 -0.766803 5.002310 0 205 255 0.011459
-0.021245 -0.787667 4.998380 0 229 248 0.014868
-0.047881 -0.784193 5.004950 0 217 255 0.013229
-0.066115 -0.770074 5.012970 0 221 255 0.013777
-0.092182 -0.766465 5.019290 0 225 251 0.014483
0.025874 -0.761234 4.997080 13 245 235 0.017580
0.051058 -0.765354 4.989530 71 255 177 0.036114
0.069801 -0.779982 4.980130 87 255 161 0.042684
0.056378 -0.800402 4.975810 77 255 171 0.038314
0.037755 -0.785597 4.985290 64 255 184 0.033038
0.011645 -0.781384 4.993090 6 237 242 0.016571
0.040211 -0.831457 4.975490 64 255 184 0.033952
0.013549 -0.827612 4.982710 19 253 229 0.019536
-0.007392 -0.813524 4.990840 0 209 255 0.012114
-0.034092 -0.809495 4.997900 0 217 255 0.012970
0.025211 -0.806603 4.983530 35 255 213 0.023995
-0.067200 -0.815938 5.004370 0 197 255 0.010404
-0.094224 -0.812110 5.010720 0 201 255 0.010599
-0.113458 -0.797403 5.017070 0 197 255 0.010157
-0.080687 -0.790791 5.011390 0 213 255 0.012311
-0.524873 -0.694446 5.089380 38 255 209 0.024434
-0.546789 -0.700524 5.092710 0 229 248 0.014762
-0.548389 -0.716910 5.086520 6 237 242 0.016453
-0.568640 -0.706572 5.095380 0 221 255 0.013499
-0.570702 -0.723335 5.089490 0 229 248 0.015140
-0.592930 -0.729605 5.091460 22 255 225 0.020252
-0.572360 -0.740134 5.083890 29 255 219 0.022102
-0.591059 -0.712277 5.097200 0 225 251 0.014638
-0.612841 -0.718795 5.099040 32 255 216 0.023331
-0.586682 -0.694097 5.102920 0 229 248 0.014684
-0.563988 -0.688762 5.101160 0 225 251 0.014096
-0.542309 -0.682975 5.098340 29 255 219 0.021971
-0.559416 -0.671583 5.107860 9 241 238 0.017386
-0.592391 -0.750198 5.089340 0 221 255 0.013930
-0.588648 -0.769265 5.086830 3 233 245 0.015728
-0.611984 -0.760479 5.094740 0 197 255 0.010474
-0.608483 -0.779586 5.092480 0 229 248 0.015115
-0.627479 -0.790240 5.098140 29 255 219 0.021601
-0.604465 -0.798921 5.090820 35 255 213 0.023387
-0.631450 -0.770910 5.100040 0 229 248 0.015049
-0.650322 -0.781840 5.105390 48 255 200 0.028036
-0.632817 -0.749747 5.101060 9 241 238 0.017286
-0.613017 -0.739568 5.096560 9 241 238 0.016982
-0.692948 -0.762902 5.122240 84 255 164 0.042151
-0.683819 -0.745600 5.120800 58 255 190 0.031014
-0.663892 -0.734498 5.115350 22 255 225 0.020432
-0.653466 -0.717667 5.114240 22 255 225 0.020410
-0.631977 -0.707260 5.109080 25 255 222 0.020811
-0.651085 -0.695119 5.118350 55 255 193 0.029608
-0.633928 -0.729393 5.104820 16 249 232 0.018963
-0.652693 -0.761048 5.107660 16 249 232 0.018316
-0.672216 -0.772651 5.114130 51 255 196 0.029143
-0.636172 -0.682187 5.121480 16 249 232 0.018728
-0.613447 -0.676136 5.118930 0 221 255 0.013902
-0.598633 -0.664210 5.122070 0 201 255 0.010996
-0.575853 -0.658652 5.119280 0 225 251 0.014234
-0.591914 -0.645558 5.130220 16 249 232 0.018901
-0.582338 -0.676877 5.110880 0 221 255 0.013640
-0.609559 -0.700560 5.106300 0 229 248 0.014913
-0.575442 -0.636877 5.136190 0 201 255 0.010903
-0.552471 -0.635386 5.136230 0 153 255 0.005983
-0.536714 -0.627231 5.142060 0 133 255 0.004302
-0.513860 -0.625358 5.141260 0 153 255 0.005732
-0.527981 -0.612401 5.153870 0 149 255 0.005384
-0.522034 -0.640224 5.129330 0 161 255 0.006561
-0.499645 -0.638202 5.128250 0 177 255 0.007924
-0.528886 -0.654315 5.117850 0 185 255 0.008771
-0.552320 -0.656557 5.118780 0 185 255 0.008890
-0.511599 -0.606631 5.161480 0 105 255 0.002846
-0.489032 -0.607906 5.162480 0 89 255 0.002172
-0.473937 -0.602277 5.170150 0 81 255 0.001779
-0.461405 -0.615287 5.156370 0 97 255 0.002481
-0.469451 -0.626994 5.142520 0 105 255 0.002754
-0.491549 -0.626633 5.142570 0 101 255 0.002677
-0.433367 -0.638875 5.132390 0 145 255 0.005128
-0.439054 -0.649771 5.119570 0 169 255 0.007142
-0.454899 -0.638838 5.131470 0 113 255 0.003274
-0.461247 -0.650168 5.118470 0 165 255 0.007012
-0.483942 -0.649944 5.117470 0 201 255 0.010598
-0.468198 -0.661139 5.106580 0 225 251 0.014340
-0.477327 -0.638556 5.130020 0 141 255 0.004899
-0.447576 -0.627471 5.144190 0 117 255 0.003454
-0.491091 -0.663788 5.107930 0 193 255 0.009880
-0.496080 -0.677183 5.097720 0 217 255 0.013328
-0.513186 -0.666227 5.107920 0 197 255 0.010446
-0.519344 -0.680168 5.098520 0 213 255 0.012775
-0.536677 -0.668807 5.108040 0 205 255 0.011497
-0.506143 -0.651873 5.117700 0 185 255 0.009111
-0.360654 -0.697654 5.075940 32 255 216 0.023276
-0.355953 -0.712318 5.065050 58 255 190 0.031344
-0.375261 -0.714901 5.063840 77 255 171 0.038970
-0.381169 -0.699186 5.074310 51 255 196 0.029092
-0.402842 -0.701182 5.073020 77 255 171 0.038362
-0.319470 -0.713603 5.063520 74 255 174 0.037847
-0.338856 -0.728363 5.055780 61 255 187 0.032256
-0.362377 -0.754315 5.050040 32 255 216 0.022716
-0.384487 -0.736316 5.056860 48 255 200 0.027776
-0.387106 -0.758184 5.049650 48 255 200 0.027420
-0.359900 -0.732615 5.056620 45 255 203 0.027141
-0.414122 -0.748753 5.054270 61 255 187 0.032154
-0.402694 -0.726940 5.061780 55 255 193 0.029723
-0.425159 -0.730866 5.061710 58 255 190 0.031025
-0.448923 -0.734476 5.061600 71 255 177 0.036087
-0.502417 -0.691137 5.089620 13 245 235 0.017948
-0.473873 -0.674401 5.097430 0 225 251 0.014145
-0.444233 -0.676998 5.092540 22 255 225 0.020103
-0.449376 -0.689774 5.084170 25 255 222 0.020696
-0.470801 -0.693050 5.085070 9 241 238 0.017042
-0.475302 -0.706254 5.077440 35 255 213 0.024228
-0.497965 -0.709740 5.077980 38 255 209 0.024746
-0.446306 -0.660767 5.108360 0 177 255 0.008130
-0.418307 -0.649349 5.120580 0 173 255 0.007726
-0.396776 -0.664174 5.105640 0 225 251 0.014118
-0.417196 -0.665102 5.104270 0 221 255 0.013800
-0.422731 -0.675631 5.093380 16 249 232 0.018968
-0.375116 -0.678519 5.092650 19 253 229 0.019455
-0.394788 -0.679382 5.090720 13 245 235 0.018151
-0.423421 -0.704446 5.073440 51 255 196 0.028438
-0.444570 -0.707993 5.073700 25 255 222 0.021335
-0.468442 -0.724755 5.068010 55 255 193 0.029526
-0.494898 -0.521852 5.238810 0 133 255 0.004310
-0.475040 -0.517367 5.245900 0 141 255 0.004937
-0.455018 -0.521411 5.246810 0 165 255 0.006706
-0.435654 -0.516681 5.253460 0 165 255 0.006742
-0.415949 -0.520725 5.254020 0 161 255 0.006514
-0.416863 -0.500968 5.263750 0 157 255 0.006202
-0.434064 -0.535009 5.242370 0 173 255 0.007496
-0.414362 -0.539155 5.242430 0 177 255 0.008051
-0.451250 -0.540188 5.235030 0 165 255 0.006861
-0.468547 -0.544939 5.227290 0 153 255 0.005812
-0.489048 -0.540745 5.226110 0 129 255 0.004208
-0.482593 -0.558414 5.212090 0 117 255 0.003457
-0.396998 -0.499062 5.271610 0 145 255 0.005206
-0.378822 -0.506194 5.274750 0 165 255 0.006933
-0.359520 -0.504569 5.282020 0 169 255 0.007177
-0.361908 -0.523480 5.273430 0 181 255 0.008557
-0.380137 -0.525974 5.265820 0 209 255 0.011888
-0.397387 -0.528015 5.257170 0 189 255 0.009244
-0.377571 -0.553197 5.249490 0 229 248 0.014982
-0.393585 -0.555129 5.240680 0 209 255 0.011708
-0.409405 -0.556260 5.230980 0 165 255 0.006786
-0.361326 -0.542492 5.263250 0 217 255 0.013115
-0.423140 -0.568936 5.216530 0 161 255 0.006401
-0.438387 -0.574383 5.208960 0 157 255 0.006279
-0.458215 -0.570312 5.207290 0 133 255 0.004246
-0.474158 -0.574667 5.199230 0 105 255 0.002792
-0.445703 -0.557595 5.222190 0 153 255 0.005881
-0.428450 -0.553311 5.230050 0 181 255 0.008454
-0.485428 -0.588267 5.184600 0 85 255 0.001971
-0.501702 -0.593854 5.176960 0 85 255 0.001970
-0.524059 -0.591747 5.176580 0 93 255 0.002217
-0.540719 -0.597768 5.169050 0 125 255 0.003821
-0.551900 -0.582127 5.183440 0 145 255 0.005146
-0.534257 -0.576487 5.190560 0 113 255 0.003105
-0.512473 -0.578484 5.191230 0 109 255 0.003073
-0.495337 -0.572522 5.198420 0 109 255 0.002938
-0.550891 -0.613388 5.155910 0 121 255 0.003618
-0.566753 -0.621828 5.149900 0 141 255 0.004769
-0.590366 -0.622682 5.151070 0 169 255 0.007323
-0.606642 -0.631297 5.145180 0 221 255 0.013739
-0.620143 -0.616526 5.159770 3 233 245 0.015603
-0.602536 -0.608102 5.166070 0 157 255 0.006301
-0.579880 -0.607022 5.164650 0 129 255 0.004069
-0.562906 -0.598528 5.170740 0 109 255 0.003045
-0.649018 -0.585247 5.194750 58 255 190 0.031450
-0.629780 -0.576017 5.200130 3 233 245 0.015563
-0.606264 -0.575489 5.197940 0 165 255 0.006868
-0.587009 -0.567047 5.203380 0 125 255 0.003871
-0.563265 -0.566033 5.200210 0 133 255 0.004422
-0.574052 -0.548797 5.215730 0 173 255 0.007598
-0.576399 -0.582818 5.186960 0 117 255 0.003425
-0.593024 -0.591659 5.181140 0 113 255 0.003160
-0.617551 -0.592524 5.184030 0 177 255 0.008197
-0.635104 -0.600968 5.177170 19 253 229 0.019330
-0.553822 -0.542128 5.221550 0 141 255 0.004919
-0.531304 -0.544444 5.220860 0 141 255 0.004869
-0.511512 -0.538050 5.226860 0 137 255 0.004744
-0.505533 -0.555881 5.213320 0 133 255 0.004263
-0.522864 -0.562025 5.206440 0 129 255 0.004080
-0.545755 -0.559345 5.206870 0 117 255 0.003401
-0.229985 -0.502042 5.346440 0 125 255 0.003836
-0.260032 -0.483265 5.327840 0 229 248 0.015292
-0.241449 -0.484670 5.340320 0 189 255 0.009387
-0.211052 -0.504459 5.357060 0 117 255 0.003392
-0.297332 -0.478802 5.314930 0 153 255 0.005784
-0.313280 -0.467762 5.310450 0 157 255 0.006109
-0.331211 -0.465824 5.302770 0 181 255 0.008591
-0.275188 -0.473623 5.325020 0 205 255 0.011279
-0.315877 -0.423587 5.321870 58 255 190 0.031654
-0.295711 -0.428346 5.330110 32 255 216 0.022648
-0.280142 -0.439568 5.333380 25 255 222 0.021040
-0.260388 -0.443532 5.340140 55 255 193 0.029545
-0.245072 -0.454319 5.342240 71 255 177 0.036081
-0.322210 -0.439916 5.313780 29 255 219 0.021583
-0.222037 -0.452135 5.360480 16 249 232 0.018780
-0.210891 -0.468952 5.365530 0 181 255 0.008558
-0.195121 -0.478940 5.372430 0 181 255 0.008355
-0.179226 -0.308061 5.445490 0 117 255 0.003414
-0.165141 -0.321586 5.452000 0 77 255 0.001687
-0.159254 -0.341509 5.449500 0 73 255 0.001566
-0.144188 -0.354226 5.453540 0 105 255 0.002793
-0.161078 -0.367348 5.437830 0 121 255 0.003617
-0.177671 -0.357688 5.433230 0 109 255 0.002945
-0.183774 -0.337868 5.435580 0 113 255 0.003239
-0.199729 -0.327036 5.428930 0 109 255 0.003052
-0.205164 -0.306731 5.430050 0 133 255 0.004399
-0.226453 -0.326253 5.413660 0 117 255 0.003473
-0.123649 -0.363878 5.467860 0 73 255 0.001569
-0.111808 -0.382203 5.472730 0 89 255 0.002099
-0.106736 -0.402939 5.469750 0 89 255 0.002067
-0.093445 -0.419956 5.471990 0 77 255 0.001769
-0.107324 -0.426578 5.457440 0 109 255 0.002958
-0.121824 -0.412854 5.454770 0 85 255 0.001957
-0.127372 -0.391989 5.458560 0 105 255 0.002853
-0.140468 -0.376682 5.453180 0 101 255 0.002539
-0.147651 -0.431903 5.426520 0 65 255 0.001410
-0.155107 -0.413191 5.429120 0 89 255 0.002132
-0.170262 -0.400109 5.422630 0 105 255 0.002846
-0.176488 -0.380504 5.422780 0 125 255 0.003976
-0.192363 -0.393763 5.406870 0 141 255 0.004983
-0.155127 -0.387014 5.438640 0 97 255 0.002503
-0.142016 -0.402376 5.444090 0 117 255 0.003461
-0.134224 -0.421075 5.441580 0 69 255 0.001425
-0.119440 -0.434744 5.444110 0 129 255 0.003991
-0.210415 -0.386997 5.402200 0 137 255 0.004547
-0.219243 -0.370093 5.404340 0 149 255 0.005426
-0.237432 -0.362757 5.398230 0 169 255 0.007196
-0.246303 -0.345310 5.398910 0 145 255 0.005195
-0.265670 -0.365055 5.383590 0 177 255 0.008254
-0.218212 -0.343629 5.413190 0 125 255 0.003886
-0.201945 -0.353977 5.419490 0 117 255 0.003464
-0.193295 -0.370864 5.417720 0 137 255 0.004527
-0.275849 -0.181532 5.468660 22 255 225 0.020526
-0.250400 -0.184243 5.475470 3 233 245 0.015719
-0.256232 -0.193849 5.462810 42 255 206 0.025333
-0.226123 -0.187378 5.482150 16 249 232 0.018848
-0.231767 -0.197190 5.470100 38 255 209 0.024306
-0.208302 -0.200808 5.477070 35 255 213 0.023786
-0.202712 -0.191072 5.488260 29 255 219 0.022142
-0.237409 -0.207295 5.458120 51 255 196 0.028608
-0.213822 -0.210870 5.465780 48 255 200 0.027743
-0.219679 -0.221037 5.454550 61 255 187 0.032110
-0.266271 -0.214194 5.441280 67 255 180 0.034684
-0.285609 -0.201286 5.445990 61 255 187 0.032333
-0.305811 -0.188952 5.452100 67 255 180 0.034402
-0.315842 -0.208979 5.430960 93 255 155 0.046094
-0.182753 -0.199822 5.494530 0 225 251 0.014255
-0.157460 -0.208720 5.502960 0 205 255 0.011389
-0.169202 -0.218884 5.489670 0 205 255 0.011606
-0.133142 -0.217011 5.509940 0 225 251 0.014466
-0.144729 -0.227682 5.498390 0 213 255 0.012769
-0.156428 -0.238150 5.486270 0 197 255 0.010378
-0.162210 -0.248380 5.476570 0 201 255 0.010628
-0.174790 -0.229063 5.480020 0 197 255 0.010569
-0.180519 -0.239300 5.469560 0 217 255 0.013001
-0.193801 -0.219796 5.472800 3 233 245 0.015966
-0.188269 -0.209718 5.483790 0 209 255 0.012029
-0.199618 -0.230047 5.462280 16 249 232 0.018979
-0.202142 -0.279893 5.439420 0 205 255 0.011551
-0.211174 -0.263181 5.441750 0 209 255 0.011828
-0.230303 -0.255324 5.433710 16 249 232 0.018882
-0.240197 -0.238958 5.435800 51 255 196 0.028985
-0.260457 -0.256987 5.416690 67 255 180 0.034933
-0.182377 -0.263096 5.458070 0 197 255 0.010316
-0.282810 -0.254423 5.411310 55 255 193 0.030433
-0.296470 -0.242240 5.414400 38 255 209 0.024574
-0.319920 -0.240442 5.409590 58 255 190 0.031454
-0.334234 -0.229012 5.414050 74 255 174 0.037774
-0.352470 -0.249725 5.398060 77 255 171 0.038992
-0.301198 -0.220416 5.426040 80 255 167 0.039630
-0.252682 -0.226250 5.437730 58 255 190 0.031585
-0.356546 -0.484433 5.290060 0 125 255 0.003773
-0.376398 -0.487049 5.283470 0 125 255 0.003928
-0.394939 -0.479542 5.281080 0 121 255 0.003653
-0.414768 -0.481362 5.273240 0 153 255 0.005748
-0.412014 -0.461791 5.282210 0 169 255 0.007241
-0.390995 -0.461281 5.289220 0 133 255 0.004328
-0.372552 -0.468916 5.291770 0 117 255 0.003398
-0.349614 -0.458883 5.300930 0 153 255 0.005851
-0.437886 -0.495955 5.264210 0 125 255 0.003973
-0.457334 -0.501390 5.258220 0 141 255 0.004772
-0.479003 -0.495766 5.258280 0 133 255 0.004386
-0.498473 -0.501174 5.251530 0 145 255 0.005308
-0.501012 -0.480440 5.263120 0 173 255 0.007679
-0.478928 -0.476156 5.268570 0 129 255 0.004085
-0.457694 -0.480428 5.268300 0 125 255 0.003846
-0.435797 -0.476146 5.273360 0 145 255 0.005177
-0.497981 -0.437680 5.287280 25 255 222 0.020948
-0.474445 -0.434124 5.291040 0 201 255 0.010807
-0.453084 -0.439299 5.289670 0 177 255 0.007856
-0.429161 -0.435842 5.293170 0 177 255 0.008117
-0.407661 -0.442118 5.291760 0 197 255 0.010591
-0.403053 -0.422671 5.301400 0 221 255 0.013745
-0.433645 -0.455080 5.283100 0 149 255 0.005594
-0.456043 -0.459885 5.278530 0 149 255 0.005437
-0.477447 -0.454227 5.280310 0 173 255 0.007838
-0.499621 -0.459441 5.275690 0 213 255 0.012520
-0.381081 -0.422993 5.307370 0 189 255 0.009198
-0.362426 -0.431351 5.308510 0 181 255 0.008587
-0.340926 -0.431884 5.313540 0 213 255 0.012429
-0.367910 -0.449695 5.299710 0 157 255 0.006153
-0.386645 -0.440655 5.298100 0 177 255 0.008166
-0.341076 -0.262381 5.394750 42 255 206 0.026079
-0.317693 -0.263685 5.398240 32 255 216 0.023178
-0.329951 -0.275363 5.391720 6 237 242 0.016159
-0.295013 -0.265716 5.403850 22 255 225 0.020047
-0.307058 -0.277311 5.396730 0 209 255 0.012072
-0.284838 -0.279696 5.402120 0 217 255 0.012972
-0.272633 -0.268057 5.409260 29 255 219 0.021722
-0.319293 -0.288616 5.389200 0 189 255 0.009183
-0.296726 -0.291199 5.394620 0 177 255 0.008221
-0.308664 -0.302159 5.386570 0 185 255 0.008748
-0.331428 -0.301047 5.381970 0 165 255 0.007035
-0.342369 -0.287935 5.384890 0 197 255 0.010579
-0.354786 -0.300177 5.377950 0 165 255 0.006925
-0.365588 -0.287602 5.381430 0 209 255 0.012011
-0.353292 -0.274895 5.388020 3 233 245 0.015591
-0.376843 -0.275155 5.385140 29 255 219 0.021896
-0.377495 -0.300016 5.374670 0 201 255 0.010618
-0.388599 -0.287627 5.378720 6 237 242 0.016243
-0.400106 -0.300140 5.371350 19 253 229 0.019621
-0.364885 -0.262371 5.391650 48 255 200 0.028105
-0.252341 -0.274447 5.417140 0 213 255 0.012509
-0.232538 -0.282103 5.425010 0 153 255 0.005902
-0.224622 -0.299263 5.424260 0 101 255 0.002622
-0.246391 -0.320541 5.407760 0 109 255 0.003026
-0.255317 -0.303102 5.408980 0 105 255 0.002872
-0.266509 -0.314550 5.401220 0 113 255 0.003111
-0.275907 -0.297087 5.402110 0 133 255 0.004434
-0.264192 -0.285888 5.409860 0 157 255 0.006326
-0.287309 -0.308151 5.393970 0 133 255 0.004401
-0.287336 -0.361034 5.377850 0 221 255 0.013751
-0.298318 -0.345141 5.379010 0 173 255 0.007482
-0.320200 -0.340914 5.372050 0 149 255 0.005379
-0.331378 -0.325165 5.372990 0 137 255 0.004692
-0.352608 -0.348722 5.357940 0 153 255 0.005950
-0.266243 -0.339647 5.392850 0 141 255 0.004802
-0.375863 -0.348908 5.354120 0 161 255 0.006541
-0.364490 -0.335756 5.360700 0 169 255 0.007209
-0.387514 -0.336052 5.357090 0 153 255 0.005711
-0.398552 -0.348858 5.349660 0 165 255 0.006808
-0.376085 -0.323235 5.363830 0 173 255 0.007613
-0.410610 -0.336810 5.353320 0 197 255 0.010342
-0.399512 -0.323900 5.360470 0 201 255 0.010685
-0.422145 -0.325452 5.357560 22 255 225 0.020265
-0.421358 -0.349588 5.346550 0 181 255 0.008592
-0.433340 -0.337883 5.350300 6 237 242 0.016350
-0.444536 -0.350237 5.342800 6 237 242 0.016302
-0.411546 -0.312852 5.364990 6 237 242 0.016510
-0.642786 -0.200544 5.577480 0 85 255 0.001952
-0.632118 -0.184162 5.591270 0 89 255 0.002062
-0.653519 -0.185268 5.601100 0 97 255 0.002469
-0.621273 -0.167896 5.605140 0 85 255 0.002007
-0.642809 -0.169412 5.615360 0 93 255 0.002294
-0.631727 -0.153690 5.629850 0 85 255 0.001925
-0.663932 -0.170510 5.625090 0 105 255 0.002737
-0.610194 -0.151919 5.619140 0 101 255 0.002616
-0.598727 -0.135948 5.633550 0 125 255 0.003863
-0.586241 -0.151294 5.604630 0 113 255 0.003260
-0.597237 -0.167740 5.591210 0 93 255 0.002292
-0.608295 -0.184492 5.577790 0 77 255 0.001698
-0.573266 -0.167057 5.576660 0 117 255 0.003308
-0.655345 -0.155330 5.641890 0 73 255 0.001605
-0.676616 -0.157953 5.650360 0 97 255 0.002388
-0.646975 -0.140592 5.658750 0 65 255 0.001356
-0.667896 -0.143458 5.667710 0 61 255 0.001215
-0.630774 -0.132065 5.661190 0 77 255 0.001715
-0.614057 -0.123118 5.663570 0 105 255 0.002815
-0.560863 -0.096540 5.677350 0 109 255 0.003064
-0.579481 -0.105089 5.673470 0 93 255 0.002203
-0.551899 -0.102971 5.660360 0 113 255 0.003178
-0.571194 -0.111920 5.656660 0 109 255 0.002971
-0.562264 -0.118492 5.639930 0 109 255 0.002995
-0.543361 -0.109767 5.643230 0 117 255 0.003377
-0.589502 -0.120487 5.653240 0 97 255 0.002397
-0.580715 -0.127353 5.636790 0 113 255 0.003110
-0.604570 -0.108112 5.683540 0 81 255 0.001885
-0.530091 -0.124401 5.611410 0 113 255 0.003183
-0.550019 -0.132940 5.610180 0 113 255 0.003216
-0.522703 -0.131952 5.595200 0 125 255 0.003836
-0.542653 -0.140948 5.594140 0 109 255 0.003083
-0.535329 -0.148863 5.578450 0 117 255 0.003485
-0.515014 -0.139541 5.579440 0 117 255 0.003299
-0.562005 -0.149759 5.593060 0 109 255 0.002943
-0.554492 -0.158046 5.577560 0 125 255 0.003892
-0.469689 -0.132133 5.565970 0 129 255 0.004139
-0.449152 -0.124721 5.569310 0 121 255 0.003727
-0.444548 -0.133956 5.551710 0 133 255 0.004447
-0.428731 -0.117748 5.573640 0 133 255 0.004382
-0.423828 -0.126834 5.555360 0 137 255 0.004602
-0.402492 -0.119995 5.559610 0 169 255 0.007113
-0.407363 -0.111333 5.577900 0 161 255 0.006353
-0.418804 -0.135962 5.537720 0 157 255 0.006149
-0.397498 -0.129070 5.541700 0 173 255 0.007656
-0.392768 -0.138292 5.524110 0 189 255 0.009335
-0.414411 -0.144484 5.522170 0 161 255 0.006647
-0.440235 -0.142544 5.536190 0 129 255 0.004118
-0.435936 -0.151183 5.520920 0 149 255 0.005349
-0.461645 -0.149447 5.535210 0 137 255 0.004735
-0.465713 -0.140648 5.550610 0 121 255 0.003716
-0.485943 -0.147608 5.549970 0 149 255 0.005403
-0.456920 -0.158310 5.520330 0 149 255 0.005615
-0.481534 -0.156469 5.535000 0 161 255 0.006560
-0.476815 -0.165526 5.520120 0 173 255 0.007494
-0.490309 -0.138918 5.565090 0 141 255 0.004816
-0.384305 -0.108164 5.582130 0 117 255 0.003356
-0.361874 -0.104101 5.588380 0 109 255 0.003053
-0.355919 -0.113822 5.567650 0 113 255 0.003194
-0.339602 -0.100422 5.594870 0 129 255 0.004104
-0.333991 -0.110083 5.574080 0 129 255 0.004162
-0.327943 -0.120098 5.553810 0 141 255 0.004946
-0.323107 -0.129082 5.536330 0 161 255 0.006564
-0.351096 -0.122669 5.549450 0 125 255 0.003916
-0.346086 -0.131631 5.531800 0 149 255 0.005445
-0.374388 -0.125653 5.545390 0 141 255 0.004824
-0.379369 -0.116712 5.563510 0 129 255 0.004017
-0.369709 -0.134722 5.527740 0 153 255 0.005836
-0.319379 -0.170658 5.472710 13 245 235 0.017966
-0.319340 -0.160437 5.486290 0 217 255 0.013247
-0.343175 -0.162207 5.483490 0 209 255 0.011822
-0.342878 -0.172404 5.469760 6 237 242 0.016561
-0.343463 -0.152518 5.497700 0 181 255 0.008462
-0.366760 -0.164522 5.481210 0 217 255 0.013291
-0.367268 -0.154799 5.495430 0 189 255 0.009308
-0.390998 -0.157759 5.493840 0 221 255 0.013740
-0.366207 -0.174799 5.467640 9 241 238 0.016984
-0.390547 -0.167507 5.479860 13 245 235 0.017713
-0.389733 -0.177586 5.466210 29 255 219 0.021751
-0.368280 -0.145417 5.510190 0 165 255 0.007038
-0.392042 -0.148139 5.508720 0 197 255 0.010252
-0.344567 -0.142155 5.514180 0 157 255 0.006135
-0.321726 -0.139468 5.518590 0 169 255 0.007254
-0.320380 -0.149859 5.502040 0 193 255 0.009794
-0.411807 -0.183608 5.466850 0 229 248 0.015250
-0.433426 -0.180643 5.479650 0 197 255 0.010383
-0.454206 -0.187623 5.481530 0 173 255 0.007628
-0.475083 -0.185254 5.495510 0 157 255 0.006119
-0.473834 -0.204270 5.471860 0 189 255 0.009150
-0.455300 -0.168530 5.505440 0 169 255 0.007127
-0.434916 -0.161247 5.506100 0 165 255 0.006745
-0.413428 -0.154496 5.507010 0 173 255 0.007835
-0.413114 -0.164414 5.492300 0 193 255 0.009784
-0.457587 -0.207346 5.460440 0 181 255 0.008639
-0.437269 -0.200388 5.458500 0 205 255 0.011633
-0.420177 -0.203936 5.447420 9 241 238 0.017348
-0.398740 -0.198003 5.446030 32 255 216 0.023008
-0.407566 -0.218383 5.427390 55 255 193 0.030446
-0.429128 -0.224802 5.429700 25 255 222 0.020887
-0.445826 -0.221181 5.440750 0 217 255 0.013049
-0.466362 -0.228391 5.443610 0 193 255 0.010051
-0.482223 -0.225411 5.455340 0 161 255 0.006590
-0.490292 -0.245970 5.438530 0 189 255 0.009218
-0.352157 -0.192121 5.446280 45 255 203 0.026704
-0.328898 -0.190356 5.448920 45 255 203 0.027146
-0.338764 -0.210560 5.428940 74 255 174 0.036883
-0.361914 -0.212504 5.427510 61 255 187 0.032051
-0.380230 -0.204834 5.436380 48 255 200 0.027372
-0.366062 -0.241108 5.404100 74 255 174 0.037278
-0.388953 -0.244411 5.404790 45 255 203 0.026891
-0.411521 -0.248629 5.405640 29 255 219 0.021863
-0.424914 -0.241522 5.413590 35 255 213 0.024222
-0.441345 -0.264227 5.399940 35 255 213 0.023939
-0.393502 -0.225538 5.419190 58 255 190 0.030917
-0.461943 -0.271004 5.402970 6 237 242 0.016208
-0.482061 -0.278356 5.406470 0 201 255 0.010900
-0.465813 -0.254545 5.418290 0 225 251 0.014490
-0.485619 -0.262244 5.422370 0 161 255 0.006408
-0.505317 -0.270393 5.426700 0 125 255 0.003874
-0.501820 -0.285715 5.409980 0 149 255 0.005591
-0.521083 -0.293782 5.413330 0 125 255 0.003958
-0.445720 -0.247951 5.415830 3 233 245 0.015722
-0.522360 -0.457040 5.278700 0 229 248 0.014780
-0.546333 -0.475141 5.269360 13 245 235 0.017495
-0.523759 -0.477854 5.266610 0 189 255 0.009379
-0.547807 -0.495050 5.256700 0 197 255 0.010138
-0.570257 -0.493383 5.260460 0 229 248 0.014926
-0.593567 -0.510501 5.249340 29 255 219 0.022325
-0.595947 -0.490587 5.266410 51 255 196 0.028402
-0.572574 -0.472675 5.276430 13 245 235 0.017799
-0.548753 -0.453605 5.284900 19 253 229 0.019738
-0.597650 -0.471062 5.283880 38 255 209 0.024315
-0.519641 -0.498952 5.253190 0 169 255 0.007091
-0.537647 -0.516423 5.241240 0 161 255 0.006458
-0.516297 -0.518446 5.239800 0 153 255 0.005762
-0.561488 -0.522887 5.236910 0 181 255 0.008594
-0.584817 -0.529439 5.232460 0 229 248 0.015314
-0.641971 -0.559723 5.220610 25 255 222 0.021340
-0.662942 -0.570177 5.217630 64 255 184 0.032949
-0.621031 -0.549535 5.224190 3 233 245 0.015940
-0.634281 -0.533309 5.245360 3 233 245 0.015702
-0.654096 -0.544764 5.242920 16 249 232 0.018571
-0.673987 -0.556367 5.240490 48 255 200 0.027601
-0.607156 -0.530611 5.237310 13 245 235 0.017826
-0.597891 -0.548785 5.219560 0 213 255 0.012620
-0.679390 -0.548374 5.254520 29 255 219 0.021566
-0.660017 -0.527672 5.266130 0 201 255 0.011056
-0.684941 -0.540629 5.268510 9 241 238 0.017347
-0.635093 -0.515399 5.264240 0 225 251 0.014480
-0.665239 -0.519697 5.279620 0 193 255 0.010078
-0.641262 -0.506545 5.276640 0 201 255 0.010855
-0.646813 -0.498009 5.289710 0 173 255 0.007728
-0.689676 -0.533654 5.283200 0 205 255 0.011518
-0.670593 -0.512063 5.293780 0 165 255 0.006743
-0.694491 -0.527434 5.299070 0 149 255 0.005430
-0.616596 -0.493873 5.274470 0 225 251 0.014481
-0.622871 -0.484451 5.286520 0 213 255 0.012422
-0.614695 -0.512571 5.256640 0 225 251 0.014312
-0.504176 -0.305568 5.393230 0 197 255 0.010109
-0.484522 -0.298092 5.390620 3 233 245 0.015421
-0.464225 -0.291207 5.388150 13 245 235 0.018130
-0.487382 -0.318027 5.374260 9 241 238 0.016924
-0.507090 -0.325683 5.377310 0 209 255 0.011816
-0.527004 -0.333769 5.380140 0 165 255 0.006706
-0.523632 -0.313897 5.396830 0 133 255 0.004256
-0.542984 -0.322550 5.400750 0 93 255 0.002250
-0.546258 -0.342204 5.383310 0 133 255 0.004294
-0.565331 -0.350808 5.386940 0 85 255 0.001993
-0.409584 -0.268419 5.391240 25 255 222 0.021399
-0.420874 -0.281051 5.384810 22 255 225 0.020096
-0.432233 -0.294446 5.378970 6 237 242 0.016359
-0.443911 -0.308107 5.372450 3 233 245 0.015899
-0.465681 -0.312933 5.373270 9 241 238 0.017200
-0.467667 -0.355633 5.343000 6 237 242 0.016434
-0.490486 -0.361373 5.343150 0 221 255 0.013670
-0.465852 -0.333383 5.357200 29 255 219 0.021687
-0.488788 -0.339502 5.358820 3 233 245 0.015964
-0.510893 -0.346330 5.360000 0 221 255 0.013864
-0.512996 -0.367585 5.343970 0 225 251 0.014236
-0.535556 -0.374046 5.344800 9 241 238 0.017372
-0.555211 -0.382499 5.348200 0 189 255 0.009442
-0.574594 -0.391351 5.351760 0 145 255 0.005151
-0.550682 -0.361622 5.365050 0 173 255 0.007726
-0.569803 -0.370901 5.369430 0 121 255 0.003615
-0.588871 -0.380123 5.373770 0 41 255 0.000862
-0.593678 -0.400420 5.355630 0 93 255 0.002218
-0.612547 -0.409418 5.359540 0 53 255 0.001042
-0.531126 -0.353614 5.362370 0 193 255 0.009638
-0.621368 -0.201909 5.565710 0 73 255 0.001602
-0.599926 -0.202983 5.553700 0 61 255 0.001280
-0.586638 -0.184950 5.565060 0 85 255 0.002039
-0.564939 -0.184862 5.551830 0 93 255 0.002347
-0.578436 -0.203086 5.540770 0 69 255 0.001485
-0.556715 -0.202577 5.527670 0 93 255 0.002230
