ply
format ascii 1.0
comment Seamless Cloth Simulation with High Geometric Fidelity 
comment Sat Apr  6 09:54:40 2019
element vertex 1188
property float x
property float y
property float z
property float quality
end_header
-0.0701114 -0.888111 4.99638 0.0161343 
-0.0940979 -0.874069 4.99984 0.0186163 
-0.0438917 -0.892057 4.99053 0.0254306 
-0.0177639 -0.896142 4.98476 0.0347077 
0.00616089 -0.910119 4.98127 0.0510185 
0.0106895 -0.890252 4.97638 0.0499466 
-0.133564 -0.912743 5.01324 0.0265258 
-0.156631 -0.897607 5.01621 0.0167759 
-0.183589 -0.893544 5.02109 0.0183781 
-0.206659 -0.878143 5.02408 0.0150231 
-0.214726 -0.900386 5.02786 0.0249652 
-0.175779 -0.871315 5.01713 0.0152169 
-0.198822 -0.856023 5.02002 0.0151433 
-0.149545 -0.875782 5.01202 0.015411 
-0.123422 -0.880269 5.00704 0.0191228 
-0.175549 -0.811373 5.01798 0.0129453 
-0.15011 -0.816008 5.01236 0.0135031 
-0.129737 -0.83171 5.00794 0.0134441 
-0.10426 -0.83639 5.00257 0.0156019 
-0.0839075 -0.852124 4.9983 0.0130125 
-0.0735621 -0.829928 4.99629 0.015838 
-0.11442 -0.858424 5.00431 0.0129227 
-0.140594 -0.853871 5.00934 0.0119335 
-0.166799 -0.849438 5.0145 0.0113431 
-0.187153 -0.833682 5.01922 0.0103422 
-0.0482365 -0.834527 4.99024 0.0168563 
-0.0272177 -0.849648 4.98535 0.0202647 
-0.00204453 -0.854437 4.9794 0.035951 
0.0191002 -0.869469 4.97436 0.0458347 
-0.0103179 -0.875193 4.98147 0.035519 
-0.0365837 -0.871147 4.98734 0.0197003 
-0.0628635 -0.867081 4.99323 0.0142881 
-0.140833 -0.729546 5.0363 0.0265776 
-0.156851 -0.71757 5.04557 0.0208334 
-0.182533 -0.71418 5.05106 0.0237694 
-0.199016 -0.702832 5.06162 0.0166937 
-0.217528 -0.718556 5.05352 0.0224257 
-0.16373 -0.697761 5.05981 0.026313 
-0.180595 -0.686733 5.07041 0.0309587 
-0.139243 -0.701262 5.05464 0.0267497 
-0.114788 -0.704726 5.0499 0.0261628 
-0.238126 -0.714714 5.05794 0.0208492 
-0.248392 -0.70333 5.06722 0.0155183 
-0.268836 -0.699899 5.07213 0.0129076 
-0.249029 -0.684783 5.08174 0.0158044 
-0.229392 -0.687904 5.07633 0.0210552 
-0.209824 -0.691526 5.07118 0.0236387 
-0.199025 -0.668082 5.09322 0.0278866 
-0.179851 -0.67105 5.08784 0.0329814 
-0.160591 -0.6742 5.08294 0.0248024 
-0.229723 -0.671548 5.09295 0.0148529 
-0.125493 -0.670031 5.08381 0.0440843 
-0.102197 -0.673529 5.07896 0.0377911 
-0.0875781 -0.683612 5.06784 0.0311676 
-0.120867 -0.686346 5.06563 0.0294104 
-0.14549 -0.683022 5.07064 0.033098 
-0.201107 -0.806385 5.02221 0.0167128 
-0.219898 -0.791432 5.02841 0.0128187 
-0.245706 -0.786284 5.03329 0.0117719 
-0.264017 -0.771704 5.0393 0.0102329 
-0.278079 -0.790441 5.03589 0.0122969 
-0.231335 -0.767099 5.03591 0.0159392 
-0.250009 -0.752699 5.04212 0.0165639 
-0.205418 -0.771763 5.03023 0.0151455 
-0.179926 -0.776414 5.02545 0.0131906 
-0.161532 -0.79119 5.01984 0.0107782 
-0.147353 -0.770758 5.0214 0.0162742 
-0.299151 -0.785162 5.03872 0.0134692 
-0.3127 -0.771198 5.04383 0.0140627 
-0.333849 -0.766055 5.04666 0.01271 
-0.347718 -0.752046 5.05214 0.0110359 
-0.362787 -0.77016 5.04719 0.0147233 
-0.319098 -0.748225 5.05123 0.0119673 
-0.333011 -0.734477 5.05676 0.0145111 
-0.29844 -0.752941 5.04785 0.0122493 
-0.277854 -0.757599 5.04442 0.0138525 
-0.286422 -0.715118 5.06399 0.0122751 
-0.266485 -0.719325 5.05955 0.0168638 
-0.254176 -0.731716 5.05219 0.0135925 
-0.233723 -0.735982 5.04798 0.0139674 
-0.282974 -0.735708 5.05314 0.0132059 
-0.303586 -0.731124 5.05676 0.012817 
-0.315784 -0.718833 5.06447 0.0122169 
-0.199624 -0.731128 5.04446 0.0180551 
-0.174042 -0.73502 5.03891 0.0177389 
-0.156673 -0.748196 5.0313 0.0171266 
-0.131578 -0.752436 5.02654 0.0154123 
-0.190047 -0.752808 5.0338 0.0161434 
-0.216147 -0.748727 5.03938 0.0158044 
-0.0983713 -0.747285 5.02356 0.016836 
-0.0734194 -0.751773 5.01745 0.0178275 
-0.056188 -0.765824 5.0093 0.0146545 
-0.0311152 -0.770251 5.00374 0.0131837 
-0.0464621 -0.789186 4.99876 0.0155583 
-0.0718867 -0.784645 5.0043 0.0168772 
-0.0890739 -0.770681 5.01241 0.0174316 
-0.114317 -0.766057 5.01833 0.0149352 
0.000934316 -0.765869 4.99969 0.0242951 
0.0251029 -0.7708 4.99323 0.0353617 
0.0419336 -0.785515 4.98474 0.0413689 
0.0271988 -0.804324 4.98 0.0335044 
0.0105378 -0.789578 4.98861 0.0325102 
-0.0142096 -0.784697 4.99487 0.0196816 
0.00881715 -0.833942 4.9789 0.0368862 
-0.0161675 -0.829089 4.98483 0.0207106 
-0.034802 -0.814348 4.99157 0.0145639 
-0.0600491 -0.809745 4.99764 0.013623 
-0.00319101 -0.808974 4.9858 0.0250534 
-0.0920876 -0.815056 5.00259 0.0121126 
-0.117716 -0.810548 5.00802 0.0137465 
-0.136072 -0.795751 5.01424 0.01229 
-0.103873 -0.790108 5.00946 0.0152349 
-0.514361 -0.695189 5.08556 0.0127153 
-0.532602 -0.702219 5.08814 0.00789299 
-0.535011 -0.719002 5.08223 0.00875641 
-0.55071 -0.709169 5.09049 0.00676895 
-0.553325 -0.726406 5.08467 0.00981949 
-0.572003 -0.733675 5.08686 0.0146284 
-0.5557 -0.74366 5.07918 0.0161369 
-0.569546 -0.716119 5.09239 0.0115305 
-0.587996 -0.7236 5.09461 0.0183116 
-0.564906 -0.697555 5.09768 0.0108449 
-0.546203 -0.690759 5.09587 0.00829431 
-0.52803 -0.68395 5.09351 0.0115215 
-0.541431 -0.672725 5.1017 0.0126779 
-0.572348 -0.754473 5.08476 0.0117813 
-0.570259 -0.773478 5.08226 0.011204 
-0.588901 -0.765491 5.09041 0.0095621 
-0.586585 -0.784727 5.08819 0.0108327 
-0.602858 -0.796051 5.09436 0.0167194 
-0.583979 -0.803974 5.08632 0.0171348 
-0.605262 -0.77682 5.09633 0.0116051 
-0.621512 -0.788396 5.10238 0.0202012 
-0.60534 -0.75558 5.09776 0.012711 
-0.588747 -0.744473 5.09229 0.0109737 
-0.657982 -0.771376 5.12244 0.0290088 
-0.648729 -0.753638 5.12028 0.0192239 
-0.631184 -0.74163 5.11344 0.01369 
-0.621688 -0.72421 5.11148 0.0145508 
-0.603712 -0.712731 5.10483 0.0172899 
-0.619325 -0.701545 5.1151 0.0222672 
-0.605788 -0.735167 5.10123 0.0128612 
-0.622736 -0.767604 5.10505 0.0129484 
-0.639863 -0.780038 5.11242 0.0201946 
-0.606297 -0.687599 5.11708 0.0143668 
-0.586855 -0.680423 5.11371 0.00904438 
-0.57399 -0.667112 5.11579 0.00920399 
-0.554657 -0.660177 5.11234 0.0114767 
-0.567739 -0.647457 5.12293 0.0156184 
-0.560802 -0.679577 5.10499 0.00943518 
-0.584148 -0.705064 5.10155 0.0108314 
-0.553632 -0.637181 5.12785 0.00908415 
-0.533832 -0.634049 5.12752 0.00409506 
-0.520225 -0.624141 5.13231 0.00341578 
-0.500931 -0.62066 5.13123 0.00426681 
-0.512164 -0.607563 5.14228 0.00542092 
-0.508701 -0.637279 5.12129 0.00320377 
-0.489542 -0.633828 5.12011 0.00517569 
-0.515181 -0.652937 5.11109 0.00481868 
-0.534762 -0.656492 5.11178 0.00695732 
-0.497765 -0.599841 5.14863 0.00256372 
-0.478617 -0.599015 5.14936 0.000850075 
-0.464813 -0.591237 5.1553 0.000652309 
-0.455141 -0.604495 5.14404 0.000781676 
-0.462861 -0.618764 5.1326 0.00121634 
-0.481844 -0.620084 5.13236 0.00144739 
-0.43295 -0.629084 5.12511 0.000755834 
-0.439648 -0.642588 5.11494 0.00126245 
-0.451733 -0.630848 5.1239 0.000912699 
-0.458528 -0.644207 5.11329 0.0022274 
-0.477444 -0.645876 5.11156 0.00417617 
-0.465253 -0.657342 5.10284 0.00523168 
-0.470551 -0.632534 5.12223 0.00185584 
-0.444035 -0.616856 5.13396 0.000991853 
-0.484117 -0.661242 5.10313 0.00330728 
-0.489661 -0.675896 5.09418 0.00582367 
-0.502899 -0.664949 5.10276 0.00383865 
-0.508681 -0.68001 5.09415 0.00637122 
-0.522222 -0.668822 5.10233 0.00661488 
-0.496138 -0.649277 5.11131 0.00375583 
-0.375945 -0.692654 5.08215 0.00603026 
-0.372959 -0.708764 5.07187 0.00971062 
-0.390806 -0.711803 5.0699 0.0134747 
-0.39493 -0.695162 5.07967 0.00721147 
-0.414254 -0.698136 5.07729 0.00965139 
-0.337915 -0.710095 5.07047 0.0108662 
-0.357783 -0.725558 5.06209 0.0148702 
-0.381566 -0.752187 5.05442 0.0132011 
-0.400787 -0.733992 5.06177 0.0115767 
-0.404436 -0.756285 5.05377 0.0147164 
-0.377985 -0.72993 5.06237 0.0113514 
-0.427757 -0.747161 5.05791 0.0184133 
-0.416385 -0.724793 5.06637 0.0110065 
-0.436043 -0.729223 5.06512 0.0133635 
-0.456047 -0.733867 5.06367 0.0182189 
-0.495823 -0.690983 5.08682 0.00719794 
-0.471221 -0.672006 5.09516 0.00489637 
-0.447099 -0.673519 5.09243 0.00557467 
-0.452337 -0.68759 5.08484 0.0063027 
-0.470439 -0.691867 5.08442 0.00464073 
-0.475327 -0.705833 5.07714 0.00910628 
-0.493849 -0.710101 5.07632 0.0134793 
-0.446865 -0.655536 5.10545 0.00200356 
-0.421503 -0.640666 5.11677 0.00104661 
-0.404405 -0.656634 5.10545 0.00175001 
-0.422432 -0.658746 5.10374 0.00158992 
-0.428544 -0.671132 5.09437 0.00408891 
-0.386715 -0.671477 5.09565 0.00253345 
-0.404603 -0.674008 5.09347 0.00261037 
-0.432108 -0.70225 5.07656 0.00832655 
-0.45018 -0.706651 5.07567 0.00676213 
-0.471371 -0.724585 5.06854 0.0145485 
-0.478988 -0.513865 5.2219 0.00135569 
-0.461324 -0.507521 5.22716 0.000899309 
-0.443222 -0.508984 5.22553 0.00127929 
-0.425787 -0.502 5.23002 0.00156476 
-0.407963 -0.502627 5.22755 0.00294466 
-0.408681 -0.486036 5.23998 0.00391813 
-0.424669 -0.51802 5.21711 0.00132064 
-0.406587 -0.518827 5.21445 0.00284996 
-0.440448 -0.525224 5.21187 0.00106581 
-0.456161 -0.532123 5.20616 0.000625306 
-0.47446 -0.530514 5.20743 0.000900037 
-0.469675 -0.54674 5.19267 0.000876311 
-0.390858 -0.482055 5.24582 0.00290064 
-0.373701 -0.4862 5.24586 0.00335796 
-0.355913 -0.481999 5.25117 0.00381759 
-0.357595 -0.497904 5.24002 0.00324217 
-0.374315 -0.502485 5.23406 0.00314818 
-0.390733 -0.506602 5.22764 0.00247662 
-0.372578 -0.52564 5.21634 0.00263168 
-0.387851 -0.529939 5.20962 0.00190501 
-0.403005 -0.534021 5.2026 0.00251781 
-0.356535 -0.513739 5.22786 0.00301197 
-0.416669 -0.548724 5.19127 0.00120089 
-0.430915 -0.55615 5.1856 0.000553991 
-0.448468 -0.555324 5.18595 0.000533452 
-0.46288 -0.561857 5.17984 0.000584228 
-0.436227 -0.541014 5.1983 0.000794763 
-0.420651 -0.533941 5.20371 0.00102962 
-0.474107 -0.577229 5.16799 0.000442961 
-0.488331 -0.585183 5.16211 0.000732565 
-0.507425 -0.585268 5.16281 0.00187303 
-0.522114 -0.593108 5.15653 0.00399358 
-0.531516 -0.577949 5.17034 0.00546639 
-0.51569 -0.570445 5.17623 0.00220686 
-0.496719 -0.570287 5.17566 0.000867131 
-0.481337 -0.562516 5.18103 0.000566128 
-0.531761 -0.610519 5.1451 0.00326222 
-0.545605 -0.620458 5.14035 0.0040185 
-0.5658 -0.623145 5.14242 0.00676915 
-0.579921 -0.633438 5.13769 0.0111368 
-0.59165 -0.618833 5.15207 0.0141546 
-0.576158 -0.608739 5.15699 0.00613642 
-0.556442 -0.605956 5.15456 0.00401798 
-0.541568 -0.595797 5.15916 0.00320919 
-0.618498 -0.587943 5.18844 0.0227526 
-0.601077 -0.577061 5.19224 0.0118609 
-0.57935 -0.574918 5.18822 0.00547804 
-0.562204 -0.56475 5.19224 0.00293887 
-0.54119 -0.562285 5.1876 0.00334098 
-0.550397 -0.545816 5.20423 0.00573834 
-0.552922 -0.580538 5.17532 0.0031799 
-0.567727 -0.590993 5.17101 0.0033861 
-0.589569 -0.59323 5.1752 0.006246 
-0.605174 -0.603441 5.17016 0.0148185 
-0.532121 -0.538012 5.20887 0.00258162 
-0.51198 -0.538552 5.20644 0.00129829 
-0.49433 -0.530558 5.2108 0.000955478 
-0.489562 -0.546913 5.19606 0.000659594 
-0.504907 -0.554809 5.19063 0.000960794 
-0.525275 -0.554307 5.19324 0.00146832 
-0.233921 -0.477513 5.31468 0.00753641 
-0.263364 -0.459573 5.29679 0.0191441 
-0.245818 -0.462211 5.31034 0.011883 
-0.21559 -0.481358 5.32682 0.00779416 
-0.298951 -0.456679 5.28533 0.00775971 
-0.313866 -0.448441 5.28343 0.0069398 
-0.330955 -0.447383 5.27655 0.0093068 
-0.278377 -0.451665 5.29553 0.0128252 
-0.317276 -0.41155 5.3027 0.0194851 
-0.298674 -0.414519 5.30859 0.0153144 
-0.283716 -0.423575 5.30955 0.0152193 
-0.265254 -0.426329 5.3149 0.0230759 
-0.250379 -0.435068 5.31523 0.0319125 
-0.323149 -0.425729 5.29215 0.0152006 
-0.227867 -0.434173 5.33368 0.0179472 
-0.216563 -0.449748 5.33745 0.0102523 
-0.200946 -0.459813 5.34492 0.00883928 
-0.185078 -0.298224 5.42513 0.010012 
-0.16955 -0.310235 5.42895 0.0060803 
-0.162743 -0.328843 5.424 0.00553101 
-0.146831 -0.34032 5.42653 0.00889652 
-0.164638 -0.353946 5.41029 0.00745583 
-0.181659 -0.345326 5.40729 0.00422244 
-0.188415 -0.326821 5.41207 0.0049753 
-0.205183 -0.317696 5.40829 0.00436492 
-0.21188 -0.298824 5.41248 0.00743873 
-0.232297 -0.318675 5.39577 0.00391817 
-0.12482 -0.34876 5.44044 0.00499407 
-0.112531 -0.366507 5.44475 0.00314225 
-0.107549 -0.387698 5.44097 0.00389683 
-0.0946465 -0.404987 5.44444 0.00703234 
-0.109745 -0.41244 5.42919 0.00957019 
-0.12407 -0.398261 5.42578 0.00313023 
-0.129025 -0.377061 5.42934 0.00283995 
-0.142526 -0.362125 5.42431 0.00333041 
-0.152531 -0.417593 5.39843 0.00439032 
-0.159484 -0.398848 5.40059 0.0044861 
-0.174308 -0.386384 5.39438 0.00519025 
-0.180844 -0.367425 5.39535 0.00815529 
-0.197014 -0.381002 5.38035 0.00888337 
-0.158274 -0.373152 5.40958 0.00382059 
-0.144684 -0.387921 5.41467 0.00334675 
-0.137788 -0.406627 5.41263 0.00378511 
-0.123428 -0.420816 5.41625 0.0095527 
-0.215116 -0.375272 5.37719 0.00536776 
-0.223965 -0.359736 5.38126 0.00536646 
-0.242156 -0.353702 5.37752 0.00539583 
-0.250963 -0.337918 5.38073 0.00336026 
-0.269583 -0.357447 5.36568 0.00643692 
-0.223448 -0.334407 5.39245 0.00487781 
-0.20663 -0.343292 5.39628 0.00443069 
-0.197882 -0.358847 5.3923 0.00646825 
-0.287146 -0.18167 5.48044 0.00840348 
-0.263745 -0.18351 5.48473 0.00611011 
-0.268543 -0.193451 5.47138 0.0104728 
-0.240617 -0.18539 5.48911 0.00720477 
-0.245493 -0.195479 5.476 0.00963895 
-0.22266 -0.197465 5.48028 0.011995 
-0.217686 -0.187372 5.49303 0.0109613 
-0.250376 -0.205714 5.46288 0.013047 
-0.227647 -0.207733 5.46747 0.016007 
-0.232701 -0.218126 5.45487 0.0187501 
-0.276994 -0.214075 5.44788 0.0148446 
-0.295322 -0.202023 5.45617 0.0133354 
-0.314049 -0.190152 5.46506 0.013269 
-0.322321 -0.210763 5.44157 0.0215478 
-0.197186 -0.194701 5.49672 0.00636143 
-0.170729 -0.20155 5.50286 0.00692779 
-0.182191 -0.212369 5.48777 0.00659176 
-0.144671 -0.208252 5.50826 0.0109895 
-0.156063 -0.219223 5.49391 0.00980262 
-0.167426 -0.230079 5.47931 0.00756417 
-0.172455 -0.240264 5.46687 0.0108594 
-0.187129 -0.222573 5.47558 0.00757552 
-0.192217 -0.232876 5.46303 0.00978794 
-0.207144 -0.21512 5.47155 0.00937072 
-0.202174 -0.204874 5.4841 0.00666708 
-0.212315 -0.22548 5.45911 0.0122711 
-0.210624 -0.273386 5.42609 0.0132747 
-0.220941 -0.258143 5.43248 0.0110056 
-0.24014 -0.252028 5.42815 0.0141983 
-0.250844 -0.236871 5.43464 0.0171794 
-0.268701 -0.255649 5.41412 0.0224551 
-0.191928 -0.256033 5.44625 0.0110933 
-0.289827 -0.25474 5.41166 0.0157492 
-0.303138 -0.243389 5.41817 0.0131207 
-0.324547 -0.242593 5.41571 0.0129136 
-0.338141 -0.231521 5.42266 0.0182852 
-0.353898 -0.25261 5.40413 0.0220746 
-0.308568 -0.221814 5.4343 0.0171558 
-0.263656 -0.225295 5.44071 0.0160182 
-0.353725 -0.4655 5.26272 0.00362018 
-0.371917 -0.469785 5.25745 0.00337248 
-0.38903 -0.465697 5.25831 0.00253675 
-0.407065 -0.469338 5.2524 0.00428376 
-0.404962 -0.45231 5.26442 0.00565695 
-0.3859 -0.449729 5.26914 0.0030932 
-0.368853 -0.454201 5.2686 0.00319496 
-0.347968 -0.443652 5.27767 0.00480935 
-0.427609 -0.484517 5.24395 0.00179118 
-0.445069 -0.491714 5.23946 0.00137824 
-0.464238 -0.489388 5.24272 0.00115906 
-0.481902 -0.495744 5.23756 0.00162356 
-0.484248 -0.477378 5.25246 0.0025996 
-0.464508 -0.471715 5.25629 0.001324 
-0.445554 -0.473778 5.25314 0.0014546 
-0.425739 -0.467611 5.25604 0.00217127 
-0.48287 -0.438832 5.28264 0.00532923 
-0.461508 -0.434134 5.2849 0.00269047 
-0.442012 -0.437508 5.28062 0.00206821 
-0.420771 -0.432327 5.28224 0.00250757 
-0.401216 -0.435465 5.27707 0.00600912 
-0.397396 -0.41834 5.28939 0.00735623 
-0.424303 -0.449279 5.26954 0.00236847 
-0.444201 -0.455718 5.26669 0.00181529 
-0.463843 -0.452332 5.27145 0.00200745 
-0.48376 -0.458444 5.26806 0.00349134 
-0.377366 -0.416815 5.29319 0.00491241 
-0.360154 -0.422269 5.29136 0.00521651 
-0.340214 -0.420558 5.29455 0.00807659 
-0.364966 -0.438033 5.27989 0.00379898 
-0.382154 -0.432618 5.28178 0.00405574 
-0.343014 -0.265006 5.3984 0.0123688 
-0.321611 -0.265356 5.40038 0.0109943 
-0.332308 -0.277306 5.3926 0.00817962 
-0.300513 -0.266259 5.40331 0.0106939 
-0.311254 -0.278094 5.39532 0.0065919 
-0.290185 -0.278951 5.39785 0.00857271 
-0.279421 -0.26716 5.4058 0.0143633 
-0.3218 -0.289736 5.387 0.00504331 
-0.300753 -0.290618 5.38973 0.00533762 
-0.311252 -0.302088 5.38113 0.00520728 
-0.332484 -0.302249 5.3789 0.00418238 
-0.34309 -0.28996 5.38484 0.0047631 
-0.353683 -0.30257 5.3769 0.00422918 
-0.364415 -0.290341 5.38271 0.00584861 
-0.353774 -0.277674 5.39049 0.00810748 
-0.375271 -0.278146 5.38866 0.0108618 
-0.374925 -0.303035 5.37488 0.00540575 
-0.385803 -0.290874 5.38086 0.00908071 
-0.396151 -0.303621 5.37274 0.0101369 
-0.364636 -0.265447 5.39654 0.0138633 
-0.259727 -0.271698 5.41027 0.0102809 
-0.240231 -0.27757 5.41424 0.00711717 
-0.23132 -0.293238 5.40954 0.00419278 
-0.251893 -0.31459 5.3926 0.00205976 
-0.261092 -0.298981 5.39742 0.00263794 
-0.271601 -0.310545 5.38918 0.00221328 
-0.281024 -0.294855 5.39394 0.00313464 
-0.270297 -0.283268 5.40186 0.00493677 
-0.291403 -0.306342 5.38524 0.00276266 
-0.289973 -0.355325 5.36244 0.0100914 
-0.300527 -0.341558 5.36676 0.00485922 
-0.320897 -0.339162 5.36265 0.00378739 
-0.331415 -0.325147 5.36614 0.00316576 
-0.351126 -0.348567 5.35086 0.00412919 
-0.270613 -0.333949 5.37756 0.0027885 
-0.372646 -0.350267 5.34931 0.00536519 
-0.362219 -0.337145 5.35643 0.00335264 
-0.383673 -0.338662 5.35432 0.00353656 
-0.393897 -0.351557 5.3467 0.00467927 
-0.373332 -0.325777 5.36168 0.00369664 
-0.405206 -0.340284 5.35212 0.00406178 
-0.394973 -0.327359 5.35957 0.00523346 
-0.416595 -0.329159 5.35771 0.00824465 
-0.415392 -0.35319 5.3447 0.00437886 
-0.426723 -0.341963 5.3501 0.00776746 
-0.436827 -0.354699 5.34233 0.00690776 
-0.406516 -0.316497 5.36553 0.00639389 
-0.634506 -0.196419 5.58287 0.00182264 
-0.622116 -0.179833 5.59752 0.0013997 
-0.64419 -0.182293 5.60731 0.00180472 
-0.609703 -0.163389 5.61226 0.00162866 
-0.631722 -0.165887 5.62224 0.00158074 
-0.619157 -0.149757 5.63722 0.0016239 
-0.65369 -0.168254 5.63202 0.00210246 
-0.597099 -0.147169 5.62723 0.0019828 
-0.584284 -0.13118 5.64233 0.00243853 
-0.572964 -0.145778 5.6137 0.00225399 
-0.585504 -0.162117 5.59895 0.00170744 
-0.598035 -0.178713 5.58428 0.00132867 
-0.561384 -0.160556 5.5853 0.00264525 
-0.64386 -0.152389 5.6491 0.00137872 
-0.666459 -0.156339 5.65745 0.00194704 
-0.633969 -0.136802 5.66627 0.00149639 
-0.656489 -0.140809 5.67475 0.00139237 
-0.616548 -0.127673 5.66896 0.00189563 
-0.599073 -0.118545 5.67168 0.00256794 
-0.544472 -0.0922962 5.68701 0.00158531 
-0.563404 -0.100624 5.68258 0.00142852 
-0.536349 -0.0988856 5.6708 0.00155833 
-0.555374 -0.107342 5.66654 0.00166001 
-0.54716 -0.11398 5.65042 0.00187578 
-0.52827 -0.105495 5.65465 0.0017465 
-0.57402 -0.115765 5.66239 0.00169062 
-0.565891 -0.122643 5.64634 0.00185776 
-0.588582 -0.103344 5.69188 0.00144973 
-0.516379 -0.119859 5.62389 0.00150546 
-0.535973 -0.128017 5.62135 0.00148454 
-0.509954 -0.127365 5.60786 0.00185409 
-0.529561 -0.13576 5.60543 0.00150726 
-0.523099 -0.1435 5.58966 0.0018473 
-0.503513 -0.134992 5.59193 0.00180673 
-0.548809 -0.144079 5.60314 0.00195962 
-0.542357 -0.152033 5.58745 0.00231004 
-0.46086 -0.129082 5.58095 0.00149091 
-0.441903 -0.122524 5.5851 0.00161632 
-0.437778 -0.131655 5.56763 0.00174735 
-0.423008 -0.116222 5.58951 0.00206443 
-0.418934 -0.125202 5.57191 0.00221361 
-0.399847 -0.118941 5.57634 0.00387683 
-0.4039 -0.110119 5.59404 0.00367203 
-0.414673 -0.134386 5.55448 0.00303053 
-0.395566 -0.127991 5.55881 0.00460268 
-0.391358 -0.137214 5.5415 0.00609417 
-0.410913 -0.142848 5.53913 0.00390662 
-0.434141 -0.140137 5.55227 0.00232213 
-0.430311 -0.14865 5.53702 0.00316689 
-0.453583 -0.146027 5.55019 0.00261493 
-0.457234 -0.137483 5.56555 0.002007 
-0.476388 -0.143473 5.56365 0.00294512 
-0.449657 -0.154708 5.5352 0.00309883 
-0.472591 -0.152111 5.54846 0.00355505 
-0.468714 -0.160943 5.5335 0.00482993 
-0.480097 -0.134944 5.57895 0.0027306 
-0.383522 -0.107242 5.59796 0.00183037 
-0.364093 -0.103151 5.60384 0.00163459 
-0.358907 -0.113016 5.58409 0.00167783 
-0.344629 -0.0992472 5.60979 0.00215381 
-0.339652 -0.10904 5.58998 0.00224973 
-0.334487 -0.119093 5.57039 0.00277341 
-0.330293 -0.128148 5.55316 0.00386505 
-0.354728 -0.12188 5.56648 0.00225918 
-0.35055 -0.130983 5.54909 0.00326205 
-0.375146 -0.124825 5.56262 0.00271584 
-0.379334 -0.115911 5.58015 0.00220445 
-0.371096 -0.133998 5.54529 0.00380182 
-0.326752 -0.171769 5.48782 0.007644 
-0.326966 -0.161296 5.50199 0.0058519 
-0.347848 -0.163123 5.49988 0.00535192 
-0.347584 -0.173638 5.48564 0.00723114 
-0.348236 -0.152899 5.51454 0.0041249 
-0.368815 -0.165184 5.49783 0.00661222 
-0.369286 -0.154916 5.5126 0.00472886 
-0.390275 -0.157237 5.51085 0.00743272 
-0.368309 -0.175736 5.48367 0.00866219 
-0.389834 -0.167547 5.49611 0.00963408 
-0.389177 -0.178006 5.48179 0.0112594 
-0.369785 -0.14492 5.52771 0.00400172 
-0.390867 -0.147135 5.52604 0.00593222 
-0.349323 -0.141839 5.53151 0.00333665 
-0.329133 -0.138867 5.53546 0.0043143 
-0.327925 -0.150003 5.51838 0.00472919 
-0.40905 -0.183138 5.48159 0.0077573 
-0.42888 -0.178769 5.494 0.00587667 
-0.448434 -0.184414 5.49428 0.00486102 
-0.468149 -0.180334 5.50735 0.00487071 
-0.467604 -0.200013 5.48203 0.00768133 
-0.448913 -0.164934 5.5199 0.00454777 
-0.429682 -0.158777 5.52175 0.003989 
-0.410219 -0.152854 5.52376 0.00445072 
-0.40988 -0.163034 5.50856 0.00595627 
-0.452017 -0.204606 5.47085 0.00781986 
-0.432649 -0.198929 5.47046 0.00829649 
-0.416995 -0.203855 5.45968 0.0101695 
-0.397227 -0.198636 5.45966 0.0130784 
-0.405214 -0.21956 5.43832 0.0192086 
-0.425282 -0.224997 5.43945 0.0126693 
-0.440856 -0.21995 5.45029 0.00928345 
-0.460606 -0.225783 5.45158 0.00775493 
-0.475955 -0.221076 5.46275 0.00678623 
-0.484191 -0.242255 5.44367 0.00848186 
-0.355397 -0.193763 5.46055 0.0119506 
-0.334641 -0.191906 5.46281 0.0119532 
-0.343013 -0.21262 5.4406 0.0166016 
-0.363735 -0.214688 5.43952 0.0161779 
-0.380398 -0.206473 5.44932 0.0135456 
-0.366495 -0.24403 5.4121 0.0177504 
-0.387351 -0.247249 5.41256 0.0134547 
-0.408107 -0.250735 5.41302 0.0126041 
-0.42093 -0.242683 5.42151 0.0135925 
-0.436254 -0.265754 5.40514 0.0144682 
-0.392219 -0.227605 5.42949 0.017029 
-0.456058 -0.271767 5.40725 0.00882293 
-0.475743 -0.27792 5.40945 0.00652261 
-0.460165 -0.25372 5.42385 0.00949792 
-0.47984 -0.260109 5.42635 0.00587705 
-0.499465 -0.266688 5.42908 0.0041212 
-0.49532 -0.284265 5.4117 0.00440648 
-0.514675 -0.290662 5.41378 0.00437214 
-0.44059 -0.248161 5.42273 0.0105532 
-0.504519 -0.457567 5.27374 0.00344555 
-0.52602 -0.475415 5.26401 0.00335969 
-0.505178 -0.476677 5.25883 0.00228052 
-0.526603 -0.493869 5.2484 0.00331928 
-0.547759 -0.493088 5.25412 0.00471242 
-0.569637 -0.509792 5.24289 0.00972516 
-0.573191 -0.490588 5.26263 0.00938128 
-0.551292 -0.47323 5.27314 0.00509176 
-0.529535 -0.455225 5.28286 0.00430235 
-0.576573 -0.471409 5.28243 0.00826731 
-0.501019 -0.495391 5.2416 0.00187205 
-0.517376 -0.512668 5.22955 0.00233198 
-0.498074 -0.513213 5.22588 0.00155862 
-0.538715 -0.520304 5.2266 0.00323642 
-0.560365 -0.527808 5.2234 0.00768529 
-0.613825 -0.560786 5.21447 0.0109092 
-0.634079 -0.572355 5.21262 0.0193981 
-0.593907 -0.549505 5.21653 0.00799304 
-0.608718 -0.53311 5.23981 0.00675591 
-0.628441 -0.544961 5.2383 0.00905858 
-0.648496 -0.557032 5.23707 0.0152197 
-0.581668 -0.529937 5.2301 0.00780056 
-0.572073 -0.547399 5.2101 0.00689975 
-0.656064 -0.547987 5.25166 0.0118214 
-0.637786 -0.526746 5.26322 0.00616274 
-0.66388 -0.539106 5.26617 0.0109639 
-0.611854 -0.51491 5.26068 0.00472593 
-0.645427 -0.517649 5.27759 0.00388392 
-0.619783 -0.505387 5.27454 0.00333063 
-0.627453 -0.495875 5.28837 0.00273837 
-0.671592 -0.53046 5.28126 0.00834205 
-0.653096 -0.508789 5.2924 0.00296625 
-0.679022 -0.522242 5.29696 0.00535008 
-0.594154 -0.493488 5.27194 0.00471706 
-0.601977 -0.483545 5.28527 0.00358865 
-0.590737 -0.512125 5.25163 0.0072675 
-0.496758 -0.305416 5.39429 0.00540931 
-0.477233 -0.299298 5.39245 0.00657285 
-0.457655 -0.293404 5.39096 0.00749249 
-0.478966 -0.320714 5.37581 0.00711003 
-0.498408 -0.327216 5.37829 0.00482453 
-0.517869 -0.33378 5.38088 0.00247325 
-0.516124 -0.312255 5.39727 0.00285556 
-0.53549 -0.319304 5.40036 0.00174715 
-0.537113 -0.340565 5.38357 0.00188875 
-0.556433 -0.347427 5.38647 0.00128807 
-0.405727 -0.271542 5.39632 0.0107671 
-0.415974 -0.284325 5.38851 0.00892231 
-0.426837 -0.298124 5.3814 0.00679003 
-0.437675 -0.311831 5.37424 0.00646245 
-0.458346 -0.316254 5.37508 0.00607007 
-0.458367 -0.360157 5.34342 0.00504617 
-0.479787 -0.365567 5.34432 0.00405811 
-0.45777 -0.337244 5.35844 0.00839444 
-0.479368 -0.343109 5.36016 0.00554083 
-0.500721 -0.348873 5.36129 0.00572008 
-0.501242 -0.371105 5.34543 0.00403156 
-0.522633 -0.376736 5.34639 0.00440463 
-0.542193 -0.383686 5.3495 0.00244892 
-0.561674 -0.390871 5.35269 0.00186803 
-0.539524 -0.361722 5.36587 0.00289041 
-0.558979 -0.369196 5.36957 0.00129457 
-0.578502 -0.376713 5.3735 0.000633632 
-0.581146 -0.398168 5.35613 0.00121286 
-0.600709 -0.405497 5.35974 0.000687528 
-0.520189 -0.355282 5.36364 0.00297196 
-0.612761 -0.196229 5.57076 0.00126138 
-0.591089 -0.195939 5.55853 0.00116335 
-0.576265 -0.178172 5.57184 0.00157647 
-0.554632 -0.177461 5.55913 0.00240673 
-0.569454 -0.195241 5.54603 0.00170904 
-0.547757 -0.194438 5.53332 0.00276228 
-0.585684 -0.212067 5.53619 0.000792138 
-0.607288 -0.212568 5.54851 0.000717157 
-0.629088 -0.212637 5.56037 0.00135473 
-0.62361 -0.229053 5.53825 0.00113017 
-0.538462 -0.161059 5.57253 0.00190697 
-0.519246 -0.152276 5.57448 0.00162376 
-0.51541 -0.161082 5.55954 0.00213832 
-0.499791 -0.143549 5.57665 0.002225 
-0.495987 -0.15229 5.56158 0.00239731 
-0.492164 -0.161078 5.54658 0.00268419 
-0.508846 -0.177733 5.53321 0.00207377 
-0.531817 -0.177722 5.54632 0.00206602 
-0.487796 -0.208098 5.48374 0.00451112 
-0.507849 -0.207019 5.49651 0.00278073 
-0.527777 -0.214986 5.49829 0.00199984 
-0.547512 -0.213486 5.51113 0.00154342 
-0.547422 -0.232541 5.48916 0.00157418 
-0.52787 -0.196003 5.52043 0.00255325 
-0.488498 -0.179061 5.52034 0.00297701 
-0.566708 -0.24121 5.4921 0.000551793 
-0.585675 -0.24045 5.50446 0.000438995 
-0.60501 -0.248692 5.50697 0.000300017 
-0.62397 -0.247761 5.519 0.000311832 
-0.624694 -0.265944 5.49949 0.000678939 
-0.6044 -0.230456 5.52624 0.000518329 
-0.566706 -0.212749 5.52372 0.00117483 
-0.609442 -0.268359 5.48859 0.000369427 
-0.590149 -0.260157 5.48613 0.000284914 
-0.57505 -0.262241 5.47494 0.000371572 
-0.555728 -0.253728 5.47218 0.000659568 
-0.564067 -0.274728 5.45493 0.00109522 
-0.583322 -0.282873 5.45858 0.000550733 
-0.598339 -0.28087 5.46969 0.000341188 
-0.617643 -0.288856 5.47297 0.000342638 
-0.632836 -0.286407 5.48395 0.000464683 
-0.641223 -0.30665 5.46796 0.00125931 
-0.53152 -0.235143 5.4775 0.00196152 
-0.511838 -0.226914 5.47576 0.00281972 
-0.495997 -0.229246 5.46436 0.00419839 
-0.504357 -0.250398 5.44659 0.00381763 
-0.520079 -0.248024 5.45781 0.00201433 
-0.539966 -0.256195 5.46072 0.00117784 
-0.534217 -0.298543 5.4169 0.00223734 
-0.553798 -0.30633 5.42005 0.00141323 
-0.539325 -0.28268 5.43414 0.00171079 
-0.55876 -0.290644 5.43762 0.000749626 
-0.578322 -0.298355 5.44086 0.000727652 
-0.573283 -0.314038 5.42338 0.0010574 
-0.592713 -0.321773 5.42642 0.00120357 
-0.519353 -0.274698 5.43166 0.00230846 
-0.61105 -0.329391 5.43023 0.000776195 
-0.629385 -0.336823 5.43406 0.000650065 
-0.616767 -0.314508 5.44737 0.000665239 
-0.635176 -0.321974 5.45111 0.000609609 
-0.653773 -0.329388 5.45478 0.000841755 
-0.647891 -0.344321 5.43771 0.000800248 
-0.66664 -0.351883 5.44134 0.00130613 
-0.597559 -0.306518 5.44422 0.000561769 
-0.908377 -0.905104 5.83034 0.00157273 
-0.887152 -0.910208 5.84156 0.00110887 
-0.878821 -0.918691 5.8206 0.0013534 
-0.899903 -0.913076 5.8093 0.00154131 
-0.857909 -0.924604 5.83146 0.00127392 
-0.870577 -0.927101 5.79949 0.00163517 
-0.849732 -0.933271 5.81061 0.00153169 
-0.84155 -0.941886 5.78983 0.00200449 
-0.891662 -0.921022 5.78796 0.00209828 
-0.862375 -0.935283 5.77849 0.00205538 
-0.883352 -0.928627 5.76679 0.00245155 
-0.829068 -0.939706 5.82149 0.00160527 
-0.820988 -0.948817 5.80083 0.00243966 
-0.800624 -0.955767 5.81168 0.00375275 
-0.809464 -0.944857 5.83428 0.00180123 
-0.838035 -0.929086 5.8443 0.00103185 
-0.818509 -0.934266 5.85703 0.00120043 
-0.847251 -0.918491 5.86713 0.00121966 
-0.867189 -0.914289 5.85448 0.00123577 
-0.827645 -0.923484 5.8798 0.00115478 
-0.877115 -0.934622 5.7428 0.00177123 
-0.855523 -0.9431 5.75358 0.00230964 
-0.849208 -0.949074 5.72982 0.00205108 
-0.871006 -0.940064 5.71862 0.00160015 
-0.827845 -0.958177 5.74018 0.00309306 
-0.842936 -0.954567 5.70582 0.00207864 
-0.82134 -0.963935 5.71637 0.00269164 
-0.814694 -0.969259 5.6926 0.00289884 
-0.864977 -0.945231 5.6944 0.0017119 
-0.836487 -0.959791 5.68184 0.00244521 
-0.858771 -0.95025 5.67034 0.0025378 
-0.800213 -0.973083 5.72651 0.0045799 
-0.793436 -0.978518 5.70275 0.00447759 
-0.772622 -0.987539 5.71258 0.00779401 
-0.77997 -0.980712 5.73758 0.00633217 
-0.80738 -0.965668 5.75142 0.00367512 
-0.787097 -0.973185 5.76244 0.00521475 
-0.814277 -0.957648 5.77631 0.00320955 
-0.834827 -0.950314 5.76505 0.00242344 
-0.794006 -0.964918 5.78716 0.00475091 
-0.709453 -1.00253 5.77317 0.00994612 
-0.717146 -0.993375 5.79833 0.00709842 
-0.740011 -0.987708 5.7861 0.00701259 
-0.724585 -0.983285 5.82318 0.00479116 
-0.747389 -0.977596 5.81104 0.00411053 
-0.754681 -0.966781 5.83587 0.0021962 
-0.731828 -0.972166 5.84791 0.00239186 
-0.77024 -0.972008 5.79894 0.00476502 
-0.777577 -0.961203 5.82377 0.00227896 
-0.763492 -0.980578 5.77429 0.00553216 
-0.756441 -0.988225 5.74948 0.0061261 
-0.732935 -0.995454 5.7614 0.00724459 
-0.725677 -1.00227 5.73648 0.00728136 
-0.749115 -0.995038 5.72455 0.00649956 
-0.702166 -1.00934 5.74828 0.00936806 
-0.740414 -0.960837 5.87025 0.00108421 
-0.750188 -0.948155 5.8944 0.000739274 
-0.772065 -0.944277 5.88089 0.000747126 
-0.760165 -0.935596 5.91849 0.00159807 
-0.782096 -0.931959 5.90515 0.0013943 
-0.804133 -0.928043 5.89164 0.00110311 
-0.795182 -0.939096 5.86896 0.000757047 
-0.786328 -0.950209 5.84638 0.00115874 
-0.763397 -0.955777 5.85838 0.00116427 
-0.646901 -0.363823 5.4211 0.000238227 
-0.628415 -0.356274 5.41752 0.000175 
-0.610164 -0.348796 5.4139 0.000214308 
-0.627682 -0.37546 5.40075 0.000178177 
-0.644111 -0.38195 5.4049 0.000188595 
-0.660721 -0.38845 5.4091 0.000207005 
-0.663594 -0.37035 5.42536 0.000230086 
-0.680682 -0.377066 5.4296 0.000245398 
-0.677838 -0.395074 5.41332 0.00021368 
-0.695259 -0.401947 5.41762 0.000227525 
-0.574529 -0.334559 5.40634 0.000779702 
-0.555052 -0.326993 5.40337 0.000989563 
-0.57426 -0.35444 5.39006 0.000502532 
-0.591935 -0.36146 5.39355 0.000242991 
-0.592297 -0.341726 5.41008 0.000343649 
-0.609789 -0.368477 5.39718 0.000173335 
-0.616694 -0.411533 5.36377 0.000626845 
-0.632649 -0.417651 5.36795 0.000647382 
-0.614128 -0.390518 5.38011 0.000377615 
-0.630031 -0.396751 5.38435 0.000372793 
-0.646317 -0.40301 5.3889 0.000537875 
-0.649011 -0.42379 5.37227 0.000706163 
-0.665404 -0.429989 5.37668 0.000715349 
-0.596251 -0.383602 5.3768 0.000359317 
-0.687674 -0.428315 5.39213 0.000757301 
-0.710873 -0.426871 5.40742 0.00057167 
-0.710918 -0.445832 5.39194 0.00108404 
-0.663052 -0.409463 5.39305 0.000611732 
-0.347243 -0.785827 5.04397 0.0110309 
-0.32604 -0.790585 5.04121 0.0120377 
-0.311061 -0.806628 5.03835 0.0104191 
-0.290008 -0.811595 5.03567 0.00987856 
-0.302024 -0.833233 5.03502 0.0125357 
-0.323236 -0.827921 5.0373 0.0131997 
-0.338205 -0.812006 5.04024 0.0126939 
-0.35959 -0.806407 5.04261 0.0123991 
-0.375148 -0.79053 5.0458 0.0106187 
-0.387733 -0.811382 5.04434 0.0155832 
-0.258522 -0.806475 5.03216 0.0096372 
-0.232985 -0.811847 5.02781 0.0103787 
-0.212667 -0.828362 5.02341 0.0120282 
-0.224894 -0.85041 5.02394 0.0129617 
-0.244987 -0.833599 5.02824 0.00879806 
-0.270703 -0.827952 5.03192 0.0109783 
-0.241181 -0.894874 5.03145 0.0240963 
-0.263243 -0.877846 5.03337 0.0154263 
-0.288868 -0.872516 5.03671 0.0143342 
-0.31003 -0.85578 5.03825 0.0119187 
-0.318084 -0.878444 5.04115 0.0215994 
-0.280748 -0.849777 5.03352 0.011592 
-0.255136 -0.85555 5.03001 0.0112931 
-0.232892 -0.872465 5.02798 0.0125092 
-0.339054 -0.873351 5.04332 0.0192414 
-0.356388 -0.856365 5.04415 0.0114706 
-0.37781 -0.851223 5.04638 0.0132643 
-0.395694 -0.834306 5.04727 0.0108005 
-0.403604 -0.857595 5.05027 0.0152858 
-0.369899 -0.827878 5.04343 0.0103071 
-0.34843 -0.833664 5.04121 0.0120468 
-0.331243 -0.850363 5.0404 0.0120967 
-0.653633 -1.03147 5.58234 0.00195742 
-0.660595 -1.02897 5.60422 0.00163525 
-0.684255 -1.02122 5.59103 0.000834378 
-0.667557 -1.02675 5.62624 0.00199489 
-0.691188 -1.01882 5.61294 0.000835335 
-0.698175 -1.01658 5.63491 0.00129079 
-0.674531 -1.02449 5.64831 0.00263273 
-0.714887 -1.01127 5.59945 0.00111207 
-0.721792 -1.00873 5.62144 0.00125976 
-0.745717 -1.00075 5.60774 0.00337684 
-0.737985 -1.00297 5.58422 0.00274513 
-0.707037 -1.01307 5.57608 0.000827678 
-0.730239 -1.00529 5.56083 0.00341107 
-0.699164 -1.01497 5.55293 0.000860561 
-0.67625 -1.02314 5.56761 0.00081907 
-0.668337 -1.02483 5.54449 0.00089371 
-0.722373 -1.00697 5.53774 0.00263032 
-0.691229 -1.01675 5.5298 0.00111918 
-0.714435 -1.00872 5.51464 0.0032366 
-0.645723 -1.03339 5.55905 0.00171722 
-0.681678 -1.02253 5.67471 0.00538774 
-0.688744 -1.01883 5.69932 0.00649174 
-0.712312 -1.01175 5.68753 0.00557698 
-0.695568 -1.01453 5.72382 0.00768998 
-0.719148 -1.00745 5.71201 0.00629428 
-0.742583 -1.00029 5.70015 0.00638633 
-0.766147 -0.991483 5.68638 0.00539872 
-0.735823 -1.00349 5.67388 0.00360123 
-0.759509 -0.994879 5.66018 0.00383739 
-0.728903 -1.00617 5.6477 0.00195883 
-0.705322 -1.01424 5.66124 0.00230689 
-0.752654 -0.997869 5.63401 0.0029498 
-0.853195 -0.952544 5.64295 0.00131264 
-0.830465 -0.963959 5.65541 0.00264865 
-0.824618 -0.966056 5.62808 0.00144432 
-0.847739 -0.954782 5.61571 0.00137557 
-0.802189 -0.977192 5.63981 0.00294881 
-0.818544 -0.968057 5.60113 0.0016511 
-0.795795 -0.979001 5.61285 0.00181458 
-0.789391 -0.980477 5.58603 0.00179087 
-0.842072 -0.956962 5.5886 0.00265744 
-0.81261 -0.969863 5.57403 0.00225003 
-0.83626 -0.959009 5.56188 0.00521699 
-0.773957 -0.989584 5.62396 0.00343792 
-0.767092 -0.990798 5.59719 0.00186664 
-0.780566 -0.986333 5.65016 0.00335959 
-0.787021 -0.982735 5.67649 0.00392949 
-0.808373 -0.973443 5.66624 0.00271044 
-0.830539 -0.958894 5.53199 0.00639731 
-0.805246 -0.97303 5.5508 0.00558008 
-0.799058 -0.972284 5.52109 0.00451448 
-0.824289 -0.958338 5.50246 0.00949609 
-0.774382 -0.986042 5.53921 0.00490687 
-0.792016 -0.971285 5.49177 0.00463465 
-0.767499 -0.984715 5.5098 0.00211824 
-0.760459 -0.98312 5.48039 0.0015734 
-0.817751 -0.95763 5.47252 0.0135381 
-0.784929 -0.969956 5.46194 0.00574513 
-0.810204 -0.956389 5.44298 0.017598 
-0.744171 -0.998076 5.52705 0.00404789 
-0.736919 -0.996043 5.49789 0.00115589 
-0.751918 -0.995787 5.5503 0.0031023 
-0.759494 -0.993392 5.57372 0.00245772 
-0.781933 -0.98347 5.5625 0.0034981 
-0.685014 -1.00346 5.34338 0.0101824 
-0.671083 -1.01192 5.35704 0.00473951 
-0.667766 -1.01669 5.38293 0.00264349 
-0.65419 -1.02556 5.39622 0.00308261 
-0.651024 -1.03068 5.42188 0.00582272 
-0.630436 -1.0388 5.39671 0.0103227 
-0.675009 -1.01802 5.42115 0.00269461 
-0.671813 -1.02313 5.44666 0.00508942 
-0.687418 -1.01286 5.4319 0.00225303 
-0.690708 -1.00783 5.40621 0.00216331 
-0.70326 -1.00288 5.4169 0.00227292 
-0.706819 -0.99796 5.39083 0.00323805 
-0.694156 -1.00305 5.38014 0.00338073 
-0.710448 -0.99347 5.36449 0.00905788 
-0.719559 -0.992881 5.40139 0.00366651 
-0.723483 -0.988414 5.37483 0.00916523 
-0.736459 -0.983567 5.38525 0.00962089 
-0.697738 -0.998239 5.35397 0.0083233 
-0.612529 -1.04492 5.4091 0.00694294 
-0.602658 -1.04863 5.43566 0.00493489 
-0.584918 -1.05472 5.44769 0.00572308 
-0.600797 -1.04965 5.47592 0.00446834 
-0.620793 -1.04198 5.46233 0.00341133 
-0.640958 -1.03432 5.44849 0.00308474 
-0.635225 -1.03712 5.54205 0.00204816 
-0.657834 -1.02865 5.52751 0.00116655 
-0.647353 -1.03243 5.51058 0.00174357 
-0.680597 -1.0205 5.51271 0.00144764 
-0.670017 -1.02426 5.49584 0.00176877 
-0.693144 -1.01588 5.48055 0.00456823 
-0.703814 -1.01232 5.49761 0.00390093 
-0.659572 -1.0279 5.4788 0.00260691 
-0.682455 -1.01939 5.46359 0.00450737 
-0.639198 -1.03496 5.49279 0.00198712 
-0.619067 -1.04227 5.5064 0.00208993 
-0.62719 -1.03955 5.52414 0.00213107 
-0.719779 -1.0022 5.48299 0.00132226 
-0.742655 -0.989546 5.46567 0.00118692 
-0.725144 -0.995869 5.45087 0.00161782 
-0.766504 -0.976762 5.44755 0.0045798 
-0.748573 -0.983378 5.43284 0.00404183 
-0.772781 -0.970915 5.41421 0.0142516 
-0.791635 -0.963992 5.42844 0.016114 
-0.730784 -0.989608 5.41815 0.00344245 
-0.754556 -0.97744 5.39974 0.013174 
-0.714242 -0.999383 5.43387 0.00221595 
-0.698151 -1.00921 5.44888 0.00207235 
-0.708928 -1.00593 5.46592 0.00136465 
-0.633702 -0.603431 5.18557 0.0185709 
-0.658249 -0.612771 5.1953 0.0178363 
-0.673573 -0.629314 5.19312 0.0200395 
-0.697521 -0.639923 5.20386 0.0255013 
-0.679448 -0.652277 5.17836 0.0328942 
-0.691141 -0.616818 5.21853 0.0156206 
-0.714437 -0.628134 5.23076 0.0159903 
-0.674527 -0.598999 5.2204 0.0134495 
-0.657833 -0.581494 5.22247 0.0118695 
-0.691602 -0.672131 5.17833 0.0296282 
-0.712784 -0.687152 5.19123 0.0289147 
-0.723789 -0.7078 5.19255 0.0326107 
-0.743959 -0.723928 5.20693 0.0392087 
-0.724738 -0.734061 5.18193 0.044236 
-0.742241 -0.697809 5.21849 0.0232403 
-0.76196 -0.714064 5.23397 0.0271003 
-0.730671 -0.676187 5.21744 0.0177767 
-0.718556 -0.654874 5.21697 0.0171837 
-0.801328 -0.696065 5.29217 0.0122586 
-0.78963 -0.674519 5.29135 0.00766023 
-0.780154 -0.678737 5.27636 0.0114847 
-0.768271 -0.657533 5.27574 0.00764137 
-0.777731 -0.653289 5.29065 0.00586865 
-0.758599 -0.661628 5.26064 0.0112661 
-0.756034 -0.636451 5.27532 0.00486801 
-0.746122 -0.640545 5.26016 0.00735125 
-0.733362 -0.619702 5.25966 0.00742941 
-0.765548 -0.632411 5.29006 0.00493769 
-0.743076 -0.615667 5.27476 0.00508601 
-0.752739 -0.611586 5.28957 0.0035838 
-0.73657 -0.644678 5.24505 0.0103474 
-0.723803 -0.623751 5.24492 0.0121387 
-0.760662 -0.687494 5.24699 0.0165209 
-0.781762 -0.704807 5.26328 0.0197677 
-0.734375 -0.589209 5.29153 0.00305331 
-0.726222 -0.596939 5.2747 0.00207388 
-0.70775 -0.57453 5.27668 0.00202069 
-0.715634 -0.566714 5.29365 0.00292574 
-0.70024 -0.582469 5.2603 0.00300535 
-0.689375 -0.552355 5.2789 0.00334892 
-0.681807 -0.560655 5.26342 0.00443034 
-0.697224 -0.544373 5.29522 0.00223547 
-0.674254 -0.569143 5.24818 0.00690576 
-0.691045 -0.586997 5.24674 0.00501974 
-0.707464 -0.605275 5.24571 0.00641985 
-0.716926 -0.601009 5.26 0.00360295 
-0.740722 -0.902608 5.24987 0.0180248 
-0.752196 -0.87871 5.25148 0.00778111 
-0.763213 -0.892056 5.27232 0.0138741 
-0.763685 -0.854199 5.25312 0.00732685 
-0.774898 -0.867577 5.27406 0.00851781 
-0.786543 -0.842381 5.27603 0.00866307 
-0.786247 -0.88106 5.29507 0.0145009 
-0.775011 -0.828924 5.25482 0.00813368 
-0.785932 -0.802834 5.25704 0.0179259 
-0.765565 -0.813698 5.23186 0.023269 
-0.754742 -0.83902 5.23009 0.0176596 
-0.743356 -0.863728 5.22879 0.013958 
-0.744995 -0.823878 5.20803 0.0339317 
-0.799305 -0.874283 5.30674 0.0162974 
-0.798019 -0.856406 5.29849 0.0100174 
-0.811419 -0.849163 5.31026 0.00961166 
-0.812629 -0.867184 5.3184 0.0180315 
-0.809854 -0.831142 5.30211 0.0082971 
-0.824002 -0.842213 5.32241 0.0102156 
-0.822292 -0.824218 5.31441 0.0095095 
-0.834521 -0.817057 5.32671 0.00875466 
-0.825309 -0.860278 5.33037 0.0169936 
-0.836344 -0.835265 5.33456 0.00837024 
-0.837669 -0.853524 5.34269 0.0128816 
-0.820474 -0.805791 5.30637 0.00983982 
-0.832516 -0.798731 5.31872 0.0118793 
-0.830045 -0.779955 5.31084 0.0130875 
-0.819056 -0.785588 5.29754 0.0165841 
-0.809288 -0.811201 5.29302 0.0115484 
-0.808165 -0.791098 5.28409 0.016394 
-0.797808 -0.81696 5.27967 0.0110088 
-0.798056 -0.836845 5.28912 0.00915666 
-0.797082 -0.796871 5.27056 0.0180296 
-0.799204 -0.722268 5.28248 0.013975 
-0.795904 -0.748638 5.2731 0.0141908 
-0.779112 -0.731246 5.25375 0.0171326 
-0.785657 -0.753284 5.25866 0.0153378 
-0.775599 -0.758146 5.24426 0.0179884 
-0.791711 -0.775555 5.26455 0.0157666 
-0.802419 -0.769827 5.27835 0.0172414 
-0.813067 -0.764268 5.29202 0.0137149 
-0.806306 -0.743073 5.28683 0.0154765 
-0.816693 -0.737202 5.30067 0.0123182 
-0.823757 -0.758638 5.30554 0.0132714 
-0.809209 -0.716617 5.29617 0.0112584 
-0.759485 -0.741327 5.2259 0.0205367 
-0.755916 -0.769082 5.21875 0.0183515 
-0.740851 -0.751488 5.19976 0.0293218 
-0.736632 -0.77898 5.19332 0.030284 
-0.751351 -0.796535 5.21254 0.0239645 
-0.771157 -0.7859 5.23747 0.0161369 
-0.587703 -0.654587 5.12774 0.0107054 
-0.600657 -0.66791 5.1257 0.0108182 
-0.621035 -0.675527 5.13035 0.0143827 
-0.634017 -0.689516 5.12865 0.0215113 
-0.648409 -0.677172 5.14183 0.0293673 
-0.634313 -0.661992 5.14424 0.0161339 
-0.614171 -0.654673 5.13956 0.0119 
-0.599903 -0.640202 5.14222 0.0104985 
-0.637818 -0.713759 5.12244 0.0196282 
-0.647807 -0.731245 5.12413 0.0173857 
-0.665456 -0.744438 5.13249 0.0220001 
-0.674828 -0.762377 5.13468 0.0315544 
-0.691193 -0.753186 5.14706 0.0429181 
-0.681151 -0.733649 5.14502 0.0266098 
-0.663246 -0.720436 5.13698 0.019945 
-0.652477 -0.701659 5.13576 0.0221423 
-0.70658 -0.718885 5.17078 0.0330274 
-0.695642 -0.69841 5.16959 0.0277377 
-0.67615 -0.684396 5.16002 0.0242096 
-0.664347 -0.664679 5.15982 0.0285044 
-0.679227 -0.709482 5.15197 0.0244176 
-0.708455 -0.743628 5.16415 0.0417451 
-0.657766 -0.643061 5.17122 0.0213109 
-0.6426 -0.626831 5.17364 0.0167876 
-0.620574 -0.618599 5.16707 0.0138731 
-0.628204 -0.640649 5.1553 0.0147587 
-0.73551 -0.917039 5.26144 0.00864611 
-0.748492 -0.9115 5.27135 0.0133567 
-0.743343 -0.925965 5.28283 0.00890349 
-0.730616 -0.931485 5.27269 0.00897951 
-0.756244 -0.920397 5.29285 0.0124475 
-0.738365 -0.940446 5.29397 0.00944027 
-0.751399 -0.935112 5.30396 0.0104019 
-0.746237 -0.949611 5.31531 0.0109272 
-0.725834 -0.945817 5.28371 0.00824986 
-0.733575 -0.95481 5.30503 0.0118782 
-0.720919 -0.960246 5.29478 0.0131129 
-0.764039 -0.929608 5.31451 0.0121009 
-0.759142 -0.944384 5.32554 0.0118517 
-0.772146 -0.939013 5.33583 0.0131893 
-0.77939 -0.910165 5.31536 0.01086 
-0.771019 -0.900979 5.29399 0.0103944 
-0.711578 -0.970816 5.30728 0.00524965 
-0.724759 -0.965746 5.3174 0.00586611 
-0.715398 -0.976403 5.32994 0.00402008 
-0.702509 -0.981497 5.31953 0.0046363 
-0.728456 -0.971344 5.34022 0.00411771 
-0.706473 -0.98729 5.34197 0.00454074 
-0.719241 -0.982163 5.35254 0.00387535 
-0.693599 -0.992392 5.3316 0.00495068 
-0.732273 -0.977282 5.36292 0.00436636 
-0.74518 -0.972431 5.37309 0.00416095 
-0.740964 -0.966147 5.35076 0.00343094 
-0.753841 -0.961052 5.361 0.00415773 
-0.749848 -0.955263 5.33832 0.00545642 
-0.737165 -0.960414 5.32792 0.00589765 
-0.763091 -0.950034 5.34833 0.0047076 
-0.815794 -0.944644 5.42677 0.0112637 
-0.800816 -0.952266 5.41626 0.0101336 
-0.806208 -0.940548 5.40006 0.00742453 
-0.820822 -0.933029 5.41084 0.00830039 
-0.79126 -0.947942 5.38935 0.0103039 
-0.811473 -0.928985 5.38373 0.010568 
-0.796624 -0.936228 5.37313 0.00903668 
-0.801871 -0.924805 5.35678 0.0210573 
-0.826365 -0.92123 5.39461 0.0117255 
-0.817034 -0.917094 5.36743 0.0257078 
-0.831391 -0.909681 5.37847 0.0268431 
-0.781705 -0.943299 5.36264 0.0059957 
-0.786805 -0.932067 5.34641 0.0166987 
-0.77253 -0.95475 5.37501 0.00590828 
-0.763213 -0.966124 5.38762 0.00610883 
-0.781763 -0.959393 5.40204 0.00716835 
-0.822152 -0.888272 5.34859 0.0160164 
-0.834659 -0.881625 5.36054 0.0176453 
-0.809279 -0.895027 5.33663 0.019183 
-0.793923 -0.902723 5.32619 0.0143794 
0.075298 -1.05737 5.14367 0.0289091 
0.0944625 -1.05577 5.12749 0.0389891 
0.0612711 -1.05321 5.1237 0.0259582 
0.0803376 -1.05167 5.1077 0.0344149 
0.0486507 -1.04754 5.10477 0.030405 
0.069849 -1.04486 5.0898 0.0348261 
0.0378201 -1.04032 5.08665 0.0306861 
0.0590698 -1.03769 5.07167 0.0419195 
-0.346193 -1.01782 5.15412 0.0097983 
-0.371555 -1.00872 5.14836 0.00553395 
-0.332268 -1.01156 5.13992 0.00866471 
-0.357555 -1.00261 5.13396 0.00874614 
-0.343568 -0.996225 5.11984 0.0120077 
-0.383091 -0.993512 5.12842 0.0104125 
-0.31843 -1.00499 5.12589 0.0100431 
-0.304507 -0.998224 5.11196 0.0133523 
-0.294417 -1.01194 5.13017 0.00831372 
-0.308279 -1.01883 5.14415 0.00939719 
-0.322104 -1.0254 5.15822 0.0114132 
-0.28435 -1.02591 5.14842 0.0122852 
-0.366555 -0.986347 5.11586 0.00957785 
-0.390872 -0.973951 5.1106 0.00801077 
-0.350179 -0.978878 5.10361 0.00875772 
-0.374234 -0.966511 5.09803 0.0115229 
-0.357724 -0.959013 5.08578 0.0167213 
-0.398678 -0.954209 5.09263 0.0156105 
-0.333829 -0.971157 5.09157 0.0157012 
-0.317458 -0.963323 5.07965 0.0221547 
-0.311039 -0.980793 5.09582 0.0144019 
-0.327364 -0.988656 5.10771 0.0123972 
-0.216684 -0.97401 5.06348 0.0257681 
-0.239205 -0.980043 5.07554 0.0174986 
-0.211443 -0.988896 5.07753 0.020802 
-0.261536 -0.986138 5.0877 0.0167423 
-0.234052 -0.995078 5.08968 0.0178511 
-0.256432 -1.00108 5.10197 0.0173386 
-0.20627 -1.00397 5.09168 0.0220638 
-0.283361 -0.992204 5.09989 0.0152396 
-0.289821 -0.974818 5.08386 0.0167381 
-0.268105 -0.968611 5.07168 0.0218077 
-0.226332 -1.0094 5.1058 0.0144198 
-0.197017 -1.0159 5.10791 0.0172779 
-0.246232 -1.01487 5.12007 0.0146824 
-0.217146 -1.02142 5.12208 0.0122109 
-0.237293 -1.02706 5.13647 0.0156388 
-0.187656 -1.02807 5.1242 0.017212 
-0.265673 -1.02051 5.13425 0.0128833 
-0.275774 -1.00657 5.11606 0.0132841 
0.00605685 -0.992628 5.02044 0.073955 
0.00349766 -0.978171 5.01035 0.0718914 
0.00079702 -0.963844 5.00023 0.0684047 
0.0012389 -0.946818 4.99307 0.0765726 
0.0281524 -1.03168 5.06981 0.031916 
0.0510602 -1.02831 5.05615 0.0592084 
0.0200478 -1.02177 5.05422 0.0402995 
0.043046 -1.0186 5.04064 0.0678943 
0.0133995 -1.01078 5.04003 0.04586 
-0.189797 -0.968853 5.05313 0.0254063 
-0.218306 -0.956883 5.05288 0.0257932 
-0.163095 -0.963588 5.04298 0.0278122 
-0.191543 -0.951782 5.04254 0.0264758 
-0.164735 -0.946586 5.03229 0.0310762 
-0.220082 -0.939588 5.04212 0.0307731 
-0.136461 -0.958237 5.03295 0.0253018 
-0.11004 -0.952816 5.02288 0.026306 
-0.108151 -0.968189 5.03318 0.0220512 
-0.134582 -0.973717 5.04326 0.0222721 
-0.161222 -0.979098 5.05325 0.0302406 
-0.106234 -0.983685 5.04342 0.0236724 
-0.191553 -0.934061 5.03371 0.0293002 
-0.217431 -0.919913 5.035 0.0267385 
-0.163111 -0.928317 5.02535 0.0252317 
-0.188846 -0.914457 5.02652 0.0224712 
-0.135659 -0.931531 5.02049 0.025013 
-0.108271 -0.934681 5.01572 0.0249583 
-0.0264926 -0.943989 4.99881 0.0547967 
-0.0542247 -0.941234 5.00452 0.036619 
-0.0547583 -0.958246 5.0117 0.0402405 
-0.0271039 -0.961028 5.00603 0.0569353 
-0.082209 -0.946941 5.01379 0.0270303 
-0.0804042 -0.928963 5.00652 0.0254304 
-0.0247268 -0.975863 5.01621 0.04714 
-0.0528419 -0.973523 5.022 0.0344785 
-0.0502615 -0.988042 5.03208 0.0292618 
-0.0221557 -0.990324 5.02632 0.0478081 
