ply
format ascii 1.0
comment VCGLIB generated
element vertex 965
property float x
property float y
property float z
property uchar red
property uchar green
property uchar blue
property float quality
end_header
-1.062090 -0.134012 6.436750 6 237 242 0.016087
-1.077230 -0.137115 6.425350 19 253 229 0.019194
-1.075370 -0.137524 6.453000 16 249 232 0.018843
-1.061300 -0.134038 6.462900 19 253 229 0.019034
-1.034210 -0.128466 6.464380 0 225 251 0.014636
-1.060960 -0.134909 6.508180 35 255 213 0.024225
-1.038890 -0.128297 6.497910 32 255 216 0.022840
-1.016910 -0.122582 6.486800 25 255 222 0.021063
-1.024510 -0.123687 6.508900 35 255 213 0.023473
-1.054610 -0.132600 6.486570 38 255 209 0.024859
-0.999718 -0.119106 6.509720 25 255 222 0.020981
-0.989536 -0.121275 6.488950 0 225 251 0.014325
-0.974938 -0.116926 6.500960 0 221 255 0.013913
-1.056350 -0.132096 6.360900 0 169 255 0.007297
-1.073320 -0.135104 6.368260 0 185 255 0.009054
-1.042190 -0.130200 6.372980 0 157 255 0.006118
-1.060280 -0.133128 6.390520 0 189 255 0.009488
-1.027600 -0.128845 6.384670 0 141 255 0.004890
-1.013240 -0.127227 6.395610 0 145 255 0.005222
-1.046690 -0.131727 6.410720 0 185 255 0.009108
-1.016870 -0.127803 6.422260 0 173 255 0.007529
-0.970876 -0.128725 6.427240 0 197 255 0.010276
-0.984885 -0.129025 6.416770 0 173 255 0.007591
-0.998912 -0.128401 6.406190 0 145 255 0.005112
-0.962857 -0.128149 6.393440 0 205 255 0.011566
-0.977126 -0.127436 6.382220 0 205 255 0.011120
-0.630152 -0.214966 6.643850 74 255 174 0.037503
-0.637086 -0.217896 6.631670 58 255 190 0.031160
-0.623840 -0.245171 6.640800 55 255 193 0.030423
-0.612106 -0.272374 6.654150 90 255 158 0.044187
-0.630615 -0.249176 6.628070 45 255 203 0.026620
-0.618310 -0.276574 6.641320 71 255 177 0.036129
-0.623634 -0.281566 6.628400 74 255 174 0.037746
-0.637821 -0.253221 6.613910 45 255 203 0.026854
-0.645693 -0.221585 6.617920 45 255 203 0.026996
-0.654080 -0.225508 6.604150 22 255 225 0.020588
-0.661871 -0.194522 6.613330 58 255 190 0.031595
-0.652814 -0.190962 6.626280 74 255 174 0.037382
-0.670915 -0.164687 6.629020 51 255 196 0.028941
-0.671204 -0.197803 6.599830 35 255 213 0.023816
-0.680479 -0.168754 6.615670 35 255 213 0.023750
-0.689661 -0.172477 6.602170 25 255 222 0.021257
-0.661980 -0.162132 6.641410 61 255 187 0.032138
-0.607681 -0.331572 6.683670 93 255 155 0.045904
-0.611954 -0.361408 6.698250 135 255 113 0.068816
-0.619594 -0.389259 6.711460 184 255 64 0.108529
-0.626820 -0.398945 6.689220 161 255 87 0.088163
-0.620528 -0.371271 6.674740 106 255 142 0.052079
-0.616145 -0.341173 6.658880 77 255 171 0.039185
-0.613286 -0.305454 6.656050 71 255 177 0.036025
-0.617792 -0.310774 6.643120 64 255 184 0.033950
-0.639864 -0.412557 6.653420 174 255 74 0.097724
-0.634744 -0.389277 6.639140 184 255 64 0.108159
-0.627218 -0.356945 6.630920 177 255 71 0.100669
-0.629560 -0.325601 6.612990 206 255 42 0.129689
-0.632572 -0.290091 6.607230 167 255 80 0.092216
-0.641363 -0.300593 6.588180 242 253 6 0.171250
-0.626210 -0.380864 6.656550 135 255 113 0.068946
-0.634175 -0.406567 6.671390 129 255 119 0.065112
-0.660143 -0.268424 6.572190 200 255 48 0.123716
-0.673278 -0.234804 6.572500 113 255 135 0.056079
-0.692710 -0.208469 6.568090 84 255 164 0.041013
-0.703843 -0.180724 6.579010 25 255 222 0.020976
-0.716684 -0.192793 6.555490 74 255 174 0.037184
-0.648156 -0.260713 6.592800 138 255 109 0.071338
-0.837321 -0.117602 6.554530 0 197 255 0.010214
-0.822306 -0.131666 6.546670 0 217 255 0.012847
-0.806614 -0.137843 6.548930 0 217 255 0.012914
-0.790395 -0.150753 6.540790 25 255 222 0.020814
-0.789986 -0.135595 6.561610 0 177 255 0.008208
-0.808298 -0.152645 6.529260 84 255 164 0.041600
-0.792094 -0.164203 6.522400 109 255 138 0.054231
-0.824434 -0.145938 6.524510 100 255 148 0.049840
-0.840126 -0.138361 6.518890 77 255 171 0.038160
-0.772918 -0.147518 6.560680 0 181 255 0.008453
-0.754449 -0.167346 6.549960 38 255 209 0.024943
-0.736498 -0.181522 6.548660 84 255 164 0.041333
-0.720667 -0.208167 6.536300 145 255 103 0.076592
-0.740145 -0.198361 6.528440 125 255 122 0.063844
-0.757838 -0.185307 6.527300 125 255 122 0.064383
-0.774537 -0.168434 6.534040 93 255 155 0.046295
-0.721116 -0.224439 6.517620 180 255 67 0.103564
-0.756165 -0.195902 6.510650 167 255 80 0.094490
-0.774209 -0.182886 6.512010 145 255 103 0.076927
-0.789526 -0.173730 6.501890 138 255 109 0.071991
-0.806113 -0.167207 6.496530 155 255 93 0.082717
-0.823041 -0.158373 6.496220 125 255 122 0.063906
-0.838443 -0.149846 6.489000 103 255 145 0.051425
-0.780315 -0.057528 6.689350 32 255 216 0.022652
-0.775092 -0.071039 6.667940 0 225 251 0.014262
-0.748607 -0.073664 6.681370 0 213 255 0.012238
-0.742301 -0.087971 6.658680 6 237 242 0.016248
-0.768713 -0.085896 6.645580 0 221 255 0.013701
-0.761714 -0.101152 6.622600 13 245 235 0.017570
-0.778967 -0.091792 6.627030 0 229 248 0.014994
-0.786230 -0.076396 6.650340 13 245 235 0.017586
-0.797003 -0.083426 6.629700 3 233 245 0.015683
-0.803187 -0.069024 6.652320 25 255 222 0.021210
-0.792689 -0.062543 6.672950 25 255 222 0.020959
-0.813510 -0.076379 6.632270 19 253 229 0.019441
-0.713560 -0.101637 6.665920 0 205 255 0.011637
-0.696434 -0.121077 6.656900 0 205 255 0.011138
-0.704899 -0.126060 6.641970 0 201 255 0.010830
-0.679064 -0.140953 6.647850 6 237 242 0.016506
-0.687461 -0.144845 6.634640 6 237 242 0.016507
-0.697152 -0.150088 6.621220 0 201 255 0.010861
-0.707935 -0.152834 6.607230 0 217 255 0.013009
-0.715555 -0.129431 6.628110 0 173 255 0.007801
-0.725753 -0.134145 6.613080 0 185 255 0.008908
-0.733547 -0.110692 6.634500 0 217 255 0.013097
-0.724054 -0.105970 6.651030 0 201 255 0.010754
-0.743560 -0.117469 6.617890 0 205 255 0.011308
-0.728574 -0.169260 6.569700 0 221 255 0.013904
-0.747288 -0.152268 6.572920 0 197 255 0.010232
-0.758865 -0.129684 6.590500 0 177 255 0.007953
-0.777270 -0.114527 6.593720 3 233 245 0.015871
-0.801826 -0.116684 6.579780 0 153 255 0.005699
-0.818493 -0.108792 6.579720 0 173 255 0.007456
-0.811654 -0.099896 6.597490 0 181 255 0.008366
-0.834508 -0.101877 6.578250 13 245 235 0.017598
-0.828724 -0.092155 6.597440 16 249 232 0.018955
-0.781904 -0.179285 6.483510 145 255 103 0.077216
-0.798261 -0.172568 6.476620 155 255 93 0.082189
-0.815847 -0.163571 6.474640 142 255 106 0.074383
-0.831026 -0.154720 6.466560 116 255 132 0.058502
-0.736912 -0.211050 6.509970 184 255 64 0.107946
-0.768113 -0.189882 6.493930 171 255 77 0.095919
-0.743239 -0.205929 6.484540 174 255 74 0.098165
-0.701756 -0.218103 6.551680 161 255 87 0.088466
-0.682605 -0.243009 6.556640 187 255 61 0.111434
-0.667439 -0.280380 6.559120 248 245 0 0.179954
-0.648915 -0.311921 6.575680 255 208 0 0.224870
-0.689733 -0.254524 6.542290 255 238 0 0.186410
-0.706817 -0.231987 6.534970 206 255 42 0.128048
-0.636876 -0.335311 6.600560 229 255 19 0.156406
-0.635350 -0.365147 6.618130 203 255 45 0.126094
-0.642270 -0.395602 6.625040 232 255 16 0.160269
-0.647382 -0.417820 6.638740 209 255 38 0.134321
-0.644151 -0.373586 6.606120 255 234 0 0.191478
-0.646118 -0.345640 6.589350 255 201 0 0.236871
-0.656565 -0.424256 6.622690 248 245 0 0.177342
-0.652542 -0.403960 6.611530 255 212 0 0.221381
-0.650291 -0.381364 6.598190 255 227 0 0.199852
-0.652264 -0.354975 6.582770 255 171 0 0.283490
-0.656023 -0.323142 6.567230 255 167 0 0.289713
-0.674933 -0.292817 6.547300 255 186 0 0.260378
-0.706016 -0.245093 6.520820 242 253 6 0.169998
-0.690991 -0.266479 6.530800 255 223 0 0.205169
-0.659118 -0.331006 6.558810 255 112 0 0.394413
-0.653430 -0.361625 6.574100 255 156 0 0.309493
-0.699415 -0.252117 6.507580 255 234 0 0.191062
-0.766860 -0.465616 6.780320 67 255 180 0.034327
-0.755258 -0.468075 6.760990 22 255 225 0.020557
-0.760529 -0.475877 6.745760 42 255 206 0.025924
-0.744288 -0.477175 6.725500 29 255 219 0.022404
-0.781364 -0.487720 6.731610 55 255 193 0.030297
-0.719705 -0.466353 6.737020 77 255 171 0.038297
-0.700147 -0.466581 6.719260 135 255 113 0.070608
-0.715908 -0.460344 6.749390 74 255 174 0.037147
-0.711707 -0.452827 6.761840 58 255 190 0.030965
-0.762065 -0.488773 6.699880 0 229 248 0.014885
-0.778955 -0.495978 6.698530 25 255 222 0.021249
-0.743292 -0.482734 6.700740 6 237 242 0.016072
-0.744475 -0.488015 6.672690 19 253 229 0.019646
-0.763169 -0.496004 6.670180 6 237 242 0.016159
-0.780969 -0.504208 6.668380 19 253 229 0.019326
-0.725044 -0.480975 6.674230 42 255 206 0.025330
-0.704997 -0.473886 6.675300 67 255 180 0.034208
-0.702479 -0.471147 6.697170 109 255 138 0.053424
-0.651303 -0.427820 6.670130 109 255 138 0.054301
-0.666058 -0.442369 6.686180 80 255 167 0.039570
-0.645708 -0.423014 6.688140 109 255 138 0.054576
-0.660574 -0.438154 6.704410 125 255 122 0.063569
-0.682336 -0.455435 6.702330 103 255 145 0.050016
-0.686334 -0.459007 6.682090 42 255 206 0.026107
-0.672133 -0.446257 6.666860 77 255 171 0.039260
-0.638589 -0.413249 6.708680 138 255 109 0.072221
-0.653357 -0.426825 6.726420 132 255 116 0.066640
-0.634500 -0.404976 6.729150 142 255 106 0.073798
-0.672396 -0.435576 6.746660 100 255 148 0.049282
-0.673753 -0.443306 6.735140 129 255 119 0.065596
-0.676843 -0.449259 6.723360 135 255 113 0.069471
-0.657027 -0.432825 6.716070 116 255 132 0.057248
-0.764912 -0.500761 6.653680 9 241 238 0.017179
-0.783730 -0.510524 6.650470 16 249 232 0.018618
-0.749044 -0.497463 6.639910 109 255 138 0.053664
-0.768752 -0.507124 6.636070 71 255 177 0.035665
-0.787958 -0.518102 6.632350 61 255 187 0.032340
-0.727871 -0.484584 6.652170 109 255 138 0.054042
-0.708603 -0.476891 6.654550 103 255 145 0.050939
-0.753866 -0.506448 6.619240 174 255 74 0.099306
-0.790493 -0.527557 6.616260 90 255 158 0.043917
-0.733256 -0.495637 6.624490 174 255 74 0.097600
-0.713758 -0.484897 6.628850 171 255 77 0.094741
-0.668630 -0.438762 6.630360 200 255 48 0.124150
-0.682157 -0.452000 6.636330 164 255 84 0.091445
-0.696189 -0.465380 6.641840 138 255 109 0.072105
-0.662312 -0.433764 6.645360 167 255 80 0.093078
-0.690616 -0.460821 6.665780 38 255 209 0.025117
-0.677504 -0.448755 6.649830 132 255 116 0.067784
-0.668372 -0.449573 6.607420 255 227 0 0.203015
-0.685383 -0.460826 6.614760 255 230 0 0.195136
-0.700153 -0.477025 6.614340 219 255 29 0.143827
-0.714252 -0.493695 6.613480 177 255 71 0.101277
-0.774314 -0.527959 6.600670 161 255 87 0.089110
-0.792385 -0.541738 6.597340 106 255 142 0.052175
-0.734494 -0.505517 6.607570 184 255 64 0.107911
-0.932738 -0.573210 6.580970 0 181 255 0.008669
-0.960207 -0.562379 6.585660 0 197 255 0.010274
-0.944661 -0.557250 6.595780 0 213 255 0.012587
-0.929192 -0.551828 6.605310 0 193 255 0.010055
-0.987077 -0.552890 6.591590 0 217 255 0.013082
-0.988894 -0.565763 6.577760 0 213 255 0.012531
-0.962127 -0.576201 6.572830 0 181 255 0.008606
-0.991409 -0.579673 6.564070 0 209 255 0.011941
-0.940318 -0.539194 6.621760 0 201 255 0.010935
-0.950724 -0.527085 6.638390 0 205 255 0.011194
-0.923756 -0.533892 6.634280 0 193 255 0.009645
-0.967220 -0.532002 6.625650 0 213 255 0.012428
-0.983112 -0.538923 6.611900 6 237 242 0.016299
-0.956438 -0.545271 6.608080 0 225 251 0.014457
-1.021730 -0.529245 6.602510 13 245 235 0.017656
-1.013590 -0.548101 6.584710 0 217 255 0.013114
-1.006770 -0.525114 6.616230 0 229 248 0.014818
-0.992408 -0.522005 6.629910 0 217 255 0.012877
-1.016100 -0.561360 6.570290 0 201 255 0.010957
-1.031060 -0.566984 6.557590 0 189 255 0.009437
-0.810929 -0.565112 6.576890 119 255 129 0.060031
-0.830154 -0.569123 6.575880 77 255 171 0.038298
-0.848675 -0.573440 6.575180 45 255 203 0.026885
-0.866527 -0.577332 6.575530 9 241 238 0.017082
-0.812222 -0.548639 6.591860 103 255 145 0.050992
-0.830882 -0.544996 6.601330 61 255 187 0.032874
-0.848828 -0.555542 6.593120 42 255 206 0.025549
-0.866322 -0.563829 6.590050 0 229 248 0.014749
-0.900223 -0.574752 6.577650 9 241 238 0.017164
-0.917326 -0.585473 6.567780 0 209 255 0.012063
-0.934100 -0.590912 6.563260 0 173 255 0.007819
-0.883707 -0.566602 6.586380 3 233 245 0.015488
-0.917285 -0.602651 6.553260 0 193 255 0.009826
-0.899809 -0.596642 6.558650 3 233 245 0.015479
-0.882352 -0.596820 6.559300 6 237 242 0.016278
-0.944477 -0.672648 6.496880 0 201 255 0.011069
-0.960478 -0.682277 6.481280 0 209 255 0.011972
-0.979047 -0.685743 6.469910 0 209 255 0.011859
-0.995484 -0.695208 6.452080 3 233 245 0.015889
-0.971634 -0.701317 6.454600 0 205 255 0.011489
-0.952859 -0.697554 6.468310 0 229 248 0.014833
-0.936919 -0.688901 6.484980 16 249 232 0.018765
-1.018090 -0.684165 6.451280 0 177 255 0.008186
-1.034570 -0.689312 6.432360 0 149 255 0.005594
-1.052410 -0.689409 6.420590 0 165 255 0.006827
-1.068510 -0.694532 6.402010 0 201 255 0.011095
-1.065210 -0.705240 6.386520 0 217 255 0.013114
-1.046640 -0.704792 6.400100 0 173 255 0.007494
-1.027940 -0.704494 6.413610 0 157 255 0.006273
-1.011790 -0.699408 6.432910 0 169 255 0.007168
-1.051440 -0.730087 6.348700 0 213 255 0.012539
-1.031720 -0.729311 6.364260 0 161 255 0.006592
-1.016760 -0.722706 6.386820 0 125 255 0.003850
-0.996952 -0.722913 6.402220 0 157 255 0.006051
-0.981715 -0.717683 6.425820 0 213 255 0.012675
-0.972141 -0.729218 6.410710 0 201 255 0.010609
-1.006180 -0.710511 6.417620 0 149 255 0.005383
-1.039850 -0.716715 6.381550 0 153 255 0.005669
-1.058540 -0.717694 6.367720 0 217 255 0.012848
-0.952785 -0.725522 6.426430 0 193 255 0.010035
-0.938291 -0.716170 6.448740 3 233 245 0.015751
-0.919088 -0.713165 6.463800 22 255 225 0.020269
-0.962430 -0.713844 6.440100 0 201 255 0.010758
-0.889465 -0.463089 6.786760 51 255 196 0.028730
-0.881772 -0.474966 6.767190 48 255 200 0.028119
-0.885110 -0.487880 6.741580 45 255 203 0.027062
-0.874589 -0.496853 6.721370 6 237 242 0.016457
-0.904231 -0.499699 6.714280 35 255 213 0.023837
-0.856283 -0.486650 6.748280 51 255 196 0.028419
-0.843489 -0.496094 6.726780 38 255 209 0.024597
-0.852392 -0.476029 6.769770 42 255 206 0.025695
-0.845814 -0.466017 6.789670 45 255 203 0.027123
-0.908907 -0.507240 6.696040 22 255 225 0.020662
-0.913432 -0.514315 6.678200 0 189 255 0.009176
-0.880750 -0.510901 6.683800 0 173 255 0.007630
-0.885198 -0.517875 6.666110 0 173 255 0.007618
-0.889621 -0.524820 6.649060 0 197 255 0.010416
-0.917220 -0.521091 6.660720 0 173 255 0.007752
-0.855377 -0.522406 6.655340 0 205 255 0.011238
-0.851010 -0.515247 6.671980 0 201 255 0.010978
-0.847554 -0.508922 6.689350 0 213 255 0.012671
-0.877359 -0.504109 6.702000 0 189 255 0.009357
-0.844916 -0.502532 6.707680 25 255 222 0.021104
-0.813290 -0.500465 6.694900 0 197 255 0.010554
-0.813418 -0.490122 6.729520 6 237 242 0.016160
-0.816034 -0.505461 6.677660 0 205 255 0.011283
-0.819294 -0.511859 6.660540 0 213 255 0.012480
-0.790506 -0.472763 6.768320 32 255 216 0.022583
-0.822346 -0.475112 6.770430 42 255 206 0.025607
-0.907484 -0.531235 6.637150 0 197 255 0.010177
-0.911336 -0.542692 6.617440 0 217 255 0.012955
-0.895486 -0.540330 6.620640 0 229 248 0.014979
-0.878524 -0.538365 6.623690 0 229 248 0.014783
-0.859079 -0.532115 6.635950 0 197 255 0.010370
-0.898438 -0.554417 6.599340 19 253 229 0.019314
-0.915686 -0.563648 6.590260 0 209 255 0.012162
-0.882053 -0.552429 6.602610 6 237 242 0.016609
-0.864575 -0.551131 6.606030 6 237 242 0.016348
-0.810692 -0.533761 6.611530 77 255 171 0.039174
-0.846360 -0.539724 6.614760 25 255 222 0.020713
-0.822568 -0.519776 6.642540 9 241 238 0.017128
-0.841696 -0.526049 6.639300 0 217 255 0.013280
-0.990422 -0.446326 6.752290 67 255 180 0.034648
-0.986525 -0.463221 6.732800 67 255 180 0.034621
-0.994418 -0.474052 6.711000 67 255 180 0.034601
-0.988682 -0.487003 6.694600 45 255 203 0.026795
-1.014230 -0.478857 6.687840 61 255 187 0.032535
-0.968575 -0.481645 6.719500 77 255 171 0.038189
-0.962660 -0.495027 6.701710 64 255 184 0.034012
-0.961427 -0.469851 6.742320 77 255 171 0.039319
-0.954450 -0.453161 6.769450 71 255 177 0.036680
-1.019040 -0.486564 6.671790 51 255 196 0.028675
-1.023390 -0.494422 6.655150 25 255 222 0.021459
-0.997169 -0.502136 6.661410 0 229 248 0.015014
-1.013980 -0.506092 6.641040 3 233 245 0.015874
-0.988295 -0.514023 6.647230 0 229 248 0.014993
-0.971335 -0.510372 6.666940 22 255 225 0.020488
-0.993276 -0.494708 6.678170 32 255 216 0.023313
-0.966990 -0.502776 6.684070 48 255 200 0.028012
-0.942623 -0.511958 6.672260 0 213 255 0.012703
-0.938640 -0.504782 6.689840 9 241 238 0.017275
-0.933985 -0.497266 6.707620 19 253 229 0.019494
-0.946692 -0.519496 6.655150 0 197 255 0.010311
-0.913590 -0.487924 6.735150 51 255 196 0.029098
-0.909051 -0.474728 6.760300 45 255 203 0.026819
-0.916574 -0.457974 6.782550 48 255 200 0.027531
-0.935526 -0.473161 6.751920 61 255 187 0.032763
-0.941814 -0.486179 6.727000 64 255 184 0.033468
-0.965430 -0.614524 6.536960 0 141 255 0.005002
-0.949964 -0.605629 6.547660 0 149 255 0.005504
-0.995810 -0.608195 6.536850 0 177 255 0.008173
-0.981302 -0.617984 6.530620 0 137 255 0.004670
-0.998162 -0.628765 6.517540 0 169 255 0.007154
-0.951206 -0.624815 6.531710 0 129 255 0.004004
-0.993060 -0.593116 6.550300 0 185 255 0.009031
-1.036550 -0.589959 6.534940 0 165 255 0.006929
-1.025050 -0.606279 6.525240 0 141 255 0.004861
-1.053650 -0.597830 6.521080 0 197 255 0.010349
-1.020460 -0.583224 6.547550 0 177 255 0.008036
-1.057400 -0.612997 6.505280 0 185 255 0.008753
-1.027580 -0.620731 6.511880 0 149 255 0.005651
-1.045020 -0.628034 6.497090 0 157 255 0.006322
-1.062990 -0.635108 6.481820 0 197 255 0.010367
-1.014860 -0.635607 6.504220 0 153 255 0.005962
-1.049170 -0.648417 6.474900 0 173 255 0.007530
-1.066260 -0.648733 6.465700 0 201 255 0.010908
-1.032170 -0.648287 6.484010 0 165 255 0.006772
-1.035610 -0.661583 6.468450 0 173 255 0.007663
-1.052860 -0.661180 6.458880 0 185 255 0.008918
-1.070080 -0.661120 6.449320 0 213 255 0.012438
-1.019140 -0.661553 6.477510 0 173 255 0.007574
-1.002120 -0.661955 6.487530 0 225 251 0.014032
-1.071440 -0.672679 6.432860 0 209 255 0.011782
-1.053610 -0.678318 6.436560 0 181 255 0.008584
-1.035620 -0.678301 6.448050 0 173 255 0.007817
-1.000430 -0.679435 6.469520 0 229 248 0.015211
-0.964271 -0.664611 6.497170 0 189 255 0.009236
-0.948517 -0.655529 6.509960 0 177 255 0.008214
-0.983277 -0.662898 6.492200 0 181 255 0.008671
-0.966380 -0.640912 6.516470 0 153 255 0.005914
-0.983399 -0.644810 6.508010 0 161 255 0.006580
-1.018600 -0.744818 6.339790 0 105 255 0.002887
-1.039840 -0.745216 6.323210 0 157 255 0.006147
-0.997209 -0.744857 6.356710 0 85 255 0.002000
-0.985737 -0.758773 6.331310 0 69 255 0.001464
-1.007790 -0.759072 6.314810 0 89 255 0.002070
-1.029720 -0.759745 6.298890 0 141 255 0.004797
-0.969756 -0.752100 6.360970 0 65 255 0.001330
-0.942711 -0.759722 6.364600 0 97 255 0.002396
-0.957374 -0.744531 6.387760 0 145 255 0.005289
-0.984505 -0.736351 6.383520 0 113 255 0.003258
-1.021100 -0.768882 6.285840 0 137 255 0.004524
-0.998084 -0.768811 6.302520 0 89 255 0.002197
-0.989755 -0.778130 6.288780 0 97 255 0.002403
-1.013300 -0.778137 6.272600 0 133 255 0.004372
-0.965713 -0.778498 6.305720 0 81 255 0.001829
-0.980812 -0.788251 6.275730 0 93 255 0.002225
-0.956624 -0.788693 6.292010 0 81 255 0.001857
-1.005050 -0.788255 6.260040 0 137 255 0.004624
-0.932556 -0.789069 6.308430 0 73 255 0.001589
-0.910501 -0.789085 6.323880 0 93 255 0.002253
-0.942896 -0.778364 6.321300 0 77 255 0.001648
-0.920835 -0.778550 6.337150 0 77 255 0.001748
-0.953887 -0.767765 6.334210 0 73 255 0.001606
-0.976154 -0.768274 6.318190 0 81 255 0.001803
-0.932029 -0.768827 6.350630 0 73 255 0.001611
-0.825482 -0.774470 6.393200 0 61 255 0.001256
-0.846160 -0.777996 6.375780 0 65 255 0.001374
-0.858092 -0.768262 6.389700 0 41 255 0.000834
-0.837343 -0.765344 6.407770 0 85 255 0.001904
-0.878515 -0.771552 6.371990 0 61 255 0.001302
-0.870013 -0.759361 6.404050 0 81 255 0.001875
-0.890008 -0.762033 6.385750 0 45 255 0.000898
-0.901840 -0.752962 6.399860 0 81 255 0.001900
-0.849427 -0.756484 6.422030 0 153 255 0.005878
-0.881362 -0.750457 6.418080 0 161 255 0.006620
-0.861557 -0.748439 6.436270 13 245 235 0.017522
-0.910582 -0.765769 6.368770 0 65 255 0.001308
-0.922139 -0.756094 6.382020 0 65 255 0.001303
-0.899790 -0.774692 6.354310 0 85 255 0.001929
-0.888754 -0.784628 6.340630 0 89 255 0.002180
-0.867139 -0.781089 6.357800 0 97 255 0.002373
-0.897608 -0.735648 6.439720 9 241 238 0.017460
-0.878380 -0.732943 6.455640 51 255 196 0.028403
-0.917136 -0.738772 6.423570 0 197 255 0.010339
-0.937279 -0.741454 6.405630 0 161 255 0.006350
-0.615620 -0.238650 6.467570 129 255 119 0.065602
-0.626406 -0.218486 6.448930 109 255 138 0.054822
-0.642885 -0.199766 6.434100 106 255 142 0.051679
-0.652811 -0.180133 6.419730 77 255 171 0.038587
-0.667474 -0.160755 6.407920 19 253 229 0.019109
-0.671647 -0.181494 6.423780 25 255 222 0.021183
-0.661892 -0.201296 6.437390 71 255 177 0.035762
-0.645200 -0.219621 6.450750 87 255 161 0.042648
-0.633968 -0.239923 6.468230 125 255 122 0.063361
-0.664209 -0.142050 6.392450 32 255 216 0.022963
-0.680688 -0.124039 6.382190 0 229 248 0.014751
-0.690185 -0.102424 6.371440 0 125 255 0.003949
-0.707091 -0.080804 6.362310 0 217 255 0.013267
-0.710634 -0.107900 6.375950 0 125 255 0.003859
-0.700965 -0.128203 6.386880 0 189 255 0.009301
-0.684256 -0.145129 6.396930 13 245 235 0.018040
-0.692048 -0.164620 6.415220 3 233 245 0.016008
-0.733230 -0.090544 6.369080 0 209 255 0.012131
-0.147651 -0.888068 6.277930 45 255 203 0.026611
-0.161145 -0.878538 6.303550 61 255 187 0.032353
-0.185990 -0.874461 6.325690 29 255 219 0.021941
-0.199818 -0.873104 6.353940 0 193 255 0.010050
-0.225076 -0.875863 6.378410 0 53 255 0.001071
-0.202671 -0.875317 6.389230 0 53 255 0.001087
-0.222370 -0.873824 6.343500 0 197 255 0.010363
-0.247941 -0.877463 6.367730 0 73 255 0.001625
-0.208344 -0.874511 6.314380 42 255 206 0.026210
-0.193966 -0.879027 6.286830 84 255 164 0.041268
-0.169262 -0.888267 6.266330 64 255 184 0.033845
-0.191176 -0.889178 6.254440 67 255 180 0.034569
-0.215791 -0.874932 6.418270 0 117 255 0.003328
-0.239943 -0.874026 6.441990 0 221 255 0.013601
-0.253057 -0.871708 6.470740 77 255 171 0.039293
-0.276658 -0.865082 6.491790 109 255 138 0.054124
-0.254388 -0.865453 6.503530 119 255 129 0.059195
-0.275662 -0.871444 6.459560 67 255 180 0.034756
-0.299699 -0.865479 6.479900 109 255 138 0.053490
-0.262669 -0.873849 6.430840 0 205 255 0.011489
-0.249622 -0.875213 6.402210 0 113 255 0.003110
-0.346310 -0.867374 6.454950 113 255 135 0.056293
-0.333967 -0.873251 6.428440 55 255 193 0.029745
-0.309231 -0.876007 6.407400 0 209 255 0.011994
-0.296113 -0.877706 6.379060 0 125 255 0.003917
-0.271041 -0.878025 6.356000 0 65 255 0.001305
-0.294471 -0.880155 6.344370 0 89 255 0.002111
-0.272968 -0.876729 6.391170 0 125 255 0.003932
-0.285878 -0.874777 6.419510 0 217 255 0.013124
-0.298735 -0.872141 6.447430 67 255 180 0.034595
-0.322755 -0.866212 6.467390 106 255 142 0.052704
-0.279820 -0.877745 6.314470 0 161 255 0.006646
-0.253830 -0.876613 6.291340 51 255 196 0.028789
-0.239411 -0.881050 6.262910 90 255 158 0.044074
-0.213703 -0.890178 6.242100 80 255 167 0.039802
-0.236290 -0.892351 6.230010 77 255 171 0.039102
-0.216688 -0.880048 6.275360 80 255 167 0.039488
-0.230864 -0.875776 6.303130 42 255 206 0.025526
-0.245115 -0.875649 6.332160 0 173 255 0.007441
-0.262768 -0.882837 6.250930 90 255 158 0.044221
-0.277339 -0.878446 6.279310 45 255 203 0.027262
-0.303963 -0.879742 6.302430 0 149 255 0.005643
-0.318517 -0.882172 6.332180 0 113 255 0.003241
-0.342472 -0.883599 6.319190 0 121 255 0.003581
-0.327843 -0.881044 6.289650 0 157 255 0.005997
-0.301177 -0.879720 6.266680 45 255 203 0.027214
-0.286458 -0.883882 6.237700 203 255 45 0.126580
-0.259828 -0.893256 6.216960 206 255 42 0.127814
-0.283671 -0.895182 6.204350 206 255 42 0.128225
-0.320366 -0.880067 6.367310 0 153 255 0.005811
-0.333164 -0.877576 6.395060 0 225 251 0.014163
-0.358251 -0.874750 6.415870 61 255 187 0.032241
-0.370300 -0.868375 6.441890 109 255 138 0.055035
-0.394325 -0.869629 6.428600 103 255 145 0.051434
-0.382067 -0.876610 6.402890 77 255 171 0.038843
-0.357351 -0.879290 6.382470 0 225 251 0.014045
-0.344115 -0.882009 6.354650 0 165 255 0.006816
-0.440148 -0.872383 6.403890 109 255 138 0.053600
-0.427421 -0.879305 6.378170 77 255 171 0.038581
-0.403609 -0.882190 6.357720 13 245 235 0.017792
-0.389831 -0.884388 6.329250 0 157 255 0.006276
-0.365081 -0.884648 6.306780 0 113 255 0.003218
-0.387711 -0.885718 6.293950 0 105 255 0.002809
-0.367462 -0.883072 6.342050 0 157 255 0.006319
-0.380633 -0.881185 6.370130 6 237 242 0.016472
-0.404905 -0.878511 6.390870 84 255 164 0.041137
-0.417188 -0.871032 6.416080 103 255 145 0.050533
-0.373501 -0.883775 6.264690 0 153 255 0.005813
-0.347401 -0.882831 6.241770 42 255 206 0.025770
-0.332557 -0.886189 6.212880 103 255 145 0.050175
-0.306498 -0.896615 6.192130 200 255 48 0.123599
-0.329580 -0.898252 6.179550 67 255 180 0.034816
-0.309801 -0.885311 6.225500 203 255 45 0.125209
-0.324479 -0.881567 6.254300 42 255 206 0.025600
-0.350862 -0.882534 6.277450 0 153 255 0.005838
-0.354216 -0.887726 6.201110 96 255 151 0.047009
-0.368660 -0.883762 6.229720 45 255 203 0.026714
-0.393327 -0.884310 6.253630 0 149 255 0.005643
-0.407618 -0.886206 6.282660 0 89 255 0.002187
-0.427516 -0.887316 6.271190 0 105 255 0.002720
-0.413112 -0.884654 6.241830 0 165 255 0.006698
-0.388522 -0.884506 6.218550 38 255 209 0.024838
-0.374083 -0.888640 6.189820 87 255 161 0.043272
-0.349696 -0.899046 6.168310 67 255 180 0.034672
-0.369846 -0.899998 6.157150 55 255 193 0.030436
-0.411284 -0.885399 6.317410 0 161 255 0.006384
-0.424698 -0.882868 6.346020 9 241 238 0.017387
-0.447431 -0.880139 6.367530 77 255 171 0.038340
-0.459829 -0.873062 6.393030 106 255 142 0.051994
-0.479376 -0.873011 6.381900 93 255 155 0.046577
-0.467394 -0.880607 6.356360 64 255 184 0.033620
-0.444648 -0.883633 6.334880 0 229 248 0.015200
-0.431189 -0.885256 6.305850 0 137 255 0.004684
-0.515131 -0.873647 6.361700 90 255 158 0.044129
-0.503102 -0.881289 6.335740 58 255 190 0.031412
-0.481459 -0.886281 6.313770 22 255 225 0.020435
-0.468115 -0.886849 6.284880 0 149 255 0.005485
-0.445574 -0.887717 6.260760 0 97 255 0.002492
-0.463621 -0.887855 6.250330 0 89 255 0.002070
-0.450263 -0.885977 6.295290 0 141 255 0.004918
-0.463533 -0.884578 6.324040 6 237 242 0.016312
-0.485336 -0.881284 6.346500 67 255 180 0.035078
-0.497176 -0.873151 6.371700 93 255 155 0.046151
-0.449202 -0.885190 6.220760 0 181 255 0.008580
-0.425764 -0.884970 6.196990 51 255 196 0.029432
-0.411023 -0.889129 6.168110 87 255 161 0.043336
-0.388191 -0.901104 6.146970 55 255 193 0.029558
-0.406118 -0.901156 6.136370 61 255 187 0.031788
-0.393150 -0.889416 6.179030 84 255 164 0.041818
-0.407472 -0.884941 6.207420 45 255 203 0.026335
-0.431226 -0.885023 6.231480 0 173 255 0.007472
-0.859819 -0.726321 6.471530 51 255 196 0.028433
-0.841234 -0.719591 6.486650 55 255 193 0.029518
-0.824060 -0.735778 6.469140 19 253 229 0.019186
-0.842869 -0.741836 6.453030 3 233 245 0.015947
-0.813604 -0.721341 6.493490 61 255 187 0.032577
-0.786564 -0.724097 6.501450 93 255 155 0.046428
-0.803764 -0.706833 6.513380 87 255 161 0.042818
-0.830857 -0.703356 6.505400 42 255 206 0.025394
-0.831215 -0.751107 6.439940 0 173 255 0.007581
-0.819175 -0.759401 6.425520 0 97 255 0.002374
-0.800927 -0.753937 6.443530 0 121 255 0.003536
-0.807078 -0.768078 6.411130 0 41 255 0.000811
-0.788757 -0.762196 6.428900 0 41 255 0.000803
-0.776436 -0.771053 6.414150 0 85 255 0.002036
-0.794871 -0.777227 6.396150 0 89 255 0.002096
-0.770897 -0.757129 6.446820 0 109 255 0.002924
-0.758196 -0.765522 6.432040 0 61 255 0.001242
-0.739914 -0.760574 6.450100 0 117 255 0.003353
-0.751865 -0.751503 6.463870 0 181 255 0.008375
-0.782271 -0.747871 6.460430 0 181 255 0.008678
-0.763711 -0.742487 6.477170 9 241 238 0.017388
-0.793592 -0.739229 6.473420 19 253 229 0.019415
-0.812585 -0.744739 6.456750 0 197 255 0.010221
-0.775129 -0.733010 6.489840 55 255 193 0.030033
-0.672189 -0.721664 6.531230 87 255 161 0.042241
-0.685104 -0.711362 6.539920 113 255 135 0.055213
-0.701156 -0.721413 6.523330 84 255 164 0.040939
-0.713773 -0.710627 6.530450 77 255 171 0.038305
-0.698148 -0.699560 6.546210 103 255 145 0.050940
-0.729935 -0.722393 6.515430 77 255 171 0.038896
-0.726843 -0.699995 6.536960 84 255 164 0.040986
-0.742552 -0.711167 6.522090 64 255 184 0.033589
-0.755020 -0.699192 6.528000 55 255 193 0.030549
-0.710765 -0.687974 6.551860 103 255 145 0.050397
-0.738948 -0.686995 6.540920 42 255 206 0.025998
-0.723142 -0.675353 6.555860 96 255 151 0.047320
-0.758669 -0.722179 6.507950 64 255 184 0.033241
-0.770902 -0.711516 6.514960 55 255 193 0.030088
-0.746921 -0.732305 6.496470 32 255 216 0.022504
-0.734965 -0.741662 6.483700 0 225 251 0.014207
-0.718136 -0.731470 6.503250 22 255 225 0.019842
-0.706133 -0.740457 6.489740 0 189 255 0.009503
-0.723048 -0.750599 6.470100 0 141 255 0.004875
-0.689170 -0.730935 6.510540 25 255 222 0.020894
-0.755874 -0.668835 6.547440 29 255 219 0.022201
-0.739272 -0.657561 6.557910 45 255 203 0.026494
-0.772084 -0.679910 6.537380 48 255 200 0.027467
-0.787599 -0.693723 6.525050 55 255 193 0.029926
-0.448473 -0.195035 6.583010 109 255 138 0.054520
-0.438880 -0.172098 6.576350 122 255 126 0.061873
-0.424585 -0.192451 6.601470 148 255 100 0.078141
-0.428891 -0.150397 6.567460 129 255 119 0.065187
-0.415544 -0.170327 6.594190 155 255 93 0.083471
-0.405665 -0.149461 6.584160 158 255 90 0.085972
-0.401508 -0.191974 6.617030 161 255 87 0.089417
-0.418306 -0.129117 6.556140 125 255 122 0.062682
-0.407803 -0.108176 6.544010 135 255 113 0.070541
-0.433272 -0.106496 6.525320 132 255 116 0.067947
-0.444111 -0.128735 6.536150 109 255 138 0.053818
-0.455077 -0.150420 6.547130 106 255 142 0.052185
-0.459065 -0.107340 6.504050 96 255 151 0.047892
-0.390017 -0.172397 6.609980 161 255 87 0.087654
-0.377404 -0.193259 6.630990 164 255 84 0.090506
-0.378245 -0.153579 6.601000 148 255 100 0.079352
-0.365902 -0.175682 6.621880 145 255 103 0.076624
-0.353990 -0.157935 6.611120 129 255 119 0.065595
-0.353727 -0.197117 6.641180 155 255 93 0.083536
-0.366087 -0.137178 6.587690 109 255 138 0.054247
-0.352801 -0.118558 6.573560 80 255 167 0.040551
-0.380313 -0.112477 6.560090 119 255 129 0.060464
-0.393529 -0.130566 6.574110 148 255 100 0.078280
-0.339928 -0.046946 6.477280 0 153 255 0.005697
-0.356007 -0.043927 6.469470 0 177 255 0.007988
-0.357828 -0.063390 6.495110 0 145 255 0.005083
-0.373483 -0.060120 6.486770 0 173 255 0.007724
-0.372269 -0.041114 6.461370 0 209 255 0.011831
-0.374935 -0.078958 6.512610 0 193 255 0.009716
-0.389034 -0.056967 6.477830 0 193 255 0.009968
-0.390244 -0.075434 6.503340 0 229 248 0.014932
-0.405953 -0.072626 6.493550 16 249 232 0.018711
-0.388014 -0.038597 6.452930 6 237 242 0.016225
-0.405006 -0.054708 6.468770 3 233 245 0.015600
-0.404026 -0.036931 6.443910 19 253 229 0.019089
-0.391348 -0.093793 6.528730 51 255 196 0.029327
-0.406930 -0.090932 6.519020 71 255 177 0.036354
-0.364093 -0.098675 6.543890 32 255 216 0.023308
-0.347009 -0.083338 6.526180 0 157 255 0.006307
-0.418654 -0.035406 6.435490 22 255 225 0.020470
-0.432776 -0.053034 6.451890 29 255 219 0.022256
-0.433294 -0.034494 6.426780 51 255 196 0.028506
-0.431905 -0.071710 6.476820 19 253 229 0.019597
-0.446777 -0.053639 6.441230 9 241 238 0.017424
-0.445980 -0.071704 6.465850 19 253 229 0.019567
-0.461156 -0.071808 6.455240 32 255 216 0.022949
-0.447539 -0.035236 6.417510 38 255 209 0.024840
-0.461460 -0.054022 6.431900 22 255 225 0.020664
-0.462042 -0.036403 6.408870 38 255 209 0.025017
-0.445281 -0.089932 6.490960 61 255 187 0.032592
-0.460289 -0.089940 6.479770 51 255 196 0.028458
-0.523984 -0.213552 6.510700 0 169 255 0.007424
-0.517817 -0.190414 6.502500 0 145 255 0.005287
-0.508220 -0.207972 6.527480 0 197 255 0.010396
-0.513226 -0.167314 6.492670 0 149 255 0.005561
-0.501431 -0.184545 6.519620 0 189 255 0.009485
-0.496864 -0.160632 6.508500 0 201 255 0.010926
-0.491118 -0.203573 6.543820 6 237 242 0.016375
-0.508020 -0.143133 6.480070 0 193 255 0.009874
-0.501937 -0.117562 6.467630 0 229 248 0.014764
-0.520002 -0.123814 6.453610 0 201 255 0.010718
-0.526062 -0.149098 6.465760 0 169 255 0.007292
-0.530953 -0.173120 6.476550 0 165 255 0.006764
-0.538613 -0.130021 6.440430 0 193 255 0.009754
-0.482737 -0.179630 6.538290 19 253 229 0.019826
-0.469929 -0.198893 6.563560 58 255 190 0.031526
-0.476187 -0.155522 6.528490 58 255 190 0.031538
-0.462237 -0.174188 6.557270 93 255 155 0.045585
-0.467687 -0.131558 6.516810 71 255 177 0.036027
-0.480506 -0.111760 6.485550 58 255 190 0.030993
-0.489567 -0.136327 6.497710 16 249 232 0.018316
-0.484214 -0.059239 6.417390 0 209 255 0.011759
-0.485604 -0.040561 6.395450 13 245 235 0.017663
-0.482153 -0.077908 6.439000 0 197 255 0.010366
-0.506117 -0.082274 6.423780 0 169 255 0.007055
-0.507967 -0.063773 6.403390 0 201 255 0.010656
-0.510039 -0.044082 6.383770 16 249 232 0.018966
-0.492347 -0.097458 6.453840 0 201 255 0.010841
-0.527469 -0.069564 6.392660 0 189 255 0.009551
-0.530823 -0.049548 6.374880 0 225 251 0.014262
-0.524526 -0.088246 6.411750 0 185 255 0.009098
-0.545569 -0.094318 6.401500 0 205 255 0.011631
-0.548483 -0.074624 6.383920 0 197 255 0.010469
-0.551690 -0.054506 6.366730 0 209 255 0.011991
-0.531495 -0.109265 6.425650 0 189 255 0.009333
-0.513065 -0.102790 6.438310 0 169 255 0.007161
-0.621870 -0.197432 6.432930 122 255 126 0.062372
-0.605931 -0.214967 6.450490 119 255 129 0.059654
-0.596279 -0.234522 6.469330 125 255 122 0.063053
-0.624554 -0.177147 6.418050 113 255 135 0.056528
-0.625822 -0.155035 6.404710 93 255 155 0.046170
-0.647170 -0.158313 6.404720 77 255 171 0.038450
-0.586243 -0.211401 6.454840 125 255 122 0.063835
-0.577796 -0.229924 6.474330 96 255 151 0.047982
-0.594427 -0.193114 6.437580 122 255 126 0.061010
-0.595588 -0.172024 6.423300 106 255 142 0.051703
-0.596994 -0.147856 6.410480 48 255 200 0.028118
-0.626950 -0.070866 6.353370 0 205 255 0.011513
-0.626621 -0.094704 6.366140 13 245 235 0.017634
-0.644117 -0.072638 6.353330 0 193 255 0.010031
-0.626500 -0.116830 6.378950 58 255 190 0.031669
-0.643764 -0.096952 6.365860 0 229 248 0.014702
-0.643453 -0.118404 6.377830 42 255 206 0.025521
-0.661557 -0.073394 6.354450 0 193 255 0.010005
-0.626208 -0.136787 6.391620 71 255 177 0.035817
-0.604269 -0.131157 6.395110 58 255 190 0.030649
-0.667408 -0.099407 6.367690 0 181 255 0.008324
-0.685455 -0.076101 6.357690 0 205 255 0.011178
-0.517864 -0.702912 6.607200 80 255 167 0.040761
-0.519579 -0.678398 6.625270 84 255 164 0.041023
-0.528386 -0.654678 6.638000 113 255 135 0.055829
-0.527549 -0.628369 6.650410 145 255 103 0.076071
-0.532352 -0.601832 6.655380 164 255 84 0.092084
-0.516849 -0.597727 6.662500 161 255 87 0.089377
-0.542931 -0.631860 6.642290 142 255 106 0.074847
-0.548411 -0.606167 6.646830 145 255 103 0.076305
-0.545047 -0.658240 6.628900 116 255 132 0.058165
-0.545281 -0.682521 6.611390 80 255 167 0.039644
-0.535720 -0.705548 6.596850 77 255 171 0.038130
-0.554235 -0.708175 6.586830 74 255 174 0.037480
-0.510052 -0.565368 6.659260 77 255 171 0.038677
-0.507874 -0.533051 6.650710 0 181 255 0.008479
-0.497985 -0.495428 6.643390 0 137 255 0.004534
-0.494430 -0.458503 6.633930 0 197 255 0.010429
-0.518489 -0.501588 6.639510 0 189 255 0.009379
-0.531050 -0.538959 6.645060 6 237 242 0.016541
-0.532428 -0.571970 6.650530 58 255 190 0.031321
-0.525879 -0.469615 6.626090 0 205 255 0.011498
-0.540577 -0.507769 6.633810 0 225 251 0.014525
-0.548567 -0.543379 6.639710 25 255 222 0.020863
-0.559761 -0.579585 6.638030 64 255 184 0.033585
-0.567668 -0.611237 6.635830 129 255 119 0.065283
-0.579866 -0.639259 6.619820 87 255 161 0.042694
-0.574823 -0.663467 6.610290 74 255 174 0.036848
-0.577336 -0.687461 6.593030 67 255 180 0.034344
-0.570385 -0.710289 6.577490 74 255 174 0.037518
-0.587070 -0.712225 6.568640 74 255 174 0.037725
-0.561003 -0.684762 6.602690 67 255 180 0.035027
-0.558906 -0.634826 6.632800 113 255 135 0.055875
-0.519787 -0.723296 6.575070 0 153 255 0.005775
-0.521469 -0.745512 6.543590 0 113 255 0.003142
-0.537888 -0.725749 6.565800 0 157 255 0.006274
-0.540240 -0.747138 6.534610 0 109 255 0.002995
-0.523849 -0.770022 6.513460 0 77 255 0.001648
-0.525438 -0.796048 6.483660 0 153 255 0.005949
-0.505701 -0.795617 6.493620 0 153 255 0.005762
-0.504013 -0.768512 6.522970 0 85 255 0.001988
-0.502294 -0.743753 6.553810 0 109 255 0.003058
-0.485923 -0.794877 6.503750 0 161 255 0.006466
-0.555748 -0.727681 6.555560 0 153 255 0.005847
-0.557652 -0.748735 6.524710 0 121 255 0.003526
-0.572004 -0.729915 6.547120 0 169 255 0.007235
-0.573857 -0.750230 6.516060 0 125 255 0.003925
-0.559549 -0.771492 6.494510 0 85 255 0.002043
-0.560814 -0.796549 6.464940 0 121 255 0.003719
-0.543194 -0.796461 6.474450 0 149 255 0.005435
-0.542030 -0.771006 6.504470 0 77 255 0.001682
-0.517366 -0.857472 6.390420 13 245 235 0.017841
-0.519959 -0.838764 6.419860 0 149 255 0.005528
-0.499262 -0.856735 6.400210 9 241 238 0.017290
-0.502160 -0.838891 6.430390 0 173 255 0.007437
-0.522635 -0.817778 6.450870 0 101 255 0.002665
-0.540375 -0.818361 6.441910 0 113 255 0.003129
-0.537461 -0.839441 6.411010 0 149 255 0.005507
-0.480623 -0.857188 6.410710 25 255 222 0.021272
-0.481945 -0.838118 6.439800 0 145 255 0.005251
-0.460695 -0.856545 6.421440 29 255 219 0.021632
-0.462278 -0.837972 6.451060 0 181 255 0.008300
-0.483903 -0.817431 6.471110 0 125 255 0.003783
-0.503600 -0.817606 6.461100 0 117 255 0.003476
-0.601149 -0.863058 6.342650 32 255 216 0.022541
-0.626003 -0.847772 6.355100 0 161 255 0.006471
-0.637572 -0.827527 6.379820 0 57 255 0.001168
-0.662408 -0.811054 6.393460 0 77 255 0.001667
-0.635972 -0.803416 6.417360 0 89 255 0.002169
-0.664502 -0.836410 6.356860 0 101 255 0.002573
-0.689964 -0.819759 6.370300 0 45 255 0.000887
-0.651480 -0.853452 6.335560 0 193 255 0.009741
-0.637757 -0.869260 6.314600 42 255 206 0.025750
-0.644566 -0.778509 6.444890 0 193 255 0.009917
-0.660953 -0.791007 6.424980 0 113 255 0.003256
-0.669698 -0.767932 6.452690 0 169 255 0.007414
-0.653326 -0.757822 6.473830 0 169 255 0.007328
-0.686389 -0.779578 6.432740 0 121 255 0.003585
-0.678997 -0.748370 6.481470 0 149 255 0.005434
-0.695899 -0.758820 6.461280 0 113 255 0.003262
-0.662631 -0.738831 6.502750 0 185 255 0.008690
-0.713018 -0.769433 6.440960 0 93 255 0.002338
-0.713451 -0.787084 6.408210 0 129 255 0.004081
-0.687809 -0.798891 6.400880 0 113 255 0.003114
-0.782304 -0.791765 6.376080 0 93 255 0.002267
-0.767856 -0.804738 6.358730 0 105 255 0.002745
-0.750568 -0.800034 6.373260 0 113 255 0.003219
-0.754194 -0.818593 6.343010 0 57 255 0.001132
-0.737018 -0.813892 6.357120 0 73 255 0.001640
-0.723458 -0.828628 6.341160 0 33 255 0.000676
-0.740319 -0.833061 6.327720 0 57 255 0.001129
-0.720075 -0.809602 6.371250 0 81 255 0.001862
-0.706878 -0.824012 6.355450 0 29 255 0.000661
-0.731935 -0.793153 6.390510 0 141 255 0.004915
-0.744525 -0.778337 6.410930 0 129 255 0.004023
-0.763336 -0.784604 6.393180 0 129 255 0.004194
-0.727101 -0.851849 6.306280 0 177 255 0.008081
-0.711991 -0.865661 6.287890 6 237 242 0.016549
-0.696780 -0.863994 6.299010 13 245 235 0.017776
-0.696606 -0.877741 6.268910 61 255 187 0.032713
-0.681539 -0.875685 6.279970 51 255 196 0.028861
-0.666497 -0.874620 6.291640 61 255 187 0.031758
-0.679844 -0.859304 6.313130 0 221 255 0.013762
-0.693329 -0.842028 6.334080 0 113 255 0.003102
-0.710205 -0.846663 6.319760 0 137 255 0.004533
-0.424596 -0.689312 6.649030 71 255 177 0.036654
-0.428040 -0.713446 6.617950 0 189 255 0.009403
-0.448869 -0.692493 6.638950 74 255 174 0.037675
-0.431558 -0.738855 6.587380 0 141 255 0.004980
-0.452548 -0.715555 6.607800 0 157 255 0.006295
-0.456229 -0.740405 6.576890 0 109 255 0.002903
-0.473144 -0.695692 6.628300 74 255 174 0.036915
-0.434935 -0.765646 6.556670 0 93 255 0.002265
-0.438331 -0.792654 6.526620 0 141 255 0.005007
-0.413403 -0.791722 6.538940 0 141 255 0.005042
-0.410028 -0.764457 6.568700 0 101 255 0.002672
-0.407038 -0.737251 6.599840 0 149 255 0.005395
-0.388518 -0.791161 6.550910 0 141 255 0.004976
-0.476154 -0.718076 6.596310 0 145 255 0.005126
-0.495323 -0.699191 6.618170 77 255 171 0.039241
-0.478975 -0.741932 6.564460 0 125 255 0.003922
-0.499020 -0.720751 6.585910 0 149 255 0.005611
-0.482575 -0.767884 6.533460 0 77 255 0.001696
-0.462125 -0.794117 6.515350 0 161 255 0.006342
-0.459210 -0.766720 6.545580 0 81 255 0.001837
-0.438745 -0.855865 6.432420 25 255 222 0.020997
-0.438062 -0.836965 6.462090 0 169 255 0.007290
-0.416253 -0.855338 6.445500 42 255 206 0.025573
-0.415547 -0.836404 6.475260 0 193 255 0.009636
-0.437849 -0.815420 6.493100 0 109 255 0.002993
-0.461882 -0.816534 6.482250 0 125 255 0.003738
-0.392250 -0.854460 6.457950 55 255 193 0.030499
-0.390198 -0.835613 6.487270 0 225 251 0.014118
-0.368447 -0.853226 6.471380 61 255 187 0.031832
-0.366610 -0.835002 6.501440 19 253 229 0.019407
-0.388963 -0.814463 6.518410 0 137 255 0.004746
-0.414016 -0.814773 6.506090 0 129 255 0.004009
-0.454390 -0.223312 6.584460 3 233 245 0.015822
-0.459974 -0.251888 6.586430 0 121 255 0.003584
-0.476577 -0.226746 6.565340 0 193 255 0.009883
-0.482520 -0.254382 6.567440 0 137 255 0.004641
-0.463923 -0.280963 6.590500 0 93 255 0.002293
-0.467961 -0.309427 6.595800 0 141 255 0.004816
-0.447803 -0.307220 6.611500 0 121 255 0.003709
-0.443520 -0.276717 6.606960 0 125 255 0.003740
-0.438401 -0.246792 6.604330 0 205 255 0.011455
-0.427325 -0.301836 6.628230 0 217 255 0.013082
-0.495744 -0.230815 6.548050 0 165 255 0.006792
-0.499541 -0.256917 6.552560 0 185 255 0.008722
-0.513334 -0.233977 6.531410 0 185 255 0.008938
-0.514668 -0.259146 6.538010 0 213 255 0.012412
-0.499477 -0.283028 6.561030 0 205 255 0.011151
-0.497900 -0.312000 6.572210 0 205 255 0.011265
-0.483512 -0.309714 6.583430 0 177 255 0.007952
-0.484238 -0.281736 6.574250 0 153 255 0.005886
-0.475330 -0.453223 6.638030 0 177 255 0.008237
-0.471851 -0.415932 6.622110 0 225 251 0.014367
-0.466501 -0.377039 6.610490 13 245 235 0.017910
-0.457297 -0.413628 6.627740 3 233 245 0.015878
-0.451823 -0.374333 6.619920 0 213 255 0.012686
-0.459945 -0.450098 6.641950 0 181 255 0.008441
-0.466494 -0.342053 6.602100 0 185 255 0.008854
-0.480707 -0.342221 6.591120 0 217 255 0.013244
-0.480515 -0.377859 6.601850 25 255 222 0.021041
-0.443207 -0.446493 6.648950 0 169 255 0.007365
-0.441020 -0.411080 6.636010 0 217 255 0.013153
-0.434528 -0.372240 6.631840 0 177 255 0.007926
-0.423271 -0.406363 6.645270 0 189 255 0.009446
-0.417565 -0.368011 6.642660 0 145 255 0.005166
-0.425250 -0.441870 6.656580 0 165 255 0.006730
-0.430241 -0.335415 6.629860 0 129 255 0.004000
-0.449026 -0.339200 6.615380 0 137 255 0.004719
-0.628156 -0.288697 6.503350 242 253 6 0.170294
-0.620452 -0.316767 6.523510 255 171 0 0.282071
-0.601759 -0.348689 6.545190 255 204 0 0.232276
-0.604539 -0.316520 6.523110 255 197 0 0.242540
-0.635128 -0.263272 6.484530 216 255 32 0.140612
-0.595336 -0.412502 6.577780 242 253 6 0.172036
-0.600469 -0.440265 6.591020 235 255 13 0.163589
-0.608855 -0.466828 6.602060 245 249 3 0.176312
-0.590452 -0.381500 6.561790 255 227 0 0.201859
-0.570422 -0.477603 6.613410 116 255 132 0.057021
-0.562716 -0.444886 6.598220 225 255 22 0.149606
-0.564357 -0.412625 6.581120 238 255 9 0.165161
-0.566067 -0.378900 6.563230 242 253 6 0.170186
-0.578208 -0.346555 6.546090 255 238 0 0.189181
-0.582605 -0.443635 6.594430 216 255 32 0.140419
-0.590625 -0.473337 6.607470 193 255 55 0.117157
-0.581618 -0.312595 6.524170 225 255 22 0.151719
-0.599902 -0.285954 6.502850 184 255 64 0.106941
-0.611430 -0.261390 6.484240 138 255 109 0.070764
-0.546602 -0.405998 6.581370 203 255 45 0.127425
-0.544429 -0.440942 6.601110 35 255 213 0.023592
-0.552782 -0.476413 6.618700 0 225 251 0.014498
-0.544776 -0.369600 6.564760 206 255 42 0.128001
-0.548178 -0.334495 6.548900 158 255 90 0.085125
-0.562643 -0.341549 6.547110 242 253 6 0.172506
-0.527713 -0.435448 6.604340 9 241 238 0.017446
-0.525593 -0.397211 6.584700 96 255 151 0.047853
-0.526046 -0.359197 6.568380 84 255 164 0.042019
-0.530942 -0.324365 6.552900 61 255 187 0.032477
-0.564472 -0.248320 6.493050 113 255 135 0.056144
-0.561362 -0.273045 6.509300 109 255 138 0.054906
-0.581267 -0.254203 6.487960 125 255 122 0.063200
-0.556078 -0.301584 6.527740 119 255 129 0.058926
-0.542626 -0.295052 6.532550 84 255 164 0.041247
-0.582684 -0.280891 6.503880 138 255 109 0.071890
-0.594234 -0.507143 6.614030 103 255 145 0.050069
-0.618658 -0.535804 6.610590 55 255 193 0.030327
-0.614139 -0.501546 6.606690 177 255 71 0.102938
-0.642672 -0.563494 6.603680 25 255 222 0.020978
-0.664841 -0.589208 6.595770 19 253 229 0.019038
-0.649692 -0.601491 6.599260 45 255 203 0.026449
-0.628924 -0.575017 6.606650 19 253 229 0.019501
-0.606326 -0.546852 6.614100 0 225 251 0.014101
-0.634030 -0.612318 6.601520 35 255 213 0.023957
-0.640991 -0.518081 6.602190 158 255 90 0.086669
-0.676727 -0.574921 6.593870 42 255 206 0.025466
-0.726347 -0.635639 6.566820 0 197 255 0.010451
-0.711559 -0.613560 6.575690 0 165 255 0.007018
-0.697125 -0.633915 6.573350 0 209 255 0.011742
-0.710895 -0.654852 6.563930 19 253 229 0.019725
-0.688580 -0.601581 6.585510 0 201 255 0.011032
-0.688639 -0.672572 6.561470 45 255 203 0.026325
-0.679685 -0.644920 6.575990 16 249 232 0.018436
-0.676791 -0.685279 6.558130 48 255 200 0.028124
-0.667073 -0.657670 6.572890 3 233 245 0.015690
-0.654946 -0.669813 6.569610 38 255 209 0.024390
-0.664201 -0.695799 6.551410 55 255 193 0.029497
-0.656961 -0.628911 6.587670 19 253 229 0.019837
-0.645041 -0.642547 6.585680 6 237 242 0.016392
-0.674026 -0.617913 6.585550 0 229 248 0.015057
-0.481698 -0.491839 6.645200 0 129 255 0.004041
-0.491600 -0.528166 6.655090 0 153 255 0.005974
-0.489686 -0.559470 6.665980 61 255 187 0.031824
-0.496386 -0.592601 6.670380 167 255 80 0.092754
-0.476929 -0.587580 6.677000 151 255 96 0.081683
-0.471434 -0.555013 6.671120 48 255 200 0.027803
-0.472991 -0.523526 6.660090 0 133 255 0.004384
-0.465386 -0.488091 6.650230 0 153 255 0.005863
-0.508833 -0.624000 6.660170 164 255 84 0.090049
-0.509550 -0.651019 6.647630 122 255 126 0.061269
-0.496719 -0.674030 6.636250 77 255 171 0.038390
-0.475826 -0.669916 6.645750 71 255 177 0.036578
-0.488418 -0.646149 6.657090 119 255 129 0.060539
-0.488814 -0.619313 6.668560 155 255 93 0.083940
-0.429020 -0.662278 6.665370 80 255 167 0.039453
-0.443157 -0.636623 6.674620 109 255 138 0.053801
-0.444802 -0.608744 6.683300 129 255 119 0.066414
-0.455492 -0.581786 6.684090 145 255 103 0.077104
-0.433827 -0.576228 6.690360 129 255 119 0.065471
-0.467069 -0.613794 6.676790 151 255 96 0.081588
-0.466169 -0.641419 6.666070 116 255 132 0.058026
-0.452093 -0.665837 6.656400 84 255 164 0.041778
-0.428924 -0.543902 6.683210 25 255 222 0.020689
-0.432970 -0.512810 6.671350 0 165 255 0.007000
-0.427962 -0.478237 6.662980 0 189 255 0.009436
-0.446424 -0.483249 6.656140 0 181 255 0.008425
-0.453277 -0.518606 6.665360 0 145 255 0.005163
-0.449783 -0.549125 6.677380 38 255 209 0.025245
0.015434 0.010908 6.435070 0 117 255 0.003439
0.035272 0.010861 6.443530 0 129 255 0.003982
0.022787 0.000147 6.465960 0 145 255 0.005112
0.002788 0.001176 6.457490 0 129 255 0.003975
0.043057 -0.000543 6.474420 0 165 255 0.006705
0.010037 -0.008116 6.489160 0 69 255 0.001490
0.030125 -0.009486 6.497760 0 105 255 0.002803
0.017210 -0.017057 6.521430 0 29 255 0.000662
-0.010332 -0.006609 6.480880 0 33 255 0.000708
