ply
format ascii 1.0
comment VCGLIB generated
element vertex 1050
property float x
property float y
property float z
property uchar red
property uchar green
property uchar blue
property float quality
end_header
0.032671 -0.836892 6.458170 178 0 0 0.999866
0.011234 -0.860236 6.386890 192 0 0 0.999838
-0.002359 -0.856034 6.411950 201 0 0 0.999805
-0.027843 -0.858595 6.434280 151 0 0 0.999938
-0.041126 -0.860049 6.462710 151 0 0 0.999934
-0.065136 -0.865115 6.451890 151 0 0 0.999942
-0.051738 -0.864088 6.423460 146 0 0 0.999945
-0.026270 -0.862604 6.401880 196 0 0 0.999821
-0.012792 -0.867049 6.376220 187 0 0 0.999842
0.012777 -0.872221 6.357880 173 0 0 0.999878
-0.011360 -0.878389 6.347110 164 0 0 0.999902
-0.042516 -0.856385 6.497330 151 0 0 0.999932
-0.056324 -0.854995 6.527300 146 0 0 0.999953
-0.081579 -0.855963 6.552400 192 0 0 0.999838
-0.095498 -0.851114 6.583290 255 104 0 0.999368
-0.119073 -0.855699 6.570600 255 30 0 0.999627
-0.104984 -0.861199 6.540420 183 0 0 0.999860
-0.079584 -0.861016 6.516140 151 0 0 0.999932
-0.066163 -0.862496 6.486570 151 0 0 0.999935
-0.139858 -0.866080 6.524030 192 0 0 0.999837
-0.126502 -0.869245 6.494610 160 0 0 0.999909
-0.101457 -0.868733 6.470500 146 0 0 0.999952
-0.088571 -0.869491 6.441690 142 0 0 0.999958
-0.102954 -0.865957 6.505190 155 0 0 0.999931
-0.141899 -0.859208 6.558830 251 16 0 0.999674
-0.086895 -0.869614 6.408030 151 0 0 0.999936
-0.073344 -0.871373 6.380650 164 0 0 0.999904
-0.048111 -0.874163 6.360490 178 0 0 0.999871
-0.034745 -0.883272 6.336220 160 0 0 0.999916
-0.049775 -0.867511 6.391580 160 0 0 0.999911
-0.073586 -0.826374 6.627680 219 0 0 0.999762
-0.074070 -0.806693 6.659230 201 0 0 0.999806
-0.049873 -0.817725 6.636810 196 0 0 0.999819
-0.050355 -0.797387 6.666740 164 0 0 0.999906
-0.074117 -0.783973 6.687070 214 0 0 0.999768
-0.073641 -0.758780 6.712200 255 34 0 0.999617
-0.097295 -0.767025 6.706750 255 78 0 0.999454
-0.097790 -0.791614 6.679240 214 0 0 0.999770
-0.097891 -0.813568 6.649620 192 0 0 0.999838
-0.121571 -0.773437 6.698330 255 64 0 0.999512
-0.025942 -0.809662 6.645190 192 0 0 0.999833
-0.026202 -0.790056 6.673410 160 0 0 0.999914
-0.001493 -0.802470 6.654020 160 0 0 0.999914
-0.025472 -0.768385 6.698460 178 0 0 0.999863
-0.049058 -0.751472 6.717080 237 4 0 0.999710
-0.050038 -0.775504 6.693280 187 0 0 0.999844
-0.071915 -0.671307 6.759830 137 0 0 0.999969
-0.065614 -0.699397 6.746680 142 0 0 0.999964
-0.090023 -0.704520 6.742400 133 0 0 0.999985
-0.096545 -0.675964 6.755220 128 0 0 0.999993
-0.070345 -0.729515 6.730120 169 0 0 0.999888
-0.045358 -0.722629 6.734740 169 0 0 0.999887
-0.121044 -0.682497 6.751430 142 0 0 0.999959
-0.114217 -0.712514 6.738710 169 0 0 0.999890
-0.138205 -0.717354 6.733040 183 0 0 0.999853
-0.145490 -0.687798 6.746150 164 0 0 0.999906
-0.118467 -0.744098 6.721020 255 23 0 0.999646
-0.094439 -0.736274 6.726100 192 0 0 0.999836
-0.342150 -0.176494 6.623400 201 0 0 0.999811
-0.331642 -0.197608 6.642930 255 67 0 0.999494
-0.326849 -0.159066 6.612090 142 0 0 0.999957
-0.316215 -0.180531 6.632140 187 0 0 0.999849
-0.299757 -0.163372 6.619380 137 0 0 0.999977
-0.305798 -0.201762 6.650980 255 41 0 0.999588
-0.310293 -0.141819 6.598340 142 0 0 0.999964
-0.293131 -0.123617 6.583610 164 0 0 0.999908
-0.323497 -0.117026 6.575830 242 8 0 0.999704
-0.340102 -0.135863 6.589420 164 0 0 0.999902
-0.288343 -0.185311 6.640080 169 0 0 0.999891
-0.279228 -0.206248 6.659280 242 8 0 0.999695
-0.270220 -0.169732 6.626180 137 0 0 0.999977
-0.261209 -0.189777 6.646540 146 0 0 0.999950
-0.242575 -0.173346 6.632280 169 0 0 0.999896
-0.251869 -0.209932 6.666020 205 0 0 0.999800
-0.251957 -0.152333 6.612500 164 0 0 0.999906
-0.233970 -0.132333 6.600010 164 0 0 0.999901
-0.263400 -0.128815 6.591550 155 0 0 0.999931
-0.281651 -0.146995 6.605470 137 0 0 0.999977
-0.208095 -0.053157 6.523850 146 0 0 0.999948
-0.224425 -0.052875 6.517760 151 0 0 0.999942
-0.230586 -0.073190 6.538440 142 0 0 0.999963
-0.246527 -0.071949 6.532280 137 0 0 0.999966
-0.240441 -0.051829 6.511130 151 0 0 0.999933
-0.251795 -0.092181 6.552460 142 0 0 0.999959
-0.262452 -0.070327 6.526120 142 0 0 0.999965
-0.267820 -0.090387 6.546650 142 0 0 0.999965
-0.283669 -0.087511 6.541310 137 0 0 0.999975
-0.256708 -0.050961 6.504650 151 0 0 0.999935
-0.278559 -0.068689 6.519820 133 0 0 0.999987
-0.272755 -0.049589 6.497680 146 0 0 0.999949
-0.272667 -0.109081 6.567520 146 0 0 0.999950
-0.288624 -0.105952 6.562660 137 0 0 0.999973
-0.243002 -0.112308 6.576550 164 0 0 0.999907
-0.222364 -0.093144 6.562940 151 0 0 0.999934
-0.289297 -0.047695 6.491130 146 0 0 0.999947
-0.310086 -0.064159 6.507880 128 0 0 0.999989
-0.305611 -0.045248 6.484400 155 0 0 0.999929
-0.313846 -0.082928 6.531370 133 0 0 0.999987
-0.326472 -0.061529 6.501300 128 0 0 0.999991
-0.330320 -0.079630 6.525240 137 0 0 0.999972
-0.322360 -0.043624 6.477350 146 0 0 0.999953
-0.333730 -0.097917 6.548570 146 0 0 0.999948
-0.085662 -0.065135 6.604790 137 0 0 0.999974
-0.069754 -0.063876 6.613790 146 0 0 0.999953
-0.082040 -0.078994 6.633680 151 0 0 0.999939
-0.098108 -0.081189 6.624290 151 0 0 0.999932
-0.066378 -0.077030 6.643480 178 0 0 0.999864
-0.093576 -0.096726 6.652360 155 0 0 0.999920
-0.078308 -0.094261 6.662280 183 0 0 0.999860
-0.087899 -0.114176 6.678120 205 0 0 0.999795
-0.108754 -0.100069 6.642420 164 0 0 0.999908
-0.102913 -0.117394 6.668480 183 0 0 0.999854
-0.117944 -0.120281 6.658160 219 0 0 0.999764
-0.062318 -0.092399 6.671820 183 0 0 0.999857
-0.072571 -0.112138 6.688640 205 0 0 0.999799
-0.057224 -0.109880 6.698820 223 0 0 0.999750
-0.044815 -0.091718 6.681710 169 0 0 0.999889
-0.049009 -0.076357 6.652910 164 0 0 0.999898
-0.031084 -0.077274 6.661890 142 0 0 0.999960
-0.034824 -0.063145 6.632880 151 0 0 0.999933
-0.052434 -0.062914 6.623350 160 0 0 0.999916
-0.016837 -0.064227 6.641580 137 0 0 0.999971
-0.123650 -0.145262 6.670450 160 0 0 0.999919
-0.114937 -0.166675 6.690460 137 0 0 0.999977
-0.118922 -0.191090 6.700260 164 0 0 0.999908
-0.108807 -0.212316 6.718740 160 0 0 0.999919
-0.137496 -0.214830 6.702460 192 0 0 0.999833
-0.090958 -0.187245 6.718380 142 0 0 0.999960
-0.080593 -0.209051 6.736540 155 0 0 0.999920
-0.076323 -0.184472 6.729330 137 0 0 0.999975
-0.086158 -0.161767 6.710280 142 0 0 0.999962
-0.071255 -0.160075 6.720450 137 0 0 0.999968
-0.080625 -0.135951 6.700710 196 0 0 0.999826
-0.095420 -0.139141 6.690130 183 0 0 0.999858
-0.065031 -0.134508 6.710740 183 0 0 0.999854
-0.034573 -0.180801 6.760330 183 0 0 0.999853
-0.028501 -0.155428 6.753080 219 0 0 0.999761
-0.042924 -0.156650 6.741820 155 0 0 0.999926
-0.019986 -0.131050 6.743000 255 38 0 0.999605
-0.035240 -0.131972 6.732310 228 0 0 0.999732
-0.025093 -0.108167 6.719990 255 67 0 0.999502
-0.008518 -0.108925 6.729380 255 104 0 0.999365
-0.041028 -0.108829 6.709560 255 38 0 0.999603
-0.053149 -0.206135 6.757220 192 0 0 0.999834
0.004995 -0.094744 6.709980 146 0 0 0.999947
0.020706 -0.081952 6.690090 133 0 0 0.999978
0.002221 -0.079340 6.681170 151 0 0 0.999932
0.036568 -0.070618 6.668870 128 0 0 0.999995
0.018280 -0.067408 6.660230 142 0 0 0.999962
0.000003 -0.065652 6.650790 137 0 0 0.999972
-0.014740 -0.077101 6.672290 169 0 0 0.999888
-0.028427 -0.091436 6.691910 187 0 0 0.999847
-0.011684 -0.092448 6.701530 183 0 0 0.999860
-0.147716 -0.194547 6.683630 192 0 0 0.999833
-0.142892 -0.172152 6.672070 205 0 0 0.999794
-0.152672 -0.150216 6.652200 151 0 0 0.999938
-0.147253 -0.125968 6.640370 214 0 0 0.999778
-0.175867 -0.130813 6.623720 173 0 0 0.999879
-0.180359 -0.154268 6.637010 228 0 0 0.999733
-0.171559 -0.174977 6.657230 255 23 0 0.999652
-0.176015 -0.196470 6.670960 187 0 0 0.999846
-0.166510 -0.215938 6.690680 169 0 0 0.999888
-0.195562 -0.215261 6.680720 155 0 0 0.999928
-0.125093 -0.102147 6.633140 183 0 0 0.999855
-0.114430 -0.082770 6.615380 151 0 0 0.999937
-0.131112 -0.084354 6.606560 169 0 0 0.999886
-0.102464 -0.066245 6.596420 142 0 0 0.999965
-0.119649 -0.066527 6.588120 160 0 0 0.999913
-0.107685 -0.051836 6.567980 142 0 0 0.999956
-0.090393 -0.051403 6.576340 146 0 0 0.999954
-0.136602 -0.068200 6.579640 155 0 0 0.999921
-0.124615 -0.052152 6.559760 151 0 0 0.999939
-0.141502 -0.052820 6.551950 151 0 0 0.999934
-0.161247 -0.089355 6.590880 151 0 0 0.999938
-0.154781 -0.108008 6.616040 169 0 0 0.999889
-0.200894 -0.072084 6.550520 142 0 0 0.999958
-0.193228 -0.091853 6.575730 137 0 0 0.999973
-0.214019 -0.113239 6.587230 160 0 0 0.999913
-0.204689 -0.132446 6.610760 164 0 0 0.999908
-0.184973 -0.110900 6.600270 155 0 0 0.999920
-0.177417 -0.090675 6.583240 142 0 0 0.999956
-0.168480 -0.070837 6.564700 164 0 0 0.999904
-0.184792 -0.071338 6.557610 146 0 0 0.999944
-0.175096 -0.052552 6.538010 169 0 0 0.999893
-0.158452 -0.052630 6.545050 155 0 0 0.999923
-0.191708 -0.053137 6.530970 151 0 0 0.999936
-0.224449 -0.154039 6.619820 192 0 0 0.999827
-0.214983 -0.175076 6.640440 164 0 0 0.999900
-0.233365 -0.193193 6.653320 142 0 0 0.999955
-0.224066 -0.212843 6.673410 173 0 0 0.999885
-0.205304 -0.195710 6.660750 155 0 0 0.999920
-0.140449 -0.238866 6.712720 205 0 0 0.999799
-0.130340 -0.261894 6.729410 201 0 0 0.999807
-0.135829 -0.284509 6.741730 160 0 0 0.999917
-0.127041 -0.307055 6.758290 237 4 0 0.999713
-0.155798 -0.305168 6.749100 255 45 0 0.999578
-0.106626 -0.285437 6.751040 173 0 0 0.999881
-0.098043 -0.308058 6.766790 187 0 0 0.999842
-0.100854 -0.261529 6.741410 223 0 0 0.999752
-0.097023 -0.237126 6.733420 187 0 0 0.999840
-0.157696 -0.330272 6.754260 173 0 0 0.999879
-0.146411 -0.356291 6.764350 133 0 0 0.999983
-0.149160 -0.381932 6.769740 151 0 0 0.999942
-0.122728 -0.381948 6.778040 146 0 0 0.999949
-0.119119 -0.357042 6.773220 128 0 0 0.999998
-0.115783 -0.332609 6.767640 155 0 0 0.999924
-0.068806 -0.382720 6.795260 160 0 0 0.999910
-0.063745 -0.358656 6.791490 155 0 0 0.999928
-0.073213 -0.334067 6.781900 146 0 0 0.999954
-0.069278 -0.309060 6.777660 178 0 0 0.999868
-0.091268 -0.358087 6.781700 133 0 0 0.999981
-0.095518 -0.382568 6.786480 151 0 0 0.999942
-0.049451 -0.285861 6.776660 237 4 0 0.999709
-0.045121 -0.260199 6.772960 205 0 0 0.999802
-0.055545 -0.234227 6.760100 155 0 0 0.999920
-0.072176 -0.261080 6.755850 255 19 0 0.999657
-0.076955 -0.285571 6.762610 210 0 0 0.999784
-0.245476 -0.674265 6.729370 255 60 0 0.999530
-0.249488 -0.705018 6.708050 137 0 0 0.999976
-0.268677 -0.676873 6.719960 255 23 0 0.999652
-0.252864 -0.735348 6.684070 142 0 0 0.999957
-0.272564 -0.707169 6.697390 173 0 0 0.999884
-0.275655 -0.736604 6.672230 137 0 0 0.999967
-0.291961 -0.679155 6.709520 255 19 0 0.999667
-0.255535 -0.764313 6.657540 137 0 0 0.999973
-0.257136 -0.791839 6.629150 196 0 0 0.999821
-0.234987 -0.791411 6.641510 210 0 0 0.999782
-0.233081 -0.763006 6.669350 137 0 0 0.999969
-0.230137 -0.733100 6.694990 137 0 0 0.999970
-0.212980 -0.789951 6.653920 219 0 0 0.999763
-0.295325 -0.708730 6.685970 164 0 0 0.999905
-0.315061 -0.681051 6.698970 255 27 0 0.999640
-0.297793 -0.737739 6.659810 133 0 0 0.999985
-0.318139 -0.709612 6.674650 183 0 0 0.999856
-0.320229 -0.738137 6.647630 133 0 0 0.999988
-0.338275 -0.682874 6.688190 255 30 0 0.999621
-0.299754 -0.765160 6.631980 142 0 0 0.999963
-0.301538 -0.792056 6.604380 187 0 0 0.999842
-0.279294 -0.791919 6.617000 192 0 0 0.999837
-0.277666 -0.764821 6.644890 128 0 0 0.999994
-0.256116 -0.849532 6.533670 178 0 0 0.999863
-0.255949 -0.832824 6.565000 137 0 0 0.999968
-0.233640 -0.849563 6.545380 192 0 0 0.999837
-0.233799 -0.832598 6.577300 142 0 0 0.999962
-0.256589 -0.813779 6.596850 133 0 0 0.999978
-0.278710 -0.813578 6.584680 133 0 0 0.999979
-0.278639 -0.832905 6.553100 137 0 0 0.999968
-0.210868 -0.848972 6.556540 183 0 0 0.999858
-0.211429 -0.832288 6.589100 146 0 0 0.999954
-0.188433 -0.848486 6.568700 192 0 0 0.999835
-0.189451 -0.831236 6.601530 155 0 0 0.999927
-0.212413 -0.812779 6.621780 146 0 0 0.999943
-0.234318 -0.813437 6.609090 137 0 0 0.999970
-0.278849 -0.848998 6.522270 173 0 0 0.999883
-0.301445 -0.832729 6.541130 142 0 0 0.999964
-0.301189 -0.813533 6.572160 133 0 0 0.999981
-0.323887 -0.792023 6.591320 178 0 0 0.999873
-0.323807 -0.813218 6.559460 133 0 0 0.999985
-0.346467 -0.792398 6.577980 178 0 0 0.999872
-0.323987 -0.832734 6.527960 137 0 0 0.999974
-0.301644 -0.849108 6.509710 173 0 0 0.999881
-0.321886 -0.765442 6.619820 142 0 0 0.999965
-0.342644 -0.738246 6.635880 128 0 0 0.999991
-0.340883 -0.710486 6.663110 173 0 0 0.999880
-0.361278 -0.684397 6.677870 255 34 0 0.999611
-0.363642 -0.711485 6.652010 164 0 0 0.999903
-0.383732 -0.686335 6.667230 255 27 0 0.999641
-0.365281 -0.738918 6.623200 128 0 0 0.999989
-0.344239 -0.765463 6.606560 142 0 0 0.999965
-0.409627 -0.713986 6.629030 169 0 0 0.999892
-0.388825 -0.739255 6.612010 128 0 0 0.999993
-0.390948 -0.766072 6.581580 137 0 0 0.999969
-0.369943 -0.792490 6.564670 169 0 0 0.999892
-0.367505 -0.765483 6.594640 137 0 0 0.999968
-0.386471 -0.712724 6.640230 160 0 0 0.999915
-0.406809 -0.688712 6.656700 255 30 0 0.999625
-0.370429 -0.813679 6.533290 128 0 0 0.999990
-0.347776 -0.833020 6.515440 142 0 0 0.999964
-0.348336 -0.850128 6.484040 178 0 0 0.999869
-0.325132 -0.849496 6.497420 178 0 0 0.999868
-0.346847 -0.813534 6.545960 133 0 0 0.999988
-0.418089 -0.433892 6.663770 151 0 0 0.999934
-0.416709 -0.400289 6.653860 137 0 0 0.999968
-0.408618 -0.364353 6.651310 128 0 0 0.999991
-0.398705 -0.396202 6.664070 128 0 0 0.999989
-0.389878 -0.361109 6.661330 128 0 0 0.999989
-0.399435 -0.429616 6.672990 146 0 0 0.999945
-0.401581 -0.329925 6.650220 142 0 0 0.999963
-0.394958 -0.297016 6.650090 196 0 0 0.999817
-0.415109 -0.299207 6.637540 178 0 0 0.999868
-0.421310 -0.331989 6.637960 137 0 0 0.999977
-0.380586 -0.425570 6.682680 151 0 0 0.999932
-0.379207 -0.393419 6.674330 133 0 0 0.999988
-0.369352 -0.359370 6.672130 133 0 0 0.999987
-0.359804 -0.390481 6.684030 128 0 0 0.999991
-0.350329 -0.356731 6.681290 133 0 0 0.999983
-0.361014 -0.421866 6.692510 160 0 0 0.999913
-0.360576 -0.326729 6.671330 142 0 0 0.999964
-0.352664 -0.295646 6.671130 192 0 0 0.999834
-0.373815 -0.295903 6.661240 196 0 0 0.999822
-0.381368 -0.327725 6.661160 142 0 0 0.999961
-0.365901 -0.217949 6.637530 178 0 0 0.999871
-0.375474 -0.243092 6.641730 146 0 0 0.999953
-0.390538 -0.216168 6.625700 183 0 0 0.999856
-0.399542 -0.242285 6.628630 142 0 0 0.999955
-0.384966 -0.269884 6.645760 137 0 0 0.999974
-0.363669 -0.269337 6.656590 137 0 0 0.999973
-0.353735 -0.243052 6.652170 146 0 0 0.999954
-0.413128 -0.217363 6.611800 169 0 0 0.999894
-0.420593 -0.244558 6.615590 142 0 0 0.999956
-0.436943 -0.218679 6.596460 178 0 0 0.999869
-0.427979 -0.272703 6.620080 146 0 0 0.999952
-0.407314 -0.270176 6.633180 146 0 0 0.999954
-0.226331 -0.702005 6.718430 164 0 0 0.999899
-0.207295 -0.729944 6.706410 151 0 0 0.999938
-0.210672 -0.761070 6.681200 146 0 0 0.999952
-0.190504 -0.787320 6.666740 242 8 0 0.999694
-0.188134 -0.757510 6.692840 155 0 0 0.999931
-0.168067 -0.783767 6.678040 255 27 0 0.999641
-0.185048 -0.726797 6.716290 164 0 0 0.999900
-0.203557 -0.699158 6.728180 187 0 0 0.999845
-0.222251 -0.671359 6.738800 255 82 0 0.999446
-0.199363 -0.667442 6.746420 255 67 0 0.999502
-0.190062 -0.810645 6.634920 160 0 0 0.999918
-0.166962 -0.828902 6.614870 173 0 0 0.999877
-0.165934 -0.847114 6.581130 214 0 0 0.999771
-0.143145 -0.843707 6.593430 210 0 0 0.999784
-0.144240 -0.825412 6.626700 178 0 0 0.999862
-0.167647 -0.807838 6.647010 169 0 0 0.999894
-0.096871 -0.833659 6.618070 255 19 0 0.999667
-0.120865 -0.820093 6.639570 192 0 0 0.999827
-0.121403 -0.797752 6.670070 210 0 0 0.999781
-0.144888 -0.779344 6.689130 255 41 0 0.999593
-0.144696 -0.803034 6.659580 210 0 0 0.999785
-0.120084 -0.839754 6.605730 233 1 0 0.999721
-0.141985 -0.748185 6.713230 173 0 0 0.999883
-0.161732 -0.721946 6.725890 178 0 0 0.999869
-0.168965 -0.692555 6.740110 169 0 0 0.999890
-0.175660 -0.663272 6.753540 255 60 0 0.999519
-0.165483 -0.753445 6.703650 192 0 0 0.999836
-0.169911 -0.238352 6.703030 142 0 0 0.999959
-0.174054 -0.260050 6.716290 128 0 0 0.999990
-0.203738 -0.257965 6.706740 142 0 0 0.999962
-0.199489 -0.236458 6.694070 142 0 0 0.999962
-0.192969 -0.280738 6.723820 196 0 0 0.999819
-0.210554 -0.302338 6.728810 255 27 0 0.999637
-0.183734 -0.304074 6.740020 255 53 0 0.999550
-0.165040 -0.282555 6.733110 173 0 0 0.999877
-0.227349 -0.234198 6.686880 173 0 0 0.999883
-0.230344 -0.256041 6.698520 160 0 0 0.999915
-0.257263 -0.253474 6.689150 155 0 0 0.999925
-0.254875 -0.231406 6.678590 183 0 0 0.999854
-0.246168 -0.277389 6.703960 164 0 0 0.999898
-0.261023 -0.299657 6.707650 187 0 0 0.999850
-0.236310 -0.301020 6.718370 246 12 0 0.999684
-0.220591 -0.279121 6.713690 173 0 0 0.999876
-0.263762 -0.410721 6.733280 173 0 0 0.999879
-0.249537 -0.383140 6.728710 137 0 0 0.999968
-0.239089 -0.410044 6.741920 160 0 0 0.999914
-0.235921 -0.355621 6.727270 142 0 0 0.999958
-0.224748 -0.382488 6.738620 142 0 0 0.999963
-0.211207 -0.355588 6.737760 142 0 0 0.999965
-0.214339 -0.409264 6.750920 155 0 0 0.999928
-0.223099 -0.328934 6.727780 146 0 0 0.999943
-0.247913 -0.327696 6.716430 142 0 0 0.999955
-0.260945 -0.355298 6.716560 151 0 0 0.999940
-0.199785 -0.382325 6.749670 137 0 0 0.999972
-0.189359 -0.408693 6.761550 187 0 0 0.999849
-0.185793 -0.356105 6.750190 137 0 0 0.999977
-0.174760 -0.382079 6.760230 142 0 0 0.999960
-0.184771 -0.329721 6.745140 183 0 0 0.999855
-0.341182 -0.418556 6.702440 183 0 0 0.999861
-0.339394 -0.388178 6.693670 133 0 0 0.999980
-0.328079 -0.356393 6.690720 133 0 0 0.999981
-0.318802 -0.385506 6.702480 133 0 0 0.999980
-0.307440 -0.355038 6.699300 133 0 0 0.999983
-0.320025 -0.415527 6.711600 183 0 0 0.999854
-0.318425 -0.326167 6.689490 137 0 0 0.999969
-0.308564 -0.297004 6.688770 173 0 0 0.999885
-0.331066 -0.296322 6.680140 178 0 0 0.999866
-0.339867 -0.325688 6.680480 137 0 0 0.999970
-0.298196 -0.413213 6.720360 187 0 0 0.999840
-0.296535 -0.384596 6.711560 133 0 0 0.999979
-0.283824 -0.355698 6.708310 142 0 0 0.999963
-0.273756 -0.383372 6.719960 133 0 0 0.999982
-0.272126 -0.327610 6.706700 142 0 0 0.999958
-0.284852 -0.298190 6.698470 187 0 0 0.999849
-0.295990 -0.326225 6.697930 137 0 0 0.999970
-0.280407 -0.228067 6.670520 192 0 0 0.999835
-0.281407 -0.251617 6.680460 142 0 0 0.999956
-0.306890 -0.247864 6.671190 137 0 0 0.999969
-0.306173 -0.224586 6.661620 178 0 0 0.999868
-0.295039 -0.273911 6.684420 142 0 0 0.999965
-0.271170 -0.275333 6.693710 151 0 0 0.999936
-0.330750 -0.222082 6.652850 178 0 0 0.999873
-0.329788 -0.246575 6.661870 133 0 0 0.999987
-0.341055 -0.270395 6.666720 142 0 0 0.999958
-0.318893 -0.271453 6.675910 133 0 0 0.999988
-0.343274 -0.651546 6.698950 142 0 0 0.999960
-0.358931 -0.621403 6.703470 151 0 0 0.999935
-0.362430 -0.590083 6.709650 133 0 0 0.999984
-0.375482 -0.560412 6.709120 242 8 0 0.999703
-0.353711 -0.556206 6.717590 228 0 0 0.999735
-0.384322 -0.593540 6.701140 133 0 0 0.999983
-0.396555 -0.564730 6.700290 228 0 0 0.999739
-0.381441 -0.624576 6.694750 164 0 0 0.999905
-0.377874 -0.655160 6.685060 151 0 0 0.999936
-0.352528 -0.522474 6.712570 160 0 0 0.999919
-0.362017 -0.490111 6.702110 128 0 0 0.999994
-0.361329 -0.455841 6.696880 128 0 0 0.999993
-0.380774 -0.459716 6.686890 133 0 0 0.999983
-0.382101 -0.494518 6.692710 133 0 0 0.999982
-0.384472 -0.528743 6.699190 133 0 0 0.999986
-0.418710 -0.469341 6.668340 155 0 0 0.999921
-0.422092 -0.504205 6.675640 137 0 0 0.999967
-0.415309 -0.535903 6.686760 169 0 0 0.999894
-0.418773 -0.569153 6.693090 255 23 0 0.999645
-0.401913 -0.499419 6.683870 137 0 0 0.999973
-0.399793 -0.464660 6.677060 151 0 0 0.999936
-0.428402 -0.601960 6.685400 151 0 0 0.999935
-0.426519 -0.631669 6.677810 160 0 0 0.999916
-0.411545 -0.659308 6.671030 155 0 0 0.999921
-0.404056 -0.628167 6.686290 178 0 0 0.999873
-0.406317 -0.597907 6.692870 133 0 0 0.999980
-0.249988 -0.641286 6.738130 196 0 0 0.999819
-0.265972 -0.609109 6.740610 146 0 0 0.999944
-0.270334 -0.575697 6.745290 173 0 0 0.999882
-0.286071 -0.544798 6.745330 255 49 0 0.999558
-0.262540 -0.540803 6.752560 255 53 0 0.999548
-0.293872 -0.579035 6.736760 164 0 0 0.999900
-0.309402 -0.548299 6.736200 255 38 0 0.999600
-0.289408 -0.612321 6.731540 146 0 0 0.999948
-0.285012 -0.645261 6.724100 183 0 0 0.999857
-0.262609 -0.507206 6.747730 137 0 0 0.999974
-0.274683 -0.475142 6.738170 133 0 0 0.999984
-0.274558 -0.442919 6.732680 137 0 0 0.999973
-0.298096 -0.445082 6.724230 137 0 0 0.999970
-0.297773 -0.478121 6.729910 133 0 0 0.999979
-0.297924 -0.512084 6.735870 173 0 0 0.999875
-0.340856 -0.451597 6.706110 128 0 0 0.999992
-0.341517 -0.485804 6.712040 133 0 0 0.999985
-0.331200 -0.517646 6.722030 160 0 0 0.999909
-0.331768 -0.552218 6.727140 255 27 0 0.999635
-0.319907 -0.481660 6.721120 133 0 0 0.999979
-0.320052 -0.448269 6.715750 137 0 0 0.999972
-0.340008 -0.586256 6.718660 133 0 0 0.999984
-0.335934 -0.618334 6.712310 137 0 0 0.999974
-0.319847 -0.648988 6.708970 137 0 0 0.999971
-0.312757 -0.615360 6.721820 142 0 0 0.999962
-0.317068 -0.582822 6.727810 133 0 0 0.999984
-0.175889 -0.437667 6.767120 137 0 0 0.999973
-0.188016 -0.468352 6.765060 133 0 0 0.999981
-0.200871 -0.438657 6.757990 137 0 0 0.999968
-0.213282 -0.469705 6.756840 133 0 0 0.999984
-0.200886 -0.500485 6.764730 146 0 0 0.999947
-0.213498 -0.534249 6.765090 233 1 0 0.999723
-0.188545 -0.531097 6.771310 219 0 0 0.999762
-0.176072 -0.497407 6.771160 142 0 0 0.999957
-0.225822 -0.440393 6.749880 137 0 0 0.999969
-0.238019 -0.472656 6.750010 128 0 0 0.999989
-0.250440 -0.441507 6.741300 137 0 0 0.999971
-0.238116 -0.505023 6.755070 133 0 0 0.999982
-0.238151 -0.537758 6.759440 255 34 0 0.999619
-0.226582 -0.638188 6.746200 187 0 0 0.999844
-0.230430 -0.604758 6.751990 151 0 0 0.999936
-0.206663 -0.600043 6.757450 133 0 0 0.999979
-0.203117 -0.633556 6.752330 146 0 0 0.999954
-0.222306 -0.569381 6.758980 160 0 0 0.999912
-0.246506 -0.572521 6.752770 183 0 0 0.999852
-0.179049 -0.629745 6.758260 133 0 0 0.999979
-0.182437 -0.597081 6.763810 137 0 0 0.999977
-0.173254 -0.561872 6.770210 151 0 0 0.999933
-0.197734 -0.565402 6.764660 151 0 0 0.999941
-0.129171 0.029170 6.340560 133 0 0 0.999981
-0.148481 0.030802 6.332590 137 0 0 0.999970
-0.157457 0.022342 6.356810 128 0 0 0.999989
-0.176529 0.024066 6.348250 133 0 0 0.999985
-0.167884 0.032455 6.324250 142 0 0 0.999959
-0.185305 0.015260 6.372100 128 0 0 0.999998
-0.195810 0.025534 6.339300 133 0 0 0.999988
-0.204480 0.016789 6.362870 128 0 0 1.000000
-0.223670 0.018295 6.353360 128 0 0 0.999999
-0.187367 0.033896 6.315690 142 0 0 0.999958
-0.215130 0.026762 6.330240 133 0 0 0.999988
-0.206975 0.035193 6.306920 142 0 0 0.999962
-0.213355 0.007945 6.386220 128 0 0 0.999995
-0.232303 0.009633 6.376640 128 0 0 0.999990
-0.241496 0.001819 6.400670 137 0 0 0.999973
-0.223030 0.000479 6.409120 142 0 0 0.999965
-0.194748 0.006785 6.394500 128 0 0 0.999998
-0.204607 -0.000668 6.417530 146 0 0 0.999947
-0.176344 0.005587 6.402770 128 0 0 0.999998
-0.166796 0.013826 6.379980 128 0 0 0.999999
-0.148325 0.012330 6.387580 128 0 0 0.999995
-0.186309 -0.002406 6.425470 137 0 0 0.999971
-0.158134 0.004078 6.410470 128 0 0 0.999993
-0.168122 -0.004051 6.433070 133 0 0 0.999985
-0.138823 0.020837 6.364270 128 0 0 0.999996
-0.227551 0.036715 6.298660 146 0 0 0.999951
-0.234719 0.028186 6.322450 133 0 0 0.999983
-0.254964 0.029727 6.313530 133 0 0 0.999985
-0.247828 0.038224 6.290160 146 0 0 0.999945
-0.262192 0.021119 6.336930 128 0 0 0.999998
-0.274859 0.031137 6.304540 133 0 0 0.999987
-0.281954 0.022491 6.327860 128 0 0 0.999989
-0.301592 0.024054 6.319180 133 0 0 0.999980
-0.267868 0.039936 6.281610 151 0 0 0.999934
-0.294507 0.032601 6.295690 133 0 0 0.999981
-0.287782 0.041719 6.273070 160 0 0 0.999917
-0.289631 0.014744 6.352410 128 0 0 0.999993
-0.309217 0.016483 6.343650 128 0 0 0.999990
-0.317039 0.009481 6.368760 142 0 0 0.999955
-0.298319 0.007721 6.376750 146 0 0 0.999949
-0.270514 0.013063 6.360320 128 0 0 0.999994
-0.279434 0.005820 6.384650 146 0 0 0.999951
-0.251442 0.011329 6.368410 128 0 0 0.999992
-0.243086 0.019817 6.345350 128 0 0 0.999999
-0.260550 0.003681 6.392520 137 0 0 0.999968
-0.315763 -0.030484 6.453400 128 0 0 0.999999
-0.299387 -0.032476 6.460450 128 0 0 0.999998
-0.292119 -0.019326 6.436520 128 0 0 0.999997
-0.282575 -0.033843 6.467710 128 0 0 0.999996
-0.275357 -0.020657 6.443460 128 0 0 0.999995
-0.258180 -0.022257 6.449940 128 0 0 0.999998
-0.265998 -0.035581 6.474460 128 0 0 0.999997
-0.267317 -0.008577 6.418290 128 0 0 0.999998
-0.249766 -0.010098 6.425080 128 0 0 0.999997
-0.285744 -0.006484 6.410190 128 0 0 1.000000
-0.304458 -0.004181 6.402640 128 0 0 0.999996
-0.310182 -0.017056 6.428160 128 0 0 0.999997
-0.328466 -0.015133 6.419880 128 0 0 0.999999
-0.322894 -0.002561 6.394290 133 0 0 0.999980
-0.333476 -0.028129 6.444920 128 0 0 1.000000
-0.248500 -0.037220 6.482410 128 0 0 0.999996
-0.231874 -0.037647 6.489190 128 0 0 0.999989
-0.222355 -0.025079 6.465950 128 0 0 0.999996
-0.215286 -0.038197 6.495660 133 0 0 0.999987
-0.205444 -0.025697 6.472420 128 0 0 0.999996
-0.188358 -0.026482 6.478750 128 0 0 0.999998
-0.198419 -0.038539 6.501600 133 0 0 0.999988
-0.195260 -0.014445 6.449140 128 0 0 0.999997
-0.178010 -0.015362 6.455350 128 0 0 0.999990
-0.213346 -0.013063 6.441420 128 0 0 0.999999
-0.231716 -0.011622 6.433570 128 0 0 0.999999
-0.240540 -0.023610 6.458110 128 0 0 0.999995
0.009717 0.025592 6.398380 146 0 0 0.999954
-0.001902 0.014732 6.420590 128 0 0 0.999991
-0.022292 0.015536 6.412250 128 0 0 0.999994
-0.010613 0.025596 6.389960 142 0 0 0.999958
-0.034029 0.006380 6.434990 128 0 0 0.999995
-0.042424 0.016138 6.404080 128 0 0 0.999994
-0.054089 0.007634 6.427030 128 0 0 0.999999
-0.073830 0.008394 6.418580 128 0 0 0.999997
-0.030942 0.025733 6.381610 137 0 0 0.999969
-0.062368 0.016813 6.395700 128 0 0 0.999992
-0.050978 0.025958 6.373030 133 0 0 0.999978
-0.065743 -0.000407 6.449950 128 0 0 0.999999
-0.085481 0.000565 6.441470 128 0 0 0.999998
-0.096791 -0.007011 6.464240 137 0 0 0.999971
-0.078361 -0.007644 6.472330 142 0 0 0.999961
-0.046861 -0.001337 6.457900 128 0 0 0.999999
-0.059671 -0.008466 6.480580 142 0 0 0.999955
-0.027557 -0.002348 6.465580 128 0 0 0.999998
-0.014737 0.005657 6.442670 128 0 0 0.999992
-0.040468 -0.009617 6.488600 137 0 0 0.999966
-0.070554 0.027143 6.365150 142 0 0 0.999962
-0.081046 0.017608 6.388670 128 0 0 0.999996
-0.100342 0.018895 6.380910 128 0 0 0.999999
-0.089978 0.027868 6.357240 142 0 0 0.999959
-0.110512 0.010373 6.404590 128 0 0 0.999999
-0.119610 0.019965 6.372860 128 0 0 0.999999
-0.129431 0.011435 6.396530 128 0 0 0.999999
-0.109552 0.028505 6.349030 137 0 0 0.999969
-0.139455 0.003251 6.419330 128 0 0 0.999999
-0.150242 -0.004654 6.441390 137 0 0 0.999973
-0.121542 0.002537 6.427080 128 0 0 0.999998
-0.132522 -0.005094 6.449050 142 0 0 0.999957
-0.103640 0.001597 6.434370 128 0 0 0.999999
-0.092307 0.009455 6.411660 128 0 0 0.999999
-0.114816 -0.005928 6.456770 142 0 0 0.999959
-0.180826 -0.039360 6.509480 133 0 0 0.999988
-0.164162 -0.039242 6.516220 133 0 0 0.999982
-0.152910 -0.028303 6.494300 128 0 0 0.999999
-0.147329 -0.040003 6.523300 128 0 0 0.999994
-0.136130 -0.028785 6.501130 128 0 0 0.999998
-0.119312 -0.029080 6.508480 128 0 0 0.999999
-0.130634 -0.040173 6.530180 128 0 0 0.999996
-0.125000 -0.017858 6.479110 128 0 0 0.999995
-0.108159 -0.018214 6.486470 128 0 0 0.999996
-0.142759 -0.016824 6.471400 128 0 0 0.999999
-0.160513 -0.015690 6.463550 128 0 0 0.999999
-0.170618 -0.027210 6.486410 128 0 0 0.999998
-0.112389 -0.040863 6.538880 128 0 0 0.999996
-0.095254 -0.041171 6.547160 128 0 0 0.999993
-0.082893 -0.029909 6.526440 133 0 0 0.999988
-0.077917 -0.040794 6.555350 128 0 0 0.999991
-0.065495 -0.030463 6.534390 128 0 0 0.999989
-0.052437 -0.020754 6.511810 128 0 0 0.999995
-0.071450 -0.019433 6.503860 128 0 0 0.999995
-0.089941 -0.018708 6.495190 128 0 0 0.999996
-0.101183 -0.029537 6.517560 128 0 0 0.999996
0.183822 0.001489 6.086400 142 0 0 0.999956
0.174116 0.010331 6.103660 146 0 0 0.999951
0.152676 0.010223 6.092710 146 0 0 0.999954
0.162388 0.001563 6.075390 146 0 0 0.999946
0.142711 0.017780 6.110460 137 0 0 0.999976
0.131195 0.009734 6.081760 146 0 0 0.999953
0.121354 0.017202 6.099600 137 0 0 0.999975
0.099763 0.016178 6.088630 133 0 0 0.999984
0.140897 0.001212 6.064390 146 0 0 0.999944
0.109645 0.008873 6.070580 137 0 0 0.999966
0.119215 0.000553 6.053270 146 0 0 0.999948
0.110988 0.023487 6.117850 142 0 0 0.999958
0.089458 0.022295 6.106990 137 0 0 0.999977
0.078949 0.027653 6.125730 142 0 0 0.999961
0.100843 0.028841 6.136220 146 0 0 0.999948
0.132636 0.024110 6.128360 142 0 0 0.999955
0.122400 0.029665 6.146670 155 0 0 0.999931
0.154380 0.024556 6.138720 151 0 0 0.999935
0.164442 0.018071 6.120940 142 0 0 0.999963
0.143987 0.030063 6.157170 155 0 0 0.999924
0.099801 0.000211 6.042990 146 0 0 0.999952
0.089692 0.008635 6.060870 137 0 0 0.999967
0.070359 0.008076 6.050770 137 0 0 0.999966
0.080528 -0.000238 6.032520 146 0 0 0.999948
0.059907 0.015056 6.069340 133 0 0 0.999986
0.050956 0.007144 6.040380 137 0 0 0.999970
0.040547 0.014059 6.059010 133 0 0 0.999987
0.021367 0.012744 6.048880 128 0 0 0.999990
0.060978 -0.000941 6.022010 146 0 0 0.999952
0.031639 0.005992 6.030050 137 0 0 0.999972
0.041693 -0.001877 6.011590 146 0 0 0.999954
0.029873 0.019992 6.078310 133 0 0 0.999985
0.010577 0.018556 6.068250 133 0 0 0.999988
-0.000030 0.023944 6.087900 133 0 0 0.999980
0.019761 0.025190 6.097370 137 0 0 0.999973
0.049860 0.020883 6.087840 133 0 0 0.999985
0.039663 0.026238 6.106770 142 0 0 0.999964
0.069680 0.021739 6.097500 133 0 0 0.999980
0.079899 0.015762 6.078900 133 0 0 0.999982
0.059346 0.027093 6.116260 142 0 0 0.999959
-0.042346 0.039510 6.168620 133 0 0 0.999981
-0.022208 0.039901 6.178090 137 0 0 0.999976
-0.012072 0.035460 6.158700 128 0 0 0.999997
0.008064 0.035749 6.167710 128 0 0 0.999996
-0.002044 0.040089 6.187410 133 0 0 0.999978
0.018005 0.032357 6.148080 128 0 0 0.999997
0.028011 0.036319 6.176800 128 0 0 0.999995
0.038225 0.032846 6.156790 128 0 0 0.999998
0.058307 0.033046 6.165850 128 0 0 0.999995
0.018056 0.040119 6.196490 133 0 0 0.999982
0.048074 0.036368 6.185700 128 0 0 0.999996
0.037747 0.040190 6.205520 133 0 0 0.999984
0.048353 0.029965 6.136880 128 0 0 0.999995
0.068659 0.030264 6.145870 128 0 0 0.999992
0.028748 0.029139 6.127430 128 0 0 0.999995
0.008948 0.028120 6.118080 128 0 0 0.999997
-0.001586 0.031425 6.138620 128 0 0 0.999994
-0.021124 0.030725 6.128930 128 0 0 0.999993
-0.010723 0.027021 6.108600 128 0 0 0.999993
-0.031584 0.034902 6.148970 128 0 0 0.999992
0.059101 0.040886 6.215820 133 0 0 0.999981
0.069224 0.037313 6.196420 128 0 0 0.999996
0.090738 0.037977 6.206570 128 0 0 0.999995
0.080391 0.041438 6.225890 133 0 0 0.999978
0.100973 0.034942 6.187100 128 0 0 0.999997
0.111846 0.038207 6.216740 128 0 0 0.999996
0.122196 0.035221 6.197150 128 0 0 0.999998
0.101489 0.041632 6.236130 137 0 0 0.999976
0.132751 0.032587 6.177450 128 0 0 0.999989
0.111604 0.032284 6.166900 133 0 0 0.999988
0.090134 0.031478 6.156320 128 0 0 0.999989
0.079706 0.034149 6.176430 128 0 0 0.999998
-0.119295 0.033719 6.318260 133 0 0 0.999988
-0.138222 0.035171 6.310090 128 0 0 0.999996
-0.128433 0.040045 6.288940 128 0 0 0.999998
-0.109322 0.038793 6.296810 128 0 0 0.999995
-0.147624 0.041357 6.280610 128 0 0 0.999999
-0.118436 0.044709 6.267920 142 0 0 0.999965
-0.137958 0.045916 6.259870 142 0 0 0.999965
-0.127815 0.049599 6.238730 178 0 0 0.999872
-0.098835 0.043469 6.275580 137 0 0 0.999968
-0.107985 0.048493 6.246560 173 0 0 0.999877
-0.088016 0.047344 6.254200 169 0 0 0.999894
-0.157522 0.046934 6.251510 137 0 0 0.999971
-0.147525 0.050695 6.230580 173 0 0 0.999876
-0.167069 0.051768 6.222320 173 0 0 0.999881
-0.177527 0.047977 6.243280 137 0 0 0.999975
-0.167644 0.042557 6.272350 128 0 0 0.999999
-0.187571 0.043648 6.264090 128 0 0 0.999999
-0.177598 0.037916 6.293680 128 0 0 0.999999
-0.157894 0.036496 6.302000 128 0 0 0.999998
-0.197284 0.039226 6.285260 128 0 0 0.999999
-0.076636 0.046256 6.233180 137 0 0 0.999967
-0.095543 0.046901 6.225310 137 0 0 0.999971
-0.083624 0.044976 6.203980 128 0 0 0.999998
-0.064881 0.044274 6.211660 128 0 0 0.999997
-0.102694 0.045646 6.196120 128 0 0 0.999998
-0.071790 0.042549 6.182470 128 0 0 0.999992
-0.090816 0.043191 6.174480 128 0 0 0.999994
-0.079715 0.040849 6.153040 137 0 0 0.999976
-0.053233 0.041923 6.189990 128 0 0 0.999992
-0.060772 0.040215 6.160930 137 0 0 0.999970
-0.110091 0.043940 6.166640 128 0 0 0.999994
-0.098683 0.041378 6.144960 137 0 0 0.999975
-0.117757 0.042122 6.137220 137 0 0 0.999974
-0.130619 0.045263 6.159240 128 0 0 0.999991
-0.123135 0.046943 6.188630 128 0 0 0.999997
-0.143378 0.048316 6.180990 128 0 0 0.999993
-0.135622 0.049247 6.209850 142 0 0 0.999963
-0.115490 0.048047 6.217680 137 0 0 0.999970
-0.155504 0.050505 6.201950 142 0 0 0.999962
-0.193101 0.045471 6.107260 142 0 0 0.999957
-0.207026 0.049751 6.129430 133 0 0 0.999984
-0.186894 0.047782 6.136420 128 0 0 0.999997
-0.200720 0.051421 6.157980 128 0 0 0.999992
-0.220655 0.053140 6.150760 137 0 0 0.999972
-0.180646 0.049698 6.165130 128 0 0 0.999996
-0.213967 0.053870 6.178640 146 0 0 0.999951
-0.193914 0.052554 6.186240 142 0 0 0.999959
-0.206887 0.053950 6.206570 173 0 0 0.999878
-0.233861 0.055267 6.171080 151 0 0 0.999938
-0.226770 0.055000 6.198730 169 0 0 0.999888
-0.246446 0.056203 6.190920 178 0 0 0.999870
-0.174002 0.051137 6.193810 137 0 0 0.999967
-0.187025 0.052860 6.214410 173 0 0 0.999874
-0.162157 0.048901 6.173010 128 0 0 0.999997
-0.149732 0.045954 6.151650 128 0 0 0.999999
-0.168454 0.046769 6.144000 128 0 0 0.999998
-0.155893 0.043441 6.122310 137 0 0 0.999974
-0.137030 0.042749 6.129750 137 0 0 0.999974
-0.174590 0.044338 6.114840 137 0 0 0.999969
-0.257384 0.052488 6.211250 137 0 0 0.999975
-0.236846 0.051068 6.218830 133 0 0 0.999982
-0.247453 0.046989 6.239640 128 0 0 0.999997
-0.267665 0.048456 6.231630 128 0 0 0.999993
-0.226943 0.045591 6.247550 128 0 0 0.999997
-0.257914 0.043461 6.260440 133 0 0 0.999981
-0.237477 0.041720 6.268490 133 0 0 0.999988
-0.277761 0.044976 6.252170 137 0 0 0.999973
-0.216934 0.040150 6.276710 128 0 0 0.999995
-0.207313 0.044622 6.255860 128 0 0 0.999999
-0.197342 0.048937 6.235070 137 0 0 0.999972
-0.217074 0.049961 6.226910 133 0 0 0.999978
-0.095273 -0.009350 5.935250 142 0 0 0.999964
-0.106590 -0.001710 5.956630 128 0 0 0.999990
-0.089389 -0.001195 5.965270 128 0 0 0.999999
-0.100958 0.006152 5.986520 128 0 0 0.999999
-0.118181 0.005742 5.978170 128 0 0 0.999996
-0.083148 0.006690 5.995070 128 0 0 0.999999
-0.112340 0.013432 6.008080 128 0 0 0.999999
-0.094724 0.013747 6.016500 128 0 0 0.999997
-0.106242 0.021072 6.037550 128 0 0 0.999989
-0.129706 0.013199 5.999620 128 0 0 0.999997
-0.123866 0.020930 6.029140 133 0 0 0.999981
-0.141267 0.020880 6.020710 137 0 0 0.999972
-0.077060 0.014356 6.024670 128 0 0 0.999999
-0.088659 0.021567 6.045970 133 0 0 0.999986
-0.070948 0.022166 6.054350 133 0 0 0.999981
-0.059832 0.015533 6.034050 128 0 0 0.999999
-0.066149 0.007750 6.004400 128 0 0 1.000000
-0.048845 0.009010 6.013690 128 0 0 0.999999
-0.055269 0.000997 5.984110 128 0 0 0.999999
-0.072245 -0.000213 5.974700 128 0 0 0.999999
-0.061522 -0.007617 5.954310 133 0 0 0.999982
-0.037967 0.002320 5.993510 128 0 0 0.999997
-0.044404 -0.006525 5.963730 133 0 0 0.999978
-0.027143 -0.005250 5.973370 137 0 0 0.999970
-0.078589 -0.008573 5.944810 133 0 0 0.999980
-0.153613 0.026319 6.042370 128 0 0 0.999994
-0.135212 0.025740 6.049990 128 0 0 0.999995
-0.147882 0.031481 6.071600 128 0 0 0.999998
-0.166589 0.032215 6.064200 128 0 0 0.999997
-0.129231 0.030948 6.078990 128 0 0 0.999997
-0.161086 0.037671 6.093080 128 0 0 0.999994
-0.142291 0.036938 6.100490 128 0 0 0.999998
-0.179801 0.038656 6.085850 128 0 0 0.999990
-0.123464 0.036352 6.108090 128 0 0 0.999998
-0.105508 0.036468 6.116600 128 0 0 0.999999
-0.111564 0.031081 6.087430 128 0 0 0.999999
-0.093721 0.031291 6.096160 128 0 0 0.999999
-0.100132 0.026132 6.066810 128 0 0 0.999998
-0.117629 0.025882 6.058500 128 0 0 0.999994
-0.082400 0.026488 6.075400 128 0 0 0.999998
-0.049058 0.034864 6.140460 128 0 0 0.999995
-0.038532 0.030500 6.120430 128 0 0 0.999995
-0.056211 0.030511 6.111950 128 0 0 0.999997
-0.028188 0.026676 6.100120 128 0 0 0.999997
-0.045902 0.026508 6.091720 128 0 0 0.999995
-0.035471 0.022981 6.071260 133 0 0 0.999981
-0.017693 0.023425 6.079630 133 0 0 0.999984
-0.063701 0.026344 6.083250 128 0 0 0.999995
-0.053104 0.022496 6.062770 133 0 0 0.999984
-0.075053 0.030890 6.104100 128 0 0 0.999998
-0.086635 0.035936 6.124540 128 0 0 0.999999
-0.067832 0.035409 6.132540 128 0 0 0.999998
-0.006575 0.017492 6.059070 128 0 0 0.999999
0.003986 0.011703 6.039580 128 0 0 0.999993
-0.013161 0.010616 6.030370 128 0 0 0.999997
0.014300 0.005143 6.020690 137 0 0 0.999973
-0.002952 0.004219 6.011260 133 0 0 0.999984
0.007253 -0.003380 5.992450 142 0 0 0.999962
0.024388 -0.002525 6.002080 146 0 0 0.999950
-0.020146 0.003055 6.001850 133 0 0 0.999987
-0.010178 -0.004331 5.982860 142 0 0 0.999964
-0.031034 0.009797 6.022120 128 0 0 0.999999
-0.041987 0.016172 6.042550 128 0 0 0.999999
-0.024385 0.016860 6.050870 128 0 0 0.999999
0.090648 0.043091 6.257150 128 0 0 0.999997
0.069741 0.042821 6.246840 128 0 0 0.999997
0.059030 0.044505 6.267310 128 0 0 0.999999
0.048575 0.042281 6.236540 128 0 0 0.999997
0.038014 0.044209 6.256980 128 0 0 0.999999
0.017027 0.043732 6.246720 128 0 0 0.999998
0.027470 0.041860 6.226250 128 0 0 0.999994
0.027270 0.045963 6.277340 137 0 0 0.999970
0.005908 0.045497 6.267140 137 0 0 0.999968
-0.005479 0.046360 6.287650 169 0 0 0.999886
0.015863 0.046699 6.297090 173 0 0 0.999879
0.048055 0.046227 6.286840 137 0 0 0.999969
0.036880 0.047088 6.306520 178 0 0 0.999872
0.068535 0.046436 6.296590 142 0 0 0.999955
0.079588 0.044541 6.276940 128 0 0 0.999999
0.057544 0.047517 6.316120 178 0 0 0.999868
0.007418 0.042113 6.217800 128 0 0 0.999996
-0.012680 0.042174 6.208790 128 0 0 0.999995
-0.024019 0.044372 6.230060 128 0 0 0.999997
-0.032996 0.042236 6.199630 128 0 0 0.999994
-0.044434 0.044454 6.221000 128 0 0 0.999997
-0.056012 0.046237 6.242370 137 0 0 0.999968
-0.067075 0.047176 6.262860 169 0 0 0.999887
-0.035338 0.046042 6.250750 137 0 0 0.999968
-0.046519 0.046936 6.271170 169 0 0 0.999888
-0.014652 0.045866 6.258890 137 0 0 0.999968
-0.003407 0.044148 6.238360 128 0 0 0.999997
-0.026014 0.046662 6.279460 169 0 0 0.999895
-0.099265 0.033338 6.327400 128 0 0 0.999998
-0.079426 0.032976 6.335580 128 0 0 0.999998
-0.068369 0.038109 6.314360 128 0 0 0.999997
-0.059523 0.032409 6.343460 128 0 0 0.999999
-0.048378 0.037951 6.322280 128 0 0 0.999995
-0.028274 0.037583 6.330050 128 0 0 0.999994
-0.039800 0.031659 6.351360 128 0 0 0.999993
-0.037126 0.042710 6.301250 137 0 0 0.999969
-0.017033 0.042555 6.309070 146 0 0 0.999948
-0.057388 0.042933 6.292820 137 0 0 0.999972
-0.077935 0.043192 6.284210 137 0 0 0.999972
-0.088799 0.038565 6.305550 128 0 0 0.999997
-0.018834 0.031733 6.360710 128 0 0 0.999990
0.001604 0.032120 6.369360 133 0 0 0.999986
0.013824 0.038130 6.348960 128 0 0 0.999991
0.021988 0.032355 6.377800 128 0 0 0.999996
0.034142 0.038449 6.357420 128 0 0 0.999991
0.046323 0.043819 6.337290 146 0 0 0.999944
0.025397 0.043419 6.327810 151 0 0 0.999937
0.004198 0.042919 6.318410 142 0 0 0.999962
-0.007297 0.037780 6.339490 128 0 0 0.999993
-0.310099 0.042721 6.264760 155 0 0 0.999924
-0.315296 0.034470 6.288190 133 0 0 0.999981
-0.336956 0.035774 6.280010 133 0 0 0.999983
-0.331633 0.043845 6.256920 155 0 0 0.999929
-0.342458 0.028318 6.304040 128 0 0 0.999996
-0.357604 0.037195 6.272010 133 0 0 0.999985
-0.363293 0.029731 6.295710 128 0 0 0.999998
-0.383662 0.030798 6.287640 128 0 0 0.999994
-0.352310 0.045162 6.249620 155 0 0 0.999926
-0.378101 0.038440 6.264320 133 0 0 0.999987
-0.372689 0.046615 6.242620 173 0 0 0.999881
-0.368983 0.022710 6.320550 128 0 0 0.999993
-0.389261 0.023479 6.312040 128 0 0 0.999997
-0.394856 0.016231 6.336640 160 0 0 0.999909
-0.375978 0.015209 6.344950 164 0 0 0.999906
-0.349519 0.020747 6.328380 128 0 0 0.999997
-0.356986 0.013610 6.352970 160 0 0 0.999917
-0.329774 0.018865 6.336370 128 0 0 0.999998
-0.322312 0.026299 6.311550 128 0 0 0.999995
-0.337362 0.011681 6.361310 155 0 0 0.999929
-0.396042 0.048082 6.233940 178 0 0 0.999869
-0.396000 0.039945 6.259530 128 0 0 0.999995
-0.419121 0.041070 6.250800 142 0 0 0.999958
-0.419620 0.050175 6.225690 201 0 0 0.999809
-0.418913 0.033033 6.277210 133 0 0 0.999982
-0.441717 0.042519 6.241920 151 0 0 0.999938
-0.441516 0.033292 6.267590 128 0 0 0.999992
-0.464181 0.034247 6.258050 137 0 0 0.999966
-0.442281 0.052542 6.217580 219 0 0 0.999760
-0.464758 0.044576 6.233100 146 0 0 0.999947
-0.465532 0.055519 6.209580 210 0 0 0.999780
-0.441221 0.025202 6.293990 151 0 0 0.999940
-0.463397 0.024733 6.283420 146 0 0 0.999952
-0.462587 0.016070 6.309480 173 0 0 0.999875
-0.446084 0.016707 6.316400 183 0 0 0.999858
-0.424083 0.024742 6.300070 142 0 0 0.999965
-0.429229 0.016734 6.323070 169 0 0 0.999887
-0.407115 0.024297 6.306080 137 0 0 0.999974
-0.401630 0.032067 6.282320 128 0 0 0.999996
-0.412489 0.016722 6.329820 164 0 0 0.999904
-0.445550 -0.020823 6.387560 133 0 0 0.999980
-0.431018 -0.020064 6.395470 133 0 0 0.999983
-0.428648 -0.007798 6.371320 128 0 0 0.999989
-0.416586 -0.020028 6.403640 133 0 0 0.999979
-0.414267 -0.007680 6.379120 137 0 0 0.999976
-0.399427 -0.008463 6.386150 128 0 0 0.999991
-0.401760 -0.020963 6.411390 133 0 0 0.999986
-0.411691 0.004195 6.354370 137 0 0 0.999973
-0.397025 0.003518 6.361160 128 0 0 0.999993
-0.428811 0.004330 6.347100 128 0 0 0.999991
-0.445898 0.003779 6.339510 137 0 0 0.999969
-0.445434 -0.008614 6.363380 128 0 0 0.999989
-0.462291 -0.009840 6.355030 128 0 0 0.999990
-0.462660 0.003033 6.332280 137 0 0 0.999976
-0.462261 -0.022370 6.378410 128 0 0 0.999990
-0.383498 -0.022525 6.421200 128 0 0 0.999993
-0.366951 -0.023856 6.429440 128 0 0 0.999990
-0.362533 -0.011450 6.404980 128 0 0 0.999993
-0.350371 -0.025959 6.437310 128 0 0 0.999996
-0.345386 -0.013121 6.412120 128 0 0 0.999999
-0.340300 -0.000524 6.387400 128 0 0 0.999995
-0.359808 0.001477 6.379200 133 0 0 0.999984
-0.378649 0.002628 6.370090 128 0 0 0.999993
-0.381093 -0.009552 6.395650 128 0 0 0.999989
-0.484692 0.054099 6.213290 223 0 0 0.999744
-0.498261 0.042990 6.234320 142 0 0 0.999961
-0.503704 0.052559 6.216170 183 0 0 0.999861
-0.493017 0.034114 6.253420 133 0 0 0.999983
-0.517258 0.040689 6.237220 142 0 0 0.999960
-0.511715 0.031284 6.255840 133 0 0 0.999980
-0.531002 0.029066 6.258440 133 0 0 0.999979
-0.522932 0.051146 6.219140 223 0 0 0.999753
-0.536658 0.038979 6.240150 137 0 0 0.999973
-0.543018 0.050055 6.222520 219 0 0 0.999757
-0.506561 0.023139 6.275290 146 0 0 0.999953
-0.525662 0.020105 6.277470 151 0 0 0.999932
-0.520255 0.011631 6.296590 201 0 0 0.999809
-0.491456 0.013975 6.302800 187 0 0 0.999846
-0.565190 0.036669 6.240640 137 0 0 0.999969
-0.573275 0.046532 6.223910 178 0 0 0.999869
-0.557437 0.026859 6.257340 133 0 0 0.999983
-0.587385 0.022979 6.259510 133 0 0 0.999980
-0.595810 0.033807 6.242610 160 0 0 0.999911
-0.604821 0.044488 6.225520 228 0 0 0.999737
-0.564713 0.015116 6.275060 142 0 0 0.999961
-0.572255 0.004457 6.293250 192 0 0 0.999832
-0.545954 0.007105 6.294440 164 0 0 0.999906
-0.546216 -0.036027 6.347370 155 0 0 0.999928
-0.537902 -0.020221 6.331300 142 0 0 0.999963
-0.525087 -0.031449 6.354520 164 0 0 0.999898
-0.516107 -0.016735 6.336990 137 0 0 0.999977
-0.529301 -0.004543 6.314090 151 0 0 0.999942
-0.554913 -0.008789 6.311840 137 0 0 0.999970
-0.563647 -0.025456 6.328360 137 0 0 0.999976
-0.499786 -0.027503 6.362500 164 0 0 0.999900
-0.487577 -0.012673 6.345430 133 0 0 0.999985
-0.489532 0.000352 6.323660 146 0 0 0.999944
-0.298500 0.045424 6.242800 133 0 0 0.999984
-0.288665 0.048777 6.222750 128 0 0 0.999995
-0.309244 0.049073 6.214210 133 0 0 0.999980
-0.278467 0.052762 6.202800 137 0 0 0.999973
-0.299001 0.053119 6.194700 137 0 0 0.999971
-0.288809 0.057018 6.175080 155 0 0 0.999922
-0.267821 0.056709 6.182870 160 0 0 0.999911
-0.319438 0.053788 6.186790 133 0 0 0.999984
-0.309116 0.057712 6.167320 160 0 0 0.999913
-0.329270 0.058538 6.159670 169 0 0 0.999894
-0.340438 0.055201 6.180350 133 0 0 0.999981
-0.330640 0.050490 6.207550 128 0 0 0.999993
-0.351253 0.052254 6.200880 137 0 0 0.999976
-0.341557 0.047744 6.228320 133 0 0 0.999978
-0.320512 0.046323 6.235310 133 0 0 0.999982
-0.361893 0.049444 6.221600 142 0 0 0.999957
-0.253265 0.054858 6.161760 137 0 0 0.999970
-0.240322 0.052918 6.141580 128 0 0 0.999995
-0.259570 0.053050 6.132520 128 0 0 0.999993
-0.226962 0.049930 6.120480 128 0 0 0.999994
-0.246508 0.050224 6.111420 128 0 0 0.999995
-0.233139 0.046399 6.089570 146 0 0 0.999951
-0.213335 0.045941 6.098430 146 0 0 0.999954
-0.265635 0.050653 6.102440 133 0 0 0.999982
-0.252322 0.046824 6.080760 142 0 0 0.999959
-0.271118 0.047468 6.072080 146 0 0 0.999947
-0.286384 0.052378 6.095330 142 0 0 0.999963
-0.280796 0.054376 6.125030 128 0 0 0.999989
-0.301439 0.055784 6.117770 142 0 0 0.999958
-0.295230 0.056634 6.146510 146 0 0 0.999952
-0.274401 0.055705 6.154080 142 0 0 0.999963
-0.315654 0.057651 6.139190 151 0 0 0.999937
-0.342930 0.046155 6.033020 142 0 0 0.999957
-0.359440 0.051833 6.056570 133 0 0 0.999978
-0.340328 0.050559 6.065850 128 0 0 0.999994
-0.356184 0.054617 6.088840 128 0 0 0.999996
-0.375124 0.055930 6.079350 133 0 0 0.999981
-0.337298 0.054129 6.097940 128 0 0 0.999991
-0.371251 0.057497 6.110860 137 0 0 0.999974
-0.352572 0.056875 6.120070 142 0 0 0.999964
-0.366976 0.058509 6.140990 151 0 0 0.999937
-0.389943 0.058759 6.101510 137 0 0 0.999966
-0.385367 0.059242 6.131770 146 0 0 0.999947
-0.403749 0.060664 6.122580 146 0 0 0.999944
-0.333687 0.056623 6.129340 137 0 0 0.999972
-0.348258 0.058273 6.150110 151 0 0 0.999941
-0.319523 0.054743 6.107800 128 0 0 0.999992
-0.304624 0.051371 6.085510 128 0 0 0.999994
-0.322562 0.050850 6.075740 128 0 0 0.999994
-0.307506 0.046181 6.052630 133 0 0 0.999981
-0.289401 0.046682 6.062340 137 0 0 0.999972
-0.325250 0.045880 6.042800 133 0 0 0.999978
-0.419670 0.059857 6.144910 142 0 0 0.999965
-0.396000 0.055986 6.152110 146 0 0 0.999947
-0.411661 0.055009 6.174190 133 0 0 0.999982
-0.435069 0.058878 6.166950 137 0 0 0.999976
-0.388203 0.052053 6.181570 160 0 0 0.999919
-0.426952 0.053914 6.195860 146 0 0 0.999954
-0.403716 0.051088 6.203680 142 0 0 0.999955
-0.450342 0.057395 6.188090 151 0 0 0.999932
-0.380455 0.048842 6.211690 142 0 0 0.999960
-0.370043 0.051954 6.191390 133 0 0 0.999987
-0.359351 0.054931 6.170750 133 0 0 0.999980
-0.377870 0.055192 6.161420 142 0 0 0.999960
-0.312136 0.038261 6.020930 128 0 0 0.999999
-0.294089 0.038595 6.030780 128 0 0 0.999998
-0.280721 0.030724 6.008540 128 0 0 0.999998
-0.276010 0.039114 6.040580 128 0 0 0.999999
-0.262485 0.031370 6.018370 128 0 0 0.999999
-0.244068 0.032146 6.028120 128 0 0 0.999998
-0.257735 0.039866 6.050250 128 0 0 0.999996
-0.248863 0.023823 5.995780 128 0 0 0.999998
-0.230380 0.024768 6.005570 128 0 0 0.999997
-0.216722 0.017895 5.982600 133 0 0 0.999978
-0.234989 0.016499 5.972930 128 0 0 0.999990
-0.266927 0.022675 5.985980 128 0 0 0.999995
-0.253038 0.015170 5.963220 128 0 0 0.999996
-0.284696 0.021819 5.976010 128 0 0 0.999997
-0.298405 0.030011 5.998590 128 0 0 0.999998
-0.316207 0.029739 5.988650 128 0 0 0.999995
-0.271087 0.014217 5.953240 128 0 0 0.999993
-0.302576 0.021291 5.965880 128 0 0 0.999995
-0.289045 0.013530 5.943030 137 0 0 0.999976
-0.329705 0.038181 6.011040 128 0 0 0.999993
-0.239382 0.039807 6.059590 128 0 0 0.999990
-0.219986 0.039246 6.068220 128 0 0 0.999992
-0.206859 0.032277 6.046740 128 0 0 0.999998
-0.200082 0.038925 6.077110 128 0 0 0.999994
-0.186933 0.032120 6.055450 128 0 0 0.999997
-0.173810 0.025910 6.033620 128 0 0 0.999996
-0.160602 0.019737 6.010970 133 0 0 0.999986
-0.193283 0.025321 6.024210 128 0 0 0.999996
-0.179811 0.018898 6.001330 128 0 0 0.999992
-0.212019 0.024880 6.014860 128 0 0 0.999997
-0.225809 0.032119 6.037380 128 0 0 0.999998
-0.198474 0.018244 5.992020 128 0 0 0.999990
