ply
format ascii 1.0
comment Seamless Cloth Simulation with High Geometric Fidelity 
comment Wed May  8 12:08:25 2019
element vertex 985
property float x
property float y
property float z
property float quality
property uchar red
property uchar green
property uchar blue
end_header
-0.388902 -0.563146 5.21833 0.252645 255 0 255 
-0.37168 -0.566519 5.2212 0.291562 255 0 255 
-0.356873 -0.563275 5.22891 0.308416 255 0 255 
-0.339704 -0.566166 5.23075 0.311419 255 0 255 
-0.347466 -0.582944 5.21236 0.278992 255 0 255 
-0.378052 -0.583324 5.20195 0.257072 255 0 255 
-0.319013 -0.601085 5.20073 0.266038 255 0 255 
-0.335833 -0.599838 5.19833 0.279657 255 0 255 
-0.34265 -0.609332 5.18444 0.317861 255 0 255 
-0.359684 -0.607257 5.18128 0.233106 255 0 255 
-0.366445 -0.615664 5.16698 0.30339 255 0 255 
-0.356771 -0.592514 5.20002 0.252326 255 0 255 
-0.330638 -0.584751 5.21538 0.285899 255 0 255 
-0.384424 -0.616125 5.16505 0.29078 255 0 255 
-0.390212 -0.626669 5.15079 0.289993 255 0 255 
-0.408624 -0.626478 5.14869 0.254955 255 0 255 
-0.427264 -0.625583 5.14567 0.206229 255 0 255 
-0.414881 -0.636754 5.13483 0.218258 255 0 255 
-0.420858 -0.61491 5.15937 0.218779 255 0 255 
-0.0861047 -0.665745 5.4061 0.313402 255 0 255 
-0.0737308 -0.686595 5.41798 0.275675 255 0 255 
-0.064038 -0.711058 5.42758 0.289841 255 0 255 
-0.0546249 -0.73609 5.44136 0.317972 255 0 255 
-0.049123 -0.764584 5.45234 0.32208 255 0 255 
-0.0802412 -0.695614 5.40655 0.286583 255 0 255 
-0.0922085 -0.676205 5.3947 0.278022 255 0 255 
-0.0472698 -0.789663 5.47134 0.280509 255 0 255 
-0.0519226 -0.817468 5.47933 0.271504 255 0 255 
-0.0566929 -0.845972 5.49085 0.343833 255 0 255 
-0.0634249 -0.874157 5.49673 0.283727 255 0 255 
-0.0542241 -0.792653 5.45812 0.244155 255 0 255 
-0.0690221 -0.871032 5.47681 0.223024 255 0 255 
-0.0639435 -0.845278 5.46809 0.260541 255 0 255 
-0.0591212 -0.819117 5.46069 0.173883 255 0 255 
-0.0546459 -0.768864 5.4385 0.294835 255 0 255 
-0.0626166 -0.745017 5.42227 0.270774 255 0 255 
-0.0714547 -0.720895 5.41158 0.317244 255 0 255 
-0.0572678 -0.795089 5.44088 0.279877 255 0 255 
-0.0643709 -0.867774 5.46164 0.196778 255 0 255 
-0.0573548 -0.819445 5.44396 0.215578 255 0 255 
-0.0588511 -0.843196 5.45084 0.223779 255 0 255 
-0.0527404 -0.772177 5.41825 0.287269 255 0 255 
-0.0964247 -0.695566 5.36474 0.34566 255 0 255 
-0.0842418 -0.711096 5.37971 0.348867 255 0 255 
-0.0730761 -0.729055 5.39542 0.207831 255 0 255 
-0.0619963 -0.749423 5.4064 0.387992 255 0 255 
-0.0967759 -0.687589 5.38007 0.282172 255 0 255 
-0.0750076 -0.901384 5.5117 0.486905 255 0 255 
-0.0909229 -0.925262 5.51263 0.349485 255 0 255 
-0.106486 -0.948904 5.51901 0.432841 255 0 255 
-0.122477 -0.970555 5.51934 0.3936 255 0 255 
-0.0808764 -0.89727 5.49481 0.300268 255 0 255 
-0.142516 -0.991944 5.53315 0.389636 255 0 255 
-0.162913 -1.00492 5.52863 0.444327 255 0 255 
-0.183375 -1.02034 5.53124 0.49358 255 0 255 
-0.202918 -1.032 5.5268 0.543107 255 0 255 
-0.183257 -1.01232 5.51128 0.476361 255 0 255 
-0.163884 -0.997577 5.51048 0.359282 255 0 255 
-0.143342 -0.984331 5.51497 0.364793 255 0 255 
-0.198697 -1.01868 5.49378 0.527457 255 0 255 
-0.180852 -1.00417 5.49379 0.357814 255 0 255 
-0.162019 -0.989706 5.49351 0.338404 255 0 255 
-0.143066 -0.976389 5.49761 0.356595 255 0 255 
-0.124095 -0.962067 5.50108 0.343293 255 0 255 
-0.109893 -0.937738 5.48986 0.341375 255 0 255 
-0.0955136 -0.917095 5.48913 0.257252 255 0 255 
-0.183165 -1.00327 5.46235 0.309355 255 0 255 
-0.166618 -0.989037 5.4641 0.281561 255 0 255 
-0.150602 -0.977044 5.4689 0.312917 255 0 255 
-0.133141 -0.96259 5.47033 0.30893 255 0 255 
-0.116521 -0.949809 5.47507 0.25969 255 0 255 
-0.175588 -0.99634 5.4781 0.281456 255 0 255 
-0.192968 -1.01008 5.47747 0.34619 255 0 255 
-0.0997725 -0.927783 5.4668 0.262166 255 0 255 
-0.0880147 -0.908855 5.46657 0.256453 255 0 255 
-0.0757485 -0.887998 5.46312 0.185829 255 0 255 
-0.0813858 -0.89264 5.47861 0.217581 255 0 255 
-0.326674 -1.05796 5.40333 0.366849 255 0 255 
-0.309772 -1.05178 5.41185 0.394236 255 0 255 
-0.295977 -1.04745 5.42486 0.309951 255 0 255 
-0.278083 -1.04304 5.4334 0.258296 255 0 255 
-0.263415 -1.04029 5.44643 0.275477 255 0 255 
-0.289486 -1.04756 5.44825 0.369314 255 0 255 
-0.308782 -1.05204 5.44031 0.39794 255 0 255 
-0.322922 -1.05587 5.42726 0.38884 255 0 255 
-0.341492 -1.06191 5.41965 0.311783 255 0 255 
-0.239438 -1.02797 5.44315 0.303755 255 0 255 
-0.223776 -1.0214 5.45328 0.419936 255 0 255 
-0.205274 -1.01269 5.45966 0.470007 255 0 255 
-0.251494 -1.03503 5.46127 0.304487 255 0 255 
-0.219664 -1.02652 5.48953 0.456733 255 0 255 
-0.237981 -1.03224 5.48026 0.376573 255 0 255 
-0.274715 -1.04778 5.4665 0.359196 255 0 255 
-0.260222 -1.04202 5.48103 0.39922 255 0 255 
-0.300416 -1.05446 5.46985 0.556658 255 0 255 
-0.317536 -1.05692 5.45692 0.45894 255 0 255 
-0.338133 -1.06116 5.44982 0.362905 255 0 255 
-0.354486 -1.06523 5.43692 0.287805 255 0 255 
-0.243545 -1.03831 5.49647 0.478482 255 0 255 
-0.223684 -1.03461 5.50927 0.539183 255 0 255 
-0.265367 -1.04763 5.49787 0.459578 255 0 255 
-0.286515 -1.05725 5.49916 0.391988 255 0 255 
-0.281404 -1.05236 5.48246 0.366335 255 0 255 
-0.247892 -1.04708 5.52308 0.512926 255 0 255 
-0.225629 -1.04298 5.5321 0.521683 255 0 255 
-0.270318 -1.05686 5.52837 0.518279 255 0 255 
-0.292856 -1.06578 5.53375 0.460103 255 0 255 
-0.289772 -1.06184 5.51653 0.381582 255 0 255 
-0.385319 -1.07124 5.51321 0.488322 255 0 255 
-0.360601 -1.06818 5.50976 0.475465 255 0 255 
-0.379672 -1.07073 5.49424 0.454402 255 0 255 
-0.335798 -1.0652 5.50632 0.443811 255 0 255 
-0.354803 -1.06702 5.49059 0.425464 255 0 255 
-0.330249 -1.06314 5.48701 0.433456 255 0 255 
-0.373702 -1.06976 5.47488 0.42788 255 0 255 
-0.310988 -1.06163 5.50279 0.495024 255 0 255 
-0.314621 -1.06498 5.52001 0.461246 255 0 255 
-0.339446 -1.06755 5.5234 0.416801 255 0 255 
-0.347241 -1.06422 5.46873 0.368249 255 0 255 
-0.365082 -1.06788 5.45531 0.357785 255 0 255 
-0.354122 -1.02338 5.16824 0.493116 255 0 255 
-0.353351 -1.03368 5.19263 0.541224 255 0 255 
-0.35295 -1.04435 5.21687 0.537591 255 0 255 
-0.333338 -1.03875 5.19754 0.423315 255 0 255 
-0.373503 -1.03906 5.21215 0.54295 255 0 255 
-0.396263 -1.03251 5.20553 0.5351 255 0 255 
-0.3748 -1.02782 5.18678 0.518265 255 0 255 
-0.397809 -1.02118 5.1803 0.521852 255 0 255 
-0.318029 -1.0464 5.21717 0.470656 255 0 255 
-0.333567 -1.05026 5.23835 0.491781 255 0 255 
-0.313189 -1.05202 5.24275 0.4407 255 0 255 
-0.292914 -1.05359 5.24743 0.422351 255 0 255 
-0.328842 -1.0561 5.26394 0.459359 255 0 255 
-0.350625 -1.05408 5.25869 0.496898 255 0 255 
-0.370051 -1.04785 5.23724 0.557244 255 0 255 
-0.377117 -1.0619 5.29015 0.505444 255 0 255 
-0.389043 -1.05393 5.26291 0.504766 255 0 255 
-0.400946 -1.04576 5.23573 0.541436 255 0 255 
-0.41083 -1.05076 5.25597 0.435965 255 0 255 
-0.368535 -1.05637 5.26908 0.440036 255 0 255 
-0.431464 -1.03988 5.23324 0.435276 255 0 255 
-0.417296 -1.03323 5.21453 0.499646 255 0 255 
-0.438201 -1.02623 5.20687 0.437738 255 0 255 
-0.459201 -1.01937 5.19874 0.442761 255 0 255 
-0.424384 -1.02 5.18806 0.502149 255 0 255 
-0.227615 -0.576417 5.30304 0.252823 255 0 255 
-0.242042 -0.577667 5.29114 0.302633 255 0 255 
-0.255431 -0.578528 5.27833 0.280625 255 0 255 
-0.227334 -0.591546 5.289 0.298929 255 0 255 
-0.24109 -0.592379 5.27625 0.286999 255 0 255 
-0.268336 -0.578304 5.26512 0.297811 255 0 255 
-0.28104 -0.577543 5.2513 0.308417 255 0 255 
-0.284679 -0.559973 5.26699 0.279772 255 0 255 
-0.271699 -0.56052 5.28085 0.280127 255 0 255 
-0.249429 -0.59777 5.25788 0.298292 255 0 255 
-0.223134 -0.60775 5.2704 0.269997 255 0 255 
-0.234441 -0.608389 5.25692 0.327579 255 0 255 
-0.26049 -0.597759 5.24491 0.311088 255 0 255 
-0.270876 -0.596995 5.23112 0.31506 255 0 255 
-0.313525 -0.590771 5.2186 0.262181 255 0 255 
-0.307889 -0.57929 5.23665 0.271466 255 0 255 
-0.288324 -0.589458 5.23419 0.229961 255 0 255 
-0.294893 -0.5998 5.2161 0.207445 255 0 255 
-0.325203 -0.567253 5.23923 0.292629 255 0 255 
-0.313098 -0.560868 5.25237 0.327342 255 0 255 
-0.300586 -0.554065 5.26487 0.319925 255 0 255 
-0.106342 -0.649961 5.39218 0.364301 255 0 255 
-0.126312 -0.635676 5.37959 0.386843 255 0 255 
-0.144678 -0.621785 5.36747 0.465458 255 0 255 
-0.161976 -0.607568 5.35548 0.489218 255 0 255 
-0.156608 -0.593286 5.36677 0.411629 255 0 255 
-0.139475 -0.60752 5.37869 0.507258 255 0 255 
-0.111997 -0.661719 5.38022 0.337322 255 0 255 
-0.131452 -0.64939 5.3669 0.35975 255 0 255 
-0.149874 -0.636865 5.35443 0.407906 255 0 255 
-0.165746 -0.624319 5.34062 0.478852 255 0 255 
-0.212998 -0.585355 5.317 0.328036 255 0 255 
-0.197337 -0.593197 5.3304 0.416545 255 0 255 
-0.224539 -0.557066 5.31818 0.279273 255 0 255 
-0.209807 -0.566386 5.33178 0.331737 255 0 255 
-0.18019 -0.600769 5.34297 0.475949 255 0 255 
-0.219205 -0.53589 5.33255 0.358337 255 0 255 
-0.191912 -0.570755 5.34823 0.405875 255 0 255 
-0.204334 -0.54726 5.3458 0.427503 255 0 255 
-0.173994 -0.579767 5.35957 0.442782 255 0 255 
-0.256958 -0.558933 5.2944 0.299788 255 0 255 
-0.284426 -0.538388 5.28301 0.304765 255 0 255 
-0.269538 -0.537489 5.29705 0.313375 255 0 255 
-0.253432 -0.537781 5.30937 0.318901 255 0 255 
-0.239932 -0.55119 5.31161 0.328896 255 0 255 
-0.316587 -0.538197 5.26946 0.336595 255 0 255 
-0.330652 -0.545981 5.2555 0.340372 255 0 255 
-0.345867 -0.537251 5.25283 0.344889 255 0 255 
-0.331793 -0.529567 5.26682 0.321211 255 0 255 
-0.346869 -0.520308 5.26354 0.246861 255 0 255 
-0.299632 -0.530921 5.2815 0.341177 255 0 255 
-0.342386 -0.485051 5.28374 0.272164 255 0 255 
-0.325496 -0.486758 5.29161 0.243607 255 0 255 
-0.310471 -0.496146 5.2944 0.280713 255 0 255 
-0.293415 -0.496857 5.30095 0.344772 255 0 255 
-0.278507 -0.505659 5.30219 0.338597 255 0 255 
-0.313705 -0.513611 5.28491 0.352854 255 0 255 
-0.328701 -0.50403 5.28245 0.288428 255 0 255 
-0.344955 -0.503051 5.27438 0.267511 255 0 255 
-0.259922 -0.497579 5.32002 0.360129 255 0 255 
-0.247522 -0.513724 5.324 0.279834 255 0 255 
-0.232623 -0.521745 5.33134 0.33679 255 0 255 
-0.115532 -0.672694 5.36676 0.377278 255 0 255 
-0.13482 -0.661206 5.35264 0.379774 255 0 255 
-0.152074 -0.649705 5.33828 0.486201 255 0 255 
-0.167314 -0.637035 5.32665 0.460986 255 0 255 
-0.133518 -0.670323 5.33745 0.349266 255 0 255 
-0.115156 -0.681892 5.35062 0.404467 255 0 255 
-0.209821 -0.619531 5.28169 0.279974 255 0 255 
-0.197023 -0.627046 5.29712 0.355931 255 0 255 
-0.182658 -0.6321 5.31192 0.3459 255 0 255 
-0.213449 -0.604739 5.29897 0.311024 255 0 255 
-0.19908 -0.612213 5.31378 0.356174 255 0 255 
-0.182938 -0.618339 5.32732 0.416356 255 0 255 
-0.1968 -0.635882 5.23079 0.501477 255 0 255 
-0.20681 -0.637888 5.20269 0.420335 255 0 255 
-0.191347 -0.641857 5.20867 0.350587 255 0 255 
-0.174948 -0.644463 5.21433 0.390394 255 0 255 
-0.216773 -0.639206 5.17481 0.408501 255 0 255 
-0.223517 -0.632959 5.1981 0.348204 255 0 255 
-0.23938 -0.626793 5.19319 0.284951 255 0 255 
-0.164236 -0.645632 5.19416 0.334347 255 0 255 
-0.152391 -0.644875 5.17342 0.360447 255 0 255 
-0.142158 -0.645333 5.19986 0.373516 255 0 255 
-0.174018 -0.644788 5.16833 0.374871 255 0 255 
-0.195874 -0.642591 5.16412 0.381052 255 0 255 
-0.215641 -0.658603 5.12078 0.443292 255 0 255 
-0.226337 -0.651753 5.13959 0.329223 255 0 255 
-0.237329 -0.644762 5.15904 0.443589 255 0 255 
-0.246782 -0.650823 5.13645 0.357633 255 0 255 
-0.205483 -0.650609 5.14218 0.416186 255 0 255 
-0.1845 -0.648847 5.14522 0.446696 255 0 255 
-0.263039 -0.645091 5.14709 0.415195 255 0 255 
-0.264316 -0.636884 5.16455 0.390373 255 0 255 
-0.280433 -0.635085 5.16163 0.371633 255 0 255 
-0.238165 -0.635703 5.17534 0.320641 255 0 255 
-0.109119 -0.642334 5.18965 0.359483 255 0 255 
-0.0884289 -0.640734 5.18472 0.398763 255 0 255 
-0.110571 -0.643003 5.16143 0.367826 255 0 255 
-0.0903579 -0.642633 5.15714 0.336233 255 0 255 
-0.0705247 -0.643239 5.15317 0.336834 255 0 255 
-0.0684579 -0.641423 5.18048 0.455416 255 0 255 
-0.0476508 -0.641196 5.17742 0.517928 255 0 255 
-0.0925232 -0.644434 5.12971 0.393662 255 0 255 
-0.112776 -0.643535 5.13399 0.473665 255 0 255 
-0.132706 -0.642935 5.13917 0.443366 255 0 255 
-0.131673 -0.643817 5.16693 0.363242 255 0 255 
-0.153607 -0.644263 5.14605 0.414177 255 0 255 
-0.0231952 -0.641661 5.17249 0.477647 255 0 255 
-0.00942211 -0.643368 5.15591 0.397909 255 0 255 
0.0143195 -0.64469 5.15181 0.386317 255 0 255 
-0.00729914 -0.647005 5.12764 0.422665 255 0 255 
-0.0319009 -0.645375 5.1318 0.506953 255 0 255 
-0.0570073 -0.644644 5.13629 0.429003 255 0 255 
-0.0609443 -0.666152 5.07837 0.429689 255 0 255 
-0.0747356 -0.660192 5.09178 0.363906 255 0 255 
-0.0997245 -0.658535 5.09672 0.386359 255 0 255 
-0.114209 -0.653597 5.11137 0.438713 255 0 255 
-0.135034 -0.661392 5.09392 0.383884 255 0 255 
-0.0779361 -0.649565 5.11512 0.378419 255 0 255 
-0.0536082 -0.650992 5.11022 0.42418 255 0 255 
-0.029519 -0.652725 5.10574 0.479615 255 0 255 
-0.155081 -0.659621 5.09927 0.413669 255 0 255 
-0.175823 -0.659291 5.10617 0.518544 255 0 255 
-0.153464 -0.651199 5.12175 0.506573 255 0 255 
-0.195979 -0.658952 5.11335 0.419069 255 0 255 
-0.133578 -0.651937 5.11611 0.444654 255 0 255 
-0.279897 -0.626644 5.17939 0.377031 255 0 255 
-0.279372 -0.61754 5.19711 0.248773 255 0 255 
-0.295749 -0.623804 5.17617 0.375208 255 0 255 
-0.2631 -0.619435 5.19948 0.378709 255 0 255 
-0.298066 -0.610184 5.19861 0.272139 255 0 255 
-0.275206 -0.60765 5.21431 0.19728 255 0 255 
-0.239891 -0.613461 5.23918 0.344461 255 0 255 
-0.214312 -0.621612 5.25233 0.353367 255 0 255 
-0.246128 -0.616919 5.22109 0.425704 255 0 255 
-0.219002 -0.626251 5.23464 0.463886 255 0 255 
-0.289021 -0.651454 5.13611 0.395798 255 0 255 
-0.287724 -0.662886 5.11921 0.342246 255 0 255 
-0.303659 -0.663488 5.11543 0.285095 255 0 255 
-0.305467 -0.652334 5.13284 0.309431 255 0 255 
-0.321816 -0.652565 5.12917 0.268681 255 0 255 
-0.256066 -0.664005 5.11666 0.385904 255 0 255 
-0.236011 -0.661722 5.11879 0.35662 255 0 255 
-0.245824 -0.675306 5.10001 0.377393 255 0 255 
-0.266395 -0.677025 5.09731 0.439401 255 0 255 
-0.293338 -0.707597 5.07165 0.39714 255 0 255 
-0.305328 -0.693722 5.08462 0.299864 255 0 255 
-0.317626 -0.679766 5.09852 0.354053 255 0 255 
-0.32691 -0.696043 5.08223 0.33614 255 0 255 
-0.296288 -0.677118 5.10033 0.354186 255 0 255 
-0.284689 -0.690581 5.08603 0.324639 255 0 255 
-0.345099 -0.688249 5.08972 0.388823 255 0 255 
-0.347596 -0.67459 5.10392 0.400514 255 0 255 
-0.365437 -0.675757 5.10016 0.326839 255 0 255 
-0.319587 -0.66586 5.11302 0.327079 255 0 255 
-0.367213 -0.631435 5.14922 0.348932 255 0 255 
-0.350317 -0.631074 5.15264 0.376168 255 0 255 
-0.37314 -0.641811 5.13657 0.298997 255 0 255 
-0.391003 -0.642203 5.13359 0.242514 255 0 255 
-0.396737 -0.652489 5.12109 0.233985 255 0 255 
-0.32159 -0.614959 5.18275 0.302788 255 0 255 
-0.322685 -0.628293 5.16444 0.368771 255 0 255 
-0.296312 -0.635949 5.15834 0.364612 255 0 255 
-0.32292 -0.640753 5.14698 0.356288 255 0 255 
-0.338608 -0.654189 5.12624 0.385109 255 0 255 
-0.355668 -0.655915 5.12295 0.329992 255 0 255 
-0.372918 -0.656584 5.11949 0.351044 255 0 255 
0.106415 -0.705866 5.28868 0.397651 255 0 255 
0.114165 -0.725353 5.30481 0.376585 255 0 255 
0.0933763 -0.722465 5.30997 0.3861 255 0 255 
0.0857585 -0.703923 5.29414 0.365678 255 0 255 
0.100905 -0.742521 5.32564 0.395755 255 0 255 
0.0718683 -0.720053 5.31384 0.363382 255 0 255 
0.0800896 -0.739693 5.32912 0.439281 255 0 255 
0.0597553 -0.738284 5.3334 0.387062 255 0 255 
0.0632672 -0.70194 5.29815 0.364367 255 0 255 
0.0507604 -0.718998 5.31785 0.389492 255 0 255 
0.0415492 -0.70127 5.30207 0.392895 255 0 255 
0.0877677 -0.760422 5.34415 0.561239 255 0 255 
0.0678389 -0.758719 5.34833 0.634808 255 0 255 
0.0750357 -0.779906 5.36266 0.582949 255 0 255 
0.0928495 -0.781122 5.35841 0.479043 255 0 255 
0.105991 -0.762627 5.33988 0.420683 255 0 255 
0.110203 -0.783237 5.35395 0.31562 255 0 255 
0.123772 -0.764839 5.33405 0.316668 255 0 255 
0.119234 -0.744899 5.31974 0.342505 255 0 255 
0.127867 -0.785136 5.34819 0.399901 255 0 255 
0.0197998 -0.719054 5.32589 0.508872 255 0 255 
0.00843395 -0.701781 5.31036 0.427243 255 0 255 
0.0307934 -0.737717 5.34131 0.54951 255 0 255 
-0.00137308 -0.736989 5.34975 0.590532 255 0 255 
-0.0131936 -0.719042 5.3344 0.542914 255 0 255 
-0.0255722 -0.702383 5.31931 0.652079 255 0 255 
0.0250294 -0.757385 5.36009 0.584023 255 0 255 
0.0179238 -0.777348 5.37826 0.544274 255 0 255 
0.0464499 -0.778407 5.37015 0.609581 255 0 255 
0.0230133 -0.867311 5.41655 0.565923 255 0 255 
0.0372075 -0.846021 5.40365 0.517504 255 0 255 
0.0498223 -0.869886 5.40849 0.541859 255 0 255 
0.0505463 -0.82385 5.39028 0.562474 255 0 255 
0.0641798 -0.847876 5.39587 0.512978 255 0 255 
0.0776584 -0.825571 5.38299 0.540007 255 0 255 
0.0768172 -0.87167 5.40121 0.516135 255 0 255 
0.0633137 -0.802085 5.37674 0.597317 255 0 255 
0.0347481 -0.800088 5.38439 0.596904 255 0 255 
0.0219876 -0.821764 5.39819 0.537749 255 0 255 
0.0950954 -0.849929 5.38778 0.58336 255 0 255 
0.110009 -0.872831 5.38994 0.640856 255 0 255 
0.112397 -0.82823 5.37286 0.589225 255 0 255 
0.111716 -0.805862 5.36378 0.494904 255 0 255 
0.0944377 -0.803831 5.36875 0.582265 255 0 255 
0.0953135 -0.826834 5.37842 0.397752 255 0 255 
-0.12951 -0.65042 5.21366 0.368085 255 0 255 
-0.128687 -0.656703 5.23243 0.414172 255 0 255 
-0.152728 -0.651169 5.22304 0.359448 255 0 255 
-0.15186 -0.656877 5.24152 0.356717 255 0 255 
-0.127164 -0.661375 5.25104 0.385438 255 0 255 
-0.12468 -0.665394 5.26915 0.351605 255 0 255 
-0.10208 -0.662957 5.26105 0.396525 255 0 255 
-0.104451 -0.65802 5.24278 0.441348 255 0 255 
-0.105861 -0.652682 5.22386 0.382417 255 0 255 
-0.0806067 -0.66159 5.2536 0.436559 255 0 255 
-0.174418 -0.648639 5.23566 0.252016 255 0 255 
-0.172777 -0.651396 5.2566 0.370851 255 0 255 
-0.153729 -0.659671 5.26594 0.357281 255 0 255 
-0.144767 -0.662618 5.28245 0.337946 255 0 255 
-0.0783862 -0.703294 5.34163 0.379993 255 0 255 
-0.0907573 -0.692513 5.32358 0.391586 255 0 255 
-0.102885 -0.682571 5.30539 0.414965 255 0 255 
-0.0612064 -0.703311 5.33187 0.507788 255 0 255 
-0.114239 -0.673805 5.2874 0.413055 255 0 255 
-0.0668383 -0.692358 5.3129 0.510347 255 0 255 
-0.0721143 -0.681634 5.29308 0.475125 255 0 255 
-0.0399941 -0.690714 5.30262 0.620346 255 0 255 
-0.0767767 -0.671458 5.27325 0.375264 255 0 255 
0.0368735 -0.648607 5.17975 0.38535 255 0 255 
0.0125082 -0.646949 5.18324 0.426762 255 0 255 
0.0242924 -0.651473 5.1991 0.403111 255 0 255 
-0.0117845 -0.645801 5.18763 0.518172 255 0 255 
-0.000418324 -0.650144 5.20285 0.389711 255 0 255 
-0.0257293 -0.649749 5.20719 0.53814 255 0 255 
-0.0368061 -0.645674 5.19243 0.556295 255 0 255 
0.0114414 -0.654904 5.21838 0.335832 255 0 255 
-0.0143389 -0.654157 5.22251 0.413228 255 0 255 
-0.002409 -0.658682 5.2376 0.36944 255 0 255 
0.0464771 -0.659498 5.22861 0.489996 255 0 255 
0.0587508 -0.656389 5.2095 0.442301 255 0 255 
-0.0772844 -0.646614 5.20019 0.465545 255 0 255 
-0.0648784 -0.651226 5.21522 0.535647 255 0 255 
-0.0974396 -0.646866 5.20423 0.353048 255 0 255 
-0.0855234 -0.651902 5.21961 0.403555 255 0 255 
-0.0728561 -0.656441 5.23479 0.430849 255 0 255 
-0.041603 -0.659464 5.24472 0.567 255 0 255 
-0.00366598 -0.690298 5.2945 0.47342 255 0 255 
-0.0163976 -0.680643 5.27853 0.45588 255 0 255 
0.0193663 -0.678584 5.26963 0.505116 255 0 255 
0.0305932 -0.689701 5.28592 0.424608 255 0 255 
-0.009837 -0.669655 5.25802 0.432687 255 0 255 
-0.0481826 -0.669689 5.26582 0.559679 255 0 255 
0.0537523 -0.691353 5.28251 0.378821 255 0 255 
0.076543 -0.692462 5.27845 0.401486 255 0 255 
0.0673255 -0.682034 5.26258 0.40619 255 0 255 
0.0975311 -0.693831 5.27329 0.434328 255 0 255 
0.0884757 -0.683003 5.25723 0.484342 255 0 255 
0.0797628 -0.672729 5.24143 0.487166 255 0 255 
0.0567936 -0.670517 5.24564 0.415047 255 0 255 
0.0327214 -0.669034 5.24954 0.463342 255 0 255 
0.0435492 -0.679987 5.26635 0.403925 255 0 255 
-0.188307 -0.642215 5.24791 0.385479 255 0 255 
-0.187036 -0.642692 5.2727 0.343715 255 0 255 
-0.169125 -0.652461 5.2811 0.344874 255 0 255 
-0.158253 -0.65615 5.29791 0.450335 255 0 255 
-0.201702 -0.632202 5.26467 0.309849 255 0 255 
-0.178512 -0.643676 5.29674 0.370978 255 0 255 
-0.145082 -0.665538 5.31445 0.39349 255 0 255 
-0.119494 -0.679818 5.31765 0.423018 255 0 255 
-0.132968 -0.671447 5.30013 0.342673 255 0 255 
-0.0390231 -0.719129 5.34333 0.571937 255 0 255 
-0.026245 -0.73669 5.35853 0.511245 255 0 255 
-0.0150702 -0.756366 5.37315 0.594506 255 0 255 
-0.0140833 -0.776312 5.39012 0.515558 255 0 255 
-0.0439112 -0.73702 5.36569 0.514306 255 0 255 
-0.060542 -0.718809 5.35338 0.438895 255 0 255 
-0.036723 -0.756269 5.38262 0.516599 255 0 255 
-0.0313718 -0.777088 5.39895 0.370436 255 0 255 
-0.0329769 -0.868026 5.43701 0.425232 255 0 255 
-0.0260618 -0.844262 5.42619 0.458705 255 0 255 
-0.0208608 -0.821047 5.4148 0.374752 255 0 255 
-0.0106472 -0.866338 5.42828 0.467729 255 0 255 
-0.0169561 -0.798197 5.40275 0.421009 255 0 255 
-0.00214231 -0.843537 5.41639 0.536249 255 0 255 
0.0122341 -0.79877 5.39138 0.480881 255 0 255 
-0.0025501 -0.820925 5.40719 0.398555 255 0 255 
-0.0616392 -0.734541 5.37775 0.337901 255 0 255 
-0.0448818 -0.820017 5.42946 0.300214 255 0 255 
-0.0502125 -0.867136 5.44697 0.303577 255 0 255 
-0.0467332 -0.79687 5.42146 0.378019 255 0 255 
-0.0436202 -0.843932 5.43589 0.32575 255 0 255 
0.0735325 -0.988202 5.3699 0.377016 255 0 255 
0.063922 -0.975016 5.38249 0.489921 255 0 255 
0.0925481 -0.960924 5.38063 0.565618 255 0 255 
0.0830852 -0.947423 5.39292 0.733566 255 0 255 
0.0542824 -0.961869 5.39459 0.40277 255 0 255 
0.0454375 -0.948345 5.40615 0.460992 255 0 255 
0.0204201 -0.977014 5.39639 0.446323 255 0 255 
0.0299154 -0.990183 5.38459 0.418371 255 0 255 
0.0399506 -1.00303 5.37226 0.428777 255 0 255 
-0.00483691 -1.00456 5.38548 0.507581 255 0 255 
0.109347 -0.928523 5.38484 0.506612 255 0 255 
0.0984197 -0.910067 5.3912 0.402712 255 0 255 
0.121032 -0.892438 5.38381 0.453137 255 0 255 
0.0872047 -0.891434 5.39725 0.444218 255 0 255 
0.0694079 -0.891676 5.4031 0.526183 255 0 255 
0.0798333 -0.910477 5.3983 0.453633 255 0 255 
0.0616281 -0.910576 5.40437 0.636388 255 0 255 
0.0138696 -0.887722 5.41945 0.43413 255 0 255 
0.0195828 -0.908407 5.41717 0.377644 255 0 255 
0.00959985 -0.927975 5.419 0.361776 255 0 255 
0.0146853 -0.947595 5.4159 0.437187 255 0 255 
-0.0169868 -0.946745 5.42527 0.385322 255 0 255 
0.0397811 -0.92905 5.40942 0.498657 255 0 255 
0.0424937 -0.889164 5.41066 0.63222 255 0 255 
-0.0333496 -0.961229 5.4212 0.317997 255 0 255 
-0.0492546 -0.974842 5.41661 0.329639 255 0 255 
-0.0115187 -0.976016 5.40593 0.434184 255 0 255 
-0.0271192 -0.989869 5.40111 0.360134 255 0 255 
-0.0430088 -1.00282 5.396 0.395911 255 0 255 
-0.0660361 -0.987291 5.41218 0.37914 255 0 255 
-0.0829367 -0.999153 5.40765 0.471952 255 0 255 
-0.0706368 -0.97262 5.42325 0.351713 255 0 255 
-0.0535032 -0.959881 5.4275 0.294274 255 0 255 
-0.0370995 -0.945983 5.43147 0.300818 255 0 255 
-0.0579939 -0.944443 5.43786 0.295773 255 0 255 
-0.0759069 -0.957897 5.43431 0.309249 255 0 255 
-0.0935629 -0.970671 5.43052 0.36654 255 0 255 
-0.0888662 -0.984684 5.41911 0.414177 255 0 255 
-0.105999 -0.996867 5.41488 0.47614 255 0 255 
-0.110565 -0.983279 5.42643 0.377684 255 0 255 
-0.126843 -0.99549 5.42227 0.429119 255 0 255 
-0.00420166 -0.907581 5.42486 0.393287 255 0 255 
-0.0212517 -0.886926 5.43175 0.440242 255 0 255 
-0.0332743 -0.906887 5.4344 0.388846 255 0 255 
-0.0248299 -0.927093 5.42999 0.382215 255 0 255 
-0.0458426 -0.9262 5.43641 0.31068 255 0 255 
-0.0457118 -0.888327 5.44052 0.38327 255 0 255 
-0.0585145 -0.907503 5.44311 0.275075 255 0 255 
-0.0703786 -0.92628 5.44542 0.295496 255 0 255 
-0.082741 -0.94412 5.44703 0.278484 255 0 255 
-0.10052 -0.957754 5.44394 0.314059 255 0 255 
-0.117924 -0.970423 5.44028 0.313277 255 0 255 
-0.13449 -0.983242 5.43719 0.333773 255 0 255 
-0.150645 -0.995752 5.43397 0.306247 255 0 255 
-0.103735 -0.945316 5.46051 0.288109 255 0 255 
-0.0757642 -0.906896 5.45332 0.229533 255 0 255 
-0.0632446 -0.887342 5.4504 0.239856 255 0 255 
-0.169174 -0.998185 5.44766 0.269297 255 0 255 
-0.152941 -0.984994 5.4501 0.271301 255 0 255 
-0.138735 -0.972153 5.45569 0.290887 255 0 255 
-0.118428 -0.958626 5.45522 0.261986 255 0 255 
-0.276873 -1.04759 5.36698 0.351231 255 0 255 
-0.295082 -1.05261 5.34366 0.306119 255 0 255 
-0.312873 -1.05831 5.32066 0.426622 255 0 255 
-0.315859 -1.05734 5.33934 0.375121 255 0 255 
-0.292189 -1.05341 5.32492 0.420703 255 0 255 
-0.272769 -1.04934 5.33104 0.387933 255 0 255 
-0.27504 -1.04824 5.349 0.28971 255 0 255 
-0.255451 -1.04453 5.35504 0.420078 255 0 255 
-0.340621 -1.06136 5.32009 0.381008 255 0 255 
-0.334925 -1.05904 5.29998 0.42467 255 0 255 
-0.355823 -1.0605 5.29497 0.521825 255 0 255 
-0.31899 -1.05644 5.29043 0.41779 255 0 255 
-0.283639 -1.05379 5.274 0.516739 255 0 255 
-0.274436 -1.0541 5.30058 0.456859 255 0 255 
-0.261926 -1.05293 5.27954 0.375736 255 0 255 
-0.29614 -1.05513 5.29529 0.460995 255 0 255 
-0.305791 -1.05495 5.26882 0.453062 255 0 255 
-0.240057 -1.04976 5.30091 0.474611 255 0 255 
-0.250101 -1.04765 5.32056 0.461263 255 0 255 
-0.227527 -1.04475 5.32687 0.426391 255 0 255 
-0.204478 -1.04236 5.33308 0.432655 255 0 255 
-0.237445 -1.04315 5.34647 0.408781 255 0 255 
-0.247918 -1.03398 5.42855 0.252953 255 0 255 
-0.225878 -1.02367 5.43052 0.318174 255 0 255 
-0.208446 -1.01614 5.43724 0.430444 255 0 255 
-0.191222 -1.00729 5.4444 0.368917 255 0 255 
-0.281111 -1.04275 5.4106 0.294925 255 0 255 
-0.292358 -1.04782 5.39762 0.426574 255 0 255 
-0.30918 -1.05405 5.38892 0.476851 255 0 255 
-0.260026 -1.03724 5.41521 0.268077 255 0 255 
-0.262549 -1.04167 5.37616 0.383914 255 0 255 
-0.247643 -1.0364 5.38556 0.306266 255 0 255 
-0.243713 -1.03303 5.40279 0.273118 255 0 255 
-0.228113 -1.02874 5.4122 0.285016 255 0 255 
-0.265301 -1.03915 5.39758 0.344421 255 0 255 
-0.201386 -1.01898 5.41183 0.398787 255 0 255 
-0.184788 -1.01144 5.41897 0.38356 255 0 255 
-0.168072 -1.00349 5.42646 0.331154 255 0 255 
-0.386223 -1.06864 5.44831 0.389091 255 0 255 
-0.410251 -1.07012 5.44765 0.453401 255 0 255 
-0.395012 -1.07 5.46777 0.439762 255 0 255 
-0.43427 -1.07168 5.44697 0.396915 255 0 255 
-0.458666 -1.07304 5.44659 0.439706 255 0 255 
-0.445702 -1.07407 5.42541 0.346659 255 0 255 
-0.421521 -1.07198 5.42598 0.407492 255 0 255 
-0.402398 -1.06965 5.48738 0.395622 255 0 255 
-0.425064 -1.06918 5.48062 0.509548 255 0 255 
-0.431223 -1.06864 5.49958 0.489315 255 0 255 
-0.408404 -1.06923 5.50628 0.565491 255 0 255 
-0.45092 -1.06882 5.48342 0.46971 255 0 255 
-0.476733 -1.06851 5.486 0.527321 255 0 255 
-0.467809 -1.07096 5.46646 0.426007 255 0 255 
-0.441924 -1.07093 5.46362 0.486743 255 0 255 
-0.561121 -1.05905 5.45134 0.472338 255 0 255 
-0.53579 -1.06208 5.44986 0.429925 255 0 255 
-0.548659 -1.06283 5.43161 0.409667 255 0 255 
-0.510246 -1.06576 5.44852 0.399234 255 0 255 
-0.523086 -1.06621 5.4302 0.375864 255 0 255 
-0.497366 -1.06956 5.42885 0.355312 255 0 255 
-0.535788 -1.06663 5.41152 0.330353 255 0 255 
-0.48457 -1.06944 5.44757 0.381748 255 0 255 
-0.493458 -1.06719 5.4673 0.462582 255 0 255 
-0.519326 -1.06312 5.46851 0.446565 255 0 255 
-0.512236 -1.06856 5.41303 0.306333 255 0 255 
-0.524351 -1.06823 5.39676 0.26376 255 0 255 
-0.500784 -1.07018 5.39834 0.265086 255 0 255 
-0.482763 -1.07128 5.40722 0.330212 255 0 255 
-0.512772 -1.06958 5.38185 0.261865 255 0 255 
-0.464875 -1.07234 5.41631 0.411774 255 0 255 
-0.0279779 -1.04778 5.29943 0.296766 255 0 255 
-0.038403 -1.04389 5.31649 0.326011 255 0 255 
-0.00219211 -1.03954 5.32028 0.278058 255 0 255 
-0.0127199 -1.03586 5.33737 0.327005 255 0 255 
-0.0498821 -1.03985 5.33336 0.367619 255 0 255 
-0.0613234 -1.03501 5.35012 0.437749 255 0 255 
-0.0912616 -1.04149 5.32891 0.340957 255 0 255 
-0.0785388 -1.0468 5.31213 0.351985 255 0 255 
-0.0671663 -1.05123 5.29532 0.36047 255 0 255 
-0.120497 -1.04813 5.30849 0.422211 255 0 255 
0.0255694 -1.02739 5.33963 0.287997 255 0 255 
0.0154948 -1.01993 5.35518 0.41022 255 0 255 
0.0498269 -1.01065 5.35648 0.33374 255 0 255 
0.00512863 -1.01243 5.37048 0.440809 255 0 255 
-0.0337557 -1.02023 5.36769 0.467759 255 0 255 
-0.0230334 -1.02833 5.35255 0.404825 255 0 255 
-0.0955526 -1.01474 5.38462 0.374173 255 0 255 
-0.116988 -1.01249 5.3906 0.432348 255 0 255 
-0.0720888 -1.01749 5.37876 0.417741 255 0 255 
-0.106225 -1.03036 5.36202 0.418163 255 0 255 
-0.127942 -1.02791 5.3682 0.342444 255 0 255 
-0.148539 -1.02593 5.37401 0.470846 255 0 255 
-0.0830114 -1.03322 5.35573 0.372276 255 0 255 
-0.157741 -1.03481 5.3475 0.462449 255 0 255 
-0.177619 -1.0334 5.35343 0.58276 255 0 255 
-0.13627 -1.03669 5.34143 0.348779 255 0 255 
-0.165971 -1.04431 5.32122 0.592171 255 0 255 
-0.185691 -1.04324 5.32725 0.429755 255 0 255 
-0.144109 -1.04596 5.31507 0.490892 255 0 255 
-0.113914 -1.03913 5.33518 0.391598 255 0 255 
-0.198742 -1.03271 5.3619 0.51008 255 0 255 
-0.170746 -1.02521 5.38248 0.507913 255 0 255 
-0.191592 -1.02477 5.39088 0.445231 255 0 255 
-0.206569 -1.02881 5.3809 0.291602 255 0 255 
-0.220957 -1.03345 5.37087 0.37747 255 0 255 
-0.212835 -1.03753 5.35191 0.395153 255 0 255 
-0.138579 -1.01022 5.39833 0.444227 255 0 255 
-0.143879 -1.00286 5.41455 0.368451 255 0 255 
-0.160251 -1.01026 5.40646 0.350433 255 0 255 
-0.155088 -1.01742 5.39025 0.371072 255 0 255 
-0.176254 -1.01761 5.39866 0.390045 255 0 255 
-0.2255 -1.03035 5.39129 0.379244 255 0 255 
-0.241039 -1.03877 5.36456 0.350588 255 0 255 
-0.126215 -1.05473 5.21138 0.283842 255 0 255 
-0.14174 -1.055 5.22918 0.30968 255 0 255 
-0.103655 -1.056 5.23307 0.333911 255 0 255 
-0.118705 -1.05629 5.25065 0.411227 255 0 255 
-0.158335 -1.05454 5.24724 0.364513 255 0 255 
-0.174695 -1.05373 5.26534 0.4199 255 0 255 
-0.196882 -1.05319 5.24396 0.373677 255 0 255 
-0.182121 -1.05359 5.22607 0.309473 255 0 255 
-0.165981 -1.05398 5.20794 0.280244 255 0 255 
-0.218454 -1.05306 5.22267 0.317392 255 0 255 
-0.0795143 -1.05538 5.2552 0.32201 255 0 255 
-0.091789 -1.05381 5.27277 0.382259 255 0 255 
-0.0543369 -1.05291 5.27747 0.307448 255 0 255 
-0.105772 -1.05135 5.29075 0.465295 255 0 255 
-0.148452 -1.0504 5.28694 0.635514 255 0 255 
-0.132738 -1.05383 5.26865 0.503438 255 0 255 
-0.209754 -1.04738 5.30559 0.499833 255 0 255 
-0.190401 -1.04801 5.29943 0.450815 255 0 255 
-0.214886 -1.05284 5.27817 0.395457 255 0 255 
-0.233479 -1.0526 5.28424 0.399182 255 0 255 
-0.18288 -1.05088 5.28251 0.333568 255 0 255 
-0.253882 -1.05299 5.26255 0.441848 255 0 255 
-0.235617 -1.05283 5.25661 0.378726 255 0 255 
-0.256207 -1.05338 5.23501 0.352874 255 0 255 
-0.274498 -1.05343 5.24104 0.46085 255 0 255 
-0.227238 -1.05299 5.23964 0.316546 255 0 255 
-0.206224 -1.05316 5.26112 0.355925 255 0 255 
-0.342507 -1.06089 5.39532 0.305335 255 0 255 
-0.358339 -1.06421 5.38726 0.325743 255 0 255 
-0.34363 -1.06175 5.37675 0.550689 255 0 255 
-0.359308 -1.06515 5.36871 0.478241 255 0 255 
-0.375258 -1.06864 5.36069 0.462097 255 0 255 
-0.374291 -1.06734 5.37921 0.362867 255 0 255 
-0.390195 -1.07091 5.37117 0.383294 255 0 255 
-0.360064 -1.06632 5.35011 0.411772 255 0 255 
-0.410118 -1.0698 5.34682 0.452184 255 0 255 
-0.430445 -1.06834 5.32293 0.294143 255 0 255 
-0.433037 -1.07029 5.34315 0.379473 255 0 255 
-0.40743 -1.06779 5.32631 0.341623 255 0 255 
-0.386527 -1.06676 5.33074 0.407899 255 0 255 
-0.360757 -1.06298 5.31511 0.506653 255 0 255 
-0.344406 -1.06366 5.34015 0.503867 255 0 255 
-0.381858 -1.06437 5.31044 0.506915 255 0 255 
-0.40416 -1.06554 5.30627 0.37705 255 0 255 
-0.316173 -1.05645 5.35711 0.421483 255 0 255 
-0.296563 -1.05194 5.36196 0.329473 255 0 255 
-0.432728 -1.07192 5.36365 0.303583 255 0 255 
-0.411309 -1.07148 5.36736 0.250306 255 0 255 
-0.410974 -1.07298 5.38798 0.258831 255 0 255 
-0.43367 -1.07306 5.38429 0.295515 255 0 255 
-0.449659 -1.0725 5.37511 0.265145 255 0 255 
-0.448904 -1.07126 5.35447 0.258469 255 0 255 
-0.464835 -1.07048 5.3453 0.33791 255 0 255 
-0.465861 -1.07178 5.36591 0.299164 255 0 255 
-0.481899 -1.07097 5.35664 0.295009 255 0 255 
-0.357524 -1.06443 5.41139 0.274334 255 0 255 
-0.375406 -1.067 5.40361 0.34107 255 0 255 
-0.393105 -1.06998 5.39583 0.398437 255 0 255 
-0.395979 -1.06962 5.42723 0.38115 255 0 255 
-0.429582 -1.07422 5.40603 0.377091 255 0 255 
-0.372269 -1.06703 5.429 0.303775 255 0 255 
-0.451614 -1.07345 5.40297 0.304556 255 0 255 
-0.469383 -1.07236 5.39368 0.353341 255 0 255 
-0.487172 -1.07129 5.38458 0.323676 255 0 255 
-0.497422 -1.07049 5.36929 0.259212 255 0 255 
-0.546665 -1.05859 5.47462 0.495645 255 0 255 
-0.531919 -1.05836 5.49792 0.499973 255 0 255 
-0.504502 -1.06315 5.49195 0.474525 255 0 255 
-0.489504 -1.06358 5.51542 0.520651 255 0 255 
-0.517083 -1.05846 5.52114 0.555746 255 0 255 
-0.50194 -1.05916 5.54451 0.553928 255 0 255 
-0.547808 -1.05146 5.52545 0.505945 255 0 255 
-0.562468 -1.05181 5.50251 0.556356 255 0 255 
-0.577175 -1.05222 5.47945 0.557342 255 0 255 
-0.592843 -1.04641 5.50699 0.544517 255 0 255 
-0.458816 -1.06734 5.50742 0.570722 255 0 255 
-0.440818 -1.0667 5.52889 0.609114 255 0 255 
-0.417801 -1.06803 5.53572 0.545097 255 0 255 
-0.39466 -1.07062 5.54263 0.448563 255 0 255 
-0.40424 -1.06869 5.57203 0.483723 255 0 255 
-0.428844 -1.06478 5.56513 0.524586 255 0 255 
-0.453234 -1.06213 5.55823 0.506833 255 0 255 
-0.471458 -1.06212 5.53671 0.572022 255 0 255 
-0.447425 -1.05777 5.6232 0.533197 255 0 255 
-0.472531 -1.05471 5.61563 0.493806 255 0 255 
-0.465737 -1.05768 5.59663 0.537481 255 0 255 
-0.497415 -1.05251 5.608 0.453359 255 0 255 
-0.49054 -1.05493 5.58916 0.527291 255 0 255 
-0.515309 -1.05348 5.5819 0.437688 255 0 255 
-0.522101 -1.05144 5.60078 0.404463 255 0 255 
-0.483749 -1.05796 5.57047 0.591004 255 0 255 
-0.508587 -1.05617 5.56325 0.484615 255 0 255 
-0.459415 -1.05966 5.57755 0.482036 255 0 255 
-0.435016 -1.06224 5.58446 0.494339 255 0 255 
-0.44134 -1.05954 5.60364 0.397185 255 0 255 
-0.416752 -1.06274 5.61085 0.497944 255 0 255 
-0.410449 -1.06575 5.59148 0.496004 255 0 255 
-0.422974 -1.06069 5.63041 0.418345 255 0 255 
-0.545018 -1.04774 5.59061 0.500982 255 0 255 
-0.569323 -1.04361 5.58 0.405769 255 0 255 
-0.56124 -1.04648 5.56234 0.595991 255 0 255 
-0.593298 -1.04032 5.56944 0.341882 255 0 255 
-0.58518 -1.04292 5.55201 0.433508 255 0 255 
-0.609002 -1.03996 5.54181 0.389731 255 0 255 
-0.617034 -1.03743 5.55913 0.369371 255 0 255 
-0.577104 -1.04632 5.53466 0.600677 255 0 255 
-0.6009 -1.04296 5.52445 0.434429 255 0 255 
-0.554288 -1.04881 5.54399 0.431658 255 0 255 
-0.531503 -1.052 5.55347 0.535888 255 0 255 
-0.538271 -1.04958 5.57191 0.464339 255 0 255 
-0.0618294 -0.638491 5.43772 0.447775 255 0 255 
-0.0827792 -0.619214 5.42399 0.53401 255 0 255 
-0.103889 -0.601816 5.41109 0.475704 255 0 255 
-0.0722957 -0.649563 5.42548 0.368417 255 0 255 
-0.0935411 -0.631334 5.41071 0.425239 255 0 255 
-0.124168 -0.585295 5.39909 0.528381 255 0 255 
-0.143382 -0.569324 5.38717 0.442203 255 0 255 
-0.131502 -0.554385 5.40062 0.516732 255 0 255 
-0.112817 -0.571563 5.41227 0.589283 255 0 255 
-0.117272 -0.619316 5.39478 0.397122 255 0 255 
-0.21167 -0.515486 5.34599 0.324623 255 0 255 
-0.19609 -0.528726 5.35916 0.356319 255 0 255 
-0.182212 -0.547092 5.3665 0.479402 255 0 255 
-0.201556 -0.497179 5.35799 0.377147 255 0 255 
-0.163692 -0.558424 5.37712 0.520522 255 0 255 
-0.185749 -0.511919 5.37199 0.430229 255 0 255 
-0.167861 -0.524896 5.38379 0.49986 255 0 255 
-0.188864 -0.480448 5.37066 0.423189 255 0 255 
-0.172772 -0.495236 5.38451 0.455669 255 0 255 
-0.148554 -0.537273 5.39449 0.636377 255 0 255 
-0.150655 -0.914947 6.24784 0.448896 255 0 255 
-0.147763 -0.928139 6.21724 0.447124 255 0 255 
-0.173551 -0.916482 6.23573 0.509318 255 0 255 
-0.170821 -0.929774 6.20515 0.479538 255 0 255 
-0.145046 -0.943721 6.18737 0.453868 255 0 255 
-0.142376 -0.959977 6.15775 0.466554 255 0 255 
-0.119565 -0.957398 6.17085 0.4611 255 0 255 
-0.122214 -0.940803 6.20031 0.452023 255 0 255 
-0.125191 -0.925588 6.23035 0.451795 255 0 255 
-0.0966788 -0.954665 6.18365 0.459733 255 0 255 
-0.196432 -0.918328 6.22298 0.493525 255 0 255 
-0.193765 -0.932136 6.19204 0.482828 255 0 255 
-0.219572 -0.919711 6.21059 0.48623 255 0 255 
-0.216972 -0.933736 6.17978 0.470596 255 0 255 
-0.191221 -0.947928 6.16174 0.471026 255 0 255 
-0.188841 -0.965037 6.13167 0.477165 255 0 255 
-0.165535 -0.962808 6.14479 0.473003 255 0 255 
-0.168166 -0.945458 6.17478 0.469237 255 0 255 
-0.128432 -1.00808 6.03054 0.564097 255 0 255 
-0.131933 -0.997596 6.06279 0.489971 255 0 255 
-0.104869 -1.00569 6.04429 0.566976 255 0 255 
-0.135428 -0.985866 6.09496 0.478681 255 0 255 
-0.108519 -0.994994 6.0768 0.515981 255 0 255 
-0.11214 -0.982749 6.10901 0.496468 255 0 255 
-0.0812761 -1.00292 6.0581 0.718121 255 0 255 
-0.138837 -0.973584 6.12662 0.480541 255 0 255 
-0.162319 -0.975487 6.11344 0.474678 255 0 255 
-0.158925 -0.988127 6.08183 0.47319 255 0 255 
-0.0851816 -0.992189 6.09032 0.651568 255 0 255 
-0.0582722 -1.00013 6.07209 0.719203 255 0 255 
-0.0889468 -0.980867 6.12207 0.486288 255 0 255 
-0.0621529 -0.989483 6.10428 0.526753 255 0 255 
-0.06623 -0.977969 6.13604 0.480959 255 0 255 
-0.0353214 -0.996713 6.08574 0.545666 255 0 255 
-0.0927705 -0.968409 6.15316 0.467361 255 0 255 
-0.115707 -0.970899 6.1402 0.458413 255 0 255 
-0.243064 -0.9213 6.19769 0.47212 255 0 255 
-0.240843 -0.935448 6.16616 0.4689 255 0 255 
-0.267171 -0.922476 6.18481 0.461384 255 0 255 
-0.264967 -0.93701 6.15344 0.456466 255 0 255 
-0.238839 -0.951798 6.13535 0.465906 255 0 255 
-0.236913 -0.967762 6.1043 0.460905 255 0 255 
-0.212879 -0.966041 6.11793 0.474338 255 0 255 
-0.214785 -0.94939 6.14877 0.473146 255 0 255 
-0.290656 -0.924212 6.17199 0.442757 255 0 255 
-0.287888 -0.938983 6.14054 0.432472 255 0 255 
-0.313874 -0.92543 6.15956 0.414419 255 0 255 
-0.311184 -0.940054 6.12811 0.400597 255 0 255 
-0.285426 -0.95486 6.10945 0.418379 255 0 255 
-0.28315 -0.970858 6.07843 0.402726 255 0 255 
-0.260013 -0.968983 6.09128 0.43555 255 0 255 
-0.26244 -0.953111 6.12237 0.44735 255 0 255 
-0.222851 -1.01696 5.97639 0.469885 255 0 255 
-0.22644 -1.00659 6.00855 0.423228 255 0 255 
-0.199785 -1.0145 5.98943 0.461321 255 0 255 
-0.230046 -0.994209 6.04044 0.4411 255 0 255 
-0.20358 -1.00389 6.02176 0.469003 255 0 255 
-0.207202 -0.991695 6.05398 0.461291 255 0 255 
-0.17681 -1.01275 6.00259 0.496474 255 0 255 
-0.233498 -0.980775 6.07229 0.45117 255 0 255 
-0.256731 -0.982742 6.05948 0.420332 255 0 255 
-0.253325 -0.995731 6.02785 0.406612 255 0 255 
-0.17996 -1.00218 6.03489 0.489322 255 0 255 
-0.152676 -1.01031 6.01651 0.507396 255 0 255 
-0.183018 -0.990352 6.06732 0.499007 255 0 255 
-0.155845 -0.999582 6.04911 0.507451 255 0 255 
-0.185881 -0.977729 6.09955 0.474132 255 0 255 
-0.210081 -0.979078 6.08599 0.476399 255 0 255 
-0.335571 -0.926777 6.14759 0.379806 255 0 255 
-0.331345 -0.941337 6.11655 0.364186 255 0 255 
-0.355912 -0.927198 6.13641 0.348623 255 0 255 
-0.351872 -0.941997 6.10559 0.325508 255 0 255 
-0.327417 -0.956901 6.08594 0.347748 255 0 255 
-0.323625 -0.972618 6.05546 0.332319 255 0 255 
-0.303344 -0.971883 6.06698 0.36522 255 0 255 
-0.307246 -0.955594 6.09737 0.383209 255 0 255 
-0.375352 -0.928556 6.1257 0.304294 255 0 255 
-0.370345 -0.942904 6.09495 0.310953 255 0 255 
-0.39397 -0.929193 6.11559 0.293214 255 0 255 
-0.388988 -0.943269 6.08483 0.326796 255 0 255 
-0.365382 -0.958595 6.06487 0.310826 255 0 255 
-0.360559 -0.97506 6.03507 0.311521 255 0 255 
-0.34204 -0.973772 6.04531 0.311174 255 0 255 
-0.346858 -0.957303 6.07512 0.322777 255 0 255 
-0.299279 -1.02246 5.93339 0.366003 255 0 255 
-0.305475 -1.01207 5.96429 0.337389 255 0 255 
-0.280961 -1.02131 5.94361 0.362549 255 0 255 
-0.311515 -0.999367 5.99461 0.323326 255 0 255 
-0.287305 -1.01062 5.97457 0.343965 255 0 255 
-0.29353 -0.998031 6.00505 0.345065 255 0 255 
-0.262712 -1.02007 5.95383 0.374302 255 0 255 
-0.317587 -0.986383 6.02499 0.314521 255 0 255 
-0.336088 -0.986982 6.01472 0.314278 255 0 255 
-0.330138 -1.00073 5.98472 0.337259 255 0 255 
-0.268095 -1.00949 5.98508 0.371046 255 0 255 
-0.242827 -1.01826 5.965 0.409837 255 0 255 
-0.273127 -0.997697 6.01632 0.377408 255 0 255 
-0.248108 -1.0078 5.99657 0.407215 255 0 255 
-0.278217 -0.984435 6.04723 0.383253 255 0 255 
-0.298507 -0.984927 6.0358 0.349708 255 0 255 
-0.365498 -1.0708 5.53214 0.433102 255 0 255 
-0.345801 -1.07014 5.55106 0.447419 255 0 255 
-0.319231 -1.06868 5.54254 0.514964 255 0 255 
-0.298546 -1.07036 5.56167 0.426032 255 0 255 
-0.325419 -1.07127 5.57034 0.463673 255 0 255 
-0.304755 -1.07293 5.58939 0.386416 255 0 255 
-0.354861 -1.06938 5.58068 0.422132 255 0 255 
-0.374717 -1.06956 5.56158 0.486836 255 0 255 
-0.271666 -1.06327 5.54771 0.509394 255 0 255 
-0.249332 -1.05641 5.54953 0.531175 255 0 255 
-0.226627 -1.04968 5.55108 0.381967 255 0 255 
-0.204331 -1.04697 5.56446 0.537424 255 0 255 
-0.228179 -1.05725 5.57486 0.537297 255 0 255 
-0.205279 -1.05484 5.58792 0.633216 255 0 255 
-0.252827 -1.06257 5.57519 0.490435 255 0 255 
-0.277228 -1.06748 5.57559 0.436691 255 0 255 
-0.21713 -1.063 5.66434 0.551708 255 0 255 
-0.245714 -1.06378 5.66543 0.58871 255 0 255 
-0.23891 -1.0666 5.64591 0.507876 255 0 255 
-0.267276 -1.06694 5.64667 0.482103 255 0 255 
-0.274246 -1.06388 5.66606 0.593333 255 0 255 
-0.260893 -1.06893 5.62721 0.436112 255 0 255 
-0.295494 -1.06707 5.6472 0.371141 255 0 255 
-0.28907 -1.06957 5.62776 0.324927 255 0 255 
-0.316945 -1.06983 5.62815 0.333741 255 0 255 
-0.302204 -1.06413 5.66647 0.453241 255 0 255 
-0.323328 -1.06773 5.64751 0.330772 255 0 255 
-0.330011 -1.0652 5.66688 0.38879 255 0 255 
-0.282882 -1.07122 5.60821 0.400839 255 0 255 
-0.310729 -1.07166 5.6088 0.301975 255 0 255 
-0.257978 -1.06751 5.60817 0.50853 255 0 255 
-0.232904 -1.06294 5.60779 0.575478 255 0 255 
-0.235614 -1.06501 5.62683 0.47005 255 0 255 
-0.210386 -1.06082 5.62612 0.46554 255 0 255 
-0.207486 -1.05837 5.60703 0.42077 255 0 255 
-0.213373 -1.06268 5.6452 0.462459 255 0 255 
-0.354964 -1.06277 5.66261 0.37738 255 0 255 
-0.348535 -1.06613 5.64283 0.388652 255 0 255 
-0.373586 -1.06331 5.63867 0.345508 255 0 255 
-0.380009 -1.0604 5.65826 0.367655 255 0 255 
-0.367355 -1.06636 5.6191 0.401471 255 0 255 
-0.398415 -1.06141 5.63451 0.391504 255 0 255 
-0.392124 -1.06445 5.61502 0.489309 255 0 255 
-0.404696 -1.05927 5.65408 0.440336 255 0 255 
-0.385738 -1.06767 5.59561 0.522375 255 0 255 
-0.360874 -1.06837 5.59996 0.371477 255 0 255 
-0.335847 -1.06986 5.60436 0.4066 255 0 255 
-0.342089 -1.06807 5.62357 0.401607 255 0 255 
0.0748783 -0.585734 5.56759 0.379536 255 0 255 
0.0650265 -0.559615 5.56371 0.59419 255 0 255 
0.066285 -0.533758 5.57012 0.605438 255 0 255 
0.0572751 -0.508109 5.56536 0.564731 255 0 255 
0.061157 -0.481424 5.56898 0.566315 255 0 255 
0.0367818 -0.482855 5.55064 0.530896 255 0 255 
0.080932 -0.507043 5.58434 0.594171 255 0 255 
0.0855264 -0.480359 5.58686 0.642817 255 0 255 
0.088478 -0.53154 5.58833 0.557157 255 0 255 
0.0965284 -0.55611 5.59169 0.618885 255 0 255 
0.0945157 -0.582555 5.5859 0.568585 255 0 255 
0.114237 -0.579351 5.60387 0.607496 255 0 255 
0.0252334 -0.458778 5.54871 0.525575 255 0 255 
0.0389234 -0.458406 5.55916 0.560201 255 0 255 
0.0282569 -0.433618 5.55626 0.44556 255 0 255 
0.0144606 -0.434092 5.54616 0.474365 255 0 255 
0.0423914 -0.433118 5.56605 0.477351 255 0 255 
0.0183802 -0.408203 5.55234 0.440044 255 0 255 
0.0325139 -0.407677 5.56217 0.435609 255 0 255 
0.0234357 -0.381439 5.55716 0.307335 255 0 255 
0.00413326 -0.408864 5.54282 0.502574 255 0 255 
0.00918327 -0.382258 5.54761 0.319164 255 0 255 
-0.00529206 -0.383205 5.53864 0.306358 255 0 255 
0.0468025 -0.407032 5.57173 0.481195 255 0 255 
0.0378668 -0.380648 5.56666 0.312844 255 0 255 
0.052187 -0.380068 5.5762 0.322605 255 0 255 
0.0680695 -0.431205 5.58274 0.502348 255 0 255 
0.0639443 -0.456894 5.57666 0.623763 255 0 255 
0.116091 -0.378096 5.61482 0.263647 255 0 255 
0.121189 -0.404195 5.6182 0.489962 255 0 255 
0.112654 -0.430126 5.61251 0.560935 255 0 255 
0.119021 -0.454598 5.61391 0.636561 255 0 255 
0.112402 -0.479123 5.60543 0.612112 255 0 255 
0.139035 -0.477745 5.62374 0.554725 255 0 255 
0.0916818 -0.456134 5.596 0.671876 255 0 255 
0.0832811 -0.431103 5.59351 0.508728 255 0 255 
0.0753594 -0.405547 5.59031 0.410743 255 0 255 
0.0911914 -0.405442 5.60014 0.440294 255 0 255 
0.0841895 -0.379108 5.59562 0.307148 255 0 255 
0.06822 -0.379635 5.58571 0.250414 255 0 255 
0.100062 -0.378506 5.60556 0.32732 255 0 255 
0.143348 -0.502261 5.62838 0.627673 255 0 255 
0.136033 -0.527568 5.625 0.610646 255 0 255 
0.141293 -0.550771 5.62827 0.610566 255 0 255 
0.13569 -0.576058 5.62222 0.581751 255 0 255 
0.157486 -0.572568 5.64019 0.629205 255 0 255 
0.118605 -0.554182 5.61109 0.580087 255 0 255 
0.11207 -0.529549 5.6062 0.549996 255 0 255 
0.105264 -0.504826 5.60169 0.640555 255 0 255 
0.010023 -0.596441 5.50659 0.346323 255 0 255 
-0.00196071 -0.570348 5.50179 0.616565 255 0 255 
-0.00618455 -0.543748 5.50545 0.508829 255 0 255 
-0.0178418 -0.518578 5.50136 0.475483 255 0 255 
-0.0203045 -0.491339 5.50375 0.482451 255 0 255 
-0.0370452 -0.495205 5.48956 0.512947 255 0 255 
-0.00162014 -0.514889 5.516 0.435853 255 0 255 
-0.00380486 -0.487731 5.51782 0.469322 255 0 255 
0.00963546 -0.540487 5.51955 0.444315 255 0 255 
0.0210645 -0.566115 5.52302 0.630971 255 0 255 
0.0249101 -0.593887 5.52013 0.488971 255 0 255 
0.0392997 -0.591177 5.5342 0.510644 255 0 255 
-0.049804 -0.472865 5.48687 0.582729 255 0 255 
-0.0534635 -0.447312 5.49158 0.491798 255 0 255 
-0.0647236 -0.424482 5.48694 0.459253 255 0 255 
-0.0660419 -0.398057 5.48889 0.432948 255 0 255 
-0.0831391 -0.404261 5.4735 0.426746 255 0 255 
-0.0476739 -0.418611 5.50299 0.449662 255 0 255 
-0.0488743 -0.391796 5.50423 0.439977 255 0 255 
-0.0365857 -0.442468 5.50665 0.429707 255 0 255 
-0.0247008 -0.466302 5.50924 0.58273 255 0 255 
-0.00700651 -0.43711 5.53145 0.475005 255 0 255 
0.00474988 -0.461231 5.533 0.558098 255 0 255 
0.0163743 -0.485279 5.53452 0.440078 255 0 255 
-0.0284538 -0.414332 5.51834 0.443881 255 0 255 
-0.0273171 -0.387337 5.52183 0.391717 255 0 255 
0.0359554 -0.509958 5.54826 0.536344 255 0 255 
0.0458222 -0.535533 5.55206 0.535197 255 0 255 
0.04697 -0.562307 5.54758 0.606812 255 0 255 
0.0576024 -0.588527 5.55076 0.521236 255 0 255 
0.0268182 -0.537896 5.53542 0.533418 255 0 255 
0.0161872 -0.512235 5.53094 0.427234 255 0 255 
-0.0923256 -0.589022 5.42458 0.529868 255 0 255 
-0.117484 -0.540329 5.41457 0.697498 255 0 255 
-0.0978484 -0.558075 5.42646 0.667261 255 0 255 
-0.0781996 -0.57629 5.43789 0.590505 255 0 255 
-0.0660632 -0.602624 5.44083 0.599557 255 0 255 
-0.0493629 -0.626341 5.44975 0.338409 255 0 255 
-0.153987 -0.509455 5.39773 0.577508 255 0 255 
-0.174414 -0.464777 5.38522 0.426039 255 0 255 
-0.156973 -0.480321 5.4002 0.454513 255 0 255 
