ply
format ascii 1.0
comment VCGLIB generated
element vertex 996
property float x
property float y
property float z
property uchar red
property uchar green
property uchar blue
property float quality
end_header
0.446563 -0.879423 6.119280 203 255 45 0.127133
0.459364 -0.886163 6.125190 190 255 58 0.112495
0.472633 -0.884947 6.095270 171 255 77 0.097604
0.434292 -0.872651 6.113110 229 255 19 0.154304
0.459825 -0.875687 6.091050 196 255 51 0.118470
0.447286 -0.867012 6.085940 222 255 25 0.147375
0.473332 -0.893367 6.130920 164 255 84 0.092293
0.486525 -0.893954 6.099840 151 255 96 0.081911
0.461173 -0.897348 6.160400 167 255 80 0.092638
0.449437 -0.902845 6.188630 155 255 93 0.083909
0.435489 -0.897572 6.180240 174 255 74 0.100359
0.746213 -0.099881 5.954130 255 164 0 0.295547
0.773717 -0.095018 5.960480 255 134 0 0.345905
0.764122 -0.130212 5.957080 255 212 0 0.219476
0.809191 -0.089507 5.972240 255 116 0 0.381083
0.795958 -0.124861 5.965100 255 193 0 0.246934
0.840872 -0.118194 5.979740 255 160 0 0.299781
0.857213 -0.085243 5.995240 255 112 0 0.393869
0.782440 -0.162113 5.964230 206 255 42 0.130558
0.822114 -0.156205 5.973420 238 255 9 0.168067
0.803658 -0.194834 5.972900 135 255 113 0.069556
0.771765 -0.199772 5.967290 122 255 126 0.061879
0.755731 -0.165887 5.959030 196 255 51 0.120584
0.746486 -0.203976 5.961500 129 255 119 0.066022
0.732015 -0.168969 5.953940 187 255 61 0.111048
0.739727 -0.134081 5.952920 255 234 0 0.191647
0.717480 -0.135793 5.946730 245 249 3 0.175347
0.723696 -0.206651 5.954460 119 255 129 0.060610
0.709994 -0.170550 5.946090 190 255 58 0.113148
0.701971 -0.207906 5.944650 119 255 129 0.060098
0.723706 -0.102286 5.948960 255 175 0 0.273153
0.891669 -0.084363 6.014530 255 112 0 0.395044
0.921561 -0.083316 6.032950 255 112 0 0.392953
0.911397 -0.113320 6.014180 255 145 0 0.324948
0.948910 -0.083867 6.049280 255 104 0 0.403814
0.939930 -0.112003 6.030080 255 145 0 0.326747
0.966867 -0.112133 6.045100 255 130 0 0.356685
0.976054 -0.085623 6.065050 255 97 0 0.422488
0.927784 -0.143289 6.014570 255 190 0 0.252539
0.956105 -0.141589 6.028560 255 175 0 0.273175
0.942327 -0.173932 6.015860 251 241 0 0.183510
0.915107 -0.177519 6.004760 232 255 16 0.159393
0.900331 -0.145955 6.001750 255 204 0 0.233774
0.883714 -0.181615 5.993650 203 255 45 0.125203
0.862667 -0.150297 5.985820 255 223 0 0.206955
0.880699 -0.115343 5.998100 255 153 0 0.313426
0.842204 -0.189309 5.981470 164 255 84 0.091995
0.848284 -0.336441 5.987500 61 255 187 0.033189
0.820377 -0.342794 5.975970 67 255 180 0.034614
0.835808 -0.307323 5.989830 74 255 174 0.037662
0.806684 -0.312682 5.980540 93 255 155 0.046932
0.796943 -0.346472 5.963320 48 255 200 0.027711
0.824014 -0.273225 5.988630 51 255 196 0.029762
0.782683 -0.315768 5.970400 93 255 155 0.046652
0.794823 -0.277503 5.980730 84 255 164 0.041239
0.769979 -0.280226 5.973410 100 255 148 0.049929
0.776940 -0.347844 5.952710 32 255 216 0.022913
0.762503 -0.316401 5.960150 80 255 167 0.040445
0.759612 -0.347609 5.941600 3 233 245 0.016328
0.813987 -0.235217 5.983150 48 255 200 0.027779
0.783819 -0.239290 5.977390 71 255 177 0.036815
0.854243 -0.227033 5.991610 58 255 190 0.031647
0.893214 -0.219355 6.001910 100 255 148 0.049177
0.864337 -0.263864 5.998810 13 245 235 0.018287
0.900256 -0.255218 6.007760 16 249 232 0.019322
0.922837 -0.215016 6.011550 138 255 109 0.071280
0.873426 -0.296906 6.001500 35 255 213 0.024275
0.742410 -0.347326 5.929770 0 197 255 0.010423
0.742758 -0.317648 5.947570 55 255 193 0.030026
0.725091 -0.317015 5.935840 25 255 222 0.021311
0.725179 -0.347151 5.917620 0 169 255 0.007475
0.726782 -0.284425 5.951310 80 255 167 0.039992
0.707814 -0.316544 5.924480 0 225 251 0.014356
0.708901 -0.283766 5.940090 55 255 193 0.030666
0.690874 -0.283289 5.928460 29 255 219 0.022423
0.707580 -0.346059 5.906240 0 165 255 0.007122
0.690551 -0.315060 5.911040 0 177 255 0.008174
0.690155 -0.345271 5.893450 0 189 255 0.009723
0.712850 -0.248370 5.950880 84 255 164 0.042416
0.694445 -0.247516 5.940500 71 255 177 0.036560
0.734015 -0.246906 5.961830 93 255 155 0.046266
0.756669 -0.243527 5.970100 90 255 158 0.045311
0.747296 -0.283070 5.962890 96 255 151 0.047516
0.704166 -0.379290 5.890840 3 233 245 0.015680
0.721929 -0.379382 5.902700 0 197 255 0.010506
0.717394 -0.411909 5.889500 29 255 219 0.022205
0.739252 -0.379969 5.914790 0 177 255 0.008161
0.735334 -0.412055 5.900270 9 241 238 0.017203
0.752648 -0.411821 5.911240 0 205 255 0.011858
0.756413 -0.380658 5.925960 0 173 255 0.008041
0.730343 -0.442994 5.887450 58 255 190 0.031688
0.748746 -0.442533 5.896590 48 255 200 0.028493
0.742985 -0.473071 5.884340 100 255 148 0.048734
0.726009 -0.472736 5.876140 106 255 142 0.053573
0.713492 -0.441820 5.878400 77 255 171 0.038860
0.708066 -0.471555 5.870250 103 255 145 0.051883
0.695538 -0.441086 5.870530 80 255 167 0.040601
0.700329 -0.410543 5.880530 48 255 200 0.028044
0.682769 -0.409185 5.871360 58 255 190 0.031861
0.689463 -0.471361 5.862960 106 255 142 0.052631
0.676849 -0.440161 5.863260 84 255 164 0.041202
0.670141 -0.471454 5.857250 96 255 151 0.047172
0.687145 -0.377849 5.880830 22 255 225 0.020212
0.771931 -0.381840 5.936010 0 193 255 0.010205
0.788992 -0.381449 5.948180 3 233 245 0.015724
0.783741 -0.414468 5.930790 0 181 255 0.008910
0.808231 -0.379379 5.960440 32 255 216 0.023026
0.800645 -0.413530 5.942620 0 193 255 0.010234
0.819556 -0.410591 5.956180 3 233 245 0.015970
0.830897 -0.375465 5.972890 51 255 196 0.029247
0.794935 -0.445650 5.924410 0 209 255 0.012474
0.812252 -0.443510 5.936700 0 189 255 0.009818
0.806084 -0.475502 5.917100 42 255 206 0.025862
0.790709 -0.475390 5.907790 61 255 187 0.032772
0.779763 -0.444661 5.914750 9 241 238 0.017397
0.775082 -0.474664 5.899700 77 255 171 0.038811
0.764147 -0.443964 5.905570 29 255 219 0.022013
0.768303 -0.413630 5.920380 0 189 255 0.009796
0.759560 -0.473830 5.891100 90 255 158 0.045330
0.768978 -0.601504 5.883420 164 255 84 0.092200
0.763389 -0.570971 5.885400 135 255 113 0.070381
0.738562 -0.600041 5.876860 145 255 103 0.076749
0.757017 -0.539673 5.886170 113 255 135 0.055463
0.732215 -0.569402 5.877060 116 255 132 0.057687
0.725404 -0.537065 5.875980 106 255 142 0.052217
0.706604 -0.598758 5.870660 119 255 129 0.060598
0.750767 -0.507214 5.885120 103 255 145 0.051769
0.766954 -0.507555 5.891820 100 255 148 0.049455
0.782781 -0.507804 5.898510 96 255 151 0.047478
0.773057 -0.539250 5.892160 116 255 132 0.057342
0.789318 -0.538801 5.898200 109 255 138 0.054975
0.798174 -0.507464 5.907500 80 255 167 0.040296
0.779324 -0.570525 5.890450 142 255 106 0.073893
0.697757 -0.569011 5.869100 96 255 151 0.048126
0.672844 -0.598442 5.864600 90 255 158 0.044418
0.687897 -0.538186 5.867690 80 255 167 0.040298
0.662859 -0.568664 5.861720 71 255 177 0.036892
0.652585 -0.537073 5.857470 67 255 180 0.034940
0.638422 -0.597861 5.857370 71 255 177 0.035937
0.679384 -0.505116 5.862370 90 255 158 0.044558
0.698483 -0.504737 5.867900 93 255 155 0.046142
0.717069 -0.504983 5.873240 103 255 145 0.050558
0.707156 -0.537204 5.871910 93 255 155 0.046120
0.768906 -0.865498 5.980280 229 255 19 0.153895
0.755449 -0.892622 6.004980 216 255 32 0.139312
0.743482 -0.892393 5.992460 248 245 0 0.181474
0.729783 -0.919756 6.018460 245 249 3 0.175316
0.741701 -0.920504 6.031240 216 255 32 0.138640
0.717917 -0.917390 6.005790 255 212 0 0.221233
0.716609 -0.946621 6.045420 251 241 0 0.181811
0.704557 -0.944185 6.032830 255 208 0 0.225989
0.692305 -0.969905 6.060030 255 197 0 0.239973
0.729297 -0.947939 6.058210 225 255 22 0.152433
0.704996 -0.972443 6.072870 255 223 0 0.206407
0.718202 -0.972611 6.085730 238 255 9 0.166859
0.691933 -0.941801 6.020650 255 186 0 0.261480
0.678771 -0.966354 6.048830 255 178 0 0.272112
0.665815 -0.962540 6.036860 255 156 0 0.305895
0.680106 -0.937948 6.011620 255 171 0 0.279826
0.693193 -0.912120 5.987400 255 178 0 0.267966
0.719059 -0.889221 5.973380 255 197 0 0.242358
0.745095 -0.864418 5.961180 255 219 0 0.213289
0.707766 -0.885853 5.965000 255 182 0 0.263203
0.720606 -0.859060 5.943750 255 178 0 0.267528
0.708584 -0.986769 6.120700 209 255 38 0.133606
0.694283 -0.985612 6.104430 238 255 9 0.167857
0.684892 -0.999938 6.139990 216 255 32 0.141255
0.699669 -1.002600 6.155000 196 255 51 0.119499
0.669723 -0.994570 6.125810 235 255 13 0.160758
0.674668 -1.013120 6.177150 200 255 48 0.124032
0.659623 -1.007490 6.163480 209 255 38 0.132723
0.688936 -1.016700 6.190370 187 255 61 0.111437
0.644178 -1.000530 6.149490 213 255 35 0.136473
0.629008 -0.992515 6.139750 213 255 35 0.135713
0.655128 -0.990027 6.114200 242 253 6 0.170358
0.641011 -0.984383 6.103700 251 241 0 0.182875
0.667057 -0.979571 6.080460 255 212 0 0.218770
0.680418 -0.982890 6.092090 255 230 0 0.199300
0.653118 -0.974167 6.069900 255 201 0 0.237569
0.574448 -0.946622 6.096480 142 255 106 0.073775
0.588125 -0.958522 6.104700 167 255 80 0.092911
0.601407 -0.952027 6.071750 213 255 35 0.135087
0.588252 -0.939307 6.063830 184 255 64 0.107023
0.614261 -0.963360 6.079890 235 255 13 0.161454
0.615535 -0.943464 6.039580 255 234 0 0.192907
0.627572 -0.956313 6.047150 255 204 0 0.231045
0.641749 -0.944167 6.017220 255 167 0 0.290473
0.602788 -0.928751 6.033490 229 255 19 0.153356
0.629864 -0.931558 6.009690 255 190 0 0.251404
0.617077 -0.917606 6.003610 255 227 0 0.202715
0.639995 -0.964886 6.056980 255 201 0 0.238264
0.653827 -0.954347 6.026250 255 156 0 0.304953
0.627291 -0.975001 6.091050 248 245 0 0.179634
0.615794 -0.980711 6.127840 193 255 55 0.117846
0.601575 -0.970995 6.115730 187 255 61 0.112022
0.632228 -0.896035 5.981580 255 234 0 0.193096
0.644876 -0.908229 5.985100 255 197 0 0.241896
0.658480 -0.885877 5.964240 255 201 0 0.238758
0.646640 -0.876288 5.959420 255 219 0 0.209051
0.670697 -0.894479 5.969670 255 186 0 0.259056
0.672627 -0.863620 5.944270 255 197 0 0.243476
0.684434 -0.871495 5.949520 255 182 0 0.263707
0.697715 -0.848523 5.929980 255 178 0 0.271976
0.660266 -0.854315 5.939510 255 212 0 0.221701
0.685989 -0.840913 5.924980 255 186 0 0.256372
0.673673 -0.833450 5.919920 255 197 0 0.242584
0.695638 -0.878473 5.955710 255 178 0 0.271461
0.709289 -0.853698 5.936580 255 178 0 0.270265
0.682020 -0.904822 5.976910 255 171 0 0.284601
0.667860 -0.929878 6.000810 255 164 0 0.292118
0.656335 -0.920294 5.992280 255 175 0 0.278794
1.022630 -0.327504 6.036190 22 255 225 0.020634
1.025560 -0.293771 6.040880 87 255 161 0.042927
0.985465 -0.324692 6.027550 0 213 255 0.012825
1.029190 -0.257289 6.044890 158 255 90 0.086659
0.989825 -0.289906 6.031790 45 255 203 0.027094
0.992806 -0.252310 6.033870 122 255 126 0.062380
0.946809 -0.323746 6.018090 0 213 255 0.012904
1.031070 -0.219736 6.048100 232 255 16 0.159876
1.031820 -0.181561 6.054140 255 186 0 0.258005
1.051350 -0.185670 6.061580 255 186 0 0.256046
1.051070 -0.223555 6.056350 251 241 0 0.181623
1.071950 -0.191471 6.070490 255 178 0 0.270815
1.070750 -0.228346 6.063250 248 245 0 0.181402
1.048240 -0.260912 6.051490 174 255 74 0.098431
1.068170 -0.264562 6.057940 187 255 61 0.110462
1.090360 -0.197053 6.079670 255 186 0 0.256222
1.089950 -0.233151 6.071690 251 241 0 0.185559
1.110310 -0.202882 6.089860 255 190 0 0.251216
1.044800 -0.296248 6.046790 93 255 155 0.046462
0.925690 -0.323988 6.011440 0 225 251 0.014751
0.946950 -0.289779 6.021420 0 225 251 0.014778
0.924913 -0.290317 6.015040 0 225 251 0.014467
0.903116 -0.325365 6.004650 16 249 232 0.018701
0.948261 -0.251773 6.020510 71 255 177 0.035915
0.900604 -0.291774 6.008010 3 233 245 0.015940
0.924691 -0.253361 6.014550 42 255 206 0.026432
0.878342 -0.328918 5.997540 38 255 209 0.025527
0.946330 -0.213098 6.018650 167 255 80 0.092971
0.965250 -0.174763 6.024960 255 227 0 0.200783
0.968409 -0.213574 6.026150 184 255 64 0.107106
0.988080 -0.176250 6.035080 255 212 0 0.223305
0.991597 -0.214708 6.034810 203 255 45 0.124821
0.970060 -0.252035 6.027190 100 255 148 0.049486
1.010230 -0.178810 6.044560 255 201 0 0.238780
0.999081 -0.088930 6.076750 255 86 0 0.447456
1.024130 -0.093906 6.091390 255 82 0 0.460654
1.012390 -0.118356 6.068040 255 112 0 0.389503
1.048080 -0.098066 6.104490 255 78 0 0.463694
1.036780 -0.122263 6.080540 255 108 0 0.403043
1.061620 -0.128022 6.094610 255 112 0 0.393192
1.073010 -0.106378 6.120950 255 90 0 0.438402
1.023130 -0.149262 6.060130 255 149 0 0.318658
1.047820 -0.153464 6.072990 255 134 0 0.346224
1.000730 -0.146084 6.049870 255 149 0 0.318928
0.978635 -0.143272 6.039270 255 164 0 0.297348
0.989614 -0.115181 6.057050 255 123 0 0.371095
1.096160 -0.114582 6.134840 255 104 0 0.404613
1.119340 -0.122617 6.150060 255 108 0 0.398200
1.102880 -0.141064 6.117080 255 116 0 0.381635
1.141780 -0.133461 6.167900 255 123 0 0.370312
1.125680 -0.150765 6.132260 255 134 0 0.350563
1.149100 -0.162465 6.152100 255 149 0 0.321535
1.165640 -0.147615 6.189070 255 138 0 0.338240
1.107830 -0.172596 6.104340 255 156 0 0.306550
1.130680 -0.180986 6.118660 255 167 0 0.287374
1.087060 -0.165209 6.092620 255 149 0 0.316932
1.067670 -0.158486 6.081120 255 138 0 0.339241
1.081160 -0.134094 6.105640 255 112 0 0.393678
0.854373 -0.370461 5.984600 64 255 184 0.033772
0.880904 -0.363399 5.995810 61 255 187 0.032743
0.860835 -0.402571 5.979120 42 255 206 0.026127
0.903764 -0.360661 6.003760 51 255 196 0.028787
0.884424 -0.396298 5.990340 51 255 196 0.028784
0.905797 -0.393771 5.998890 48 255 200 0.028183
0.924606 -0.359990 6.010870 38 255 209 0.025557
0.867856 -0.432990 5.970580 0 229 248 0.015203
0.888716 -0.427899 5.981420 13 245 235 0.018058
0.874107 -0.462933 5.960020 0 205 255 0.011940
0.854865 -0.468666 5.948980 0 213 255 0.012716
0.847141 -0.438768 5.959070 0 213 255 0.012598
0.837663 -0.472712 5.937530 0 229 248 0.015577
0.828830 -0.442794 5.946730 0 193 255 0.010348
0.839101 -0.408099 5.966730 19 253 229 0.019960
0.821483 -0.474350 5.927570 19 253 229 0.019731
0.961966 -0.361188 6.022430 16 249 232 0.019120
0.940718 -0.395294 6.011220 38 255 209 0.025225
0.976519 -0.395946 6.022510 19 253 229 0.019390
0.998585 -0.362706 6.031960 0 217 255 0.013367
0.939928 -0.428045 6.001400 16 249 232 0.018646
0.940184 -0.459915 5.988500 0 217 255 0.013460
0.908251 -0.459356 5.976000 0 213 255 0.012915
0.879684 -0.597498 5.934090 148 255 100 0.078664
0.878728 -0.565638 5.940400 100 255 148 0.049679
0.853466 -0.601807 5.919250 164 255 84 0.090736
0.877502 -0.532166 5.947530 51 255 196 0.029173
0.851179 -0.570064 5.924550 119 255 129 0.059163
0.848250 -0.537396 5.930260 71 255 177 0.036958
0.826622 -0.604096 5.904570 177 255 71 0.102598
0.875982 -0.497855 5.954450 9 241 238 0.017272
0.908231 -0.494135 5.969640 9 241 238 0.017296
0.907781 -0.528738 5.961690 48 255 200 0.028214
0.822153 -0.572594 5.909390 135 255 113 0.069807
0.798170 -0.603840 5.892310 180 255 67 0.104065
0.817764 -0.540882 5.913000 96 255 151 0.047151
0.827670 -0.508223 5.924470 48 255 200 0.028214
0.843354 -0.505098 5.934780 32 255 216 0.023175
0.832746 -0.539629 5.921800 84 255 164 0.041748
0.686139 -0.805555 5.910170 255 223 0 0.204962
0.711214 -0.781523 5.905510 251 241 0 0.181642
0.722935 -0.752278 5.899560 232 255 16 0.157010
0.747372 -0.727515 5.897470 219 255 29 0.145329
0.720803 -0.722563 5.888120 219 255 29 0.142338
0.748621 -0.757796 5.908140 232 255 16 0.156949
0.773011 -0.731454 5.906450 225 255 22 0.149727
0.760313 -0.761549 5.915110 225 255 22 0.150725
0.735857 -0.789441 5.916570 248 245 0 0.178511
0.747671 -0.793205 5.923040 245 249 3 0.174550
0.722595 -0.821959 5.925360 255 212 0 0.221798
0.710962 -0.816269 5.919730 255 219 0 0.213648
0.734677 -0.825883 5.932830 255 223 0 0.208901
0.731584 -0.693627 5.888020 187 255 61 0.110948
0.758252 -0.664889 5.889690 180 255 67 0.105327
0.771234 -0.634039 5.888560 171 255 77 0.097421
0.799993 -0.635313 5.898190 177 255 71 0.101751
0.785888 -0.667591 5.898810 187 255 61 0.110405
0.772169 -0.698598 5.900330 200 255 48 0.122851
0.865428 -0.633318 5.929940 164 255 84 0.092147
0.838346 -0.667702 5.922220 171 255 77 0.097070
0.823630 -0.701146 5.922490 193 255 55 0.115300
0.798260 -0.733751 5.916880 222 255 25 0.148610
0.822499 -0.734240 5.930410 206 255 42 0.128828
0.798845 -0.699860 5.909910 203 255 45 0.126209
0.812779 -0.668147 5.909940 184 255 64 0.108050
0.826772 -0.636361 5.909600 180 255 67 0.105206
0.808685 -0.765367 5.942100 187 255 61 0.112082
0.783399 -0.797103 5.944340 209 255 38 0.132524
0.770221 -0.831686 5.956500 229 255 19 0.155243
0.784603 -0.763617 5.926440 213 255 35 0.136979
1.089740 -0.827368 6.119410 161 255 87 0.089117
1.095270 -0.803369 6.106030 171 255 77 0.097070
1.068090 -0.828834 6.114890 161 255 87 0.087764
1.102270 -0.779752 6.092430 193 255 55 0.115635
1.073110 -0.805457 6.100780 167 255 80 0.094711
1.079590 -0.782153 6.086570 187 255 61 0.109371
1.046100 -0.829765 6.110390 145 255 103 0.076168
1.108240 -0.756342 6.078190 209 255 38 0.133251
1.114130 -0.733274 6.064030 229 255 19 0.154307
1.136050 -0.732909 6.070290 232 255 16 0.157741
1.129950 -0.756243 6.084420 216 255 32 0.139032
1.123470 -0.779838 6.098310 200 255 48 0.121612
1.051970 -0.805710 6.095070 158 255 90 0.087123
1.024290 -0.830538 6.105410 132 255 116 0.068733
1.058640 -0.781618 6.079690 174 255 74 0.100361
1.029890 -0.807160 6.089360 148 255 100 0.079502
1.036390 -0.783783 6.073320 167 255 80 0.093249
1.003140 -0.831370 6.100210 116 255 132 0.058629
1.064930 -0.757470 6.064450 200 255 48 0.122331
1.070990 -0.733583 6.049320 222 255 25 0.149025
1.092390 -0.733314 6.056690 222 255 25 0.147705
1.085950 -0.757640 6.071570 200 255 48 0.122261
1.147380 -0.620861 6.033950 245 249 3 0.174716
1.139120 -0.649205 6.041150 245 249 3 0.175488
1.168560 -0.623239 6.040760 248 245 0 0.178299
1.130860 -0.677325 6.048620 242 253 6 0.169197
1.160240 -0.651514 6.048020 248 245 0 0.178809
1.151370 -0.679596 6.055390 242 253 6 0.170330
1.122670 -0.705292 6.056250 235 255 13 0.162574
1.100410 -0.705494 6.049040 229 255 19 0.155622
1.108340 -0.677564 6.041530 235 255 13 0.164339
1.155180 -0.706239 6.066080 242 253 6 0.170066
1.133580 -0.349963 6.064460 151 255 96 0.080674
1.146170 -0.321499 6.078650 184 255 64 0.106369
1.108160 -0.343732 6.057260 135 255 113 0.069069
1.157510 -0.292019 6.093180 206 255 42 0.130457
1.117800 -0.314124 6.067960 145 255 103 0.076841
1.128720 -0.282669 6.080430 200 255 48 0.123673
1.081880 -0.337347 6.050120 87 255 161 0.043419
1.168450 -0.261223 6.109160 245 249 3 0.173333
1.176740 -0.231147 6.127670 255 204 0 0.233459
1.204380 -0.246071 6.147270 255 208 0 0.227382
1.194850 -0.274189 6.125500 255 238 0 0.187596
1.182370 -0.302599 6.105480 225 255 22 0.149514
1.091080 -0.306005 6.059010 142 255 106 0.074613
1.051860 -0.331967 6.042740 58 255 190 0.030937
1.099030 -0.272483 6.068310 203 255 45 0.124716
1.120530 -0.243877 6.085020 248 245 0 0.178934
1.144060 -0.216365 6.106870 255 201 0 0.238856
1.183030 -0.180685 6.177020 255 153 0 0.310865
1.180960 -0.202940 6.149150 255 178 0 0.270361
1.206170 -0.372076 6.090660 184 255 64 0.108337
1.207740 -0.342867 6.105510 203 255 45 0.127874
1.183880 -0.364152 6.081990 171 255 77 0.095678
1.184530 -0.334211 6.095240 190 255 58 0.114428
1.160150 -0.356808 6.073470 161 255 87 0.088178
1.208990 -0.312439 6.120090 219 255 29 0.143041
1.176730 -0.593379 6.042150 238 255 9 0.164921
0.652630 -1.070080 6.518230 142 255 106 0.073702
0.640363 -1.062980 6.541650 125 255 122 0.064314
0.630418 -1.059290 6.532810 113 255 135 0.056708
0.618398 -1.051390 6.555950 96 255 151 0.047842
0.628403 -1.055370 6.565040 109 255 138 0.054522
0.609530 -1.050360 6.548210 103 255 145 0.050430
0.606407 -1.043390 6.578980 84 255 164 0.041421
0.597442 -1.041790 6.571060 84 255 164 0.042332
0.584916 -1.032440 6.594050 64 255 184 0.034217
0.616266 -1.047220 6.588060 93 255 155 0.046351
0.594514 -1.034660 6.602530 67 255 180 0.035685
0.604749 -1.038950 6.611920 80 255 167 0.040011
0.588768 -1.041130 6.563710 90 255 158 0.044644
0.576358 -1.031930 6.586910 71 255 177 0.036698
0.567823 -1.031610 6.579870 77 255 171 0.039427
0.579511 -1.037620 6.557040 77 255 171 0.039588
0.600278 -1.046900 6.541380 90 255 158 0.045316
0.591086 -1.043550 6.534570 84 255 164 0.041932
0.611594 -1.052330 6.518840 93 255 155 0.046641
0.620952 -1.055190 6.525630 100 255 148 0.049984
0.631878 -1.060290 6.502520 109 255 138 0.053855
0.602219 -1.049210 6.511810 90 255 158 0.044258
0.622623 -1.057630 6.495720 103 255 145 0.050725
0.613265 -1.055140 6.488940 103 255 145 0.050515
0.641358 -1.063600 6.509630 116 255 132 0.058716
0.595454 -1.031860 6.631380 67 255 180 0.035367
0.584327 -1.027270 6.623990 58 255 190 0.031155
0.574631 -1.019610 6.643560 45 255 203 0.027328
0.585575 -1.024390 6.650930 58 255 190 0.031084
0.563224 -1.016250 6.636530 45 255 203 0.026650
0.564061 -1.011700 6.663220 38 255 209 0.024902
0.552629 -1.008530 6.656680 38 255 209 0.024697
0.575543 -1.016660 6.670450 48 255 200 0.028241
0.542036 -1.006950 6.651280 42 255 206 0.026513
0.533204 -1.006820 6.644800 51 255 196 0.028833
0.553252 -1.015650 6.629100 51 255 196 0.029424
0.545018 -1.015430 6.622600 58 255 190 0.031370
0.565126 -1.023870 6.607840 61 255 187 0.032458
0.574120 -1.024500 6.614970 55 255 193 0.030018
0.556322 -1.023580 6.600760 64 255 184 0.034293
0.508085 -0.985912 6.625390 0 189 255 0.009575
0.520206 -0.994100 6.602710 0 185 255 0.009361
0.528673 -1.001560 6.610180 0 225 251 0.014480
0.532277 -1.002000 6.580650 0 185 255 0.009407
0.540828 -1.009570 6.588110 0 229 248 0.015618
0.552769 -1.017160 6.566550 9 241 238 0.017096
0.544042 -1.009750 6.558950 0 197 255 0.010754
0.548392 -1.016800 6.594650 32 255 216 0.023529
0.560552 -1.024350 6.573380 42 255 206 0.025676
0.536779 -1.008500 6.616340 25 255 222 0.021133
0.525074 -0.999949 6.638600 19 253 229 0.020142
0.517007 -0.992904 6.632380 0 213 255 0.012992
0.555016 -1.016530 6.535960 0 209 255 0.012027
0.566239 -1.022370 6.513400 0 213 255 0.012984
0.575475 -1.029580 6.520780 19 253 229 0.019447
0.577865 -1.028430 6.490740 0 229 248 0.015483
0.586815 -1.035190 6.498050 25 255 222 0.021755
0.598574 -1.041120 6.475610 38 255 209 0.025172
0.589167 -1.034680 6.467910 16 249 232 0.019025
0.594754 -1.042680 6.505060 61 255 187 0.032123
0.606334 -1.048140 6.482510 71 255 177 0.035969
0.583440 -1.036360 6.527800 48 255 200 0.028482
0.572125 -1.030620 6.550600 42 255 206 0.026469
0.564426 -1.023380 6.543640 9 241 238 0.017499
1.121790 -0.383069 6.058610 109 255 138 0.054219
1.110360 -0.414428 6.050160 96 255 151 0.048225
1.146870 -0.388976 6.065240 132 255 116 0.067154
1.133570 -0.420080 6.054900 122 255 126 0.061525
1.099000 -0.445354 6.038430 109 255 138 0.054178
1.090990 -0.475054 6.025140 142 255 106 0.073960
1.067020 -0.471671 6.020170 113 255 135 0.056054
1.075610 -0.440872 6.034220 80 255 167 0.040203
1.085720 -0.409689 6.045430 71 255 177 0.036809
1.043400 -0.468548 6.015370 90 255 158 0.044956
1.169960 -0.395646 6.072480 138 255 109 0.072951
1.156690 -0.425969 6.060770 132 255 116 0.068852
1.192960 -0.402581 6.078780 158 255 90 0.085069
1.178690 -0.432005 6.065030 151 255 96 0.081260
1.145190 -0.455226 6.047720 145 255 103 0.077050
1.136150 -0.484774 6.034300 171 255 77 0.095673
1.113290 -0.479606 6.029440 155 255 93 0.083419
1.122330 -0.450263 6.043150 125 255 122 0.064415
1.058930 -0.609197 6.002720 232 255 16 0.158413
1.065910 -0.576151 6.006870 206 255 42 0.129577
1.037370 -0.606690 5.994570 222 255 25 0.146330
1.073620 -0.542043 6.012190 184 255 64 0.106834
1.044130 -0.572748 6.000040 193 255 55 0.118199
1.051480 -0.539238 6.005770 167 255 80 0.093619
1.016860 -0.603659 5.986880 209 255 38 0.133142
1.082400 -0.508426 6.018730 155 255 93 0.083898
1.104440 -0.512674 6.023540 171 255 77 0.095774
1.096200 -0.546687 6.018450 196 255 51 0.121289
1.023070 -0.570405 5.992830 180 255 67 0.105583
0.995509 -0.601401 5.978720 190 255 58 0.113932
1.029360 -0.536908 5.999650 151 255 96 0.082197
1.001690 -0.567737 5.985780 167 255 80 0.094786
1.007040 -0.533855 5.993810 132 255 116 0.068327
0.974077 -0.599690 5.970330 180 255 67 0.103345
1.036300 -0.502691 6.007840 119 255 129 0.060491
1.058960 -0.505697 6.013130 138 255 109 0.071839
1.050720 -0.640983 6.008770 229 255 19 0.153681
1.080950 -0.612089 6.011190 232 255 16 0.159566
1.042850 -0.672278 6.015680 222 255 25 0.147876
1.072680 -0.643653 6.017890 232 255 16 0.157014
1.064130 -0.674995 6.024920 229 255 19 0.153980
1.102950 -0.615168 6.019080 242 253 6 0.171634
1.035300 -0.703384 6.023130 225 255 22 0.149466
1.027800 -0.733875 6.031680 216 255 32 0.141639
1.006750 -0.733050 6.022320 206 255 42 0.130871
1.014260 -0.703044 6.013350 219 255 29 0.142451
1.020960 -0.672330 6.005600 219 255 29 0.142617
0.985881 -0.732786 6.012190 187 255 61 0.109521
1.094780 -0.645013 6.026090 238 255 9 0.166016
1.125180 -0.617757 6.026730 242 253 6 0.169700
1.087220 -0.674570 6.033640 232 255 16 0.157509
1.117050 -0.647756 6.033980 238 255 9 0.166332
1.079390 -0.704275 6.041470 225 255 22 0.151820
1.049140 -0.733595 6.040860 213 255 35 0.137755
1.056460 -0.704514 6.032490 219 255 29 0.144676
1.008930 -0.806932 6.083130 132 255 116 0.068771
0.979445 -0.831426 6.094470 103 255 145 0.050315
1.015430 -0.782562 6.065790 158 255 90 0.087056
0.985964 -0.807883 6.076510 119 255 129 0.060227
0.992553 -0.784318 6.058240 148 255 100 0.077840
0.957399 -0.831637 6.088750 42 255 206 0.026497
1.021740 -0.758237 6.048600 187 255 61 0.110543
1.042910 -0.758586 6.057000 187 255 61 0.112054
0.964613 -0.806959 6.069740 67 255 180 0.035053
0.936071 -0.831302 6.082820 32 255 216 0.023125
0.972088 -0.782790 6.049720 129 255 119 0.066429
0.942847 -0.807411 6.062860 58 255 190 0.031858
0.949593 -0.783657 6.042230 96 255 151 0.047961
0.914519 -0.831973 6.076060 29 255 219 0.022348
0.979570 -0.758082 6.030620 167 255 80 0.092704
0.999938 -0.759029 6.039920 177 255 71 0.103112
0.956374 -0.632853 5.968990 177 255 71 0.100543
0.929484 -0.663998 5.965200 171 255 77 0.096868
0.913799 -0.695408 5.966940 164 255 84 0.090459
0.887944 -0.725679 5.966340 155 255 93 0.083826
0.908917 -0.726412 5.975920 158 255 90 0.086812
0.892348 -0.694705 5.958070 158 255 90 0.087125
0.867154 -0.727699 5.956440 161 255 87 0.088631
0.908078 -0.663140 5.956190 164 255 84 0.091885
0.923911 -0.630643 5.956080 167 255 80 0.092738
0.951773 -0.598026 5.962260 164 255 84 0.090850
0.928961 -0.596868 5.953890 155 255 93 0.083220
0.892111 -0.754251 5.991080 116 255 132 0.058941
0.865570 -0.782693 6.001540 80 255 167 0.040094
0.851172 -0.813154 6.017350 48 255 200 0.027864
0.831135 -0.847838 6.028190 51 255 196 0.029741
0.846640 -0.842697 6.039850 25 255 222 0.021031
0.834497 -0.818464 6.005620 71 255 177 0.036149
0.813227 -0.855775 6.014350 113 255 135 0.055480
0.847963 -0.787073 5.989860 96 255 151 0.048622
0.861808 -0.755804 5.975260 122 255 126 0.061046
0.793573 -0.827992 5.974330 171 255 77 0.097436
0.806863 -0.794347 5.961990 161 255 87 0.089250
0.831473 -0.761088 5.956150 158 255 90 0.086700
0.845779 -0.731613 5.943810 180 255 67 0.105653
0.828567 -0.791181 5.976090 132 255 116 0.067147
0.815498 -0.824615 5.990440 122 255 126 0.062074
0.792225 -0.860705 5.997330 171 255 77 0.096922
0.847867 -0.699959 5.935140 177 255 71 0.101289
0.862839 -0.666197 5.934380 167 255 80 0.094119
0.889199 -0.629672 5.941880 161 255 87 0.088942
0.904668 -0.596147 5.944310 148 255 100 0.078638
0.885543 -0.662486 5.946770 161 255 87 0.089671
0.870564 -0.696566 5.947810 161 255 87 0.087395
0.977395 -0.634491 5.977700 190 255 58 0.113026
0.960357 -0.666550 5.978140 187 255 61 0.111156
0.981173 -0.668899 5.986970 196 255 51 0.119098
0.998537 -0.637010 5.986290 209 255 38 0.134574
0.953664 -0.698391 5.984840 180 255 67 0.105513
0.946666 -0.729550 5.993850 174 255 74 0.097903
0.927742 -0.727407 5.985170 164 255 84 0.090784
0.933936 -0.696356 5.976340 171 255 77 0.096348
1.018400 -0.638464 5.995250 216 255 32 0.141429
1.000560 -0.670020 5.996300 213 255 35 0.135199
0.993061 -0.701787 6.003250 206 255 42 0.129791
0.966740 -0.731032 6.003040 180 255 67 0.105731
0.974065 -0.700418 5.994050 190 255 58 0.114377
0.923235 -0.806464 6.055350 51 255 196 0.029383
0.896278 -0.832064 6.069340 25 255 222 0.021173
0.932111 -0.781462 6.034170 90 255 158 0.044405
0.904122 -0.806717 6.048320 51 255 196 0.029047
0.912283 -0.781803 6.026610 77 255 171 0.039320
0.878174 -0.834639 6.060820 22 255 225 0.020684
0.940014 -0.756022 6.013240 132 255 116 0.067837
0.957744 -0.757660 6.021820 138 255 109 0.071730
0.886035 -0.807392 6.039000 45 255 203 0.027418
0.862311 -0.837465 6.050890 16 249 232 0.019245
0.894574 -0.780806 6.016680 77 255 171 0.039043
0.868703 -0.809744 6.028770 38 255 209 0.024872
0.911484 -0.754428 6.000280 119 255 129 0.060730
1.028010 -0.365982 6.038000 0 217 255 0.013479
1.006500 -0.398417 6.029460 0 221 255 0.013849
1.033780 -0.401582 6.035030 42 255 206 0.025716
1.056670 -0.370006 6.044290 16 249 232 0.018893
1.000180 -0.430980 6.019390 0 221 255 0.013768
0.995022 -0.462520 6.005380 13 245 235 0.017869
0.967491 -0.461289 5.997120 0 217 255 0.013233
0.971864 -0.428827 6.012100 0 229 248 0.015645
1.084220 -0.374772 6.050270 84 255 164 0.041775
1.060620 -0.405486 6.040450 51 255 196 0.029056
1.051100 -0.437461 6.029420 61 255 187 0.033012
1.019830 -0.465133 6.010930 67 255 180 0.035482
1.026130 -0.434298 6.024690 42 255 206 0.026567
0.979369 -0.565898 5.978400 138 255 109 0.071997
0.984488 -0.531728 5.987380 93 255 155 0.046790
0.956162 -0.564172 5.970870 113 255 135 0.057225
0.960180 -0.530326 5.979210 71 255 177 0.036221
0.989255 -0.497343 5.996740 48 255 200 0.027989
1.013290 -0.499640 6.002870 100 255 148 0.048889
0.932071 -0.563518 5.962460 103 255 145 0.051798
0.934899 -0.529549 5.971180 58 255 190 0.031129
0.906230 -0.562950 5.952660 100 255 148 0.049274
0.937509 -0.494778 5.980220 16 249 232 0.018746
0.963585 -0.496069 5.988460 29 255 219 0.022320
1.190900 -0.466694 6.058140 177 255 71 0.100653
1.182110 -0.495677 6.045320 193 255 55 0.116311
1.159180 -0.490032 6.039960 184 255 64 0.107106
1.167980 -0.460866 6.052620 161 255 87 0.087386
1.155490 -0.589577 6.035690 232 255 16 0.160231
1.164610 -0.558529 6.038640 219 255 29 0.143227
1.132580 -0.586565 6.028770 225 255 22 0.151551
1.141480 -0.555348 6.031980 209 255 38 0.134697
1.172870 -0.526697 6.041310 203 255 45 0.127356
1.110990 -0.582869 6.022110 222 255 25 0.149025
1.119600 -0.550001 6.025990 203 255 45 0.126612
1.088630 -0.579467 6.014730 213 255 35 0.137998
1.127860 -0.516984 6.029990 184 255 64 0.107805
1.150590 -0.522319 6.035850 196 255 51 0.121227
0.754900 -1.032720 6.249500 122 255 126 0.062820
0.741360 -1.040970 6.279740 106 255 142 0.053082
0.734046 -1.041080 6.277840 116 255 132 0.057694
0.719988 -1.047580 6.308960 93 255 155 0.047075
0.727441 -1.047780 6.310510 87 255 161 0.043745
0.712485 -1.047370 6.307940 96 255 151 0.048172
0.705651 -1.053410 6.340840 80 255 167 0.040277
0.698146 -1.053120 6.340110 87 255 161 0.043211
0.683580 -1.058990 6.372740 87 255 161 0.043453
0.713701 -1.054080 6.342200 77 255 171 0.038446
0.691636 -1.059910 6.373330 87 255 161 0.042566
0.699640 -1.061020 6.374140 84 255 164 0.041904
0.690114 -1.052350 6.339630 87 255 161 0.043215
0.675348 -1.057590 6.372510 87 255 161 0.043100
0.666789 -1.055950 6.372050 87 255 161 0.043319
0.681709 -1.050700 6.340180 87 255 161 0.042622
0.705021 -1.046930 6.308530 100 255 148 0.049460
0.696579 -1.045440 6.309040 96 255 151 0.048138
0.719543 -1.041240 6.278170 116 255 132 0.058958
0.726947 -1.041140 6.277880 113 255 135 0.057042
0.740472 -1.033930 6.248100 135 255 113 0.069968
0.711158 -1.040310 6.278270 119 255 129 0.059302
0.733184 -1.034860 6.247810 142 255 106 0.074115
0.724203 -1.034730 6.247480 142 255 106 0.075067
0.747528 -1.033000 6.248630 125 255 122 0.064227
0.688358 -1.059460 6.410350 48 255 200 0.028359
0.679033 -1.059640 6.402890 64 255 184 0.033969
0.666185 -1.058810 6.438280 51 255 196 0.029739
0.676481 -1.060400 6.446340 51 255 196 0.029068
0.656664 -1.058250 6.431450 64 255 184 0.034131
0.653949 -1.060050 6.474180 74 255 174 0.037979
0.644142 -1.058370 6.466960 77 255 171 0.038713
0.664262 -1.064150 6.482300 87 255 161 0.043907
0.635103 -1.057290 6.460680 84 255 164 0.041442
0.626844 -1.054100 6.460460 74 255 174 0.038340
0.648421 -1.056360 6.431500 64 255 184 0.033811
0.639623 -1.053640 6.431360 61 255 187 0.032479
0.661703 -1.056300 6.402040 64 255 184 0.034147
0.670264 -1.057950 6.402390 64 255 184 0.033373
0.653087 -1.054160 6.401890 64 255 184 0.033917
0.601493 -1.034860 6.438580 0 229 248 0.015407
0.614235 -1.035620 6.411730 0 221 255 0.014314
0.624269 -1.041510 6.417810 16 249 232 0.018682
0.627253 -1.037010 6.384450 9 241 238 0.017374
0.637401 -1.042930 6.390450 25 255 222 0.021644
0.650464 -1.045270 6.362580 58 255 190 0.031054
0.640057 -1.039550 6.356790 42 255 206 0.026429
0.645840 -1.048660 6.395440 45 255 203 0.027230
0.659194 -1.050710 6.367560 74 255 174 0.037063
0.632620 -1.047640 6.425000 35 255 213 0.024347
0.619608 -1.047450 6.453990 48 255 200 0.028001
0.611339 -1.040930 6.446670 19 253 229 0.019951
0.653756 -1.035570 6.324880 51 255 196 0.029577
0.667104 -1.032530 6.294710 74 255 174 0.038055
0.678618 -1.036660 6.298780 84 255 164 0.041507
0.679601 -1.030040 6.264120 113 255 135 0.056699
0.691828 -1.033120 6.268930 109 255 138 0.054875
0.704071 -1.030250 6.238490 148 255 100 0.077762
0.691706 -1.028440 6.232220 155 255 93 0.083607
0.702319 -1.036820 6.272780 116 255 132 0.057289
0.715075 -1.032370 6.243120 142 255 106 0.075045
0.688618 -1.041360 6.304220 90 255 158 0.044410
0.674195 -1.046080 6.335720 71 255 177 0.036617
0.664782 -1.040740 6.330500 61 255 187 0.032795
0.702722 -1.016370 6.197390 167 255 80 0.092710
0.713125 -1.001070 6.163990 167 255 80 0.095033
0.725121 -0.999392 6.172390 145 255 103 0.076878
0.722127 -0.985142 6.130590 184 255 64 0.106500
0.734517 -0.982479 6.140170 148 255 100 0.079740
0.743578 -0.966731 6.107240 167 255 80 0.093257
0.731307 -0.969804 6.096740 206 255 42 0.130003
0.746212 -0.980329 6.148610 125 255 122 0.063456
0.755318 -0.963681 6.116770 132 255 116 0.067195
0.765780 -0.960583 6.125230 103 255 145 0.051366
0.756612 -0.979651 6.157180 103 255 145 0.051029
0.737550 -0.999996 6.180370 135 255 113 0.069160
0.747434 -0.999418 6.187850 113 255 135 0.056916
0.727070 -1.017150 6.212310 135 255 113 0.070903
0.715997 -1.016770 6.205300 148 255 100 0.079986
0.736419 -1.018090 6.217790 125 255 122 0.063189
0.765545 -0.914988 6.049410 145 255 103 0.077523
0.778580 -0.887851 6.022530 155 255 93 0.082895
0.799890 -0.883157 6.041210 77 255 171 0.039548
0.776838 -0.912453 6.059140 109 255 138 0.055238
0.787328 -0.909025 6.069260 67 255 180 0.035348
0.764947 -0.938659 6.087950 119 255 129 0.059584
0.753751 -0.942327 6.077430 161 255 87 0.088764
0.774951 -0.935474 6.097250 87 255 161 0.042689
0.833010 -0.869167 6.066040 6 237 242 0.016707
0.812139 -0.898126 6.087120 6 237 242 0.016705
0.800780 -0.924684 6.113320 22 255 225 0.020372
0.784284 -0.954459 6.134660 61 255 187 0.032887
0.798358 -0.950337 6.141170 42 255 206 0.025957
0.817524 -0.874602 6.054890 25 255 222 0.021250
0.788843 -0.971158 6.169430 55 255 193 0.030423
0.781337 -0.972714 6.166990 61 255 187 0.032741
0.771171 -0.993817 6.194330 77 255 171 0.038436
0.778319 -0.992363 6.196390 74 255 174 0.037335
0.764013 -0.995488 6.192740 87 255 161 0.043892
0.759856 -1.013890 6.221740 100 255 148 0.049059
0.752700 -1.015400 6.220480 109 255 138 0.054049
0.766925 -1.012720 6.223210 93 255 155 0.046215
0.791587 -0.985913 6.198300 48 255 200 0.028610
0.802844 -0.964198 6.172320 38 255 209 0.025144
0.813282 -0.943169 6.144870 25 255 222 0.021721
0.829683 -0.936950 6.149260 19 253 229 0.019885
0.820457 -0.957766 6.174280 25 255 222 0.021506
0.810500 -0.979140 6.198290 38 255 209 0.024814
0.790673 -1.003050 6.222730 64 255 184 0.034010
0.771318 -1.026430 6.247320 100 255 148 0.049086
0.789721 -1.020690 6.246080 84 255 164 0.042172
0.814604 -0.919480 6.120870 19 253 229 0.019453
0.825494 -0.892391 6.096140 9 241 238 0.017525
0.846787 -0.863232 6.075720 16 249 232 0.019056
0.863826 -0.858155 6.084500 32 255 216 0.023552
0.841133 -0.886150 6.103510 29 255 219 0.022517
0.830444 -0.912803 6.125860 25 255 222 0.021278
0.900403 -0.852653 6.098090 29 255 219 0.022658
0.878280 -0.876540 6.117210 42 255 206 0.026460
0.867131 -0.900778 6.136250 32 255 216 0.023089
0.848021 -0.929427 6.152740 16 249 232 0.018934
0.867121 -0.924032 6.155380 9 241 238 0.017498
0.848151 -0.906956 6.132430 32 255 216 0.023545
0.859230 -0.880773 6.111100 45 255 203 0.026817
0.881336 -0.854739 6.092810 38 255 209 0.025316
0.858800 -0.944187 6.176920 16 249 232 0.018631
0.839775 -0.968547 6.199060 25 255 222 0.021047
0.831576 -0.989880 6.220200 42 255 206 0.026447
0.811596 -1.013910 6.243220 74 255 174 0.037496
0.834230 -1.008560 6.239900 77 255 171 0.039407
0.809597 -0.996942 6.222980 48 255 200 0.027651
0.838782 -0.950937 6.176570 19 253 229 0.020080
0.853166 -0.984500 6.220370 38 255 209 0.025181
0.860929 -0.962597 6.199440 19 253 229 0.019579
0.878356 -0.939083 6.180130 9 241 238 0.017701
0.886948 -0.918886 6.159270 6 237 242 0.016903
0.907676 -0.916060 6.161970 3 233 245 0.015736
0.899248 -0.935129 6.181770 6 237 242 0.016909
0.881371 -0.957629 6.201170 19 253 229 0.019744
0.873632 -0.978493 6.220480 38 255 209 0.025149
0.855186 -1.002870 6.239730 71 255 177 0.036980
0.876350 -0.997990 6.239620 77 255 171 0.039664
0.887189 -0.897330 6.141210 22 255 225 0.020671
0.898687 -0.873811 6.122470 29 255 219 0.022682
0.921964 -0.851898 6.104710 19 253 229 0.020155
0.943765 -0.851294 6.109330 16 249 232 0.018878
0.919592 -0.872420 6.126900 13 245 235 0.018527
0.908012 -0.894049 6.144680 9 241 238 0.017433
0.989034 -0.850870 6.118950 84 255 164 0.042259
0.963292 -0.871305 6.134670 19 253 229 0.019440
0.951131 -0.891657 6.151320 9 241 238 0.017567
0.929297 -0.913581 6.165720 3 233 245 0.016024
0.950715 -0.912817 6.167820 22 255 225 0.020564
0.929431 -0.892931 6.148710 0 229 248 0.015324
0.941515 -0.871556 6.131130 6 237 242 0.016844
0.965759 -0.851518 6.114440 32 255 216 0.023014
0.940745 -0.930548 6.186110 22 255 225 0.020409
0.921728 -0.951027 6.204330 29 255 219 0.022001
0.913064 -0.971138 6.222330 48 255 200 0.028464
0.895297 -0.993361 6.240670 74 255 174 0.038151
0.914227 -0.989848 6.241320 80 255 167 0.040774
0.893667 -0.974936 6.221390 45 255 203 0.026806
0.901477 -0.953585 6.202770 19 253 229 0.020112
0.919986 -0.932586 6.184880 9 241 238 0.017639
0.932355 -0.968754 6.223980 61 255 187 0.032710
0.941408 -0.948871 6.205760 42 255 206 0.026117
0.961135 -0.929555 6.188580 38 255 209 0.024906
0.970731 -0.911574 6.170220 35 255 213 0.024369
0.991091 -0.910350 6.172720 58 255 190 0.031677
0.980939 -0.927288 6.190870 51 255 196 0.029363
0.961562 -0.946786 6.207950 55 255 193 0.029906
0.951100 -0.965405 6.225720 64 255 184 0.033902
0.931822 -0.986435 6.242780 80 255 167 0.040653
0.950096 -0.983491 6.244110 87 255 161 0.043185
0.972444 -0.891796 6.154130 25 255 222 0.021762
0.985420 -0.870839 6.138210 74 255 174 0.037891
1.010150 -0.850649 6.123370 103 255 145 0.051863
1.031560 -0.849413 6.127180 116 255 132 0.058937
1.006930 -0.870022 6.141820 93 255 155 0.045587
0.993606 -0.889975 6.157250 48 255 200 0.028191
1.074640 -0.847308 6.135040 142 255 106 0.073948
1.048770 -0.868581 6.147830 125 255 122 0.062908
1.035180 -0.888530 6.162330 116 255 132 0.057415
1.011440 -0.909477 6.174870 74 255 174 0.037149
1.032070 -0.908451 6.177130 119 255 129 0.059905
1.014330 -0.889881 6.159930 96 255 151 0.048527
1.027870 -0.869590 6.144780 106 255 142 0.053207
1.052430 -0.849068 6.131000 132 255 116 0.068871
1.020710 -0.925296 6.194320 87 255 161 0.042576
0.999466 -0.943869 6.210710 80 255 167 0.039818
0.987835 -0.962068 6.227840 84 255 164 0.042207
0.967704 -0.981526 6.245200 90 255 158 0.044765
0.986807 -0.979702 6.246260 100 255 148 0.049932
0.969257 -0.963896 6.226840 74 255 174 0.037798
0.980446 -0.945216 6.209270 64 255 184 0.033941
1.000110 -0.926601 6.192510 67 255 180 0.035627
1.008230 -0.961659 6.228950 100 255 148 0.048934
1.019870 -0.943007 6.212040 87 255 161 0.043995
1.042010 -0.925617 6.195740 129 255 119 0.065547
1.053750 -0.908385 6.178800 135 255 113 0.069718
1.040350 -0.942948 6.212770 109 255 138 0.053997
1.028290 -0.961191 6.229310 113 255 135 0.055714
1.006420 -0.979601 6.246490 113 255 135 0.055593
1.056750 -0.888314 6.164790 122 255 126 0.062395
1.070860 -0.867498 6.150900 135 255 113 0.069090
1.097260 -0.846862 6.138410 158 255 90 0.086092
1.116600 -0.803972 6.111170 187 255 61 0.110810
0.648741 -0.844564 5.934250 255 230 0 0.198257
0.634244 -0.865018 5.954470 251 241 0 0.184453
0.621177 -0.853134 5.950720 219 255 29 0.143776
0.619317 -0.885431 5.975660 238 255 9 0.168504
0.605642 -0.874085 5.971470 216 255 32 0.138304
0.589595 -0.893617 5.994230 213 255 35 0.135269
0.604080 -0.905452 5.998840 238 255 9 0.165506
0.591931 -0.862091 5.967960 187 255 61 0.109776
0.575729 -0.882086 5.989330 187 255 61 0.111084
0.561478 -0.871312 5.984200 171 255 77 0.096643
0.592651 -0.834952 5.944450 187 255 61 0.110062
0.622173 -0.826722 5.927870 219 255 29 0.144320
0.648927 -0.817836 5.912230 255 230 0 0.196006
0.621744 -0.801332 5.906640 225 255 22 0.151462
0.587950 -0.916116 6.026850 200 255 48 0.121744
0.573417 -0.927036 6.056500 164 255 84 0.092265
0.558419 -0.914013 6.050200 142 255 106 0.074006
0.559167 -0.935085 6.088950 122 255 126 0.061947
0.543678 -0.922283 6.082410 109 255 138 0.054728
0.528578 -0.910518 6.075530 116 255 132 0.058111
0.514337 -0.897524 6.071890 122 255 126 0.062741
0.543829 -0.902454 6.045220 129 255 119 0.066863
0.529829 -0.890915 6.040630 132 255 116 0.068308
0.559094 -0.893050 6.016360 158 255 90 0.085845
0.573485 -0.904595 6.021430 177 255 71 0.100557
0.545809 -0.881632 6.011180 145 255 103 0.077103
0.461075 -0.858331 6.057180 209 255 38 0.133646
0.489004 -0.860277 6.029200 177 255 71 0.102011
0.503524 -0.853840 5.999420 161 255 87 0.089594
0.533031 -0.853434 5.975830 167 255 80 0.093784
0.504668 -0.836520 5.968150 174 255 74 0.098021
0.530910 -0.871891 6.006640 148 255 100 0.079754
0.514995 -0.880803 6.036190 142 255 106 0.075214
0.500177 -0.887814 6.067880 148 255 100 0.078013
0.486428 -0.877660 6.063740 167 255 80 0.094011
0.519027 -0.820646 5.947850 161 255 87 0.087850
0.547850 -0.811227 5.933060 164 255 84 0.090267
0.562431 -0.796142 5.915270 174 255 74 0.098483
0.591516 -0.787081 5.902250 193 255 55 0.116120
0.561176 -0.774429 5.896260 174 255 74 0.099670
0.592900 -0.810625 5.920280 196 255 51 0.120188
0.563049 -0.844132 5.959010 167 255 80 0.094267
0.742951 -0.630759 5.881500 155 255 93 0.082483
0.730317 -0.661252 5.883240 161 255 87 0.087647
0.704899 -0.688594 5.882490 164 255 84 0.091595
0.694186 -0.717125 5.882290 203 255 45 0.124737
0.666764 -0.710709 5.877210 177 255 71 0.102382
0.675800 -0.684505 5.877980 145 255 103 0.075600
0.701143 -0.658140 5.878150 135 255 113 0.069609
0.711770 -0.629553 5.876500 125 255 122 0.062953
0.697587 -0.745125 5.890920 222 255 25 0.148576
0.685770 -0.772121 5.898000 238 255 9 0.165768
0.661198 -0.792137 5.902660 242 253 6 0.171606
0.633821 -0.778776 5.898010 209 255 38 0.133630
0.659435 -0.761236 5.891450 216 255 32 0.141437
0.670293 -0.738217 5.885400 206 255 42 0.128724
0.573360 -0.754080 5.890220 164 255 84 0.090872
0.601795 -0.739572 5.884360 161 255 87 0.087843
0.612501 -0.720454 5.878520 151 255 96 0.081472
0.637357 -0.704491 5.874610 155 255 93 0.084515
0.607033 -0.697112 5.870820 135 255 113 0.070760
0.642714 -0.729116 5.881120 177 255 71 0.103278
0.631902 -0.750664 5.887130 190 255 58 0.112296
0.604991 -0.765201 5.894300 180 255 67 0.104616
0.615051 -0.674204 5.870380 100 255 148 0.049985
0.639725 -0.651887 5.869040 84 255 164 0.042144
0.647498 -0.626179 5.865760 77 255 171 0.038765
0.680450 -0.627026 5.870770 103 255 145 0.050944
0.671049 -0.655206 5.873090 116 255 132 0.057339
0.646890 -0.679710 5.872370 129 255 119 0.065817
0.531929 -0.784385 5.909410 167 255 80 0.093289
0.518587 -0.800397 5.924500 167 255 80 0.095012
0.490443 -0.809785 5.941880 171 255 77 0.095915
0.477419 -0.824346 5.963750 177 255 71 0.102728
0.450944 -0.814704 5.960370 193 255 55 0.117123
0.462494 -0.800424 5.938830 177 255 71 0.101814
0.488898 -0.789886 5.920470 164 255 84 0.090060
0.501486 -0.775816 5.903300 158 255 90 0.086200
0.530422 -0.765343 5.891100 171 255 77 0.097294
0.498967 -0.757069 5.887430 164 255 84 0.090531
0.477061 -0.838451 5.993770 190 255 58 0.113200
0.463324 -0.845173 6.024210 203 255 45 0.127784
0.437033 -0.848003 6.050500 242 253 6 0.168935
0.423667 -0.861045 6.076700 238 255 9 0.164997
0.400295 -0.860953 6.065160 238 255 9 0.165243
0.413975 -0.844687 6.042060 248 245 0 0.179488
0.438425 -0.834692 6.019070 232 255 16 0.158505
0.451242 -0.826732 5.990370 209 255 38 0.132180
0.356872 -0.881434 6.038620 196 255 51 0.121060
0.369465 -0.862176 6.018810 213 255 35 0.137200
0.392047 -0.839194 6.002440 222 255 25 0.149021
0.403383 -0.824438 5.978890 219 255 29 0.142521
0.426778 -0.811886 5.956360 203 255 45 0.125067
0.403381 -0.813544 5.951070 200 255 48 0.123726
0.426826 -0.822222 5.985420 222 255 25 0.146500
0.414450 -0.833460 6.011870 238 255 9 0.167827
0.391264 -0.850918 6.031140 235 255 13 0.163240
0.378236 -0.868896 6.052790 219 255 29 0.144743
0.412253 -0.795474 5.932210 187 255 61 0.111743
0.434424 -0.779868 5.914960 174 255 74 0.098368
0.445196 -0.765304 5.896200 158 255 90 0.086297
0.470426 -0.752539 5.881930 161 255 87 0.088209
0.441626 -0.748984 5.876410 151 255 96 0.081308
0.473060 -0.768998 5.899470 161 255 87 0.089690
0.461082 -0.783366 5.917160 171 255 77 0.096411
0.437038 -0.796659 5.935660 184 255 64 0.107047
-0.423593 -1.051350 5.663300 0 145 255 0.005581
-0.432170 -1.046420 5.686600 0 129 255 0.004442
-0.457751 -1.042860 5.678110 0 133 255 0.004654
-0.466434 -1.041130 5.702550 0 133 255 0.004548
-0.441225 -1.043580 5.711020 0 129 255 0.004412
-0.492436 -1.039250 5.693720 0 133 255 0.004738
-0.474734 -1.040980 5.727180 0 157 255 0.006448
-0.500260 -1.039690 5.718670 0 157 255 0.006481
-0.508217 -1.041580 5.743020 0 229 248 0.015092
-0.449769 -1.042620 5.735670 0 157 255 0.006604
-0.483059 -1.042250 5.751800 0 217 255 0.013534
-0.458066 -1.043190 5.760020 0 217 255 0.013421
-0.525543 -1.039190 5.709720 0 161 255 0.006712
-0.533205 -1.041360 5.734280 6 237 242 0.016635
-0.557634 -1.041090 5.725240 16 249 232 0.018814
-0.551438 -1.039640 5.701450 0 181 255 0.008676
-0.519029 -1.038800 5.685950 0 129 255 0.004328
-0.545240 -1.039390 5.677970 0 137 255 0.004813
-0.512451 -1.039860 5.662420 0 129 255 0.004310
-0.484965 -1.040890 5.670540 0 133 255 0.004755
-0.477991 -1.043940 5.647630 0 133 255 0.004719
-0.538592 -1.039500 5.654350 0 125 255 0.004202
-0.505677 -1.041850 5.639530 0 133 255 0.004736
-0.531989 -1.040950 5.632000 0 133 255 0.004599
-0.450639 -1.047140 5.655600 0 129 255 0.004494
-0.468184 -1.043060 5.786850 45 255 203 0.027215
-0.491239 -1.041920 5.777440 45 255 203 0.027409
-0.501186 -1.042250 5.804130 100 255 148 0.049959
-0.478070 -1.042970 5.813300 96 255 151 0.047267
-0.523991 -1.041680 5.794610 103 255 145 0.051059
-0.510689 -1.040930 5.830420 142 255 106 0.073868
-0.533204 -1.040400 5.821310 145 255 103 0.077375
-0.541757 -1.036520 5.847280 174 255 74 0.099860
-0.487582 -1.041130 5.839600 135 255 113 0.070815
-0.519362 -1.036420 5.856190 167 255 80 0.094470
-0.496308 -1.036860 5.865290 164 255 84 0.090727
-0.555670 -1.040530 5.811690 155 255 93 0.082669
-0.564296 -1.037350 5.838020 187 255 61 0.109374
-0.585903 -1.038510 5.828720 196 255 51 0.118545
-0.579279 -1.042030 5.803340 167 255 80 0.095002
-0.548139 -1.042180 5.786380 113 255 135 0.056453
-0.571930 -1.042820 5.777700 125 255 122 0.064409
-0.540706 -1.042000 5.760500 61 255 187 0.033209
-0.516144 -1.041890 5.769040 51 255 196 0.029304
-0.564735 -1.042220 5.751330 74 255 174 0.038098
-0.682974 -1.030780 5.778640 196 255 51 0.119105
-0.677224 -1.032410 5.752440 167 255 80 0.093257
-0.652052 -1.035430 5.766030 164 255 84 0.090782
-0.646329 -1.034790 5.739660 119 255 129 0.060291
-0.671487 -1.031740 5.726230 125 255 122 0.064511
-0.620868 -1.037560 5.752880 119 255 129 0.060066
-0.640106 -1.032760 5.713390 67 255 180 0.035210
-0.614992 -1.035700 5.726600 64 255 184 0.033773
-0.608640 -1.034180 5.700270 6 237 242 0.017009
