ply
format ascii 1.0
comment VCGLIB generated
element vertex 1014
property float x
property float y
property float z
property uchar red
property uchar green
property uchar blue
property float quality
end_header
0.065460 -0.005897 0.848855 0 7 255 0.040611
0.061816 -0.005926 0.847153 0 0 255 0.038952
0.060553 -0.005383 0.849921 0 7 255 0.039672
0.064237 -0.005482 0.851716 0 7 255 0.042744
0.069110 -0.005917 0.850599 0 7 255 0.042882
0.067851 -0.005590 0.853483 0 34 255 0.047605
0.072714 -0.005933 0.852258 0 20 255 0.044803
0.074058 -0.005639 0.849152 0 0 250 0.033829
0.071419 -0.005751 0.855154 0 47 255 0.051005
0.060364 -0.002872 0.859145 0 0 204 0.021490
0.063908 -0.003290 0.861008 0 0 219 0.026225
0.065142 -0.004338 0.858621 0 0 255 0.038744
0.067331 -0.003772 0.862792 0 0 250 0.033443
0.068612 -0.004750 0.860376 0 20 255 0.046316
0.072044 -0.005231 0.862097 0 60 255 0.057188
0.070734 -0.004326 0.864556 0 20 255 0.043199
0.069987 -0.005466 0.857821 0 47 255 0.054384
0.073429 -0.005827 0.859515 0 87 255 0.062876
0.066463 -0.005156 0.856134 0 34 255 0.047512
0.062870 -0.004941 0.854357 0 7 255 0.041988
0.061589 -0.004030 0.856831 0 0 250 0.032433
0.057970 -0.003769 0.855004 0 0 234 0.028287
0.059219 -0.004748 0.852542 0 0 255 0.036902
0.056774 -0.002536 0.857294 0 0 189 0.017965
0.074268 -0.004858 0.866321 0 47 255 0.054031
0.077853 -0.005384 0.868198 0 87 255 0.065325
0.079202 -0.006006 0.865617 0 127 255 0.074635
0.082061 -0.005731 0.870410 0 114 255 0.072913
0.083334 -0.006196 0.867801 0 141 255 0.079268
0.084695 -0.006280 0.865086 0 127 255 0.076174
0.080607 -0.006290 0.862993 0 127 255 0.076126
0.076980 -0.006107 0.861206 0 114 255 0.071109
0.075590 -0.005659 0.863826 0 101 255 0.067739
0.033359 -0.127225 0.863195 0 101 255 0.069416
0.035383 -0.128190 0.859735 0 127 255 0.075628
0.039112 -0.127588 0.857322 0 167 255 0.087268
0.041255 -0.127787 0.853953 0 181 255 0.091057
0.044980 -0.126831 0.851710 0 208 255 0.099597
0.041763 -0.128654 0.849587 0 194 255 0.096929
0.044580 -0.126013 0.856124 0 208 255 0.097699
0.048267 -0.125308 0.853906 0 221 255 0.104580
0.042589 -0.125801 0.859423 0 208 255 0.098104
0.040657 -0.125553 0.862775 0 181 255 0.091385
0.036970 -0.125588 0.865137 0 154 255 0.082636
0.040645 -0.124350 0.867211 0 194 255 0.095624
0.043721 -0.127532 0.846440 0 208 255 0.100030
0.047121 -0.125176 0.844378 4 234 244 0.109263
0.049002 -0.123612 0.841271 26 255 222 0.117046
0.052034 -0.122267 0.843280 80 255 168 0.133949
0.050211 -0.123675 0.846407 47 255 201 0.122814
0.048381 -0.124910 0.849548 15 248 233 0.112336
0.055163 -0.122786 0.849584 58 255 190 0.127623
0.053492 -0.123779 0.852973 36 255 211 0.117239
0.051841 -0.124725 0.856333 4 234 244 0.106668
0.055243 -0.121495 0.845234 101 255 147 0.142073
0.051838 -0.124667 0.860872 0 221 255 0.103879
0.050098 -0.124534 0.864240 0 208 255 0.101263
0.048154 -0.124567 0.862978 0 208 255 0.101137
0.048337 -0.124221 0.867592 0 208 255 0.100707
0.046374 -0.124327 0.866350 0 208 255 0.097841
0.044555 -0.123847 0.869646 0 194 255 0.094867
0.046584 -0.123987 0.870950 0 167 255 0.087374
0.044395 -0.124511 0.865093 0 208 255 0.100850
0.042615 -0.124035 0.868452 0 194 255 0.097578
0.048169 -0.124946 0.858420 4 234 244 0.106045
0.020682 -0.114324 0.885039 154 255 94 0.210032
0.024337 -0.115041 0.882882 154 255 94 0.208947
0.026044 -0.116588 0.879802 140 255 108 0.179894
0.029626 -0.118313 0.877790 112 255 136 0.147151
0.025898 -0.119393 0.875951 36 255 211 0.118514
0.029821 -0.116105 0.881841 146 255 102 0.193815
0.033426 -0.117965 0.879827 127 255 121 0.154309
0.028180 -0.114720 0.884989 157 255 90 0.218442
0.026405 -0.113788 0.888217 161 255 87 0.223672
0.027703 -0.121390 0.872887 0 181 255 0.090113
0.031339 -0.122600 0.870687 0 167 255 0.088940
0.033236 -0.124621 0.867431 0 127 255 0.077733
0.036874 -0.123289 0.869375 0 194 255 0.094807
0.035067 -0.121576 0.872564 15 248 233 0.109993
0.033238 -0.119678 0.875663 69 255 179 0.132406
0.044763 -0.122888 0.874095 0 181 255 0.092651
0.042958 -0.121630 0.877196 0 208 255 0.100735
0.040961 -0.121542 0.876020 4 234 244 0.107552
0.041213 -0.120552 0.880365 0 221 255 0.105317
0.039196 -0.120143 0.879134 26 255 222 0.114831
0.037470 -0.118853 0.882322 58 255 190 0.125785
0.039426 -0.119432 0.883504 4 234 244 0.108680
0.037117 -0.119730 0.877899 58 255 190 0.126801
0.035450 -0.118344 0.881073 101 255 147 0.143947
0.038936 -0.121252 0.874746 15 248 233 0.112315
0.040686 -0.122538 0.871558 0 221 255 0.103563
0.042757 -0.122738 0.872842 0 208 255 0.098113
0.037638 -0.118170 0.886676 47 255 201 0.121815
0.035854 -0.117113 0.889863 58 255 190 0.126115
0.033986 -0.116147 0.888637 129 255 119 0.158808
0.033972 -0.116567 0.893221 36 255 211 0.119958
0.032159 -0.115335 0.891907 131 255 117 0.162254
0.030250 -0.114528 0.890617 144 255 104 0.188623
0.032072 -0.115320 0.887327 144 255 104 0.190572
0.033769 -0.116651 0.884153 135 255 113 0.170070
0.035725 -0.117273 0.885399 112 255 136 0.147704
0.074032 -0.052945 0.806250 0 0 189 0.019204
0.077106 -0.052562 0.807297 0 0 204 0.021916
0.076196 -0.057113 0.806823 0 0 204 0.022860
0.080135 -0.052235 0.808424 0 0 204 0.022736
0.079215 -0.056831 0.807923 0 0 219 0.023849
0.082322 -0.056500 0.808998 0 0 219 0.026012
0.083053 -0.052087 0.809731 0 0 204 0.021927
0.078498 -0.061245 0.807375 0 0 219 0.025721
0.081559 -0.060965 0.808379 0 0 234 0.029773
0.080918 -0.065268 0.807929 0 0 250 0.032667
0.078090 -0.065501 0.807075 0 0 234 0.029911
0.075726 -0.061443 0.806498 0 0 204 0.022527
0.075309 -0.065673 0.806372 0 0 219 0.024562
0.073068 -0.061635 0.805595 0 0 204 0.021230
0.073495 -0.057365 0.805898 0 0 204 0.020551
0.070869 -0.057548 0.804917 0 0 189 0.018860
0.072633 -0.065840 0.805539 0 0 204 0.022388
0.070423 -0.061839 0.804732 0 0 189 0.018854
0.070083 -0.065944 0.804694 0 0 204 0.020318
0.071410 -0.053078 0.805191 0 0 189 0.018041
0.085764 -0.052115 0.810900 0 0 204 0.022115
0.088661 -0.052039 0.812251 0 0 204 0.019563
0.087822 -0.056502 0.811282 0 0 219 0.025581
0.091489 -0.052039 0.813463 0 0 204 0.019782
0.090735 -0.056408 0.812569 0 0 219 0.025162
0.089875 -0.060800 0.811566 0 0 250 0.032011
0.089290 -0.064917 0.810749 0 7 255 0.040036
0.087176 -0.060726 0.810475 0 0 250 0.031844
0.086586 -0.064914 0.809726 0 7 255 0.040178
0.084417 -0.060808 0.809412 0 0 250 0.031496
0.085178 -0.056463 0.810057 0 0 219 0.027292
0.083692 -0.065053 0.808891 0 0 250 0.034416
0.086210 -0.078178 0.810787 0 0 250 0.034522
0.082969 -0.082067 0.810449 0 0 255 0.035271
0.084407 -0.074075 0.810008 0 0 234 0.029885
0.081102 -0.078199 0.809753 0 0 219 0.027224
0.079268 -0.074064 0.808719 0 0 219 0.024697
0.077964 -0.081821 0.809533 0 0 234 0.030725
0.082527 -0.069767 0.809154 0 0 234 0.029004
0.085378 -0.069558 0.809922 0 0 250 0.033409
0.088221 -0.069428 0.810674 0 0 255 0.037317
0.087192 -0.073888 0.810690 0 0 250 0.034982
0.075966 -0.078155 0.808684 0 0 219 0.025079
0.073049 -0.081407 0.808547 0 0 234 0.027932
0.073870 -0.074215 0.807598 0 0 204 0.020194
0.071106 -0.077879 0.807487 0 0 204 0.021916
0.069118 -0.074090 0.806175 0 0 204 0.019978
0.068208 -0.080985 0.807297 0 0 219 0.026364
0.071953 -0.070169 0.806175 0 0 189 0.019142
0.074535 -0.070066 0.806966 0 0 204 0.020474
0.077253 -0.069991 0.807556 0 0 219 0.023927
0.076550 -0.074167 0.808133 0 0 204 0.021864
0.069749 -0.084474 0.809070 0 0 234 0.029315
0.071291 -0.087800 0.810561 0 0 255 0.036334
0.074668 -0.084918 0.810148 0 0 234 0.030316
0.076255 -0.088312 0.811533 0 0 255 0.036029
0.072831 -0.091093 0.811670 0 20 255 0.043804
0.074370 -0.094443 0.812379 0 47 255 0.051965
0.069746 -0.093815 0.811217 0 47 255 0.053852
0.068191 -0.090583 0.810261 0 20 255 0.043668
0.066640 -0.087291 0.809171 0 0 250 0.033616
0.065238 -0.093310 0.809678 0 47 255 0.052299
0.079499 -0.085470 0.810990 0 0 250 0.033945
0.080983 -0.089068 0.812280 0 7 255 0.040284
0.084401 -0.085886 0.811760 0 0 255 0.036697
0.080123 -0.092262 0.812752 0 20 255 0.046097
0.079105 -0.095330 0.812940 0 74 255 0.061666
0.074786 -0.103652 0.815735 0 154 255 0.085493
0.076201 -0.100867 0.814932 0 114 255 0.070383
0.071776 -0.099705 0.814296 0 87 255 0.065011
0.070452 -0.102501 0.815161 0 127 255 0.076518
0.075369 -0.097541 0.813780 0 87 255 0.062522
0.080026 -0.098630 0.814150 0 114 255 0.074130
0.066255 -0.101778 0.814329 0 127 255 0.075213
0.067306 -0.098941 0.813371 0 87 255 0.065833
0.063113 -0.098399 0.812002 0 87 255 0.065662
0.062060 -0.101155 0.813303 0 114 255 0.071456
0.066305 -0.096128 0.811593 0 74 255 0.059834
0.070805 -0.096689 0.812986 0 74 255 0.059365
0.084609 -0.141074 0.925007 0 0 219 0.024680
0.086340 -0.140428 0.926586 0 0 189 0.018562
0.085955 -0.142122 0.922433 0 0 219 0.027304
0.087661 -0.141467 0.924034 0 0 204 0.019881
0.089014 -0.142483 0.921483 0 0 204 0.021504
0.087261 -0.143123 0.919843 0 0 234 0.029350
0.089370 -0.141033 0.925651 0 0 189 0.017015
0.090706 -0.142038 0.923113 0 0 189 0.018008
0.092425 -0.141790 0.924773 0 0 174 0.015548
0.090334 -0.140297 0.928452 0 0 174 0.014657
0.087280 -0.139483 0.929340 0 0 189 0.016406
0.090013 -0.145087 0.915072 0 0 255 0.038007
0.091275 -0.144052 0.918284 0 0 219 0.027176
0.091716 -0.146223 0.911902 0 20 255 0.043683
0.092918 -0.145216 0.915130 0 0 250 0.031653
0.094650 -0.146307 0.911938 0 0 255 0.037169
0.093425 -0.147276 0.908704 0 47 255 0.051035
0.094218 -0.144418 0.918368 0 0 219 0.024705
0.095894 -0.145536 0.915177 0 0 234 0.028768
0.097142 -0.144953 0.918374 0 0 219 0.025511
0.094797 -0.143414 0.921622 0 0 204 0.019568
0.103686 -0.139583 0.926949 0 0 158 0.010966
0.100503 -0.140049 0.926260 0 0 174 0.011735
0.101690 -0.138560 0.928854 0 0 174 0.013709
0.097764 -0.140502 0.925755 0 0 158 0.011413
0.098689 -0.138967 0.928192 0 0 174 0.014089
0.095921 -0.139403 0.927643 0 0 174 0.013814
0.099772 -0.137481 0.930718 0 0 189 0.018018
0.095102 -0.141072 0.925273 0 0 174 0.012715
0.097503 -0.142673 0.922103 0 0 174 0.013430
0.100163 -0.142039 0.922530 0 0 158 0.011314
0.096660 -0.137726 0.930954 0 0 189 0.016992
0.098228 -0.136564 0.932903 0 0 204 0.020263
0.093761 -0.137957 0.931271 0 0 189 0.016361
0.095142 -0.136749 0.933124 0 0 204 0.019627
0.092058 -0.139038 0.929860 0 0 174 0.014128
0.105858 -0.137402 0.928428 0 0 189 0.017397
0.103034 -0.135990 0.930850 0 0 219 0.023813
0.100747 -0.134634 0.933532 0 0 234 0.030685
0.103418 -0.141370 0.923540 0 0 158 0.010695
0.103304 -0.143162 0.920200 0 0 174 0.012494
0.100152 -0.143995 0.919274 0 0 189 0.016027
0.100114 -0.146002 0.915991 0 0 234 0.028787
0.103248 -0.145014 0.916910 0 0 189 0.018875
0.103168 -0.146906 0.913585 0 0 250 0.032187
0.105619 -0.143837 0.918521 0 0 174 0.013588
0.105825 -0.142088 0.921930 0 0 158 0.010707
0.106202 -0.140362 0.925445 0 0 158 0.010392
0.108679 -0.141078 0.923836 0 0 158 0.010907
0.098324 -0.146095 0.913912 0 0 234 0.029786
0.097107 -0.146744 0.910706 0 0 250 0.035035
0.099640 -0.147144 0.909480 0 0 250 0.033943
0.095860 -0.147582 0.907472 0 34 255 0.047038
0.098342 -0.147885 0.906242 0 20 255 0.043274
0.096980 -0.148872 0.903014 0 74 255 0.061993
0.094537 -0.148669 0.904235 0 101 255 0.068105
0.100851 -0.148141 0.904993 0 7 255 0.040038
0.099412 -0.149060 0.901767 0 60 255 0.055104
0.101906 -0.149236 0.900517 0 47 255 0.053290
0.102667 -0.147797 0.907060 0 0 255 0.035195
0.101369 -0.146937 0.911533 0 0 250 0.032319
0.109143 -0.149447 0.897261 0 34 255 0.047125
0.109323 -0.148729 0.900456 0 0 255 0.037419
0.107900 -0.148112 0.904534 0 0 250 0.033576
0.107943 -0.147711 0.907779 0 0 250 0.032642
0.106359 -0.147300 0.911928 0 0 250 0.032132
0.109465 -0.147591 0.910109 0 0 250 0.031997
0.104752 -0.147492 0.909476 0 0 250 0.033316
0.104144 -0.148499 0.902979 0 0 255 0.038689
0.105531 -0.149328 0.898917 0 34 255 0.048971
0.110361 -0.146131 0.912754 0 0 219 0.024073
0.110159 -0.144547 0.916198 0 0 189 0.016947
0.111296 -0.143165 0.918996 0 0 174 0.013983
0.108723 -0.142757 0.920315 0 0 174 0.012278
0.105968 -0.145570 0.915194 0 0 204 0.020486
0.120946 -0.147218 0.906389 0 0 255 0.035986
0.119610 -0.147365 0.903517 0 0 250 0.034326
0.120895 -0.147369 0.900308 0 0 255 0.036839
0.120810 -0.147631 0.897240 0 0 255 0.036962
0.122021 -0.147882 0.894135 0 7 255 0.041341
0.119621 -0.148276 0.894484 0 7 255 0.040411
0.123461 -0.147290 0.896955 0 7 255 0.040698
0.124622 -0.147497 0.893823 0 20 255 0.044990
0.123468 -0.147100 0.899841 0 7 255 0.040195
0.123474 -0.147038 0.902779 0 7 255 0.039931
0.125955 -0.147095 0.896544 0 7 255 0.041780
0.127166 -0.147236 0.893637 0 20 255 0.046292
0.127103 -0.139967 0.870816 0 7 255 0.042432
0.124772 -0.142100 0.874222 0 7 255 0.042913
0.123563 -0.143816 0.877603 0 20 255 0.046206
0.121098 -0.145800 0.881138 0 34 255 0.049104
0.123519 -0.145270 0.880900 0 34 255 0.049137
0.121066 -0.144448 0.877765 0 20 255 0.044582
0.118554 -0.146374 0.881259 0 34 255 0.050181
0.122203 -0.142713 0.874215 0 7 255 0.041839
0.123226 -0.140929 0.870725 0 7 255 0.041795
0.122664 -0.145821 0.884303 0 7 255 0.040402
0.120586 -0.146686 0.887961 0 0 255 0.037101
0.119534 -0.147462 0.891368 0 0 255 0.038100
0.117238 -0.148607 0.895007 0 7 255 0.041116
0.117195 -0.147869 0.891870 0 0 255 0.038064
0.114855 -0.149014 0.895480 0 20 255 0.043089
0.118201 -0.147111 0.888331 0 0 255 0.036699
0.119046 -0.146529 0.884771 0 7 255 0.040358
0.110124 -0.148528 0.893518 0 0 255 0.036150
0.112581 -0.147699 0.889543 0 0 250 0.033631
0.113286 -0.147212 0.885754 0 0 255 0.035978
0.115506 -0.146734 0.881730 0 34 255 0.046895
0.112488 -0.147185 0.882176 0 20 255 0.046428
0.116307 -0.146892 0.885261 0 0 255 0.037989
0.115561 -0.147447 0.888897 0 0 255 0.035383
0.114559 -0.148156 0.892447 0 0 255 0.035774
0.112001 -0.149203 0.896410 0 20 255 0.044274
0.113655 -0.145633 0.878330 0 7 255 0.040205
0.116311 -0.143837 0.874558 0 0 255 0.038008
0.117354 -0.142175 0.870834 0 0 255 0.038224
0.120385 -0.141565 0.870857 0 7 255 0.040267
0.119377 -0.143273 0.874382 0 7 255 0.042261
0.118261 -0.144940 0.877907 0 20 255 0.044635
0.118462 -0.147926 0.897799 0 0 255 0.037126
0.118414 -0.147620 0.900792 0 0 250 0.032939
0.117238 -0.147506 0.904208 0 0 250 0.032601
0.117184 -0.147420 0.907320 0 0 255 0.036084
0.114792 -0.147584 0.908004 0 0 250 0.034454
0.114746 -0.147724 0.904755 0 0 250 0.032440
0.115986 -0.147842 0.901368 0 0 250 0.031882
0.115971 -0.148246 0.898278 0 0 255 0.035413
0.119429 -0.146062 0.909744 0 0 234 0.030563
0.116546 -0.144969 0.913515 0 0 219 0.023994
0.116856 -0.146209 0.910401 0 0 234 0.029972
0.114120 -0.143420 0.917869 0 0 189 0.016520
0.112860 -0.144726 0.914989 0 0 204 0.019532
0.113115 -0.146170 0.911734 0 0 219 0.025043
0.112063 -0.147603 0.909067 0 0 250 0.032858
0.110930 -0.147772 0.906390 0 0 234 0.030975
0.110836 -0.148113 0.903187 0 0 250 0.033766
0.112196 -0.148533 0.899558 0 0 255 0.035496
0.113465 -0.148018 0.902126 0 0 250 0.031709
0.105350 -0.144685 0.872365 0 20 255 0.046676
0.104968 -0.145238 0.876333 0 0 250 0.033207
0.107872 -0.143949 0.872125 0 0 255 0.035684
0.107942 -0.144918 0.876076 0 0 250 0.031314
0.104952 -0.146117 0.880335 0 0 234 0.028952
0.105135 -0.147466 0.884279 0 0 255 0.036834
0.103323 -0.147322 0.884637 0 0 250 0.033367
0.103252 -0.146185 0.880652 0 0 234 0.029562
0.101601 -0.147289 0.884989 0 0 250 0.032144
0.101690 -0.146401 0.880987 0 0 250 0.032649
0.103547 -0.145577 0.876659 0 0 255 0.037840
0.099968 -0.147418 0.885373 0 0 255 0.036436
0.111009 -0.143366 0.871483 0 0 250 0.033293
0.111475 -0.144433 0.875029 0 0 250 0.034259
0.114219 -0.142764 0.871033 0 0 255 0.036546
0.110212 -0.145846 0.879135 0 0 250 0.035036
0.108800 -0.147255 0.883241 0 0 255 0.038655
0.106516 -0.148477 0.894914 0 0 250 0.033988
0.107409 -0.147886 0.890893 0 0 234 0.029556
0.103740 -0.147869 0.892404 0 0 234 0.027795
0.102895 -0.148439 0.896471 0 0 250 0.035068
0.106296 -0.147524 0.887607 0 0 234 0.028562
0.109951 -0.147422 0.886511 0 0 250 0.033097
0.101071 -0.148108 0.896867 0 0 250 0.032628
0.098568 -0.147982 0.898087 0 0 255 0.035386
0.100136 -0.147372 0.893166 0 0 219 0.023868
0.096154 -0.147897 0.899340 0 7 255 0.039103
0.097744 -0.147325 0.894441 0 0 219 0.026794
0.099135 -0.147150 0.889457 0 0 219 0.024839
0.100853 -0.147169 0.889068 0 0 204 0.023267
0.102630 -0.147304 0.888697 0 0 219 0.025043
0.101944 -0.147601 0.892796 0 0 219 0.025628
0.130682 -0.145902 0.890245 0 34 255 0.050074
0.131535 -0.144942 0.887110 0 34 255 0.047520
0.133628 -0.144074 0.883934 0 47 255 0.051631
0.135760 -0.143149 0.880832 0 74 255 0.058885
0.133162 -0.143331 0.880859 0 47 255 0.052979
0.134485 -0.141518 0.877716 0 47 255 0.051672
0.137123 -0.139745 0.874637 0 47 255 0.051863
0.138386 -0.137965 0.871566 0 47 255 0.052247
0.141177 -0.137873 0.871644 0 60 255 0.057820
0.137112 -0.141432 0.877696 0 47 255 0.054404
0.121857 -0.147090 0.891045 0 0 255 0.038861
0.122856 -0.146252 0.887671 0 7 255 0.039093
0.124880 -0.145306 0.884185 0 7 255 0.042651
0.125720 -0.144667 0.880807 0 34 255 0.047539
0.128119 -0.144118 0.880772 0 34 255 0.048411
0.127247 -0.144816 0.883963 0 20 255 0.044962
0.125131 -0.145814 0.887370 0 7 255 0.040748
0.124207 -0.146681 0.890636 0 7 255 0.040659
0.125900 -0.143276 0.877577 0 20 255 0.044836
0.127135 -0.141478 0.874235 0 20 255 0.044126
0.129443 -0.139394 0.871038 0 7 255 0.042437
0.131974 -0.138825 0.871177 0 20 255 0.043595
0.129402 -0.140887 0.874299 0 20 255 0.044097
0.128161 -0.142628 0.877526 0 20 255 0.046758
0.135739 -0.138293 0.871504 0 20 255 0.045626
0.134516 -0.139996 0.874597 0 34 255 0.048262
0.131937 -0.141971 0.877685 0 34 255 0.047931
0.130564 -0.143703 0.880807 0 34 255 0.048720
0.131928 -0.140408 0.874433 0 20 255 0.044749
0.131048 -0.144303 0.884046 0 34 255 0.050485
0.128939 -0.145313 0.887280 0 20 255 0.045107
0.128067 -0.146209 0.890439 0 20 255 0.045556
-0.064423 -0.081793 0.718626 0 0 219 0.025111
-0.062235 -0.081220 0.719781 0 0 219 0.025666
-0.059459 -0.081623 0.720170 0 0 234 0.027534
-0.057347 -0.080997 0.721386 0 0 250 0.031851
-0.054719 -0.081375 0.721813 0 0 255 0.036400
-0.055978 -0.079298 0.723319 0 0 250 0.034886
-0.055987 -0.082940 0.719695 0 0 250 0.032045
-0.053291 -0.083224 0.719963 0 0 255 0.036177
-0.057078 -0.084371 0.717460 0 0 234 0.030384
-0.059929 -0.084089 0.717143 0 0 234 0.027934
-0.062759 -0.083707 0.716787 0 0 234 0.028035
-0.061035 -0.085410 0.714904 0 0 250 0.033687
-0.053791 -0.079192 0.724645 0 0 250 0.034653
-0.051259 -0.079953 0.725268 0 7 255 0.042915
-0.049114 -0.079794 0.726602 0 34 255 0.049634
-0.046588 -0.080443 0.726971 0 60 255 0.054854
-0.047604 -0.082519 0.724085 0 34 255 0.047091
-0.052072 -0.082125 0.722286 0 7 255 0.041139
-0.043350 -0.085287 0.722440 0 47 255 0.051713
-0.045772 -0.084870 0.721949 0 20 255 0.045333
-0.046652 -0.085887 0.719626 0 7 255 0.039541
-0.049124 -0.085387 0.718999 0 0 250 0.033325
-0.050008 -0.086232 0.716611 0 0 250 0.032755
-0.048872 -0.083634 0.722094 0 7 255 0.040564
-0.045147 -0.083058 0.724716 0 47 255 0.054289
-0.052659 -0.086185 0.716286 0 0 250 0.034497
-0.053397 -0.087386 0.713941 0 7 255 0.039708
-0.056190 -0.087239 0.713611 0 7 255 0.039389
-0.059084 -0.086996 0.713258 0 7 255 0.039523
-0.057057 -0.088460 0.711476 0 47 255 0.051984
-0.058220 -0.085709 0.715410 0 0 250 0.032105
-0.009165 -0.092627 0.749771 169 255 79 0.240651
-0.007180 -0.095193 0.751363 178 255 69 0.260004
-0.005647 -0.098246 0.752842 192 255 56 0.287990
-0.004185 -0.101481 0.754879 207 255 41 0.319806
-0.003438 -0.105348 0.756630 209 255 39 0.323539
-0.008128 -0.096432 0.749950 188 255 60 0.279843
-0.010067 -0.094137 0.748321 178 255 69 0.261061
-0.003384 -0.108863 0.759597 199 255 48 0.304533
-0.004278 -0.112747 0.760979 205 255 43 0.313058
-0.005236 -0.116812 0.762663 197 255 50 0.299225
-0.006435 -0.120806 0.763404 186 255 62 0.276297
-0.004352 -0.109164 0.757742 211 255 37 0.326101
-0.007322 -0.120054 0.760661 197 255 50 0.300766
-0.006302 -0.116399 0.759540 209 255 39 0.321083
-0.005322 -0.112766 0.758359 211 255 37 0.326384
-0.004223 -0.105855 0.754750 216 255 31 0.336093
-0.005349 -0.102708 0.752305 220 255 28 0.346090
-0.006699 -0.099610 0.750740 213 255 35 0.328612
-0.004749 -0.109431 0.755286 218 255 29 0.340128
-0.006578 -0.119507 0.758439 209 255 39 0.320651
-0.004987 -0.112786 0.755862 216 255 31 0.336376
-0.005456 -0.116078 0.756943 216 255 31 0.337220
-0.003887 -0.106327 0.751810 228 255 20 0.359476
-0.010828 -0.096920 0.744465 199 255 48 0.301900
-0.008804 -0.098647 0.746468 203 255 45 0.312054
-0.006958 -0.100737 0.748554 216 255 31 0.339180
-0.005245 -0.103305 0.750107 222 255 26 0.348791
-0.010768 -0.095774 0.746464 192 255 56 0.288340
-0.008234 -0.124798 0.765446 165 255 83 0.232657
-0.010626 -0.128109 0.765387 148 255 100 0.198410
-0.012881 -0.131572 0.766225 90 255 157 0.140574
-0.015206 -0.134680 0.766177 15 248 233 0.110931
-0.009188 -0.123862 0.763130 178 255 69 0.261033
-0.018006 -0.137933 0.768249 0 127 255 0.077380
-0.020965 -0.139609 0.767680 0 87 255 0.064060
-0.023866 -0.141837 0.768142 0 60 255 0.058015
-0.026753 -0.143291 0.767570 0 47 255 0.054602
-0.024060 -0.140345 0.765204 0 74 255 0.059972
-0.021250 -0.138253 0.765039 0 127 255 0.076912
-0.018246 -0.136475 0.765613 0 194 255 0.096902
-0.026417 -0.140925 0.762668 0 60 255 0.055822
-0.023873 -0.138833 0.762610 0 114 255 0.073580
-0.021140 -0.136786 0.762484 0 208 255 0.097759
-0.018372 -0.134995 0.763091 36 255 211 0.118274
-0.015609 -0.132988 0.763547 123 255 125 0.148646
-0.013621 -0.129278 0.762064 154 255 94 0.207130
-0.011423 -0.126527 0.762131 173 255 75 0.248483
-0.024513 -0.138114 0.757978 0 167 255 0.087981
-0.022163 -0.136012 0.758203 47 255 201 0.122305
-0.019785 -0.134424 0.758895 101 255 147 0.143610
-0.017230 -0.132409 0.759099 135 255 113 0.169945
-0.014725 -0.130725 0.759839 146 255 102 0.193925
-0.023252 -0.137415 0.760211 0 194 255 0.095752
-0.025753 -0.139400 0.760198 0 101 255 0.069271
-0.012315 -0.127531 0.758794 175 255 73 0.252188
-0.010418 -0.125034 0.758869 188 255 60 0.280119
-0.008487 -0.122193 0.758510 209 255 39 0.321287
-0.009265 -0.122997 0.760750 192 255 56 0.287008
-0.044344 -0.146120 0.749996 0 0 189 0.018862
-0.042054 -0.145155 0.751212 0 0 189 0.019460
-0.040160 -0.144518 0.753002 0 0 204 0.022962
-0.037726 -0.143913 0.754204 0 0 219 0.027205
-0.035665 -0.143642 0.756019 0 0 234 0.031203
-0.039258 -0.144791 0.756444 0 0 219 0.024371
-0.041942 -0.145385 0.755326 0 0 204 0.021484
-0.043896 -0.145909 0.753477 0 0 189 0.019377
-0.046463 -0.146894 0.752437 0 0 204 0.019956
-0.032448 -0.141645 0.755388 0 34 255 0.048381
-0.030215 -0.140858 0.756859 0 60 255 0.056536
-0.027683 -0.139483 0.757673 0 114 255 0.071754
-0.033992 -0.143012 0.758120 0 0 255 0.036414
-0.029456 -0.141992 0.762192 0 34 255 0.047107
-0.032098 -0.142707 0.760940 0 7 255 0.040786
-0.037173 -0.144964 0.759062 0 0 234 0.028911
-0.035152 -0.144189 0.761130 0 0 250 0.032165
-0.040731 -0.145994 0.759640 0 0 219 0.026494
-0.043141 -0.146309 0.757824 0 0 204 0.023093
-0.046050 -0.146913 0.756863 0 0 204 0.022021
-0.048322 -0.147528 0.755000 0 0 204 0.023090
-0.032761 -0.143819 0.763335 0 0 255 0.037981
-0.029855 -0.143459 0.765153 0 7 255 0.041992
-0.035785 -0.145208 0.763611 0 0 250 0.034877
-0.038657 -0.146691 0.763837 0 7 255 0.040358
-0.038058 -0.145737 0.761403 0 0 250 0.031283
-0.033114 -0.145455 0.767175 0 34 255 0.047012
-0.029849 -0.145019 0.768418 0 47 255 0.053115
-0.036195 -0.146984 0.767959 0 60 255 0.057206
-0.039317 -0.148317 0.768721 0 101 255 0.068965
-0.039002 -0.147562 0.766299 0 60 255 0.054941
-0.052599 -0.148671 0.765925 0 0 255 0.035416
-0.049059 -0.148366 0.765414 0 0 255 0.037215
-0.051879 -0.148586 0.763305 0 0 250 0.033476
-0.045530 -0.147994 0.764910 0 0 255 0.038466
-0.048301 -0.148101 0.762734 0 0 250 0.034556
-0.044825 -0.147509 0.762205 0 0 250 0.032832
-0.051052 -0.148393 0.760550 0 0 250 0.032548
-0.042034 -0.147424 0.764382 0 7 255 0.040216
-0.042460 -0.148030 0.766806 0 34 255 0.048852
-0.045974 -0.148410 0.767286 0 20 255 0.046061
-0.047279 -0.147538 0.759624 0 0 219 0.026304
-0.049827 -0.148023 0.757709 0 0 234 0.027405
-0.047077 -0.142199 0.716151 0 141 255 0.081233
-0.046933 -0.143582 0.719620 0 114 255 0.071306
-0.046897 -0.145061 0.723093 0 114 255 0.073265
-0.044118 -0.144329 0.720322 0 154 255 0.084519
-0.049845 -0.144297 0.722494 0 74 255 0.060557
-0.053235 -0.143319 0.721630 0 34 255 0.050148
-0.050027 -0.142717 0.718822 0 74 255 0.061368
-0.053401 -0.141722 0.717998 0 60 255 0.056372
-0.041993 -0.145373 0.723094 0 141 255 0.081563
-0.044231 -0.145858 0.726169 0 87 255 0.065795
-0.041415 -0.146076 0.726749 0 101 255 0.068051
-0.038647 -0.146266 0.727412 0 114 255 0.072683
-0.043709 -0.146586 0.729857 0 74 255 0.059368
-0.046777 -0.146368 0.729146 0 60 255 0.056277
-0.049458 -0.145545 0.726098 0 60 255 0.057278
-0.050888 -0.147479 0.733797 0 47 255 0.051665
-0.052448 -0.146444 0.729906 0 47 255 0.051349
-0.054094 -0.145248 0.726034 0 47 255 0.053500
-0.055695 -0.146013 0.729013 0 34 255 0.049730
-0.049415 -0.146724 0.730681 0 47 255 0.054460
-0.058696 -0.144401 0.725812 0 7 255 0.042672
-0.056482 -0.143409 0.723030 0 7 255 0.042799
-0.059671 -0.142354 0.722032 0 7 255 0.040409
-0.062895 -0.141335 0.720944 0 7 255 0.040787
-0.057455 -0.141478 0.719218 0 20 255 0.046535
-0.030432 -0.082607 0.737384 69 255 179 0.131891
-0.032585 -0.082903 0.735876 80 255 168 0.132931
-0.034516 -0.083071 0.734220 58 255 190 0.127023
-0.030527 -0.084846 0.735543 127 255 121 0.153132
-0.032521 -0.085056 0.733883 101 255 147 0.143193
-0.036367 -0.082997 0.732372 15 248 233 0.109609
-0.038181 -0.082821 0.730421 0 181 255 0.091910
-0.038646 -0.080250 0.732506 0 141 255 0.081053
-0.036781 -0.080402 0.734477 0 208 255 0.101127
-0.033721 -0.085780 0.731317 69 255 179 0.132374
-0.030081 -0.087088 0.732979 129 255 119 0.156376
-0.031629 -0.087165 0.731042 90 255 157 0.137824
-0.035265 -0.085688 0.729458 26 255 222 0.116331
-0.036701 -0.085473 0.727437 0 181 255 0.093471
-0.042712 -0.084163 0.725369 0 101 255 0.067516
-0.041967 -0.082748 0.728109 0 141 255 0.080936
-0.039198 -0.084358 0.727903 0 181 255 0.091260
-0.039990 -0.085459 0.724940 0 114 255 0.071673
-0.044532 -0.080822 0.728389 0 101 255 0.066411
-0.042729 -0.080093 0.730344 0 114 255 0.071783
-0.040901 -0.079260 0.732143 0 127 255 0.074380
-0.012284 -0.090847 0.747979 161 255 87 0.225829
-0.015355 -0.089273 0.746525 154 255 94 0.209304
-0.018150 -0.087634 0.745089 152 255 96 0.204341
-0.020757 -0.085926 0.743714 136 255 111 0.173256
-0.019891 -0.083770 0.745060 112 255 136 0.146819
-0.017295 -0.085469 0.746462 123 255 125 0.151836
-0.013211 -0.092575 0.746598 182 255 66 0.266411
-0.016226 -0.091301 0.745015 169 255 79 0.241370
-0.019103 -0.089917 0.743623 173 255 75 0.249201
-0.021462 -0.088501 0.741876 159 255 88 0.222245
-0.028333 -0.083703 0.739208 127 255 121 0.152491
-0.025995 -0.084552 0.740783 136 255 111 0.175091
-0.029814 -0.079595 0.739231 0 208 255 0.101131
-0.027695 -0.080712 0.740945 36 255 211 0.118421
-0.023445 -0.085295 0.742276 138 255 109 0.177639
-0.028958 -0.076260 0.740974 0 87 255 0.065937
-0.025072 -0.081040 0.742972 47 255 201 0.121355
-0.026825 -0.077699 0.742679 0 167 255 0.088073
-0.022437 -0.082058 0.744314 69 255 179 0.129480
-0.034571 -0.080110 0.736223 0 221 255 0.103201
-0.038512 -0.076968 0.734588 0 87 255 0.064927
-0.036295 -0.076818 0.736403 0 101 255 0.067694
-0.033893 -0.076778 0.738041 0 114 255 0.073783
-0.032022 -0.078806 0.738393 0 194 255 0.094805
-0.043203 -0.076707 0.732609 0 74 255 0.060914
-0.045290 -0.077703 0.730585 0 74 255 0.059035
-0.047497 -0.076184 0.729958 0 20 255 0.046807
-0.045399 -0.075226 0.731991 0 34 255 0.047687
-0.047579 -0.073592 0.731260 0 0 255 0.037544
-0.040668 -0.075724 0.734213 0 60 255 0.056188
-0.046779 -0.068252 0.733592 0 0 219 0.026910
-0.044246 -0.068706 0.734793 0 0 219 0.025120
-0.042046 -0.070223 0.735365 0 0 234 0.028051
-0.039526 -0.070436 0.736314 0 0 234 0.030097
-0.037397 -0.071874 0.736669 0 0 255 0.035882
-0.042626 -0.072884 0.734342 0 0 255 0.039001
-0.044801 -0.071279 0.733811 0 0 250 0.031989
-0.047209 -0.071002 0.732557 0 0 250 0.031404
-0.034626 -0.070618 0.739002 0 0 234 0.030478
-0.032909 -0.073045 0.739719 0 7 255 0.041575
-0.030817 -0.074199 0.740787 0 34 255 0.050184
-0.013825 -0.094205 0.744913 194 255 54 0.289813
-0.016862 -0.092989 0.743285 192 255 56 0.287529
-0.019597 -0.091835 0.741611 182 255 66 0.268007
-0.021870 -0.090404 0.740175 173 255 75 0.247911
-0.016817 -0.094336 0.741241 188 255 60 0.280599
-0.013895 -0.095458 0.742804 192 255 56 0.288197
-0.028226 -0.088654 0.734469 146 255 102 0.193628
-0.026362 -0.089597 0.736537 167 255 81 0.235344
-0.024217 -0.090008 0.738418 175 255 73 0.251146
-0.028608 -0.086612 0.736889 146 255 102 0.194968
-0.026463 -0.087424 0.738755 157 255 90 0.218094
-0.024081 -0.088018 0.740446 156 255 92 0.213728
-0.026449 -0.090261 0.726751 26 255 222 0.115318
-0.027643 -0.090075 0.722452 0 154 255 0.082590
-0.025530 -0.090562 0.723271 0 167 255 0.089361
-0.023292 -0.090841 0.723989 0 181 255 0.093125
-0.028777 -0.089736 0.718120 0 114 255 0.073928
-0.029899 -0.089469 0.721824 0 127 255 0.077940
-0.032058 -0.088634 0.721162 0 101 255 0.069841
-0.021675 -0.090477 0.720800 0 154 255 0.083314
-0.019831 -0.089736 0.717498 0 194 255 0.095729
-0.018634 -0.090272 0.721547 0 154 255 0.084078
-0.022783 -0.089874 0.716875 0 194 255 0.096682
-0.025783 -0.089728 0.716290 0 167 255 0.089817
-0.028187 -0.091256 0.709458 90 255 157 0.137475
-0.029779 -0.090675 0.712404 4 234 244 0.105785
-0.031450 -0.090201 0.715545 0 127 255 0.075826
-0.032594 -0.090609 0.711920 0 208 255 0.098246
-0.026945 -0.090387 0.712779 4 234 244 0.108921
-0.024064 -0.090054 0.713245 47 255 201 0.121140
-0.034956 -0.090067 0.713583 0 141 255 0.081271
-0.035253 -0.089384 0.716431 0 87 255 0.064123
-0.037502 -0.089100 0.715984 0 74 255 0.061653
-0.031713 -0.089381 0.718194 0 114 255 0.070509
-0.013799 -0.089132 0.719813 0 208 255 0.100138
-0.010718 -0.088462 0.718940 47 255 201 0.121258
-0.013803 -0.088757 0.715489 90 255 157 0.137601
-0.010874 -0.088465 0.714814 131 255 117 0.161256
-0.008017 -0.088420 0.714240 140 255 108 0.181485
-0.007804 -0.088333 0.718264 101 255 147 0.142674
-0.004719 -0.088115 0.717709 136 255 111 0.172293
-0.011099 -0.088632 0.710771 156 255 92 0.214323
-0.013994 -0.088637 0.711361 146 255 102 0.195263
-0.016830 -0.088725 0.712201 135 255 113 0.170188
-0.016828 -0.089136 0.716349 36 255 211 0.117823
-0.019782 -0.089189 0.713285 90 255 157 0.139409
-0.001201 -0.088067 0.716906 154 255 94 0.209465
0.000786 -0.088191 0.714461 190 255 58 0.284452
0.004132 -0.088289 0.713822 213 255 35 0.331765
0.001052 -0.088660 0.710438 220 255 28 0.343847
-0.002402 -0.088518 0.711008 192 255 56 0.287235
-0.006013 -0.088537 0.711724 169 255 79 0.238659
-0.006495 -0.091648 0.703436 196 255 52 0.294648
-0.008457 -0.090844 0.705298 184 255 64 0.271667
-0.012010 -0.090723 0.705966 171 255 77 0.244674
-0.014102 -0.090036 0.708003 154 255 94 0.207351
-0.016936 -0.091172 0.705482 161 255 87 0.224068
-0.008969 -0.089301 0.708640 171 255 77 0.246084
-0.005472 -0.089406 0.707937 194 255 54 0.289375
-0.002069 -0.089613 0.707329 213 255 35 0.331924
-0.019742 -0.090973 0.706232 154 255 94 0.209642
-0.022654 -0.090995 0.707204 144 255 104 0.189682
-0.019621 -0.089886 0.709601 140 255 108 0.183525
-0.025477 -0.091097 0.708292 131 255 117 0.163985
-0.016828 -0.089834 0.708716 150 255 98 0.200817
-0.037558 -0.088411 0.718935 0 60 255 0.056930
-0.037666 -0.087614 0.721881 0 87 255 0.063259
-0.039756 -0.087900 0.718319 0 47 255 0.053061
-0.035379 -0.087929 0.722259 0 101 255 0.067586
-0.040326 -0.086579 0.722100 0 60 255 0.058564
-0.037191 -0.086617 0.724688 0 127 255 0.076845
-0.032370 -0.087715 0.728407 26 255 222 0.114633
-0.028890 -0.088804 0.730193 112 255 136 0.144755
-0.033146 -0.087954 0.725635 0 181 255 0.093102
-0.029482 -0.089286 0.727545 47 255 201 0.123830
-0.038467 -0.090722 0.711663 0 141 255 0.080360
-0.038162 -0.092010 0.708994 0 221 255 0.102907
-0.040353 -0.092079 0.708292 0 208 255 0.098091
-0.040741 -0.090798 0.711074 0 141 255 0.078205
-0.043063 -0.090801 0.710474 0 114 255 0.072247
-0.033753 -0.092044 0.708661 47 255 201 0.122812
-0.030984 -0.091733 0.709089 69 255 179 0.130752
-0.032259 -0.093410 0.706198 123 255 125 0.151719
-0.035067 -0.093685 0.705676 101 255 147 0.141690
-0.038647 -0.097870 0.702074 101 255 147 0.142017
-0.040377 -0.096004 0.703763 69 255 179 0.129947
-0.042178 -0.094193 0.705693 15 248 233 0.112488
-0.043356 -0.096367 0.703368 47 255 201 0.123743
-0.039220 -0.093790 0.706027 36 255 211 0.121064
-0.037535 -0.095533 0.704005 90 255 157 0.139989
-0.046016 -0.095380 0.704419 26 255 222 0.113879
-0.046553 -0.093573 0.706490 0 194 255 0.095026
-0.049140 -0.093686 0.705894 0 181 255 0.092063
-0.042592 -0.092402 0.707886 0 208 255 0.099973
-0.049903 -0.088068 0.713605 0 7 255 0.041475
-0.047424 -0.088201 0.714257 0 20 255 0.043097
-0.050671 -0.089294 0.711541 0 34 255 0.050642
-0.053349 -0.089257 0.711112 0 34 255 0.049911
-0.054114 -0.090535 0.709200 0 74 255 0.061180
-0.043563 -0.086773 0.719433 0 20 255 0.045976
-0.043548 -0.088173 0.716334 0 20 255 0.045879
-0.039673 -0.089092 0.715322 0 74 255 0.058988
-0.043385 -0.089497 0.713373 0 60 255 0.056284
-0.045434 -0.090913 0.709903 0 127 255 0.074609
-0.047930 -0.091104 0.709353 0 101 255 0.069954
-0.050464 -0.091112 0.708834 0 114 255 0.071144
0.017599 -0.097665 0.732063 171 255 77 0.244934
0.018825 -0.100640 0.734021 167 255 81 0.237072
0.015979 -0.100097 0.735026 154 255 94 0.210442
0.014791 -0.097383 0.733032 154 255 94 0.210570
0.017212 -0.103147 0.736919 156 255 92 0.212606
0.013011 -0.099611 0.735762 140 255 108 0.183225
0.014357 -0.102526 0.737710 144 255 104 0.190597
0.011584 -0.102165 0.738691 138 255 109 0.178311
0.011621 -0.096970 0.733757 140 255 108 0.182977
0.010084 -0.099373 0.736614 135 255 113 0.169173
0.008565 -0.096826 0.734522 129 255 119 0.159498
0.015629 -0.105611 0.739634 150 255 98 0.199896
0.012915 -0.105177 0.740694 146 255 102 0.194987
0.014093 -0.108326 0.742592 150 255 98 0.200906
0.016534 -0.108694 0.741528 154 255 94 0.209565
0.018064 -0.106097 0.738740 157 255 90 0.216190
0.018819 -0.109176 0.740499 159 255 88 0.220217
0.020436 -0.106508 0.737673 167 255 81 0.237760
0.019650 -0.103557 0.735861 167 255 81 0.234971
0.021165 -0.109508 0.739434 176 255 71 0.254351
0.005814 -0.099342 0.738185 136 255 111 0.174976
0.003955 -0.096935 0.736069 127 255 121 0.152758
0.007593 -0.101981 0.740230 142 255 106 0.183962
0.003134 -0.101842 0.741796 156 255 92 0.211899
0.001259 -0.099343 0.739749 148 255 100 0.199101
-0.000795 -0.097109 0.737710 140 255 108 0.179870
0.006997 -0.104756 0.742969 150 255 98 0.199341
0.006107 -0.107565 0.745656 161 255 87 0.224534
0.010102 -0.107894 0.744135 146 255 102 0.195266
0.006675 -0.120377 0.750968 169 255 79 0.241012
0.008805 -0.117478 0.748959 156 255 92 0.211641
0.010509 -0.120981 0.749505 159 255 88 0.222308
0.010705 -0.114431 0.746921 150 255 98 0.201799
0.012636 -0.117973 0.747523 154 255 94 0.207834
0.014601 -0.114936 0.745414 150 255 98 0.200507
0.014431 -0.121481 0.747957 165 255 83 0.234135
0.012521 -0.111434 0.744821 146 255 102 0.194310
0.008468 -0.110890 0.746311 154 255 94 0.207345
0.006664 -0.113871 0.748388 161 255 87 0.225185
0.017140 -0.118623 0.745450 169 255 79 0.241855
0.019287 -0.121936 0.745259 194 255 54 0.289887
0.019363 -0.115640 0.742982 171 255 77 0.243208
0.019155 -0.112433 0.741784 161 255 87 0.224465
0.016874 -0.111994 0.742928 154 255 94 0.209148
0.017092 -0.115315 0.744208 156 255 92 0.212930
-0.016859 -0.090977 0.723496 0 154 255 0.085855
-0.016781 -0.092118 0.726253 0 221 255 0.104694
-0.020230 -0.091624 0.725157 0 208 255 0.097760
-0.020131 -0.092639 0.727864 90 255 157 0.138718
-0.016553 -0.092941 0.729010 80 255 168 0.134409
-0.016085 -0.093536 0.731633 133 255 115 0.167549
-0.012805 -0.092699 0.730216 58 255 190 0.127244
-0.013200 -0.091925 0.727614 0 221 255 0.104284
-0.013406 -0.090979 0.724839 0 154 255 0.085176
-0.009678 -0.092050 0.728962 0 221 255 0.104483
-0.023324 -0.091793 0.727282 69 255 179 0.130696
-0.023100 -0.092365 0.730363 138 255 109 0.177566
-0.020378 -0.093292 0.731498 146 255 102 0.193150
-0.018992 -0.093586 0.733811 159 255 88 0.219233
-0.008269 -0.097685 0.741196 180 255 68 0.265512
-0.010428 -0.096538 0.738890 173 255 75 0.248032
-0.012513 -0.095467 0.736518 159 255 88 0.221999
-0.005809 -0.097437 0.739798 159 255 88 0.221643
-0.014416 -0.094543 0.734109 148 255 100 0.199008
-0.006943 -0.096094 0.737210 146 255 102 0.193321
-0.008027 -0.094730 0.734506 133 255 115 0.164330
-0.003171 -0.095619 0.735487 131 255 117 0.162698
-0.008935 -0.093406 0.731733 80 255 168 0.134267
0.007347 -0.088862 0.717718 201 255 47 0.306416
0.003922 -0.088709 0.718309 173 255 75 0.246731
0.005613 -0.089384 0.720482 169 255 79 0.239715
0.000435 -0.088669 0.719020 152 255 96 0.204601
0.002098 -0.089292 0.721135 142 255 106 0.185486
-0.001616 -0.089401 0.721938 90 255 157 0.137090
-0.003197 -0.088777 0.719888 112 255 136 0.144666
0.003817 -0.090021 0.723264 135 255 113 0.169671
0.000047 -0.090030 0.723994 80 255 168 0.133597
0.001806 -0.090709 0.726051 80 255 168 0.134662
0.008828 -0.090673 0.724488 157 255 90 0.217401
0.010502 -0.090104 0.721740 188 255 60 0.278869
-0.009224 -0.089414 0.721193 0 194 255 0.096387
-0.007416 -0.090027 0.723260 0 181 255 0.090522
-0.012159 -0.089734 0.721888 0 194 255 0.093858
-0.010448 -0.090479 0.724066 0 154 255 0.084535
-0.008590 -0.091081 0.726187 0 167 255 0.088432
-0.003989 -0.091208 0.727316 0 194 255 0.094043
0.001987 -0.095361 0.733949 90 255 157 0.136808
-0.000062 -0.094084 0.731842 47 255 201 0.121496
0.005046 -0.093541 0.730234 80 255 168 0.134616
0.006793 -0.095150 0.732375 112 255 136 0.147247
0.000734 -0.092412 0.728885 15 248 233 0.111274
-0.004825 -0.092781 0.730416 15 248 233 0.113051
0.010129 -0.095437 0.731740 135 255 113 0.170434
0.013363 -0.095641 0.731010 152 255 96 0.204092
0.011936 -0.094093 0.728952 150 255 98 0.200977
0.016243 -0.095843 0.730134 167 255 81 0.237476
0.014840 -0.094209 0.728043 169 255 79 0.238364
0.013562 -0.092611 0.725983 175 255 73 0.251445
0.010351 -0.092315 0.726727 154 255 94 0.207551
0.006946 -0.092114 0.727409 133 255 115 0.165803
0.008575 -0.093763 0.729662 131 255 117 0.160635
-0.025257 -0.091296 0.729247 112 255 136 0.147702
-0.025081 -0.091526 0.732915 154 255 94 0.208929
-0.022512 -0.092621 0.733904 161 255 87 0.223862
-0.020839 -0.092989 0.736188 167 255 81 0.237927
-0.027146 -0.090217 0.731870 138 255 109 0.178011
-0.023760 -0.091598 0.736267 171 255 77 0.242543
-0.018771 -0.093978 0.738314 184 255 64 0.272308
-0.014913 -0.095455 0.738432 188 255 60 0.277522
-0.017127 -0.094644 0.736167 173 255 75 0.247698
-0.002366 -0.099422 0.741228 165 255 83 0.231448
-0.000308 -0.101752 0.743273 169 255 79 0.241567
0.001429 -0.104442 0.745237 178 255 69 0.260193
0.001645 -0.107164 0.747627 190 255 58 0.283141
-0.002801 -0.101776 0.744398 188 255 60 0.278291
-0.005418 -0.099467 0.742778 180 255 68 0.264398
-0.001621 -0.104302 0.746754 201 255 47 0.308135
-0.000788 -0.107128 0.749024 207 255 41 0.319512
-0.001564 -0.119928 0.754525 203 255 45 0.310569
-0.000268 -0.116617 0.752926 209 255 39 0.323630
0.000624 -0.113387 0.751192 205 255 43 0.315985
0.001860 -0.119962 0.753061 190 255 58 0.281793
0.001243 -0.110180 0.749447 196 255 52 0.294779
0.003179 -0.116773 0.751228 190 255 58 0.283418
0.005318 -0.110522 0.747551 167 255 81 0.235606
0.003195 -0.113540 0.749924 184 255 64 0.273207
-0.005319 -0.101488 0.746130 207 255 41 0.318358
-0.002980 -0.112950 0.753600 230 255 18 0.366113
-0.004328 -0.119577 0.756230 211 255 37 0.326984
-0.003071 -0.109714 0.752363 232 255 16 0.367376
-0.003012 -0.116346 0.754538 218 255 29 0.340458
0.014149 -0.137679 0.742919 226 255 22 0.358194
0.012738 -0.135931 0.744745 201 255 47 0.308508
0.016802 -0.134025 0.744168 222 255 26 0.349352
0.015470 -0.132232 0.745988 209 255 39 0.322604
0.011204 -0.134122 0.746632 178 255 69 0.258291
0.009740 -0.132100 0.748561 169 255 79 0.238405
0.006064 -0.135975 0.747259 156 255 92 0.211418
0.007672 -0.137938 0.745438 171 255 77 0.243270
0.009339 -0.139738 0.743594 197 255 50 0.299989
0.002343 -0.139627 0.745787 154 255 94 0.208515
0.019153 -0.129638 0.744531 222 255 26 0.347826
0.017645 -0.127070 0.745585 196 255 52 0.295207
0.020803 -0.124686 0.744229 211 255 37 0.327397
0.016049 -0.124445 0.746759 176 255 71 0.255793
0.013342 -0.124237 0.748259 165 255 83 0.233533
0.014914 -0.127062 0.746981 176 255 71 0.257574
0.012135 -0.126874 0.748389 163 255 85 0.227145
0.005262 -0.123206 0.751428 167 255 81 0.235867
0.005987 -0.126184 0.750954 161 255 87 0.225496
0.004444 -0.128861 0.751170 157 255 90 0.217368
0.005133 -0.131679 0.750507 157 255 90 0.215712
0.000339 -0.131244 0.752261 161 255 87 0.225149
0.008890 -0.129286 0.749330 157 255 90 0.217165
0.009405 -0.123652 0.749813 159 255 88 0.221062
-0.002232 -0.133029 0.751559 150 255 98 0.202170
-0.004809 -0.134629 0.750848 144 255 104 0.190397
0.001095 -0.135414 0.748987 146 255 102 0.194879
-0.001307 -0.137132 0.748256 140 255 108 0.182498
-0.003726 -0.138762 0.747503 135 255 113 0.171740
-0.007538 -0.136028 0.750137 131 255 117 0.161626
-0.010264 -0.137357 0.749511 112 255 136 0.147959
-0.008235 -0.133874 0.751932 140 255 108 0.182258
-0.005460 -0.132472 0.752591 150 255 98 0.199289
-0.002771 -0.130850 0.753289 165 255 83 0.234016
-0.006095 -0.130261 0.754279 163 255 85 0.227662
-0.008967 -0.131785 0.753665 152 255 96 0.203582
-0.011792 -0.133249 0.753087 140 255 108 0.181367
-0.011156 -0.135245 0.751304 131 255 117 0.160253
-0.013812 -0.136719 0.750689 90 255 157 0.137214
-0.014423 -0.134832 0.752503 129 255 119 0.157827
-0.016841 -0.136421 0.751869 69 255 179 0.130353
0.002544 -0.125893 0.752254 167 255 81 0.237398
0.000146 -0.122827 0.753569 186 255 62 0.275330
-0.001946 -0.125452 0.753974 176 255 71 0.254541
-0.000740 -0.128433 0.753144 169 255 79 0.238739
-0.004078 -0.127921 0.754185 175 255 73 0.252168
-0.003809 -0.122601 0.755093 197 255 50 0.299483
-0.005989 -0.125070 0.755352 188 255 60 0.279908
-0.007907 -0.127554 0.755592 176 255 71 0.255131
-0.009888 -0.129866 0.755706 161 255 87 0.222798
-0.012677 -0.131505 0.755198 150 255 98 0.200151
-0.015366 -0.133076 0.754626 140 255 108 0.182577
-0.017839 -0.134747 0.754170 127 255 121 0.154064
-0.020197 -0.136467 0.753671 47 255 201 0.124959
-0.012990 -0.129928 0.757692 159 255 88 0.219159
-0.008659 -0.124727 0.756913 192 255 56 0.288649
-0.006586 -0.122179 0.756582 205 255 43 0.314909
-0.022688 -0.137067 0.755753 4 234 244 0.105512
-0.020363 -0.135165 0.756090 90 255 157 0.139181
-0.018220 -0.133465 0.756946 133 255 115 0.164708
-0.015227 -0.131616 0.756892 144 255 104 0.190294
-0.037391 -0.144337 0.744552 0 0 219 0.025200
-0.039655 -0.145376 0.741231 0 0 219 0.025460
-0.041914 -0.146475 0.737989 0 0 250 0.034827
-0.042484 -0.146207 0.740675 0 0 234 0.027824
-0.039101 -0.145627 0.738483 0 0 250 0.031446
-0.036555 -0.144857 0.739328 0 0 234 0.028863
-0.037001 -0.144552 0.741934 0 0 219 0.026077
-0.034423 -0.143800 0.742738 0 0 234 0.030037
-0.045776 -0.147079 0.737997 0 0 255 0.037188
-0.044817 -0.146866 0.735080 0 7 255 0.042049
-0.047782 -0.147187 0.734415 0 20 255 0.045301
-0.042503 -0.146483 0.733647 0 20 255 0.045187
-0.037530 -0.146110 0.731223 0 47 255 0.052731
-0.036455 -0.145911 0.734972 0 20 255 0.045597
-0.034597 -0.145958 0.731974 0 47 255 0.052832
-0.039397 -0.146169 0.734279 0 20 255 0.044258
-0.040516 -0.146371 0.730492 0 60 255 0.057170
-0.031805 -0.145252 0.734956 0 20 255 0.045302
-0.033380 -0.144662 0.737763 0 0 250 0.034483
-0.030410 -0.144050 0.738629 0 0 255 0.036709
-0.027370 -0.143542 0.739441 0 7 255 0.042560
-0.031914 -0.143622 0.741412 0 0 250 0.033829
-0.033629 -0.142387 0.753335 0 7 255 0.040927
-0.030627 -0.140825 0.753554 0 60 255 0.058383
-0.028193 -0.139788 0.754429 0 114 255 0.070404
-0.025813 -0.138424 0.755380 0 154 255 0.085719
-0.038157 -0.143618 0.750895 0 0 234 0.028300
-0.039621 -0.144488 0.749077 0 0 204 0.022871
-0.041879 -0.145466 0.747833 0 0 204 0.020255
-0.035328 -0.142777 0.751465 0 0 255 0.035920
-0.035524 -0.143341 0.745841 0 0 234 0.030487
-0.033559 -0.142485 0.747132 0 0 255 0.037655
-0.033121 -0.141975 0.749640 0 20 255 0.043349
-0.030994 -0.141328 0.750905 0 47 255 0.052639
-0.035966 -0.143001 0.748928 0 0 250 0.032058
-0.027360 -0.139787 0.750736 0 114 255 0.072404
-0.025053 -0.138705 0.751687 0 167 255 0.087126
-0.022701 -0.137554 0.752711 4 234 244 0.106519
-0.052906 -0.148191 0.756763 0 0 219 0.025962
-0.056367 -0.148429 0.756686 0 0 219 0.026201
-0.054131 -0.148420 0.759565 0 0 234 0.028777
-0.059859 -0.148636 0.756605 0 0 234 0.030115
-0.063426 -0.148783 0.756591 0 0 250 0.034625
-0.061529 -0.149060 0.753536 0 7 255 0.039600
-0.057954 -0.148758 0.753583 0 0 250 0.032607
-0.055203 -0.148363 0.762341 0 0 219 0.026554
-0.058550 -0.148201 0.761385 0 0 204 0.022133
-0.059439 -0.148012 0.764030 0 0 204 0.020796
-0.056042 -0.148226 0.764964 0 0 219 0.024957
-0.062349 -0.148001 0.761759 0 0 204 0.019667
-0.066196 -0.147774 0.762119 0 0 189 0.018861
-0.064867 -0.148305 0.759412 0 0 219 0.025865
-0.060986 -0.148454 0.758980 0 0 219 0.026582
-0.078664 -0.146437 0.757595 0 0 234 0.030863
-0.074931 -0.146928 0.757251 0 0 219 0.026272
-0.076799 -0.147180 0.754770 0 7 255 0.040487
-0.071144 -0.147566 0.756964 0 0 219 0.026848
-0.073013 -0.147746 0.754446 0 0 255 0.037255
-0.069131 -0.148325 0.754116 0 0 255 0.038567
-0.074820 -0.147955 0.751827 0 47 255 0.052705
-0.067304 -0.148197 0.756762 0 0 234 0.028157
-0.068691 -0.147655 0.759552 0 0 204 0.021234
-0.072551 -0.146955 0.759782 0 0 189 0.019348
-0.071321 -0.148291 0.751939 0 20 255 0.046695
-0.073074 -0.148346 0.749640 0 74 255 0.060361
-0.069627 -0.148675 0.749763 0 47 255 0.054338
-0.066961 -0.148788 0.750988 0 34 255 0.047211
-0.071348 -0.148682 0.747419 0 101 255 0.067744
-0.064335 -0.148879 0.752250 0 7 255 0.041962
-0.000224 -0.145579 0.734084 146 255 102 0.194430
-0.001892 -0.145069 0.736429 138 255 109 0.178960
0.003467 -0.144516 0.736826 173 255 75 0.247983
0.001761 -0.144027 0.739165 156 255 92 0.212541
-0.003836 -0.144415 0.738797 127 255 121 0.155074
-0.005828 -0.143529 0.741108 123 255 125 0.149515
-0.010305 -0.144243 0.738392 4 234 244 0.106094
-0.007997 -0.145265 0.736026 69 255 179 0.131056
-0.006042 -0.145997 0.733675 123 255 125 0.149902
-0.014681 -0.145076 0.735780 0 194 255 0.094033
0.007452 -0.142969 0.739218 201 255 47 0.308533
0.005816 -0.141957 0.741458 178 255 69 0.261198
0.010836 -0.140722 0.741321 216 255 31 0.336038
0.004087 -0.140907 0.743629 163 255 85 0.229263
-0.001866 -0.141619 0.743411 135 255 113 0.169098
0.000001 -0.142935 0.741304 144 255 104 0.189072
-0.012116 -0.139405 0.746195 26 255 222 0.113572
-0.015412 -0.138834 0.747125 4 234 244 0.107808
-0.008210 -0.140390 0.745184 58 255 190 0.128881
-0.013431 -0.141795 0.742993 0 181 255 0.090153
-0.016882 -0.141091 0.744030 0 141 255 0.080372
-0.019998 -0.140640 0.744982 0 114 255 0.072866
-0.009557 -0.142727 0.741986 26 255 222 0.115205
-0.021044 -0.142271 0.741284 0 60 255 0.058208
-0.023916 -0.141898 0.742194 0 47 255 0.052528
-0.017769 -0.142739 0.740348 0 101 255 0.067162
-0.021884 -0.144024 0.737678 0 60 255 0.055815
-0.024722 -0.143777 0.738550 0 34 255 0.050079
-0.018493 -0.144498 0.736773 0 114 255 0.070367
-0.014117 -0.143464 0.739376 0 154 255 0.083865
-0.026862 -0.141773 0.743508 0 34 255 0.050445
-0.023161 -0.140488 0.746299 0 101 255 0.069151
-0.026029 -0.140463 0.747666 0 87 255 0.064503
-0.028025 -0.141155 0.746320 0 60 255 0.055472
-0.029886 -0.141934 0.744917 0 20 255 0.043615
-0.028673 -0.142634 0.742133 0 7 255 0.040838
-0.018650 -0.138322 0.748436 0 221 255 0.103240
-0.019344 -0.137365 0.750847 26 255 222 0.115202
-0.021707 -0.138358 0.749752 0 194 255 0.095742
-0.021000 -0.139310 0.747355 0 141 255 0.081911
-0.023959 -0.139368 0.748672 0 141 255 0.080983
-0.030634 -0.141483 0.747930 0 47 255 0.051019
-0.032555 -0.142857 0.744096 0 0 250 0.034657
-0.014470 -0.146264 0.722063 15 248 233 0.109696
-0.017009 -0.146421 0.724760 4 234 244 0.105723
-0.011083 -0.146501 0.725097 4 234 244 0.109022
