ply
format ascii 1.0
comment VCGLIB generated
element vertex 1030
property float x
property float y
property float z
property uchar red
property uchar green
property uchar blue
property float quality
end_header
-0.073873 0.004798 0.863084 0 0 255 0.037898
-0.072719 0.007659 0.857507 0 34 255 0.049542
-0.074687 0.006099 0.860503 0 7 255 0.041820
-0.075581 0.007537 0.857993 0 60 255 0.057773
-0.070341 0.003967 0.865361 0 0 250 0.034382
-0.073109 0.003607 0.865721 0 0 250 0.034516
-0.072323 0.002462 0.868362 0 0 250 0.033455
-0.068133 0.002653 0.869110 0 0 250 0.033126
-0.078782 0.005788 0.860606 0 34 255 0.047322
-0.079875 0.007015 0.858238 0 74 255 0.060073
-0.077680 0.004524 0.862989 0 7 255 0.039671
-0.081953 0.003999 0.863280 0 7 255 0.041156
-0.083087 0.005326 0.860896 0 47 255 0.053697
-0.084297 0.006633 0.858503 0 101 255 0.068798
-0.078734 0.003017 0.865480 0 0 255 0.035630
-0.079836 0.001636 0.868022 0 0 255 0.035343
-0.076045 0.001944 0.868148 0 0 250 0.034424
-0.076149 -0.003942 0.875550 0 0 219 0.023844
-0.074888 -0.001813 0.873212 0 0 219 0.025260
-0.073025 -0.003464 0.876337 0 0 234 0.027541
-0.071704 -0.001454 0.873892 0 0 219 0.026239
-0.073630 0.000316 0.870806 0 0 234 0.028466
-0.077339 -0.000178 0.870572 0 0 219 0.027241
-0.078615 -0.002416 0.872915 0 0 219 0.024501
-0.069335 -0.003056 0.877270 0 0 234 0.028599
-0.067548 -0.001059 0.874881 0 0 234 0.027573
-0.067823 0.000750 0.871943 0 0 234 0.029197
-0.040234 0.006634 0.860594 0 0 189 0.019219
-0.038826 0.006998 0.857768 0 0 189 0.019142
-0.041724 0.007059 0.856611 0 0 189 0.018384
-0.037368 0.007395 0.854962 0 0 204 0.020721
-0.040279 0.007472 0.853835 0 0 204 0.021324
-0.038828 0.007865 0.851053 0 0 219 0.023743
-0.035886 0.007780 0.852143 0 0 219 0.024262
-0.043161 0.007583 0.852729 0 0 204 0.021307
-0.041710 0.007988 0.849978 0 0 219 0.024019
-0.044558 0.008136 0.848901 0 0 219 0.025117
-0.046161 0.007835 0.851836 0 0 204 0.023212
-0.044748 0.007284 0.855689 0 0 204 0.021010
-0.047706 0.007533 0.854759 0 0 204 0.022636
-0.046321 0.006995 0.858645 0 0 204 0.021634
-0.043321 0.006787 0.859585 0 0 189 0.019520
-0.049265 0.007220 0.857702 0 0 204 0.022738
-0.033902 0.007369 0.849212 0 0 204 0.019616
-0.032169 0.007003 0.846423 0 0 189 0.016505
-0.034852 0.007009 0.845164 0 0 189 0.015972
-0.030415 0.006558 0.843575 0 0 174 0.013792
-0.033114 0.006579 0.842312 0 0 174 0.013907
-0.031367 0.006084 0.839424 0 0 174 0.011825
-0.028649 0.006058 0.840672 0 0 158 0.011586
-0.035781 0.006619 0.841068 0 0 174 0.013967
-0.034033 0.006125 0.838187 0 0 174 0.012172
-0.036660 0.006196 0.836974 0 0 174 0.012164
-0.038687 0.006852 0.840065 0 0 174 0.015165
-0.037798 0.007191 0.844119 0 0 189 0.017356
-0.040694 0.007399 0.843085 0 0 189 0.018404
-0.039772 0.007644 0.847072 0 0 204 0.020395
-0.036858 0.007498 0.848137 0 0 204 0.019867
-0.042647 0.007821 0.846033 0 0 204 0.021168
-0.046924 0.006029 0.831478 0 0 158 0.010730
-0.049138 0.006823 0.834619 0 0 174 0.012551
-0.046388 0.006632 0.835934 0 0 174 0.012292
-0.048558 0.007308 0.839032 0 0 174 0.014332
-0.051281 0.007495 0.837696 0 0 174 0.015471
-0.045821 0.007195 0.840327 0 0 174 0.014752
-0.050653 0.007857 0.842040 0 0 189 0.018768
-0.047949 0.007743 0.843352 0 0 189 0.018547
-0.050001 0.008162 0.846276 0 0 204 0.022024
-0.053369 0.008046 0.840715 0 0 189 0.019004
-0.052677 0.008278 0.844966 0 0 204 0.022916
-0.055358 0.008475 0.843653 0 0 219 0.023593
-0.045212 0.007696 0.844654 0 0 189 0.018594
-0.047295 0.008120 0.847579 0 0 219 0.023538
-0.043274 0.007274 0.841702 0 0 189 0.016644
-0.041276 0.006725 0.838690 0 0 174 0.014177
-0.043844 0.006664 0.837319 0 0 174 0.013225
-0.041832 0.006023 0.834250 0 0 158 0.010907
-0.039261 0.006089 0.835610 0 0 158 0.011274
-0.044382 0.005989 0.832870 0 0 158 0.009988
-0.057658 0.008495 0.846833 0 0 219 0.025534
-0.054206 0.007944 0.847865 0 0 204 0.020971
-0.056469 0.007930 0.851007 0 0 204 0.022857
-0.059918 0.008472 0.849975 0 0 234 0.029956
-0.053073 0.007502 0.852054 0 0 189 0.019225
-0.058741 0.007876 0.854126 0 0 234 0.028618
-0.055315 0.007462 0.855212 0 0 219 0.024374
-0.062159 0.008352 0.853023 0 0 255 0.035560
-0.051918 0.007143 0.856315 0 0 204 0.022276
-0.050428 0.007478 0.853418 0 0 204 0.020874
-0.048891 0.007799 0.850496 0 0 204 0.021034
-0.051566 0.007836 0.849175 0 0 204 0.020652
-0.042672 0.004996 0.829976 0 0 143 0.006801
-0.040099 0.005039 0.831361 0 0 143 0.006828
-0.038356 0.004033 0.828437 0 0 143 0.004517
-0.037517 0.005114 0.832744 0 0 143 0.007559
-0.035769 0.004132 0.829824 0 0 143 0.004978
-0.033153 0.004248 0.831184 0 0 143 0.005373
-0.034919 0.005225 0.834094 0 0 158 0.007979
-0.034008 0.003151 0.826863 0 0 128 0.003045
-0.031386 0.003289 0.828242 0 0 128 0.003478
-0.029633 0.002372 0.825277 0 0 128 0.002568
-0.032218 0.002177 0.823906 0 0 128 0.002152
-0.036570 0.002993 0.825488 0 0 128 0.002730
-0.034784 0.002008 0.822534 0 0 128 0.001919
-0.039105 0.002885 0.824101 0 0 128 0.002688
-0.040890 0.003940 0.827047 0 0 143 0.004244
-0.043427 0.003893 0.825648 0 0 143 0.004483
-0.037336 0.001884 0.821145 0 0 128 0.001798
-0.041653 0.002821 0.822698 0 0 128 0.002905
-0.039885 0.001799 0.819725 0 0 128 0.002001
-0.045185 0.004970 0.828578 0 0 143 0.007213
-0.032350 0.005233 0.835407 0 0 158 0.008304
-0.029676 0.005190 0.836640 0 0 158 0.007887
-0.027975 0.004301 0.833829 0 0 143 0.005405
-0.026946 0.005174 0.837886 0 0 158 0.007818
-0.025257 0.004306 0.835069 0 0 143 0.005431
-0.023564 0.003480 0.832232 0 0 143 0.004214
-0.021848 0.002624 0.829275 0 0 128 0.003420
-0.026221 0.003385 0.830890 0 0 143 0.003907
-0.024482 0.002508 0.827925 0 0 128 0.002828
-0.028820 0.003313 0.829563 0 0 128 0.003538
-0.030589 0.004260 0.832498 0 0 143 0.005228
-0.027078 0.002420 0.826604 0 0 128 0.002535
-0.015751 -0.001550 0.818100 0 0 128 0.000674
-0.017241 -0.000531 0.820935 0 0 128 0.000810
-0.019853 -0.000713 0.819551 0 0 128 0.000606
-0.018346 -0.001726 0.816690 0 0 128 0.000531
-0.021386 0.000347 0.822384 0 0 128 0.000963
-0.022428 -0.000858 0.818147 0 0 128 0.000520
-0.023974 0.000212 0.821009 0 0 128 0.000837
-0.026523 0.000116 0.819636 0 0 128 0.000823
-0.020909 -0.001873 0.815285 0 0 128 0.000465
-0.024980 -0.000958 0.816777 0 0 128 0.000523
-0.023442 -0.001974 0.813910 0 0 128 0.000491
-0.025524 0.001320 0.823828 0 0 128 0.001462
-0.028079 0.001230 0.822464 0 0 128 0.001450
-0.022929 0.001415 0.825165 0 0 128 0.001637
-0.020302 0.001541 0.826508 0 0 128 0.001914
-0.018766 0.000484 0.823716 0 0 128 0.001158
-0.026043 -0.002199 0.812565 0 0 128 0.000340
-0.027544 -0.001175 0.815408 0 0 128 0.000363
-0.030126 -0.001359 0.814065 0 0 128 0.000293
-0.028619 -0.002380 0.811219 0 0 128 0.000276
-0.031641 -0.000273 0.816885 0 0 128 0.000489
-0.032719 -0.001503 0.812701 0 0 128 0.000301
-0.034238 -0.000411 0.815532 0 0 128 0.000482
-0.036853 -0.000514 0.814150 0 0 128 0.000562
-0.031205 -0.002520 0.809864 0 0 128 0.000297
-0.035327 -0.001602 0.811326 0 0 128 0.000400
-0.033798 -0.002615 0.808481 0 0 128 0.000420
-0.035759 0.000720 0.818322 0 0 128 0.000944
-0.038362 0.000630 0.816958 0 0 128 0.001060
-0.033194 0.000846 0.819709 0 0 128 0.001013
-0.030647 0.001018 0.821084 0 0 128 0.001150
-0.029091 -0.000100 0.818259 0 0 128 0.000617
-0.049305 0.005808 0.829939 0 0 158 0.009622
-0.051495 0.006684 0.832761 0 0 174 0.012739
-0.053901 0.006558 0.831184 0 0 174 0.012259
-0.051711 0.005669 0.828360 0 0 158 0.009555
-0.056028 0.007349 0.833978 0 0 189 0.015781
-0.056344 0.006485 0.829557 0 0 174 0.012054
-0.058454 0.007318 0.832341 0 0 174 0.015563
-0.060985 0.007379 0.830626 0 0 189 0.018323
-0.054154 0.005559 0.826729 0 0 158 0.009147
-0.058844 0.006508 0.827863 0 0 174 0.014267
-0.056658 0.005488 0.825049 0 0 158 0.010556
-0.060534 0.008054 0.835084 0 0 204 0.020750
-0.063072 0.008119 0.833387 0 0 219 0.023444
-0.065119 0.008749 0.836133 0 0 234 0.029070
-0.062582 0.008594 0.838099 0 0 219 0.024311
-0.058076 0.007987 0.837018 0 0 189 0.019125
-0.060109 0.008481 0.840007 0 0 219 0.023561
-0.055704 0.007975 0.838891 0 0 189 0.018500
-0.053640 0.007391 0.835868 0 0 174 0.015416
-0.057719 0.008432 0.841866 0 0 204 0.021915
-0.059097 0.005223 0.823369 0 0 158 0.010557
-0.061180 0.006241 0.825713 0 0 174 0.015335
-0.063736 0.006004 0.823945 0 0 189 0.017388
-0.061660 0.004978 0.821591 0 0 174 0.012266
-0.065761 0.006924 0.826286 0 0 204 0.022222
-0.066370 0.005717 0.822141 0 0 189 0.018954
-0.068399 0.006625 0.824492 0 0 219 0.024716
-0.071059 0.006261 0.822639 0 0 234 0.027686
-0.064290 0.004709 0.819788 0 0 174 0.014166
-0.069070 0.005347 0.820267 0 0 204 0.022393
-0.066993 0.004387 0.817911 0 0 189 0.017884
-0.070391 0.007462 0.826841 0 0 250 0.031363
-0.073086 0.007099 0.825006 0 0 250 0.034172
-0.075076 0.007878 0.827357 0 7 255 0.042369
-0.072497 0.008213 0.829638 0 0 255 0.037470
-0.067883 0.007754 0.829064 0 0 219 0.027197
-0.069960 0.008439 0.831858 0 0 250 0.032759
-0.065419 0.007945 0.831282 0 0 219 0.024384
-0.063317 0.007166 0.828498 0 0 204 0.019571
-0.067501 0.008626 0.834035 0 0 234 0.030436
-0.083623 0.009247 0.834628 0 114 255 0.072418
-0.081126 0.009568 0.837169 0 87 255 0.066100
-0.078890 0.009327 0.835098 0 60 255 0.055487
-0.076475 0.009552 0.837587 0 47 255 0.051504
-0.078679 0.009787 0.839647 0 74 255 0.061980
-0.074202 0.009227 0.835537 0 20 255 0.044767
-0.074068 0.009658 0.840065 0 34 255 0.048005
-0.071871 0.009397 0.837966 0 7 255 0.041380
-0.069567 0.009445 0.840378 0 0 255 0.039017
-0.076265 0.009901 0.842073 0 74 255 0.059207
-0.071798 0.009742 0.842413 0 34 255 0.047361
-0.073924 0.009915 0.844460 0 60 255 0.056564
-0.069628 0.009038 0.835849 0 0 255 0.035793
-0.067390 0.009141 0.838270 0 0 250 0.033425
-0.072125 0.008892 0.833704 0 0 255 0.038976
-0.074633 0.008646 0.831513 0 7 255 0.042092
-0.076799 0.009033 0.833298 0 34 255 0.049252
-0.079429 0.008716 0.831081 0 60 255 0.055265
-0.077253 0.008319 0.829238 0 34 255 0.047103
-0.081513 0.009012 0.832888 0 87 255 0.062778
-0.071370 0.009297 0.847456 0 20 255 0.046531
-0.069146 0.009462 0.844412 0 7 255 0.041763
-0.066741 0.008971 0.847330 0 0 255 0.036088
-0.068943 0.008778 0.850369 0 7 255 0.041436
-0.064479 0.009066 0.844259 0 0 250 0.032454
-0.064409 0.008616 0.850189 0 0 250 0.033842
-0.062171 0.008705 0.847137 0 0 234 0.029611
-0.066583 0.008357 0.853251 0 7 255 0.039077
-0.059876 0.008731 0.844009 0 0 219 0.026906
-0.062299 0.008785 0.842138 0 0 219 0.026513
-0.064806 0.008944 0.840257 0 0 234 0.029449
-0.066970 0.009232 0.842351 0 0 250 0.035057
-0.036259 -0.002872 0.807275 0 0 128 0.000411
-0.037755 -0.001881 0.809983 0 0 128 0.000421
-0.040247 -0.002097 0.808736 0 0 128 0.000540
-0.038755 -0.003084 0.806023 0 0 128 0.000523
-0.041737 -0.001037 0.811424 0 0 128 0.000630
-0.042783 -0.002267 0.807438 0 0 128 0.000749
-0.044270 -0.001217 0.810118 0 0 128 0.000858
-0.046836 -0.001342 0.808779 0 0 128 0.001309
-0.041291 -0.003253 0.804734 0 0 128 0.000742
-0.045370 -0.002397 0.806095 0 0 128 0.001108
-0.043888 -0.003375 0.803413 0 0 128 0.001132
-0.045716 -0.000100 0.812800 0 0 128 0.001073
-0.048287 -0.000231 0.811440 0 0 128 0.001573
-0.049711 0.000946 0.814117 0 0 128 0.002270
-0.047194 0.001093 0.815594 0 0 128 0.001647
-0.043247 0.000094 0.814232 0 0 128 0.000902
-0.044730 0.001280 0.817019 0 0 128 0.001571
-0.040800 0.000331 0.815607 0 0 128 0.000876
-0.039278 -0.000800 0.812803 0 0 128 0.000530
-0.042303 0.001511 0.818381 0 0 128 0.001617
-0.046410 -0.003667 0.802205 0 0 128 0.001501
-0.047845 -0.002724 0.804733 0 0 128 0.001502
-0.050436 -0.002985 0.803457 0 0 128 0.002011
-0.049011 -0.003927 0.800950 0 0 128 0.002014
-0.051850 -0.001972 0.805952 0 0 128 0.002103
-0.053107 -0.003241 0.802130 0 0 128 0.002745
-0.054520 -0.002236 0.804617 0 0 128 0.002839
-0.057276 -0.002494 0.803231 0 0 143 0.004070
-0.051691 -0.004182 0.799636 0 0 128 0.002660
-0.055865 -0.003487 0.800758 0 0 128 0.003740
-0.054442 -0.004423 0.798288 0 0 128 0.003694
-0.055955 -0.001154 0.807088 0 0 128 0.003260
-0.058713 -0.001411 0.805692 0 0 143 0.004625
-0.060163 -0.000253 0.808178 0 0 143 0.005703
-0.057433 0.000046 0.809731 0 0 143 0.004068
-0.053306 -0.000853 0.808605 0 0 128 0.002464
-0.054762 0.000336 0.811272 0 0 128 0.002947
-0.050742 -0.000558 0.810063 0 0 128 0.001849
-0.049297 -0.001679 0.807401 0 0 128 0.001582
-0.052185 0.000623 0.812715 0 0 128 0.002449
-0.062578 0.003514 0.817111 0 0 158 0.010407
-0.059944 0.003790 0.818917 0 0 158 0.008485
-0.058192 0.002586 0.816204 0 0 143 0.005924
-0.057402 0.004056 0.820662 0 0 143 0.007035
-0.055647 0.002886 0.817944 0 0 143 0.004911
-0.053189 0.003170 0.819611 0 0 143 0.004387
-0.054942 0.004354 0.822349 0 0 143 0.006916
-0.053899 0.001709 0.815194 0 0 128 0.003369
-0.051440 0.002023 0.816849 0 0 128 0.002911
-0.056489 0.001437 0.813733 0 0 143 0.004062
-0.059152 0.001140 0.812194 0 0 143 0.004971
-0.060865 0.002301 0.814662 0 0 143 0.007192
-0.063622 0.002022 0.813094 0 0 158 0.009160
-0.061903 0.000862 0.810636 0 0 143 0.006935
-0.065330 0.003204 0.815509 0 0 174 0.012801
-0.052411 0.004437 0.823839 0 0 143 0.006046
-0.049960 0.004558 0.825469 0 0 143 0.006118
-0.048195 0.003428 0.822528 0 0 128 0.003787
-0.047562 0.004747 0.827047 0 0 143 0.006472
-0.045806 0.003646 0.824106 0 0 143 0.003959
-0.044043 0.002551 0.821141 0 0 128 0.002473
-0.046460 0.002320 0.819770 0 0 128 0.002285
-0.048926 0.002158 0.818351 0 0 128 0.002519
-0.050661 0.003271 0.821102 0 0 128 0.003665
-0.067976 0.002695 0.814146 0 0 174 0.013626
-0.066295 0.001529 0.811725 0 0 158 0.009873
-0.068955 0.000976 0.810366 0 0 158 0.011086
-0.064561 0.000381 0.809287 0 0 158 0.007926
-0.067228 -0.000163 0.807944 0 0 158 0.008663
-0.065464 -0.001247 0.805526 0 0 143 0.007669
-0.062794 -0.000737 0.806845 0 0 143 0.006581
-0.069867 -0.000760 0.806629 0 0 158 0.010046
-0.068139 -0.001811 0.804212 0 0 158 0.008355
-0.070807 -0.002436 0.802898 0 0 158 0.010505
-0.072400 -0.001457 0.805177 0 0 158 0.011344
-0.071481 0.000267 0.808864 0 0 174 0.011778
-0.074041 -0.000419 0.807408 0 0 174 0.013691
-0.073085 0.001339 0.811110 0 0 174 0.015234
-0.070549 0.002032 0.812596 0 0 174 0.013883
-0.072108 0.003127 0.814835 0 0 189 0.018809
-0.075612 0.000594 0.809640 0 0 189 0.017514
-0.074635 0.002358 0.813308 0 0 189 0.019126
-0.077170 0.001601 0.811852 0 0 204 0.021715
-0.069586 0.003793 0.816348 0 0 189 0.018388
-0.061379 -0.001865 0.804498 0 0 143 0.005190
-0.059966 -0.002948 0.802024 0 0 143 0.004692
-0.062653 -0.003417 0.800823 0 0 143 0.005771
-0.058546 -0.003948 0.799561 0 0 143 0.004373
-0.061249 -0.004416 0.798349 0 0 143 0.005457
-0.059819 -0.005340 0.795882 0 0 143 0.005545
-0.057147 -0.004867 0.797078 0 0 143 0.004706
-0.063953 -0.004922 0.797147 0 0 143 0.006597
-0.062551 -0.005854 0.794672 0 0 143 0.006604
-0.065267 -0.006398 0.793486 0 0 158 0.008151
-0.066640 -0.005507 0.795851 0 0 158 0.007939
-0.065344 -0.003962 0.799499 0 0 143 0.006555
-0.068022 -0.004547 0.798207 0 0 158 0.008120
-0.066727 -0.002924 0.801850 0 0 143 0.007478
-0.064061 -0.002361 0.803174 0 0 143 0.006449
-0.069433 -0.003520 0.800541 0 0 158 0.009006
-0.075888 -0.009863 0.789470 0 0 158 0.010844
-0.077180 -0.009032 0.791690 0 0 158 0.010625
-0.074665 -0.008081 0.792765 0 0 158 0.009483
-0.075944 -0.007186 0.795006 0 0 158 0.009794
-0.078443 -0.008167 0.793956 0 0 158 0.010406
-0.073346 -0.006241 0.796131 0 0 158 0.009142
-0.077216 -0.006259 0.797267 0 0 158 0.010298
-0.074671 -0.005272 0.798381 0 0 158 0.009725
-0.075983 -0.004258 0.800634 0 0 158 0.011547
-0.079692 -0.007241 0.796200 0 0 158 0.011065
-0.078493 -0.005265 0.799509 0 0 158 0.011609
-0.080972 -0.006279 0.798450 0 0 174 0.012176
-0.072093 -0.004366 0.799480 0 0 158 0.008816
-0.073414 -0.003322 0.801769 0 0 158 0.010580
-0.070702 -0.005383 0.797136 0 0 158 0.008692
-0.069323 -0.006331 0.794794 0 0 158 0.008440
-0.072005 -0.007178 0.793765 0 0 158 0.009174
-0.070645 -0.008063 0.791415 0 0 158 0.009507
-0.067956 -0.007215 0.792448 0 0 158 0.008576
-0.073312 -0.008940 0.790407 0 0 158 0.009701
-0.082434 -0.005481 0.800541 0 0 174 0.013224
-0.080068 -0.004372 0.801773 0 0 174 0.012757
-0.081516 -0.003500 0.803878 0 0 174 0.014111
-0.083869 -0.004640 0.802662 0 0 174 0.014901
-0.079118 -0.002408 0.805118 0 0 174 0.014484
-0.082966 -0.002639 0.805964 0 0 189 0.016255
-0.080592 -0.001485 0.807202 0 0 189 0.016734
-0.082033 -0.000609 0.809269 0 0 204 0.020467
-0.085277 -0.003802 0.804770 0 0 189 0.016400
-0.084395 -0.001785 0.808037 0 0 189 0.019445
-0.086705 -0.002985 0.806847 0 0 189 0.019066
-0.078174 -0.000400 0.808474 0 0 189 0.017054
-0.079622 0.000518 0.810543 0 0 204 0.021234
-0.076590 -0.001392 0.806251 0 0 174 0.013989
-0.075022 -0.002364 0.804011 0 0 158 0.011357
-0.077552 -0.003347 0.802877 0 0 174 0.012139
-0.125650 -0.007695 0.925862 173 255 75 0.247377
-0.127024 -0.008760 0.922417 150 255 98 0.201786
-0.124240 -0.006630 0.929206 190 255 58 0.282973
-0.127311 -0.007932 0.928898 180 255 68 0.264804
-0.128729 -0.008919 0.925470 163 255 85 0.226914
-0.130125 -0.009940 0.922009 144 255 104 0.190867
-0.124365 -0.006257 0.932479 201 255 47 0.308497
-0.124469 -0.005907 0.935774 220 255 28 0.345575
-0.121524 -0.004658 0.935701 228 255 20 0.361454
-0.121417 -0.004972 0.932342 205 255 43 0.315853
-0.131418 -0.010740 0.925368 146 255 102 0.193771
-0.132865 -0.011785 0.921780 131 255 117 0.163339
-0.129945 -0.009747 0.928870 165 255 83 0.234232
-0.132709 -0.011516 0.928564 157 255 90 0.215576
-0.134173 -0.012473 0.925077 136 255 111 0.175639
-0.135613 -0.013459 0.921525 123 255 125 0.151785
-0.129850 -0.009658 0.932294 184 255 64 0.271928
-0.129731 -0.009537 0.935669 197 255 50 0.299316
-0.127051 -0.007762 0.935825 209 255 39 0.323092
-0.127198 -0.007857 0.932357 196 255 52 0.295312
-0.124241 -0.005668 0.943098 255 233 0 0.424285
-0.124383 -0.005830 0.939395 239 255 8 0.384044
-0.126982 -0.007614 0.939423 232 255 16 0.369130
-0.126859 -0.007382 0.943060 251 242 0 0.407498
-0.118723 -0.003009 0.939089 247 246 1 0.399964
-0.121665 -0.004258 0.939271 239 255 8 0.385172
-0.136877 -0.023998 0.950503 237 255 10 0.382578
-0.138146 -0.024156 0.946539 213 255 35 0.330660
-0.135935 -0.021583 0.950010 236 255 12 0.376918
-0.139376 -0.024237 0.942646 184 255 64 0.270204
-0.137231 -0.021709 0.946059 216 255 31 0.335946
-0.138521 -0.021717 0.942117 188 255 60 0.280840
-0.135037 -0.019036 0.949658 243 251 5 0.393565
-0.140618 -0.024204 0.938793 156 255 92 0.211151
-0.141847 -0.024120 0.934969 135 255 113 0.169690
-0.142915 -0.026789 0.935498 133 255 115 0.167856
-0.141720 -0.026883 0.939272 156 255 92 0.212253
-0.140532 -0.026883 0.943084 186 255 62 0.273773
-0.144040 -0.029487 0.936028 136 255 111 0.171908
-0.135920 -0.019065 0.945896 222 255 26 0.350216
-0.133544 -0.016481 0.949614 245 249 3 0.397430
-0.136818 -0.019021 0.942064 196 255 52 0.295740
-0.134499 -0.016498 0.945712 222 255 26 0.351406
-0.135420 -0.016438 0.941883 209 255 39 0.322161
-0.137688 -0.018910 0.938334 175 255 73 0.253610
-0.138549 -0.018732 0.934637 154 255 94 0.210775
-0.140157 -0.021463 0.934793 138 255 109 0.179511
-0.139344 -0.021624 0.938438 159 255 88 0.219846
-0.145001 -0.022464 0.920714 0 208 255 0.099169
-0.144174 -0.022925 0.924317 4 234 244 0.107195
-0.146830 -0.025264 0.920910 0 181 255 0.093656
-0.143373 -0.023373 0.927883 26 255 222 0.115963
-0.146007 -0.025670 0.924560 4 234 244 0.106131
-0.145252 -0.026140 0.928083 26 255 222 0.116558
-0.148710 -0.028072 0.921124 0 194 255 0.097280
-0.142603 -0.023791 0.931427 80 255 168 0.135202
-0.140955 -0.021082 0.931205 101 255 147 0.143175
-0.141776 -0.020682 0.927606 58 255 190 0.126026
-0.147491 -0.028439 0.924932 0 221 255 0.102721
-0.149975 -0.030943 0.921545 0 194 255 0.094181
-0.146308 -0.028834 0.928636 26 255 222 0.113616
-0.148763 -0.031333 0.925365 4 234 244 0.106098
-0.147605 -0.031706 0.929072 26 255 222 0.114410
-0.151300 -0.033897 0.921931 0 208 255 0.100027
-0.145167 -0.029172 0.932328 80 255 168 0.135971
-0.144068 -0.026478 0.931793 90 255 157 0.136932
-0.135693 -0.013425 0.918304 90 255 157 0.137362
-0.135737 -0.013468 0.914958 47 255 201 0.122301
-0.132930 -0.011689 0.918577 123 255 125 0.149032
-0.132964 -0.011711 0.915179 90 255 157 0.138525
-0.135765 -0.013581 0.911491 58 255 190 0.125162
-0.135771 -0.013986 0.907718 26 255 222 0.114337
-0.138887 -0.015765 0.907122 4 234 244 0.105826
-0.138799 -0.015356 0.910871 36 255 211 0.120030
-0.138724 -0.015150 0.914430 58 255 190 0.125624
-0.142004 -0.017324 0.906568 0 208 255 0.099224
-0.129950 -0.010147 0.918997 135 255 113 0.169444
-0.129737 -0.010436 0.915923 129 255 119 0.157656
-0.126868 -0.008931 0.919390 144 255 104 0.189974
-0.129525 -0.010836 0.912713 90 255 157 0.138038
-0.130838 -0.012067 0.909103 47 255 201 0.124293
-0.132728 -0.012128 0.912021 80 255 168 0.133784
-0.135484 -0.015590 0.899746 0 127 255 0.075309
-0.134458 -0.014669 0.902536 0 167 255 0.086504
-0.137993 -0.015739 0.901682 0 154 255 0.084229
-0.136926 -0.014963 0.904541 0 208 255 0.101320
-0.133481 -0.013763 0.905492 0 221 255 0.102011
-0.140543 -0.017038 0.899019 0 114 255 0.071216
-0.141094 -0.017075 0.901479 0 154 255 0.082607
-0.143886 -0.018246 0.898729 0 114 255 0.072049
-0.144446 -0.018343 0.901105 0 154 255 0.084116
-0.141590 -0.017171 0.903998 0 167 255 0.088532
-0.145602 -0.022109 0.917177 0 221 255 0.103244
-0.142736 -0.020074 0.920837 15 248 233 0.109512
-0.146250 -0.021763 0.913457 0 181 255 0.092373
-0.143346 -0.019642 0.917374 15 248 233 0.110543
-0.143982 -0.019268 0.913661 4 234 244 0.108675
-0.140575 -0.017648 0.920928 47 255 201 0.122009
-0.146934 -0.021404 0.909730 0 194 255 0.094827
-0.147502 -0.020891 0.906281 0 194 255 0.094499
-0.149874 -0.022980 0.906468 0 194 255 0.093986
-0.149319 -0.023603 0.909730 0 194 255 0.095119
-0.148684 -0.024077 0.913256 0 208 255 0.098207
-0.152273 -0.025015 0.906696 0 208 255 0.100219
-0.140919 -0.017389 0.917630 36 255 211 0.118778
-0.138085 -0.015597 0.921235 80 255 168 0.134176
-0.141281 -0.017236 0.914204 26 255 222 0.117148
-0.138422 -0.015382 0.917859 47 255 201 0.124997
-0.141671 -0.017249 0.910354 15 248 233 0.111288
-0.144766 -0.019173 0.906400 0 208 255 0.098607
-0.144427 -0.019282 0.909890 4 234 244 0.106447
-0.146982 -0.019485 0.898667 0 141 255 0.080156
-0.149671 -0.020618 0.896077 0 127 255 0.077506
-0.147213 -0.019964 0.901189 0 167 255 0.086174
-0.149953 -0.020983 0.898625 0 167 255 0.086410
-0.150176 -0.021490 0.901117 0 194 255 0.094021
-0.152682 -0.021982 0.895991 0 167 255 0.088933
-0.147391 -0.020388 0.903736 0 181 255 0.092899
-0.144638 -0.018739 0.903734 0 181 255 0.091600
-0.152654 -0.022694 0.898749 0 194 255 0.094560
-0.155323 -0.023851 0.896171 0 208 255 0.098955
-0.152565 -0.023399 0.901432 0 194 255 0.097440
-0.155247 -0.024547 0.898973 0 208 255 0.101561
-0.155157 -0.025308 0.901650 15 248 233 0.110851
-0.157968 -0.025697 0.896302 15 248 233 0.110374
-0.152456 -0.024183 0.904070 0 208 255 0.100062
-0.150052 -0.022178 0.903801 0 208 255 0.098693
-0.136555 -0.014637 0.924820 129 255 119 0.157909
-0.135063 -0.013693 0.928325 140 255 108 0.183514
-0.137558 -0.015808 0.927952 131 255 117 0.161939
-0.139054 -0.016700 0.924468 90 255 157 0.138466
-0.134759 -0.013801 0.931703 154 255 94 0.210800
-0.134439 -0.013822 0.935084 173 255 75 0.247664
-0.132068 -0.011716 0.935425 184 255 64 0.269944
-0.132404 -0.011645 0.931985 167 255 81 0.236977
-0.141145 -0.019191 0.924319 36 255 211 0.118364
-0.139558 -0.018296 0.927802 112 255 136 0.146440
-0.139048 -0.018525 0.931219 135 255 113 0.171153
-0.136466 -0.016312 0.934877 159 255 88 0.222516
-0.136997 -0.016070 0.931426 148 255 100 0.197729
-0.132723 -0.014001 0.945870 234 255 14 0.373003
-0.133304 -0.014012 0.942253 215 255 33 0.333212
-0.130827 -0.011627 0.946151 249 244 0 0.403323
-0.131460 -0.011598 0.942427 230 255 18 0.365397
-0.133873 -0.013940 0.938626 192 255 56 0.288091
-0.135950 -0.016412 0.938354 182 255 66 0.268197
-0.129091 -0.009519 0.942804 243 251 5 0.392339
-0.129416 -0.009554 0.939210 224 255 24 0.352330
-0.131806 -0.011724 0.938851 207 255 41 0.317579
-0.164355 -0.026199 0.871797 0 141 255 0.078523
-0.166238 -0.027888 0.870142 0 141 255 0.081973
-0.164324 -0.026141 0.869030 0 127 255 0.077544
-0.168171 -0.029580 0.868488 0 167 255 0.088425
-0.166247 -0.027791 0.867383 0 141 255 0.081988
-0.168221 -0.029450 0.865709 0 181 255 0.091403
-0.164242 -0.026063 0.866275 0 141 255 0.078164
-0.170177 -0.031258 0.866826 0 208 255 0.099727
-0.172150 -0.032991 0.865191 15 248 233 0.113258
-0.171845 -0.032844 0.868064 15 248 233 0.112150
-0.169875 -0.031120 0.869725 0 194 255 0.096632
-0.167974 -0.029345 0.871390 0 181 255 0.091868
-0.171555 -0.032658 0.870956 15 248 233 0.110735
-0.166129 -0.027908 0.864516 0 141 255 0.080227
-0.163789 -0.026098 0.863391 0 114 255 0.073686
-0.168073 -0.029697 0.862706 0 167 255 0.089450
-0.165697 -0.027880 0.861607 0 141 255 0.078696
-0.167699 -0.029645 0.859773 0 154 255 0.084032
-0.163317 -0.026043 0.860503 0 114 255 0.072172
-0.170025 -0.031558 0.860939 0 194 255 0.095948
-0.172031 -0.033410 0.859187 36 255 211 0.119037
-0.172135 -0.033221 0.862176 26 255 222 0.116462
-0.170170 -0.031311 0.863943 0 221 255 0.102738
-0.178615 -0.043245 0.859716 131 255 117 0.163130
-0.177119 -0.040616 0.861015 101 255 147 0.141987
-0.178311 -0.042731 0.862757 123 255 125 0.150946
-0.175486 -0.038061 0.862371 58 255 190 0.126854
-0.176747 -0.040117 0.864094 69 255 179 0.132330
-0.175154 -0.037527 0.865477 36 255 211 0.118339
-0.177960 -0.042175 0.865794 101 255 147 0.142959
-0.173835 -0.035528 0.863771 36 255 211 0.118215
-0.173815 -0.035733 0.860769 47 255 201 0.122274
-0.175513 -0.038207 0.859375 80 255 168 0.136399
-0.176384 -0.039766 0.867051 47 255 201 0.124323
-0.177273 -0.041711 0.868793 69 255 179 0.129356
-0.174838 -0.037365 0.868299 26 255 222 0.114373
-0.175790 -0.039262 0.870027 26 255 222 0.115544
-0.174158 -0.036851 0.871401 4 234 244 0.105546
-0.176632 -0.041176 0.871808 36 255 211 0.120429
-0.173123 -0.035007 0.869656 4 234 244 0.109306
-0.173525 -0.035167 0.866761 15 248 233 0.111382
-0.161327 -0.024894 0.862415 0 74 255 0.059885
-0.159339 -0.023697 0.864334 0 34 255 0.050314
-0.161828 -0.024852 0.865297 0 74 255 0.062170
-0.159812 -0.023647 0.867233 0 47 255 0.054331
-0.157387 -0.022495 0.866268 0 20 255 0.045688
-0.155511 -0.021320 0.868152 0 7 255 0.042837
-0.154866 -0.021179 0.865335 0 7 255 0.040430
-0.156749 -0.022327 0.863456 0 20 255 0.043810
-0.158665 -0.023509 0.861587 0 34 255 0.049808
-0.154210 -0.020931 0.862563 0 7 255 0.041470
-0.162152 -0.024941 0.868115 0 87 255 0.064427
-0.160041 -0.023855 0.869970 0 47 255 0.054191
-0.162220 -0.025057 0.870846 0 87 255 0.064345
-0.160185 -0.023872 0.872693 0 74 255 0.059601
-0.158038 -0.022782 0.871747 0 34 255 0.050521
-0.156121 -0.021674 0.873507 0 34 255 0.047645
-0.155788 -0.021539 0.870841 0 20 255 0.044262
-0.157754 -0.022609 0.869076 0 34 255 0.047041
-0.149271 -0.019246 0.872345 0 0 219 0.024622
-0.151241 -0.019904 0.870542 0 0 234 0.027590
-0.153784 -0.020867 0.872700 0 0 255 0.036889
-0.151826 -0.020141 0.874531 0 0 250 0.032274
-0.148474 -0.018844 0.868401 0 0 219 0.024474
-0.150342 -0.019574 0.866471 0 0 219 0.026570
-0.147676 -0.018530 0.865779 0 0 219 0.024391
-0.149554 -0.019209 0.863870 0 0 234 0.028759
-0.152264 -0.020230 0.864551 0 0 250 0.032827
-0.152936 -0.020485 0.867345 0 0 250 0.032721
-0.152120 -0.020810 0.885704 0 34 255 0.047183
-0.155627 -0.022274 0.886311 0 87 255 0.064778
-0.154194 -0.021468 0.884050 0 74 255 0.058947
-0.153553 -0.021599 0.887971 0 74 255 0.059385
-0.157779 -0.023184 0.883401 0 101 255 0.068719
-0.158678 -0.024149 0.886099 0 141 255 0.081328
-0.160798 -0.025208 0.884330 0 154 255 0.083474
-0.162985 -0.026262 0.882498 0 181 255 0.092669
-0.161654 -0.026173 0.887025 0 167 255 0.089617
-0.159691 -0.025173 0.888639 0 167 255 0.089026
-0.156670 -0.023205 0.888843 0 127 255 0.076974
-0.156605 -0.023987 0.892652 0 167 255 0.088419
-0.153938 -0.022163 0.892556 0 141 255 0.080197
-0.159560 -0.025909 0.892518 0 221 255 0.103943
-0.150625 -0.020685 0.892904 0 101 255 0.066674
-0.162183 -0.025136 0.874834 0 101 255 0.069627
-0.160175 -0.024060 0.876555 0 87 255 0.063376
-0.164093 -0.026280 0.875699 0 154 255 0.082727
-0.158243 -0.022964 0.878240 0 74 255 0.060686
-0.156288 -0.021917 0.877316 0 47 255 0.051521
-0.161919 -0.025238 0.878750 0 127 255 0.075577
-0.159903 -0.024184 0.880441 0 101 255 0.069063
-0.156208 -0.022086 0.881140 0 74 255 0.061529
-0.150439 -0.020130 0.883454 0 0 255 0.035613
-0.152378 -0.020690 0.881932 0 20 255 0.045336
-0.150270 -0.019763 0.879925 0 0 255 0.035468
-0.154312 -0.021188 0.879098 0 34 255 0.047001
-0.149878 -0.019521 0.876210 0 0 234 0.029379
-0.152182 -0.020428 0.878280 0 0 255 0.035885
-0.139025 -0.015014 0.854906 0 0 219 0.024129
-0.137478 -0.014457 0.857072 0 0 204 0.021515
-0.140712 -0.015755 0.857412 0 0 204 0.021934
-0.135978 -0.013884 0.859172 0 0 204 0.021203
-0.139213 -0.015206 0.859544 0 0 189 0.019046
-0.137709 -0.014646 0.861628 0 0 204 0.020205
-0.142451 -0.016325 0.859886 0 0 204 0.020082
-0.134526 -0.013262 0.861262 0 0 204 0.021645
-0.133085 -0.012698 0.863316 0 0 219 0.023832
-0.131273 -0.011620 0.861377 0 0 219 0.026421
-0.132714 -0.012262 0.859283 0 0 219 0.024974
-0.134180 -0.012881 0.857176 0 0 219 0.024158
-0.129522 -0.010415 0.859448 0 0 234 0.029784
-0.140817 -0.015924 0.861861 0 0 189 0.017322
-0.143717 -0.016951 0.862438 0 0 189 0.017529
-0.139221 -0.015457 0.863829 0 0 189 0.016491
-0.142105 -0.016506 0.864451 0 0 174 0.015204
-0.135316 -0.014027 0.866497 0 0 204 0.020071
-0.136867 -0.014602 0.864643 0 0 189 0.018103
-0.127780 -0.012245 0.868444 0 0 219 0.025163
-0.130050 -0.012791 0.867296 0 0 204 0.021929
-0.128467 -0.011651 0.865593 0 0 204 0.023259
-0.131547 -0.012766 0.865332 0 0 204 0.022482
-0.125323 -0.010363 0.865888 0 0 234 0.028539
-0.126664 -0.010430 0.863775 0 0 219 0.026006
-0.123492 -0.008917 0.864429 0 0 250 0.032588
-0.124848 -0.009026 0.862306 0 0 234 0.030578
-0.128055 -0.010484 0.861618 0 0 219 0.025843
-0.129853 -0.011643 0.863471 0 0 219 0.023651
-0.146659 -0.018189 0.863042 0 0 189 0.018361
-0.148378 -0.018996 0.860996 0 0 204 0.020104
-0.145403 -0.017728 0.860457 0 0 189 0.018783
-0.147088 -0.018510 0.858479 0 0 204 0.021962
-0.150138 -0.019762 0.858933 0 0 219 0.023775
-0.151868 -0.020593 0.856874 0 0 234 0.030142
-0.153052 -0.020816 0.859695 0 0 234 0.030981
-0.151299 -0.020011 0.861761 0 0 250 0.032051
-0.143993 -0.017337 0.857672 0 0 204 0.020401
-0.145579 -0.018339 0.855414 0 0 204 0.021063
-0.142280 -0.016747 0.855166 0 0 204 0.022568
-0.143873 -0.017720 0.852885 0 0 204 0.022015
-0.147197 -0.019331 0.853075 0 0 234 0.029188
-0.148857 -0.020258 0.850811 0 0 255 0.035183
-0.150346 -0.020485 0.853803 0 0 255 0.036129
-0.148688 -0.019531 0.856156 0 0 204 0.022877
-0.158657 -0.026766 0.847703 0 47 255 0.052789
-0.156964 -0.025182 0.849981 0 20 255 0.043995
-0.160117 -0.026434 0.850928 0 74 255 0.059425
-0.155182 -0.023705 0.852296 0 0 255 0.037439
-0.158241 -0.024971 0.853311 0 34 255 0.047099
-0.156469 -0.023408 0.855736 0 7 255 0.042221
-0.161392 -0.026171 0.854320 0 87 255 0.064864
-0.153468 -0.022175 0.854610 0 0 255 0.036401
-0.152006 -0.022045 0.851566 0 0 250 0.034095
-0.153683 -0.023578 0.849332 0 0 255 0.035926
-0.159509 -0.024873 0.856431 0 47 255 0.052736
-0.162398 -0.026117 0.857383 0 74 255 0.061386
-0.157662 -0.023615 0.858514 0 20 255 0.044369
-0.160492 -0.024844 0.859495 0 47 255 0.054600
-0.155906 -0.022301 0.860562 0 7 255 0.040536
-0.154739 -0.022111 0.857716 0 0 250 0.032068
-0.105922 -0.010775 0.876463 0 0 255 0.036820
-0.106759 -0.008886 0.874457 0 0 255 0.036376
-0.103334 -0.009373 0.875666 0 0 250 0.032215
-0.107597 -0.006911 0.872464 0 20 255 0.045298
-0.108555 -0.004754 0.870477 0 87 255 0.065479
-0.103040 -0.006994 0.873426 0 0 255 0.036105
-0.100418 -0.008255 0.875070 0 0 234 0.029785
-0.103811 -0.004921 0.871487 0 47 255 0.051241
-0.104671 -0.002724 0.869490 0 127 255 0.077081
-0.112944 -0.001834 0.861462 0 114 255 0.073853
-0.111784 -0.002534 0.863773 0 101 255 0.067204
-0.114903 -0.003105 0.862295 0 101 255 0.069175
-0.110723 -0.003186 0.866036 0 101 255 0.066663
-0.113779 -0.003790 0.864626 0 74 255 0.060926
-0.112704 -0.004528 0.866884 0 60 255 0.058286
-0.116838 -0.004457 0.863115 0 60 255 0.058508
-0.109597 -0.004003 0.868289 0 74 255 0.062386
-0.106694 -0.002447 0.867567 0 114 255 0.070800
-0.116480 -0.005863 0.865873 0 34 255 0.048392
-0.115292 -0.006606 0.868047 0 20 255 0.046834
-0.087101 0.004385 0.861072 0 34 255 0.050568
-0.088581 0.005441 0.858841 0 74 255 0.060234
-0.085663 0.003361 0.863318 0 20 255 0.044577
-0.089853 0.002094 0.863664 0 7 255 0.041015
-0.091364 0.003206 0.861432 0 34 255 0.048771
-0.092890 0.004292 0.859169 0 74 255 0.060162
-0.086339 0.001739 0.865702 0 0 255 0.038284
-0.087030 0.000071 0.868028 0 0 250 0.034722
-0.083430 0.000824 0.868031 0 0 250 0.034030
-0.082665 0.002339 0.865640 0 0 255 0.035303
-0.095010 0.002277 0.861681 0 34 255 0.049627
-0.096804 0.002915 0.859459 0 47 255 0.053381
-0.093287 0.001574 0.863811 0 34 255 0.047065
-0.097178 0.000268 0.864170 0 20 255 0.045352
-0.098934 0.000912 0.862038 0 20 255 0.046520
-0.100776 0.001503 0.859766 0 47 255 0.053233
-0.093502 0.000139 0.866095 0 7 255 0.041375
-0.093763 -0.001198 0.868311 0 7 255 0.041609
-0.090369 -0.000617 0.868185 0 0 255 0.037483
-0.090132 0.000817 0.865942 0 7 255 0.039278
-0.088080 -0.006127 0.874188 0 0 189 0.017871
-0.085820 -0.007603 0.876497 0 0 189 0.017166
-0.087724 -0.004120 0.872178 0 0 204 0.022920
-0.085405 -0.005715 0.874409 0 0 189 0.018065
-0.085020 -0.003753 0.872361 0 0 204 0.020902
-0.083184 -0.007085 0.876804 0 0 189 0.019080
-0.087378 -0.002035 0.870110 0 0 219 0.026660
-0.090689 -0.002763 0.870227 0 0 234 0.027563
-0.091026 -0.004860 0.872240 0 0 204 0.022292
-0.082325 -0.005002 0.874634 0 0 204 0.020010
-0.080265 -0.006624 0.877272 0 0 204 0.021035
-0.081488 -0.002846 0.872492 0 0 204 0.023139
-0.079409 -0.004567 0.875070 0 0 204 0.022065
-0.080667 -0.000586 0.870282 0 0 234 0.028397
-0.084227 -0.001492 0.870195 0 0 219 0.025326
-0.083390 0.009574 0.838047 0 127 255 0.075394
-0.087733 0.008988 0.836516 0 154 255 0.083138
-0.083143 0.009820 0.841418 0 141 255 0.079229
-0.087474 0.009290 0.839923 0 154 255 0.085309
-0.087197 0.009497 0.843310 0 167 255 0.089314
-0.091801 0.008603 0.838381 0 194 255 0.094191
-0.082910 0.009898 0.844731 0 154 255 0.083922
-0.082694 0.009907 0.848025 0 181 255 0.090815
-0.080490 0.009957 0.847126 0 141 255 0.081024
-0.080692 0.009946 0.843843 0 127 255 0.074895
-0.078311 0.010022 0.846220 0 114 255 0.072832
-0.078509 0.009958 0.842969 0 101 255 0.066552
-0.080915 0.009818 0.840507 0 101 255 0.069554
-0.076125 0.009974 0.845334 0 87 255 0.064678
-0.091788 0.008695 0.841119 0 194 255 0.094634
-0.096028 0.007352 0.839228 0 181 255 0.091069
-0.091746 0.008685 0.843858 0 181 255 0.092451
-0.095993 0.007430 0.841948 0 167 255 0.087517
-0.095948 0.007442 0.844662 0 167 255 0.087555
-0.100190 0.005915 0.840066 0 154 255 0.083922
-0.091702 0.008603 0.846541 0 181 255 0.092554
-0.091655 0.008428 0.849204 0 194 255 0.096539
-0.087196 0.009235 0.848606 0 194 255 0.093815
-0.087219 0.009431 0.845976 0 181 255 0.090804
-0.083885 0.007499 0.855918 0 101 255 0.068072
-0.083481 0.008342 0.853298 0 114 255 0.071936
-0.079410 0.007832 0.855655 0 74 255 0.060361
-0.078967 0.008679 0.853061 0 87 255 0.063513
-0.083054 0.009171 0.850715 0 141 255 0.081065
-0.087539 0.008469 0.851302 0 154 255 0.084866
-0.087870 0.007615 0.853937 0 141 255 0.078365
-0.075137 0.008181 0.854641 0 47 255 0.053575
-0.072247 0.008223 0.854182 0 20 255 0.046148
-0.074722 0.008832 0.851292 0 47 255 0.052734
-0.069416 0.008325 0.853747 0 20 255 0.043663
-0.071808 0.008776 0.850837 0 20 255 0.045564
-0.074325 0.009400 0.847906 0 47 255 0.054610
-0.076487 0.009427 0.848796 0 74 255 0.061560
-0.078644 0.009395 0.849670 0 101 255 0.067806
-0.076851 0.008783 0.852173 0 74 255 0.059462
-0.121642 -0.007450 0.863006 0 0 255 0.038943
-0.122918 -0.007627 0.860728 0 0 250 0.033119
-0.118951 -0.005380 0.861373 0 34 255 0.047653
-0.124250 -0.007746 0.858435 0 0 255 0.035774
-0.125593 -0.007862 0.856182 0 0 255 0.039023
-0.127573 -0.009168 0.857777 0 0 250 0.032416
-0.126202 -0.009096 0.860053 0 0 234 0.031096
-0.116933 -0.003952 0.860290 0 47 255 0.053146
-0.119034 -0.004757 0.858257 0 34 255 0.048648
-0.117099 -0.003468 0.857389 0 47 255 0.053251
-0.114993 -0.002632 0.859425 0 74 255 0.059014
-0.120150 -0.005011 0.855798 0 20 255 0.043609
-0.121322 -0.005211 0.853384 0 20 255 0.043822
-0.123466 -0.006500 0.854764 0 7 255 0.041939
-0.122285 -0.006358 0.857215 0 7 255 0.039429
-0.130346 -0.011308 0.845908 0 0 219 0.025002
-0.129104 -0.010408 0.848450 0 0 219 0.026832
-0.132681 -0.012354 0.847960 0 0 219 0.025858
-0.127883 -0.009618 0.851001 0 0 234 0.027846
-0.131384 -0.011601 0.850529 0 0 219 0.025209
-0.130155 -0.010770 0.853065 0 0 219 0.026812
-0.134957 -0.013447 0.850062 0 0 219 0.025048
-0.126700 -0.008728 0.853584 0 0 234 0.030012
-0.124552 -0.007480 0.852134 0 0 250 0.032981
-0.125671 -0.008442 0.849565 0 0 219 0.027302
-0.133579 -0.012676 0.852370 0 0 219 0.023906
-0.137013 -0.014250 0.852448 0 0 219 0.024436
-0.132181 -0.011958 0.854756 0 0 219 0.024559
-0.135582 -0.013520 0.854807 0 0 204 0.023198
-0.130827 -0.011214 0.857093 0 0 234 0.027754
-0.128860 -0.009986 0.855413 0 0 234 0.029182
-0.102427 0.004686 0.840290 0 114 255 0.073506
-0.100322 0.005731 0.842551 0 127 255 0.077687
-0.102558 0.004503 0.842758 0 101 255 0.067336
-0.104614 0.003400 0.840498 0 74 255 0.062288
-0.100457 0.005488 0.845043 0 127 255 0.074249
-0.104757 0.003269 0.842996 0 60 255 0.058060
-0.102668 0.004254 0.845247 0 87 255 0.064956
-0.104848 0.003011 0.845458 0 47 255 0.054630
-0.106768 0.002091 0.840712 0 47 255 0.052612
-0.106902 0.001980 0.843218 0 34 255 0.050467
-0.108919 0.000850 0.840990 0 20 255 0.045940
-0.100574 0.005157 0.847524 0 114 255 0.072051
-0.102813 0.003990 0.847711 0 74 255 0.062110
-0.100723 0.004789 0.849967 0 114 255 0.070740
-0.098491 0.005768 0.849799 0 127 255 0.076073
-0.098350 0.006142 0.847346 0 141 255 0.078950
-0.096249 0.006710 0.849597 0 141 255 0.081998
-0.096109 0.007108 0.847136 0 154 255 0.085218
-0.098228 0.006526 0.844880 0 154 255 0.082525
-0.093952 0.007583 0.849422 0 167 255 0.088619
-0.110959 -0.000499 0.841205 0 0 255 0.038945
-0.111021 -0.000505 0.843625 0 0 255 0.038080
-0.113082 -0.001774 0.841463 0 0 255 0.035764
-0.108981 0.000772 0.845823 0 20 255 0.044411
-0.113077 -0.001822 0.843863 0 0 250 0.032666
-0.111024 -0.000586 0.846035 0 0 255 0.038504
-0.115148 -0.003126 0.841663 0 0 250 0.031468
-0.117249 -0.004383 0.841949 0 0 234 0.028092
-0.109048 0.000457 0.850661 0 34 255 0.048293
-0.106976 0.001778 0.848063 0 47 255 0.051149
-0.104958 0.002713 0.850300 0 74 255 0.059912
-0.100762 0.002419 0.857350 0 60 255 0.055246
-0.100733 0.003233 0.854919 0 60 255 0.057797
-0.096772 0.003870 0.857096 0 60 255 0.057906
-0.096727 0.004676 0.854651 0 74 255 0.060427
-0.100719 0.004040 0.852457 0 74 255 0.061550
-0.104910 0.001964 0.852789 0 47 255 0.052653
-0.104908 0.001160 0.855271 0 34 255 0.048884
-0.092545 0.005326 0.856682 0 87 255 0.064881
-0.092227 0.006364 0.854209 0 114 255 0.070616
-0.088206 0.006502 0.856392 0 87 255 0.065670
-0.091920 0.007402 0.851734 0 141 255 0.081843
-0.094200 0.006580 0.851943 0 127 255 0.074761
-0.096455 0.005716 0.852139 0 101 255 0.068813
-0.094472 0.005527 0.854427 0 101 255 0.066631
-0.103098 -0.015604 0.797974 0 0 143 0.006005
-0.101176 -0.014083 0.799030 0 0 143 0.005869
-0.097998 -0.013034 0.798128 0 0 143 0.006350
-0.096086 -0.011446 0.799206 0 0 143 0.007726
-0.092904 -0.010407 0.798371 0 0 158 0.009478
-0.095445 -0.009223 0.802241 0 0 158 0.009985
-0.093576 -0.012565 0.795341 0 0 158 0.007899
-0.090356 -0.011612 0.794488 0 0 158 0.009193
-0.095613 -0.014006 0.794473 0 0 143 0.006831
-0.097635 -0.015397 0.793615 0 0 143 0.007120
-0.100807 -0.016357 0.794511 0 0 143 0.007004
-0.098524 -0.017177 0.791062 0 0 158 0.008386
-0.093322 -0.007705 0.803356 0 0 158 0.011048
-0.091967 -0.008396 0.801241 0 0 158 0.010418
-0.089782 -0.006888 0.802375 0 0 174 0.011840
-0.091181 -0.006154 0.804497 0 0 174 0.013314
-0.088405 -0.007653 0.800235 0 0 158 0.011065
-0.087571 -0.005354 0.803549 0 0 174 0.014452
-0.086184 -0.006154 0.801439 0 0 174 0.012749
-0.088965 -0.004574 0.805645 0 0 174 0.015507
-0.084747 -0.006923 0.799338 0 0 174 0.012003
-0.085791 -0.008960 0.796417 0 0 158 0.010153
-0.089392 -0.009677 0.797351 0 0 158 0.009842
-0.078477 -0.011067 0.788657 0 0 158 0.010272
-0.082149 -0.011511 0.789899 0 0 158 0.009236
-0.084592 -0.012730 0.789108 0 0 158 0.008724
-0.088102 -0.013146 0.790411 0 0 158 0.008702
-0.085800 -0.014670 0.786342 0 0 158 0.009300
-0.086867 -0.011157 0.793200 0 0 158 0.009026
-0.084555 -0.009856 0.794170 0 0 158 0.009409
-0.082169 -0.008550 0.795167 0 0 158 0.010168
-0.080916 -0.009450 0.792924 0 0 158 0.009904
-0.088005 -0.015968 0.785736 0 0 158 0.008295
-0.091193 -0.016584 0.786877 0 0 143 0.007757
-0.093344 -0.017823 0.786262 0 0 158 0.008541
-0.096513 -0.018418 0.787454 0 0 158 0.009072
-0.094484 -0.019712 0.783902 0 0 158 0.010202
-0.095377 -0.016554 0.789859 0 0 143 0.007797
-0.093325 -0.015183 0.790700 0 0 143 0.007303
-0.091276 -0.013784 0.791577 0 0 143 0.007749
-0.088319 -0.002459 0.808699 0 0 204 0.020954
-0.086242 -0.001110 0.810103 0 0 204 0.022104
-0.087837 -0.000578 0.811955 0 0 219 0.024323
-0.089936 -0.001955 0.810546 0 0 204 0.023078
-0.085726 0.000790 0.813402 0 0 219 0.027115
-0.089469 -0.000051 0.813819 0 0 219 0.027295
-0.087358 0.001341 0.815257 0 0 234 0.029507
-0.088942 0.001876 0.817131 0 0 250 0.032827
-0.091496 -0.001475 0.812425 0 0 219 0.024434
-0.091046 0.000436 0.815683 0 0 234 0.029630
-0.093088 -0.001014 0.814310 0 0 219 0.026639
-0.085169 0.002699 0.816739 0 0 250 0.033430
-0.086784 0.003253 0.818600 0 0 255 0.037301
-0.084554 0.004568 0.820121 0 7 255 0.042773
-0.082739 0.003877 0.818028 0 0 255 0.036106
-0.083351 0.001990 0.814650 0 0 234 0.028889
-0.080902 0.003147 0.815949 0 0 234 0.030328
-0.081484 0.001271 0.812592 0 0 219 0.024603
-0.083886 0.000099 0.811320 0 0 204 0.022945
-0.079039 0.002386 0.813889 0 0 219 0.025914
-0.092945 0.000616 0.817354 0 0 234 0.031053
-0.096515 -0.000961 0.817251 0 0 219 0.026569
-0.092798 0.002249 0.820431 0 0 255 0.037950
-0.096340 0.000651 0.820288 0 0 250 0.032400
-0.096122 0.002233 0.823299 0 7 255 0.040736
-0.099801 -0.001034 0.820161 0 0 234 0.027849
-0.092560 0.003826 0.823488 0 34 255 0.047147
-0.092237 0.005375 0.826588 0 74 255 0.060100
-0.090372 0.005247 0.824990 0 47 255 0.054568
-0.090655 0.003685 0.821869 0 20 255 0.043448
-0.088458 0.005083 0.823391 0 34 255 0.049984
-0.088731 0.003512 0.820263 0 7 255 0.039871
-0.090877 0.002088 0.818789 0 0 255 0.035613
-0.086535 0.004834 0.821747 0 20 255 0.045795
-0.083869 0.008290 0.831110 0 74 255 0.060985
-0.081783 0.007995 0.829300 0 47 255 0.052795
-0.084140 0.007171 0.827471 0 47 255 0.052167
-0.079635 0.007623 0.827439 0 20 255 0.045571
-0.082010 0.006830 0.825624 0 20 255 0.046472
-0.079795 0.006407 0.823754 0 7 255 0.039880
-0.077428 0.007176 0.825560 0 7 255 0.040815
-0.084367 0.005920 0.823803 0 20 255 0.045755
-0.082201 0.005514 0.821885 0 7 255 0.040717
-0.086323 0.006169 0.825403 0 47 255 0.051101
-0.088238 0.006367 0.827005 0 60 255 0.056616
-0.086045 0.007383 0.829032 0 60 255 0.058140
-0.087952 0.007531 0.830591 0 87 255 0.065531
-0.090103 0.006524 0.828612 0 74 255 0.062374
-0.085791 0.008455 0.832606 0 101 255 0.068320
-0.075640 0.006477 0.823484 0 0 250 0.033871
-0.073633 0.005625 0.821086 0 0 234 0.027821
-0.076197 0.004943 0.819565 0 0 234 0.028111
-0.071603 0.004722 0.818717 0 0 204 0.022592
-0.074151 0.004060 0.817190 0 0 204 0.022489
-0.076705 0.003267 0.815663 0 0 219 0.023518
-0.078549 0.004075 0.817744 0 0 234 0.028705
-0.080374 0.004827 0.819828 0 0 250 0.034440
-0.078006 0.005706 0.821664 0 0 250 0.033772
-0.099873 0.000199 0.822705 0 0 250 0.033250
-0.103294 -0.002179 0.821949 0 0 219 0.023522
-0.099851 0.001399 0.825212 0 7 255 0.040343
-0.103326 -0.000997 0.824436 0 0 234 0.028555
-0.103368 0.000217 0.826968 0 0 255 0.036423
-0.106749 -0.003318 0.823724 0 0 204 0.021320
-0.099842 0.002601 0.827766 0 34 255 0.049623
-0.099782 0.003771 0.830331 0 74 255 0.061280
-0.096060 0.004650 0.828481 0 74 255 0.060575
-0.096109 0.003474 0.825895 0 34 255 0.049796
-0.108847 -0.003621 0.826423 0 0 204 0.019973
-0.110460 -0.005485 0.824838 0 0 174 0.014251
-0.107211 -0.001710 0.828045 0 0 234 0.028416
-0.110900 -0.003934 0.829006 0 0 204 0.020293
-0.112540 -0.005767 0.827402 0 0 174 0.014707
-0.114193 -0.007529 0.825824 0 0 158 0.011490
-0.109229 -0.002080 0.830625 0 0 234 0.028319
-0.107573 -0.000177 0.832284 0 0 255 0.038996
-0.105473 0.000028 0.829659 0 0 255 0.037075
-0.103732 0.001807 0.831313 0 34 255 0.047959
-0.100124 0.005463 0.837645 0 127 255 0.077443
-0.100034 0.004955 0.835208 0 114 255 0.071380
-0.095981 0.006922 0.836789 0 154 255 0.083688
-0.095900 0.006398 0.834318 0 127 255 0.077385
-0.099920 0.004398 0.832781 0 87 255 0.066072
-0.103849 0.002402 0.833702 0 47 255 0.051924
-0.103958 0.002965 0.836089 0 60 255 0.056307
-0.091947 0.007941 0.835459 0 154 255 0.084651
-0.092067 0.007178 0.832538 0 127 255 0.074587
-0.094084 0.005954 0.830483 0 101 255 0.066807
-0.132775 -0.013414 0.844133 0 0 204 0.021485
-0.136426 -0.015752 0.843730 0 0 204 0.019808
-0.138884 -0.017690 0.841984 0 0 189 0.018891
-0.142668 -0.019785 0.841623 0 0 219 0.026929
-0.140162 -0.019345 0.838991 0 0 189 0.018783
-0.141307 -0.018198 0.844701 0 0 204 0.020971
-0.145114 -0.020246 0.844302 0 0 234 0.030795
-0.138778 -0.016532 0.846135 0 0 204 0.020222
-0.136308 -0.014682 0.847548 0 0 204 0.022796
-0.142671 -0.022033 0.837351 0 0 204 0.020429
-0.143741 -0.021782 0.839408 0 0 204 0.022260
-0.146303 -0.024389 0.837714 0 0 204 0.020556
-0.145194 -0.024690 0.835711 0 0 189 0.017945
-0.147432 -0.024072 0.839745 0 0 204 0.023396
-0.148962 -0.026923 0.836053 0 0 204 0.020909
-0.150101 -0.026565 0.838024 0 0 219 0.023984
-0.152815 -0.029051 0.836274 0 0 219 0.026390
-0.147803 -0.027316 0.834075 0 0 189 0.017512
-0.151615 -0.029516 0.834344 0 0 204 0.021720
-0.150310 -0.030056 0.832460 0 0 189 0.016397
-0.151209 -0.026258 0.840026 0 0 219 0.025743
-0.153980 -0.028645 0.838281 0 0 234 0.030609
-0.155126 -0.028301 0.840247 0 0 250 0.035100
-0.150027 -0.024331 0.842321 0 0 234 0.027440
-0.146279 -0.022149 0.841988 0 0 219 0.025515
-0.155175 -0.025312 0.846908 0 0 255 0.038627
-0.151735 -0.023733 0.846082 0 0 250 0.032231
-0.150305 -0.022003 0.848424 0 0 250 0.032013
-0.147015 -0.020290 0.847502 0 0 250 0.031914
-0.148400 -0.022044 0.845225 0 0 234 0.030126
-0.153487 -0.025967 0.843106 0 0 250 0.034012
-0.156988 -0.027520 0.843878 0 20 255 0.043803
-0.145292 -0.018770 0.850627 0 0 219 0.023673
-0.141819 -0.017069 0.850417 0 0 204 0.022368
-0.140430 -0.016037 0.852638 0 0 204 0.022758
-0.138371 -0.015312 0.850216 0 0 204 0.022940
-0.143474 -0.018663 0.847357 0 0 234 0.029847
-0.116326 -0.008980 0.826212 0 0 158 0.009023
-0.118449 -0.010409 0.826555 0 0 158 0.007846
-0.115239 -0.006681 0.829660 0 0 174 0.014534
-0.117356 -0.008176 0.830012 0 0 158 0.011177
-0.119507 -0.009617 0.830319 0 0 158 0.010157
-0.120638 -0.011811 0.826909 0 0 143 0.007029
-0.122819 -0.013166 0.827275 0 0 143 0.006235
-0.116181 -0.005886 0.833484 0 0 189 0.018958
-0.113974 -0.004528 0.833158 0 0 204 0.021376
-0.111825 -0.003127 0.832881 0 0 219 0.024503
-0.125025 -0.014694 0.827541 0 0 143 0.005571
-0.127285 -0.016174 0.827885 0 0 143 0.005239
-0.124009 -0.012343 0.830915 0 0 158 0.009086
-0.126225 -0.013882 0.831188 0 0 158 0.008069
-0.128481 -0.015382 0.831470 0 0 143 0.007581
-0.129527 -0.017615 0.828219 0 0 143 0.004999
-0.131840 -0.019076 0.828512 0 0 143 0.005251
-0.125104 -0.011639 0.834507 0 0 174 0.012132
-0.122835 -0.010250 0.834285 0 0 174 0.013255
-0.120604 -0.008820 0.834032 0 0 174 0.013934
-0.121738 -0.011009 0.830602 0 0 158 0.009525
-0.118373 -0.007372 0.833774 0 0 174 0.014768
-0.116766 -0.005070 0.837689 0 0 204 0.023168
