ply
format ascii 1.0
comment VCGLIB generated
element vertex 1032
property float x
property float y
property float z
property uchar red
property uchar green
property uchar blue
property float quality
end_header
-0.027079 -0.121024 0.896151 0 60 255 0.056013
-0.028892 -0.120611 0.900120 0 181 255 0.093414
-0.032261 -0.119903 0.903269 47 255 201 0.123883
-0.024753 -0.121162 0.882575 0 0 219 0.023583
-0.022823 -0.121332 0.878617 0 0 255 0.036853
-0.019344 -0.121891 0.875642 0 47 255 0.052143
-0.017505 -0.123265 0.872077 0 47 255 0.051088
-0.019707 -0.121206 0.880112 0 7 255 0.041276
-0.021605 -0.121130 0.884037 0 0 234 0.028714
0.015117 -0.113611 0.891122 131 255 117 0.163833
0.011406 -0.113967 0.893896 47 255 201 0.122446
0.011215 -0.113908 0.898637 0 194 255 0.094861
0.007477 -0.114874 0.901791 0 74 255 0.060242
0.007702 -0.114788 0.896887 0 127 255 0.074225
0.003968 -0.115818 0.900149 0 20 255 0.044641
0.007866 -0.115146 0.892128 0 194 255 0.094788
0.011524 -0.114741 0.889351 80 255 168 0.134110
0.015133 -0.114768 0.886805 133 255 115 0.164297
0.011557 -0.116371 0.885266 26 255 222 0.114460
0.007114 -0.114673 0.906838 0 74 255 0.059839
0.003400 -0.114954 0.910331 0 87 255 0.063301
0.001415 -0.114485 0.914514 0 127 255 0.075736
-0.000549 -0.113700 0.918655 0 194 255 0.093942
-0.003894 -0.114726 0.917254 0 208 255 0.101516
-0.001925 -0.115466 0.913016 0 127 255 0.074657
0.000059 -0.115910 0.908712 0 60 255 0.056349
0.003718 -0.115539 0.905217 0 34 255 0.049285
-0.010338 -0.117163 0.914476 80 255 168 0.132840
-0.008389 -0.117835 0.910102 0 181 255 0.090685
-0.004828 -0.117643 0.906558 0 74 255 0.058665
-0.002896 -0.117729 0.902200 0 0 250 0.035003
0.000646 -0.117089 0.898706 0 0 250 0.032069
-0.002635 -0.118284 0.897349 0 0 219 0.025836
0.000372 -0.116532 0.903663 0 7 255 0.039153
-0.005182 -0.116717 0.911694 0 154 255 0.082832
-0.007113 -0.115967 0.915900 26 255 222 0.114419
-0.000774 -0.117936 0.893297 0 0 234 0.030865
0.002809 -0.117418 0.890158 0 34 255 0.050570
0.004711 -0.117984 0.886665 0 74 255 0.059484
0.008264 -0.118145 0.884040 0 127 255 0.074797
0.004931 -0.119748 0.882785 0 34 255 0.050040
0.008021 -0.116272 0.887906 0 181 255 0.092635
0.004267 -0.115976 0.895290 0 47 255 0.054261
0.001406 -0.119314 0.885468 0 20 255 0.045615
-0.000491 -0.118724 0.888939 0 0 255 0.037088
-0.004020 -0.119095 0.892073 0 0 219 0.025419
-0.005872 -0.119355 0.896044 0 0 219 0.025629
-0.009147 -0.120043 0.894566 0 0 219 0.026887
-0.007286 -0.119841 0.890597 0 0 219 0.024890
-0.003759 -0.119623 0.887581 0 0 250 0.032667
-0.001886 -0.120241 0.884012 0 7 255 0.040695
0.001653 -0.120981 0.881472 0 7 255 0.039829
-0.001656 -0.121796 0.879998 0 0 255 0.038651
-0.006103 -0.118886 0.900868 0 0 255 0.038081
-0.008037 -0.118767 0.905084 0 101 255 0.067465
-0.011530 -0.118956 0.908626 4 234 244 0.109311
-0.013481 -0.118301 0.912967 129 255 119 0.156627
-0.016684 -0.118929 0.911171 131 255 117 0.161132
-0.014710 -0.119688 0.906956 26 255 222 0.114366
-0.011205 -0.119611 0.903542 0 114 255 0.073331
-0.009331 -0.119745 0.899394 0 7 255 0.042242
-0.019471 -0.120304 0.904661 26 255 222 0.116693
-0.017618 -0.120703 0.900566 0 127 255 0.076845
-0.014153 -0.120595 0.897195 0 20 255 0.046508
-0.012356 -0.120619 0.893165 0 0 234 0.028703
-0.014391 -0.120282 0.902028 0 114 255 0.073405
-0.019787 -0.119383 0.909517 131 255 117 0.160709
-0.012097 -0.120566 0.888480 0 0 219 0.026296
-0.010214 -0.120771 0.884664 0 0 250 0.034032
-0.006727 -0.121162 0.881858 0 7 255 0.040289
-0.004859 -0.122421 0.878498 0 7 255 0.040238
-0.006980 -0.120266 0.886167 0 0 250 0.032307
-0.010554 -0.114802 0.919234 90 255 157 0.140511
-0.010659 -0.112031 0.923665 112 255 136 0.145543
-0.007319 -0.113554 0.920517 36 255 211 0.120957
-0.007417 -0.110687 0.924688 36 255 211 0.117491
-0.010698 -0.108832 0.927541 101 255 147 0.141321
-0.010650 -0.105279 0.930993 58 255 190 0.127626
-0.013881 -0.106462 0.930278 129 255 119 0.158369
-0.013927 -0.109928 0.926460 131 255 117 0.161921
-0.013907 -0.113017 0.922303 131 255 117 0.161069
-0.017186 -0.107355 0.929110 138 255 109 0.179581
-0.004039 -0.112371 0.921655 4 234 244 0.108539
-0.004107 -0.109602 0.925559 0 221 255 0.103452
-0.000681 -0.111310 0.922846 0 194 255 0.096967
-0.004017 -0.106546 0.928990 0 208 255 0.097929
-0.007270 -0.104221 0.931605 0 221 255 0.103805
-0.007395 -0.107604 0.928353 26 255 222 0.114780
-0.010318 -0.093019 0.937353 0 114 255 0.070647
-0.009509 -0.096946 0.935596 0 114 255 0.073901
-0.012856 -0.097685 0.935057 0 167 255 0.088576
-0.013700 -0.093694 0.936768 0 127 255 0.077091
-0.010192 -0.101169 0.933393 0 194 255 0.096829
-0.006753 -0.100175 0.933954 0 141 255 0.081693
-0.017045 -0.094641 0.936321 0 208 255 0.097760
-0.016160 -0.098825 0.934637 26 255 222 0.117088
-0.019414 -0.099509 0.933909 90 255 157 0.137360
-0.020371 -0.095392 0.935654 36 255 211 0.120399
-0.016760 -0.103245 0.932252 127 255 121 0.152635
-0.013482 -0.102144 0.932909 47 255 201 0.122398
-0.047326 -0.024841 0.918972 15 248 233 0.111031
-0.045843 -0.027735 0.921629 15 248 233 0.111068
-0.045250 -0.022503 0.917390 0 167 255 0.086148
-0.043755 -0.025471 0.920119 0 154 255 0.085341
-0.041520 -0.023192 0.918319 0 74 255 0.059677
-0.042305 -0.028367 0.922687 0 167 255 0.086261
-0.043000 -0.020217 0.915442 0 74 255 0.059047
-0.040653 -0.017764 0.913351 0 7 255 0.040195
-0.044860 -0.016773 0.912353 0 101 255 0.068948
-0.047128 -0.019309 0.914286 0 167 255 0.088415
-0.039928 -0.026194 0.921165 0 74 255 0.061271
-0.038652 -0.029046 0.923792 0 87 255 0.065247
-0.037442 -0.024155 0.919165 0 7 255 0.039172
-0.036189 -0.026888 0.921977 0 20 255 0.043098
-0.033602 -0.024728 0.919919 0 0 250 0.031588
-0.034882 -0.029624 0.924662 0 20 255 0.046321
-0.034925 -0.021843 0.917206 0 0 234 0.030022
-0.032453 -0.019121 0.915443 0 0 234 0.027392
-0.036535 -0.018577 0.914352 0 0 234 0.028154
-0.039040 -0.021024 0.916334 0 0 255 0.037416
-0.029056 -0.007819 0.905073 0 0 219 0.024818
-0.031315 -0.007804 0.904232 0 0 204 0.022708
-0.032126 -0.010730 0.907041 0 0 204 0.021832
-0.034326 -0.010562 0.906194 0 0 204 0.020840
-0.033524 -0.007657 0.903315 0 0 204 0.022750
-0.035011 -0.013448 0.908954 0 0 204 0.021596
-0.036533 -0.010321 0.905360 0 0 204 0.021738
-0.037230 -0.013184 0.908174 0 0 204 0.022656
-0.039423 -0.012741 0.907468 0 0 219 0.025998
-0.035769 -0.007526 0.902425 0 0 204 0.022115
-0.038756 -0.010072 0.904502 0 0 219 0.023570
-0.037981 -0.007331 0.901460 0 0 204 0.022791
-0.037862 -0.015809 0.911056 0 0 219 0.025302
-0.040075 -0.015343 0.910425 0 0 234 0.031103
-0.033753 -0.016300 0.912243 0 0 204 0.023407
-0.030939 -0.013586 0.910373 0 0 219 0.023558
-0.040268 -0.007052 0.900549 0 0 219 0.025631
-0.043113 -0.009394 0.902878 0 0 250 0.031432
-0.042524 -0.006700 0.899621 0 0 234 0.029724
-0.043600 -0.012048 0.906146 0 0 255 0.036841
-0.045376 -0.008990 0.901987 0 7 255 0.039358
-0.045876 -0.011544 0.905320 0 34 255 0.047579
-0.044833 -0.006463 0.898648 0 0 250 0.033407
-0.046309 -0.014086 0.908588 0 74 255 0.059262
-0.012047 -0.009270 0.916348 0 34 255 0.049160
-0.009845 -0.009040 0.917632 0 60 255 0.057815
-0.011544 -0.011182 0.920362 0 101 255 0.070199
-0.013763 -0.011572 0.919011 0 60 255 0.057946
-0.009368 -0.010870 0.921751 0 141 255 0.079778
-0.013106 -0.013760 0.922880 0 127 255 0.074814
-0.011003 -0.013346 0.924305 0 167 255 0.088485
-0.012286 -0.016204 0.926421 0 154 255 0.082103
-0.015201 -0.014305 0.921452 0 60 255 0.056565
-0.014346 -0.016729 0.925033 0 101 255 0.066667
-0.016415 -0.017202 0.923551 0 47 255 0.054544
-0.008794 -0.013022 0.925683 0 221 255 0.102191
-0.010168 -0.015868 0.927932 0 194 255 0.097202
-0.008047 -0.015503 0.929395 15 248 233 0.111528
-0.006363 -0.012873 0.927096 15 248 233 0.111686
-0.006958 -0.010728 0.923103 0 167 255 0.086548
-0.004464 -0.010819 0.924380 0 167 255 0.086757
-0.004989 -0.008867 0.920342 0 101 255 0.066690
-0.007439 -0.008861 0.918988 0 87 255 0.062964
-0.002475 -0.009022 0.921554 0 87 255 0.063546
-0.017127 -0.020738 0.925169 0 20 255 0.044559
-0.015853 -0.023706 0.927880 0 20 255 0.044578
-0.016332 -0.027125 0.929155 0 7 255 0.039532
-0.014885 -0.030036 0.931676 0 0 255 0.037934
-0.018883 -0.030415 0.929429 0 0 255 0.035181
-0.012472 -0.026515 0.931719 0 20 255 0.044597
-0.010971 -0.029521 0.934176 0 20 255 0.043841
-0.010455 -0.026072 0.933296 0 60 255 0.055087
-0.011897 -0.022908 0.930718 0 74 255 0.059318
-0.009846 -0.022621 0.932182 0 101 255 0.068922
-0.011221 -0.019255 0.929506 0 127 255 0.076829
-0.013249 -0.019767 0.927982 0 87 255 0.065052
-0.009063 -0.019016 0.930941 0 181 255 0.090340
-0.004695 -0.025447 0.937693 0 154 255 0.082588
-0.003961 -0.021859 0.936836 15 248 233 0.111129
-0.005934 -0.022063 0.935229 0 181 255 0.093713
-0.002843 -0.018423 0.935545 58 255 190 0.128552
-0.004941 -0.018572 0.934024 26 255 222 0.117045
-0.003599 -0.015172 0.932421 90 255 157 0.139750
-0.001294 -0.015263 0.933746 90 255 157 0.139806
-0.005807 -0.015297 0.930940 69 255 179 0.129031
-0.007189 -0.029053 0.937107 0 60 255 0.055361
0.000575 -0.013250 0.931086 15 248 233 0.111592
0.002760 -0.011488 0.928328 0 127 255 0.077191
0.000186 -0.011097 0.927089 0 154 255 0.085122
0.004981 -0.009970 0.925367 0 34 255 0.047749
0.002424 -0.009480 0.924169 0 60 255 0.055753
-0.000124 -0.009233 0.922837 0 74 255 0.062418
-0.002187 -0.010776 0.925850 0 194 255 0.094125
-0.004084 -0.012801 0.928551 36 255 211 0.120277
-0.001752 -0.012924 0.929908 36 255 211 0.118757
-0.020334 -0.027661 0.926841 0 0 255 0.035849
-0.019704 -0.024575 0.925265 0 0 255 0.038635
-0.021125 -0.021530 0.922566 0 0 255 0.035963
-0.020446 -0.018113 0.921011 0 7 255 0.039482
-0.024392 -0.018867 0.918660 0 0 250 0.032068
-0.024963 -0.022157 0.920445 0 0 250 0.034119
-0.023693 -0.025007 0.923208 0 0 255 0.035192
-0.024293 -0.027957 0.925104 0 0 250 0.034590
-0.022958 -0.030576 0.927838 0 0 250 0.033659
-0.027039 -0.030458 0.926529 0 0 250 0.032377
-0.017453 -0.014669 0.920120 0 34 255 0.049975
-0.016021 -0.011844 0.917742 0 34 255 0.050428
-0.018328 -0.012129 0.916485 0 20 255 0.043755
-0.014374 -0.009463 0.915168 0 20 255 0.045950
-0.016762 -0.009547 0.913990 0 20 255 0.043463
-0.015116 -0.007459 0.911227 0 0 255 0.037531
-0.012711 -0.007363 0.912410 0 7 255 0.040326
-0.019117 -0.009832 0.912795 0 0 255 0.036913
-0.017470 -0.007519 0.910084 0 0 250 0.034887
-0.019819 -0.007644 0.908992 0 0 250 0.031929
-0.022493 -0.012950 0.914263 0 0 250 0.032460
-0.021541 -0.015603 0.917688 0 0 255 0.035341
-0.028021 -0.010549 0.908710 0 0 219 0.026091
-0.026910 -0.013363 0.912136 0 0 219 0.027029
-0.029736 -0.016438 0.913673 0 0 219 0.026490
-0.028386 -0.019140 0.916874 0 0 234 0.029777
-0.025713 -0.016075 0.915471 0 0 234 0.031093
-0.024726 -0.013175 0.913183 0 0 234 0.030052
-0.023540 -0.010294 0.910696 0 0 234 0.030248
-0.025798 -0.010408 0.909697 0 0 234 0.027543
-0.024490 -0.007673 0.907044 0 0 234 0.027513
-0.022176 -0.007657 0.908025 0 0 250 0.031450
-0.026794 -0.007788 0.906072 0 0 219 0.026481
-0.031089 -0.022138 0.918131 0 0 234 0.029646
-0.029760 -0.025013 0.920970 0 0 250 0.031712
-0.032321 -0.027416 0.922833 0 0 250 0.033908
-0.031021 -0.030074 0.925610 0 0 255 0.036373
-0.028401 -0.027823 0.923770 0 0 250 0.032056
-0.019291 -0.033690 0.930866 0 0 250 0.032760
-0.017894 -0.036805 0.933192 0 0 250 0.031560
-0.018685 -0.039848 0.934962 0 0 250 0.031701
-0.017482 -0.042904 0.937249 0 0 250 0.034299
-0.021507 -0.042610 0.936066 0 0 255 0.038487
-0.014575 -0.040002 0.936148 0 0 250 0.034663
-0.013409 -0.043076 0.938296 0 0 250 0.035048
-0.013751 -0.036749 0.934785 0 0 255 0.035220
-0.013211 -0.033423 0.933674 0 0 255 0.037806
-0.021770 -0.046045 0.936766 0 0 255 0.036283
-0.020208 -0.049606 0.938120 0 0 255 0.035534
-0.020589 -0.053110 0.938827 0 0 255 0.037645
-0.016929 -0.053115 0.939911 0 0 255 0.038063
-0.016409 -0.049712 0.939272 0 0 255 0.037385
-0.015935 -0.046386 0.938498 0 0 250 0.034158
-0.009432 -0.053215 0.942105 0 34 255 0.049860
-0.008676 -0.049951 0.941576 0 34 255 0.047268
-0.009960 -0.046611 0.940288 0 7 255 0.042665
-0.009369 -0.043224 0.939699 0 7 255 0.040594
-0.012522 -0.049871 0.940330 0 7 255 0.039938
-0.013148 -0.053203 0.940994 0 7 255 0.042935
-0.006565 -0.040059 0.939545 0 20 255 0.043912
-0.005966 -0.036520 0.939086 0 7 255 0.041982
-0.007437 -0.032955 0.937376 0 20 255 0.043140
-0.009730 -0.036678 0.936725 0 7 255 0.039407
-0.010413 -0.040031 0.937655 0 7 255 0.039116
-0.033919 -0.093471 0.933318 127 255 121 0.152716
-0.034491 -0.097691 0.930330 101 255 147 0.143368
-0.037089 -0.093808 0.931991 112 255 136 0.146202
-0.034951 -0.101880 0.926944 69 255 179 0.131231
-0.037620 -0.097953 0.928813 69 255 179 0.130256
-0.038038 -0.102015 0.925251 26 255 222 0.114062
-0.040267 -0.094093 0.930514 90 255 157 0.137963
-0.035313 -0.105894 0.923192 36 255 211 0.119691
-0.035512 -0.109722 0.919196 69 255 179 0.129199
-0.032519 -0.109708 0.920955 127 255 121 0.152361
-0.032273 -0.105747 0.924882 90 255 157 0.138303
-0.031866 -0.101588 0.928506 101 255 147 0.142935
-0.029551 -0.109546 0.922733 135 255 113 0.170920
-0.040716 -0.098137 0.927189 36 255 211 0.119690
-0.043429 -0.094324 0.929038 80 255 168 0.133808
-0.041043 -0.102137 0.923486 0 194 255 0.096277
-0.043837 -0.098230 0.925597 4 234 244 0.105733
-0.044115 -0.102169 0.921775 0 141 255 0.080894
-0.046622 -0.094556 0.927537 69 255 179 0.130075
-0.041303 -0.105937 0.919556 0 154 255 0.083048
-0.041544 -0.109704 0.915700 0 167 255 0.089675
-0.038512 -0.109695 0.917472 4 234 244 0.109106
-0.038303 -0.105923 0.921386 0 221 255 0.101748
-0.035368 -0.117886 0.905965 26 255 222 0.115097
-0.035341 -0.115529 0.910284 36 255 211 0.118844
-0.032292 -0.117897 0.907593 69 255 179 0.129552
-0.032318 -0.115509 0.912003 80 255 168 0.133148
-0.035434 -0.112817 0.914695 47 255 201 0.124602
-0.038435 -0.112769 0.912980 0 221 255 0.105230
-0.038433 -0.115525 0.908621 0 221 255 0.104065
-0.029187 -0.117846 0.909148 101 255 147 0.143195
-0.029277 -0.115492 0.913662 127 255 121 0.155642
-0.026140 -0.117814 0.910855 131 255 117 0.161946
-0.026304 -0.115380 0.915432 136 255 111 0.171986
-0.029442 -0.112745 0.918228 133 255 115 0.166146
-0.032405 -0.112804 0.916425 112 255 136 0.145392
-0.038478 -0.117811 0.904386 0 221 255 0.104080
-0.041556 -0.115496 0.906960 0 181 255 0.092753
-0.041501 -0.112758 0.911228 0 181 255 0.090868
-0.044600 -0.109692 0.913874 0 127 255 0.075520
-0.044603 -0.112721 0.909463 0 141 255 0.078881
-0.047708 -0.109753 0.912017 0 87 255 0.063110
-0.044657 -0.115512 0.905141 0 154 255 0.082981
-0.041614 -0.117825 0.902654 0 181 255 0.093500
-0.044331 -0.105963 0.917853 0 101 255 0.066999
-0.047194 -0.102167 0.920132 0 114 255 0.071272
-0.046962 -0.098331 0.923983 0 194 255 0.097569
-0.049787 -0.094756 0.926113 47 255 201 0.124323
-0.050101 -0.098460 0.922457 0 181 255 0.091093
-0.052881 -0.095020 0.924650 36 255 211 0.120504
-0.050311 -0.102239 0.918380 0 114 255 0.071981
-0.047400 -0.105955 0.916002 0 74 255 0.059242
-0.056439 -0.098804 0.919290 0 167 255 0.088417
-0.053566 -0.102294 0.916847 0 114 255 0.070807
-0.053848 -0.106041 0.912548 0 47 255 0.054557
-0.050950 -0.109775 0.910177 0 60 255 0.058576
-0.050609 -0.105954 0.914352 0 60 255 0.058315
-0.053246 -0.098621 0.920830 0 181 255 0.091470
-0.056055 -0.095353 0.923193 36 255 211 0.118393
-0.051033 -0.112816 0.905847 0 74 255 0.059064
-0.047932 -0.115568 0.903404 0 127 255 0.077042
-0.048045 -0.117999 0.899108 0 154 255 0.082216
-0.044847 -0.117892 0.900954 0 167 255 0.087914
-0.047780 -0.112780 0.907598 0 101 255 0.067810
-0.057203 -0.060382 0.924085 26 255 222 0.114663
-0.057003 -0.055657 0.922772 90 255 157 0.137019
-0.055938 -0.050612 0.922491 112 255 136 0.146642
-0.054592 -0.055081 0.924185 15 248 233 0.109723
-0.053407 -0.050154 0.923885 36 255 211 0.118162
-0.054677 -0.059757 0.925384 0 181 255 0.090399
-0.055035 -0.045784 0.922425 129 255 119 0.160116
-0.054204 -0.041207 0.922490 135 255 113 0.169565
-0.056932 -0.041485 0.920730 146 255 102 0.192849
-0.057711 -0.046060 0.920710 144 255 104 0.188138
-0.052150 -0.059167 0.926737 0 60 255 0.054769
-0.051949 -0.054684 0.925614 0 114 255 0.072552
-0.050631 -0.049917 0.925370 0 141 255 0.080561
-0.049341 -0.054265 0.926962 0 0 255 0.038311
-0.048098 -0.049554 0.926639 0 20 255 0.044108
-0.049521 -0.058635 0.928122 0 0 234 0.029008
-0.049500 -0.045377 0.925342 0 167 255 0.088882
-0.048485 -0.041080 0.925369 0 221 255 0.101974
-0.051346 -0.041086 0.924015 101 255 147 0.143839
-0.052300 -0.045495 0.923949 80 255 168 0.134037
-0.050434 -0.030369 0.920897 101 255 147 0.141884
-0.051662 -0.033786 0.921443 129 255 119 0.157304
-0.053788 -0.030049 0.919311 136 255 111 0.175269
-0.054949 -0.033619 0.919656 136 255 111 0.173420
-0.052896 -0.037452 0.921955 133 255 115 0.165250
-0.050006 -0.037428 0.923434 80 255 168 0.135403
-0.048716 -0.033825 0.922866 26 255 222 0.115313
-0.056884 -0.030177 0.917389 146 255 102 0.194258
-0.057830 -0.033896 0.917830 152 255 96 0.203915
-0.060180 -0.030330 0.915209 152 255 96 0.206049
-0.058763 -0.037792 0.918373 156 255 92 0.212396
-0.055936 -0.037453 0.920212 144 255 104 0.189058
-0.031341 -0.097289 0.931797 123 255 125 0.149272
-0.028779 -0.101176 0.930138 129 255 119 0.158013
-0.029246 -0.105509 0.926587 129 255 119 0.157036
-0.026510 -0.109199 0.924582 144 255 104 0.190699
-0.026200 -0.105037 0.928255 135 255 113 0.169443
-0.023486 -0.108745 0.926216 146 255 102 0.193698
-0.025773 -0.100771 0.931547 129 255 119 0.158180
-0.028249 -0.096923 0.933183 129 255 119 0.157312
-0.030764 -0.093080 0.934638 127 255 121 0.155843
-0.027663 -0.092553 0.935701 123 255 125 0.150296
-0.026422 -0.112492 0.920102 138 255 109 0.178797
-0.023278 -0.115108 0.917336 140 255 108 0.182424
-0.023093 -0.117662 0.912613 136 255 111 0.173582
-0.020003 -0.117232 0.914356 136 255 111 0.173898
-0.020200 -0.114664 0.919038 142 255 106 0.185636
-0.023399 -0.112146 0.921841 142 255 106 0.186500
-0.013724 -0.115849 0.917884 131 255 117 0.163613
-0.017029 -0.113933 0.920873 136 255 111 0.175230
-0.017135 -0.110776 0.925162 138 255 109 0.176024
-0.020353 -0.108154 0.927808 146 255 102 0.192497
-0.020291 -0.111499 0.923655 144 255 104 0.188742
-0.016876 -0.116707 0.916112 136 255 111 0.172205
-0.019953 -0.103800 0.931169 131 255 117 0.163523
-0.022618 -0.100128 0.932909 123 255 125 0.151911
-0.023573 -0.096035 0.934838 90 255 157 0.137634
-0.024447 -0.091982 0.936669 80 255 168 0.134824
-0.023150 -0.104507 0.929813 135 255 113 0.170435
-0.023447 -0.033595 0.929605 0 0 250 0.031390
-0.024042 -0.036505 0.931507 0 0 234 0.031026
-0.028199 -0.036175 0.930237 0 0 255 0.036085
-0.027601 -0.033291 0.928450 0 0 250 0.032633
-0.026694 -0.039266 0.932602 0 0 255 0.038736
-0.029108 -0.042189 0.933275 0 20 255 0.044554
-0.025397 -0.042446 0.934836 0 20 255 0.043674
-0.022790 -0.039551 0.933850 0 0 250 0.033965
-0.031483 -0.032924 0.927518 0 7 255 0.039250
-0.031894 -0.035864 0.929135 0 7 255 0.042555
-0.035602 -0.035476 0.927859 0 34 255 0.049598
-0.035292 -0.032499 0.926418 0 34 255 0.048594
-0.034046 -0.038738 0.929863 0 20 255 0.046476
-0.036042 -0.041776 0.930306 0 20 255 0.043574
-0.032659 -0.041997 0.931804 0 7 255 0.042689
-0.030526 -0.039010 0.931208 0 7 255 0.042013
-0.036327 -0.057090 0.933727 0 0 234 0.030612
-0.034368 -0.053296 0.933073 0 0 204 0.022190
-0.032941 -0.056999 0.934911 0 0 234 0.030050
-0.032526 -0.049506 0.932923 0 0 219 0.023524
-0.030968 -0.053213 0.934455 0 0 219 0.024131
-0.029133 -0.049508 0.934412 0 0 219 0.025906
-0.029533 -0.056893 0.936156 0 0 250 0.031974
-0.030804 -0.045851 0.933066 0 0 234 0.029811
-0.034204 -0.045655 0.931460 0 0 234 0.027734
-0.035959 -0.049460 0.931422 0 0 204 0.021667
-0.027545 -0.053182 0.936024 0 0 234 0.029117
-0.026107 -0.056796 0.937655 0 0 255 0.036311
-0.025643 -0.049582 0.936170 0 0 250 0.032958
-0.024111 -0.053142 0.937523 0 0 250 0.033671
-0.025525 -0.045963 0.935523 0 0 255 0.037490
-0.046845 -0.058164 0.929498 0 0 219 0.024444
-0.046611 -0.053936 0.928297 0 0 189 0.019169
-0.045087 -0.049524 0.927917 0 0 204 0.023002
-0.043820 -0.053571 0.929498 0 0 204 0.021528
-0.042305 -0.049363 0.929079 0 0 219 0.024124
-0.043990 -0.057736 0.930757 0 0 234 0.028107
-0.043818 -0.045354 0.927787 0 0 250 0.033544
-0.042533 -0.041354 0.927729 0 47 255 0.051385
-0.045580 -0.041222 0.926558 0 60 255 0.056064
-0.046710 -0.045259 0.926578 0 34 255 0.049575
-0.041025 -0.057416 0.931962 0 0 234 0.029161
-0.040797 -0.053468 0.930731 0 0 204 0.023202
-0.039087 -0.049482 0.930302 0 0 204 0.022543
-0.037682 -0.053307 0.931877 0 0 204 0.023409
-0.037517 -0.045619 0.930109 0 0 234 0.028142
-0.039293 -0.041552 0.929044 0 34 255 0.047241
-0.040770 -0.045398 0.928916 0 0 234 0.030586
-0.038798 -0.031987 0.925326 0 74 255 0.061711
-0.038898 -0.035167 0.926666 0 60 255 0.058195
-0.042370 -0.034605 0.925409 0 101 255 0.069536
-0.042319 -0.031452 0.924136 0 141 255 0.078581
-0.040716 -0.038202 0.927160 0 47 255 0.052954
-0.037468 -0.038429 0.928447 0 34 255 0.048342
-0.045677 -0.031042 0.922970 0 194 255 0.094049
-0.045474 -0.034375 0.924148 0 127 255 0.076744
-0.046949 -0.037638 0.924779 0 154 255 0.084042
-0.043959 -0.037817 0.926029 0 87 255 0.063137
-0.047307 -0.090286 0.929076 69 255 179 0.130309
-0.049462 -0.086178 0.929747 58 255 190 0.125565
-0.049916 -0.081909 0.930610 26 255 222 0.115143
-0.051662 -0.077846 0.930517 0 221 255 0.103645
-0.048688 -0.077245 0.931690 0 208 255 0.100645
-0.052921 -0.082398 0.929449 47 255 201 0.122498
-0.054558 -0.078455 0.929312 15 248 233 0.110844
-0.052555 -0.086624 0.928552 69 255 179 0.132172
-0.052071 -0.090778 0.927173 69 255 179 0.131045
-0.048484 -0.072588 0.930966 0 101 255 0.067080
-0.049728 -0.068118 0.929477 0 7 255 0.040181
-0.049603 -0.063351 0.928737 0 0 219 0.025164
-0.052207 -0.063924 0.927325 0 7 255 0.042198
-0.052443 -0.068757 0.928170 0 7 255 0.041474
-0.052834 -0.073494 0.929108 0 101 255 0.067295
-0.057326 -0.065331 0.924738 0 154 255 0.083996
-0.057892 -0.070157 0.925818 0 141 255 0.079224
-0.057058 -0.074515 0.927414 0 154 255 0.085152
-0.057614 -0.079081 0.928355 58 255 190 0.125802
-0.055145 -0.069466 0.926945 0 74 255 0.062078
-0.054762 -0.064649 0.925948 0 87 255 0.065008
-0.058976 -0.083601 0.927327 90 255 157 0.139477
-0.058747 -0.087637 0.926267 123 255 125 0.151797
-0.056706 -0.091374 0.925262 90 255 157 0.139184
-0.055665 -0.087133 0.927411 101 255 147 0.141861
-0.055937 -0.083014 0.928329 69 255 179 0.132244
-0.034521 -0.088933 0.934535 80 255 168 0.134292
-0.036697 -0.084509 0.934901 36 255 211 0.117838
-0.037299 -0.079920 0.935553 0 221 255 0.102737
-0.039442 -0.075650 0.935545 0 208 255 0.099325
-0.036225 -0.075093 0.936526 0 167 255 0.089605
-0.040522 -0.080375 0.934372 4 234 244 0.107117
-0.042633 -0.076137 0.934283 0 208 255 0.098754
-0.039902 -0.084940 0.933637 36 255 211 0.118331
-0.039308 -0.089463 0.932580 69 255 179 0.131126
-0.036217 -0.070439 0.935822 0 74 255 0.061334
-0.037853 -0.065995 0.934470 0 7 255 0.041360
-0.037812 -0.061532 0.933672 0 0 250 0.031686
-0.041031 -0.061831 0.932510 0 0 250 0.031626
-0.041008 -0.066409 0.933341 0 7 255 0.041902
-0.041049 -0.071118 0.934214 0 87 255 0.065676
-0.046822 -0.062744 0.930011 0 0 219 0.026386
-0.046940 -0.067499 0.930864 0 7 255 0.041685
-0.045588 -0.071903 0.932288 0 101 255 0.067016
-0.045688 -0.076688 0.933023 0 208 255 0.101115
-0.044016 -0.066907 0.932134 0 7 255 0.041295
-0.044011 -0.062277 0.931345 0 0 234 0.029393
-0.046842 -0.081369 0.931848 15 248 233 0.112780
-0.046297 -0.085758 0.930962 36 255 211 0.118427
-0.044081 -0.089948 0.930459 58 255 190 0.127646
-0.043105 -0.085351 0.932278 26 255 222 0.116903
-0.043696 -0.080894 0.933122 4 234 244 0.107610
-0.024269 -0.060772 0.938414 0 0 250 0.035039
-0.025954 -0.065024 0.938135 0 0 255 0.037115
-0.027693 -0.060936 0.937148 0 0 250 0.031911
-0.029429 -0.065224 0.937015 0 0 255 0.037858
-0.027746 -0.069475 0.938107 0 34 255 0.049243
-0.029495 -0.074167 0.938192 0 114 255 0.070670
-0.026076 -0.073704 0.939015 0 74 255 0.062016
-0.024343 -0.069020 0.938972 0 20 255 0.045356
-0.031122 -0.061185 0.936024 0 0 250 0.031438
-0.032823 -0.065645 0.936070 0 7 255 0.040092
-0.034504 -0.061342 0.934842 0 0 250 0.031947
-0.032854 -0.070133 0.936812 0 60 255 0.056398
-0.032881 -0.074666 0.937449 0 154 255 0.082667
-0.031340 -0.088523 0.935646 69 255 179 0.130451
-0.031852 -0.083920 0.936452 4 234 244 0.108696
-0.028605 -0.083267 0.937177 0 181 255 0.092189
-0.028150 -0.087888 0.936482 26 255 222 0.115983
-0.030727 -0.079034 0.937396 0 154 255 0.085829
-0.034039 -0.079483 0.936568 0 194 255 0.096265
-0.024870 -0.087356 0.937264 0 208 255 0.099370
-0.025292 -0.082837 0.938009 0 141 255 0.080328
-0.024017 -0.077950 0.938857 0 74 255 0.061365
-0.027364 -0.078468 0.938136 0 114 255 0.070594
-0.018120 0.003899 0.879686 0 0 174 0.012937
-0.020802 0.004127 0.878574 0 0 174 0.013992
-0.022034 0.002944 0.881960 0 0 158 0.011226
-0.024673 0.003184 0.880755 0 0 158 0.011241
-0.023492 0.004357 0.877405 0 0 174 0.014814
-0.025888 0.001933 0.884075 0 0 158 0.009803
-0.027351 0.003387 0.879492 0 0 158 0.011648
-0.028546 0.002142 0.882770 0 0 158 0.009785
-0.031210 0.002349 0.881421 0 0 158 0.008787
-0.026194 0.004565 0.876202 0 0 174 0.015276
-0.030030 0.003551 0.878212 0 0 158 0.011531
-0.028919 0.004741 0.874966 0 0 174 0.014946
-0.029773 0.000884 0.886008 0 0 158 0.008751
-0.032398 0.001117 0.884659 0 0 158 0.008525
-0.033685 0.000011 0.888006 0 0 158 0.010809
-0.031123 -0.000173 0.889197 0 0 174 0.011875
-0.027192 0.000723 0.887178 0 0 158 0.009407
-0.028569 -0.000321 0.890375 0 0 174 0.012604
-0.024641 0.000556 0.888339 0 0 158 0.010051
-0.023322 0.001728 0.885187 0 0 158 0.009982
-0.020764 0.001525 0.886248 0 0 158 0.009141
-0.026035 -0.000571 0.891485 0 0 174 0.012277
-0.022124 0.000355 0.889419 0 0 158 0.009334
-0.023514 -0.000797 0.892545 0 0 174 0.011827
-0.019457 0.002724 0.883000 0 0 158 0.010339
-0.031771 0.004952 0.873806 0 0 174 0.015174
-0.032748 0.003748 0.877107 0 0 158 0.011398
-0.035552 0.003955 0.875841 0 0 158 0.011325
-0.034576 0.005162 0.872601 0 0 189 0.015835
-0.036537 0.002740 0.879090 0 0 158 0.009936
-0.038301 0.004149 0.874571 0 0 174 0.012186
-0.039271 0.002922 0.877813 0 0 158 0.010028
-0.041991 0.003143 0.876596 0 0 158 0.011151
-0.037346 0.005402 0.871395 0 0 189 0.017531
-0.041015 0.004350 0.873321 0 0 174 0.012933
-0.040093 0.005645 0.870187 0 0 189 0.018360
-0.040338 0.001838 0.881243 0 0 158 0.011390
-0.043049 0.002087 0.880022 0 0 174 0.012335
-0.044135 0.001100 0.883540 0 0 189 0.016915
-0.041546 0.000845 0.884652 0 0 174 0.015447
-0.037690 0.001595 0.882354 0 0 158 0.009760
-0.038931 0.000573 0.885751 0 0 174 0.012823
-0.035048 0.001353 0.883492 0 0 158 0.008737
-0.033894 0.002563 0.880281 0 0 158 0.009190
-0.036322 0.000277 0.886859 0 0 174 0.012075
-0.043940 -0.004573 0.895326 0 0 219 0.025442
-0.041688 -0.004866 0.896310 0 0 204 0.022868
-0.040693 -0.002984 0.892986 0 0 189 0.018159
-0.039366 -0.005069 0.897317 0 0 204 0.020493
-0.038382 -0.003177 0.893954 0 0 189 0.016211
-0.036013 -0.003407 0.894860 0 0 174 0.014680
-0.037081 -0.005319 0.898257 0 0 189 0.018690
-0.037271 -0.001455 0.890459 0 0 174 0.013146
-0.034849 -0.001664 0.891413 0 0 174 0.012210
-0.039814 -0.001159 0.889326 0 0 174 0.014668
-0.042400 -0.000829 0.888272 0 0 189 0.018244
-0.043181 -0.002655 0.891819 0 0 204 0.020220
-0.045702 -0.002370 0.890668 0 0 204 0.023092
-0.044942 -0.000600 0.887102 0 0 189 0.019389
-0.046378 -0.004220 0.894148 0 0 234 0.030179
-0.034664 -0.005544 0.899369 0 0 189 0.018543
-0.032369 -0.005606 0.900310 0 0 189 0.018974
-0.031060 -0.003773 0.897103 0 0 189 0.016161
-0.030081 -0.005659 0.901210 0 0 204 0.019989
-0.028718 -0.003841 0.898003 0 0 189 0.016684
-0.026351 -0.003937 0.898877 0 0 189 0.017236
-0.027741 -0.005677 0.902031 0 0 204 0.020962
-0.027292 -0.002254 0.894771 0 0 174 0.012960
-0.024894 -0.002374 0.895624 0 0 174 0.013133
-0.029798 -0.002070 0.893696 0 0 174 0.013147
-0.032347 -0.001876 0.892600 0 0 174 0.012982
-0.033577 -0.003582 0.896013 0 0 189 0.015653
0.001197 0.003356 0.887651 0 0 174 0.012697
-0.000428 0.001825 0.890753 0 0 143 0.007279
-0.003270 0.001949 0.889605 0 0 143 0.007692
-0.001637 0.003365 0.886492 0 0 174 0.012252
-0.004918 0.000676 0.892784 0 0 143 0.005901
-0.006076 0.002044 0.888488 0 0 158 0.008123
-0.007713 0.000864 0.891700 0 0 143 0.006848
-0.010462 0.000973 0.890539 0 0 143 0.007203
-0.004475 0.003393 0.885349 0 0 174 0.012257
-0.008858 0.002147 0.887339 0 0 158 0.008283
-0.007267 0.003430 0.884166 0 0 174 0.012105
-0.009343 -0.000261 0.894894 0 0 143 0.007271
-0.012085 -0.000129 0.893723 0 0 158 0.007880
-0.013659 -0.001184 0.896890 0 0 158 0.011288
-0.011102 -0.001274 0.898014 0 0 158 0.010225
-0.006712 -0.000392 0.895997 0 0 143 0.006390
-0.008501 -0.001391 0.899162 0 0 158 0.009438
-0.004015 -0.000542 0.897052 0 0 143 0.005207
-0.002218 0.000562 0.893838 0 0 143 0.005697
-0.005822 -0.001552 0.900281 0 0 143 0.007603
-0.009990 0.003607 0.883085 0 0 174 0.012938
-0.011454 0.002256 0.886375 0 0 158 0.008701
-0.014134 0.002445 0.885307 0 0 158 0.009690
-0.012689 0.003714 0.882001 0 0 174 0.012852
-0.015542 0.001255 0.888613 0 0 158 0.008792
-0.016799 0.002597 0.884194 0 0 158 0.010040
-0.018154 0.001404 0.887497 0 0 158 0.009164
-0.015400 0.003802 0.880863 0 0 174 0.012934
-0.019547 0.000245 0.890660 0 0 158 0.009747
-0.021042 -0.000874 0.893707 0 0 174 0.011767
-0.017075 0.000154 0.891736 0 0 158 0.009207
-0.018595 -0.000933 0.894771 0 0 174 0.012419
-0.014600 0.000017 0.892741 0 0 158 0.008842
-0.013022 0.001126 0.889588 0 0 143 0.007638
-0.016155 -0.001032 0.895850 0 0 174 0.011994
-0.025304 -0.005763 0.903125 0 0 204 0.021794
-0.022986 -0.005726 0.904057 0 0 204 0.023119
-0.021430 -0.004177 0.901029 0 0 189 0.017871
-0.020643 -0.005815 0.905047 0 0 219 0.023838
-0.019096 -0.004242 0.901976 0 0 189 0.017510
-0.016761 -0.004261 0.903011 0 0 189 0.017019
-0.018329 -0.005822 0.906002 0 0 219 0.026232
-0.017559 -0.002702 0.898932 0 0 174 0.012843
-0.015228 -0.002741 0.899973 0 0 174 0.012654
-0.020022 -0.002567 0.897860 0 0 174 0.013538
-0.022478 -0.002410 0.896765 0 0 174 0.014029
-0.023887 -0.004021 0.899937 0 0 189 0.017940
-0.015793 -0.005902 0.907218 0 0 234 0.028043
-0.013407 -0.005941 0.908370 0 0 219 0.026551
-0.011705 -0.004345 0.905534 0 0 189 0.019337
-0.011000 -0.005846 0.909538 0 0 234 0.029181
-0.009289 -0.004424 0.906647 0 0 189 0.018748
-0.007479 -0.003110 0.903506 0 0 158 0.009778
-0.010130 -0.002908 0.902407 0 0 174 0.011836
-0.012694 -0.002826 0.901185 0 0 174 0.012111
-0.014244 -0.004319 0.904280 0 0 189 0.017617
0.025784 0.000247 0.843950 0 0 143 0.006670
0.024413 0.001502 0.846357 0 0 158 0.010758
0.021407 0.001496 0.844837 0 0 158 0.010701
0.022779 0.000261 0.842425 0 0 143 0.006791
0.019996 0.002546 0.847322 0 0 174 0.014206
0.018389 0.001428 0.843318 0 0 158 0.010175
0.016996 0.002470 0.845816 0 0 174 0.013470
0.013971 0.002328 0.844292 0 0 174 0.012362
0.019759 0.000224 0.840895 0 0 143 0.006478
0.015368 0.001310 0.841763 0 0 158 0.009389
0.016714 0.000133 0.839351 0 0 143 0.006029
0.015527 0.003328 0.848377 0 0 174 0.015249
0.012511 0.003163 0.846878 0 0 174 0.013766
0.011024 0.003881 0.849518 0 0 174 0.014023
0.014085 0.004046 0.850966 0 0 189 0.016218
0.018562 0.003416 0.849833 0 0 189 0.016109
0.017112 0.004165 0.852414 0 0 189 0.017464
0.021608 0.003479 0.851268 0 0 189 0.017215
0.023042 0.002590 0.848771 0 0 174 0.014679
0.020129 0.004222 0.853870 0 0 189 0.018102
0.013992 0.000096 0.837915 0 0 143 0.005947
0.012570 0.001281 0.840413 0 0 158 0.009253
0.009864 0.001210 0.839010 0 0 158 0.008936
0.011296 0.000034 0.836454 0 0 143 0.005902
0.008391 0.002181 0.841615 0 0 158 0.011029
0.007149 0.001082 0.837562 0 0 158 0.008218
0.005680 0.002037 0.840181 0 0 158 0.010006
0.002997 0.001848 0.838778 0 0 158 0.008653
0.008565 -0.000061 0.834987 0 0 143 0.005700
0.004443 0.000917 0.836135 0 0 143 0.007343
0.005860 -0.000187 0.833551 0 0 143 0.005235
0.004173 0.002836 0.842903 0 0 158 0.010389
0.001474 0.002631 0.841514 0 0 158 0.008823
-0.000018 0.003354 0.844292 0 0 158 0.008838
0.002747 0.003529 0.845601 0 0 158 0.010219
0.006970 0.002964 0.844218 0 0 158 0.011703
0.005530 0.003681 0.846894 0 0 158 0.011704
0.009745 0.003085 0.845557 0 0 174 0.012759
0.011186 0.002272 0.842942 0 0 158 0.011717
0.008287 0.003804 0.848201 0 0 174 0.012719
-0.005922 0.005498 0.855633 0 0 158 0.010008
-0.003118 0.005547 0.856951 0 0 158 0.011033
-0.001696 0.004922 0.854230 0 0 158 0.008706
0.001103 0.004954 0.855479 0 0 158 0.009204
-0.000312 0.005567 0.858250 0 0 158 0.011243
0.002489 0.004484 0.852719 0 0 158 0.008604
0.003882 0.005032 0.856738 0 0 158 0.009720
0.005309 0.004554 0.853920 0 0 158 0.009510
0.008111 0.004585 0.855172 0 0 158 0.010476
0.002489 0.005566 0.859509 0 0 158 0.011521
0.006674 0.005035 0.857968 0 0 158 0.010770
0.005224 0.005572 0.860764 0 0 174 0.012315
0.006731 0.004175 0.851114 0 0 158 0.010278
0.009572 0.004216 0.852360 0 0 158 0.011574
0.003994 0.004054 0.849808 0 0 158 0.009342
0.001231 0.003913 0.848519 0 0 158 0.008485
-0.000237 0.004358 0.851411 0 0 158 0.008046
-0.002959 0.004268 0.850065 0 0 143 0.007459
-0.001510 0.003766 0.847206 0 0 143 0.007327
-0.004414 0.004849 0.852875 0 0 158 0.008154
0.008199 0.005668 0.862192 0 0 174 0.014289
0.009624 0.005175 0.859460 0 0 174 0.012166
0.012625 0.005263 0.860873 0 0 174 0.013242
0.011167 0.005745 0.863588 0 0 174 0.015519
0.014073 0.004849 0.858125 0 0 174 0.012820
0.015564 0.005290 0.862278 0 0 174 0.013442
0.017031 0.004890 0.859520 0 0 174 0.013293
0.014105 0.005771 0.865007 0 0 189 0.015683
0.018533 0.004543 0.856736 0 0 174 0.014718
0.015579 0.004501 0.855271 0 0 174 0.014353
0.012569 0.004388 0.853806 0 0 174 0.013153
0.011100 0.004739 0.856641 0 0 174 0.011738
-0.016754 0.004557 0.876569 0 0 174 0.013497
-0.019381 0.004760 0.875428 0 0 174 0.014111
-0.018029 0.005475 0.872484 0 0 189 0.017007
-0.015373 0.005297 0.873584 0 0 189 0.016310
-0.020694 0.005662 0.871328 0 0 189 0.017369
-0.016642 0.006169 0.869573 0 0 204 0.020090
-0.019357 0.006333 0.868454 0 0 204 0.020877
-0.017945 0.006891 0.865514 0 0 219 0.023932
-0.013912 0.005995 0.870635 0 0 189 0.019328
-0.015181 0.006736 0.866605 0 0 219 0.023450
-0.012393 0.006570 0.867666 0 0 204 0.022071
-0.022079 0.006475 0.867285 0 0 204 0.021154
-0.020687 0.007042 0.864378 0 0 219 0.024507
-0.023406 0.007192 0.863225 0 0 219 0.024998
-0.024861 0.006621 0.866132 0 0 204 0.021155
-0.023481 0.005829 0.870177 0 0 189 0.017833
-0.026249 0.005982 0.869021 0 0 189 0.017995
-0.024852 0.005144 0.873140 0 0 174 0.015245
-0.022118 0.004944 0.874301 0 0 174 0.015042
-0.027588 0.005327 0.871956 0 0 189 0.015735
-0.010785 0.006445 0.864731 0 0 189 0.018775
-0.013430 0.006538 0.863635 0 0 189 0.019207
-0.011732 0.006276 0.860643 0 0 174 0.015450
-0.009112 0.006179 0.861702 0 0 174 0.014820
-0.014403 0.006375 0.859553 0 0 174 0.015406
-0.010049 0.005936 0.857608 0 0 174 0.012342
-0.012707 0.006028 0.856494 0 0 174 0.012690
-0.011133 0.005694 0.853477 0 0 158 0.011650
-0.007458 0.005845 0.858646 0 0 174 0.011948
-0.008488 0.005603 0.854571 0 0 158 0.011311
-0.015402 0.006136 0.855409 0 0 174 0.013511
-0.013781 0.005770 0.852353 0 0 174 0.012048
-0.016450 0.005879 0.851286 0 0 174 0.012286
-0.018282 0.006333 0.854394 0 0 174 0.014741
-0.017260 0.006558 0.858513 0 0 189 0.017282
-0.020086 0.006761 0.857454 0 0 189 0.019028
-0.019023 0.006867 0.861487 0 0 204 0.021544
-0.016215 0.006699 0.862577 0 0 204 0.019939
-0.021793 0.007045 0.860391 0 0 204 0.022668
-0.026966 0.006388 0.847164 0 0 174 0.015467
-0.028923 0.006999 0.850281 0 0 204 0.020022
-0.026123 0.006705 0.851242 0 0 189 0.017331
-0.028063 0.007206 0.854259 0 0 204 0.021432
-0.030832 0.007454 0.853258 0 0 219 0.024012
-0.025276 0.006966 0.855252 0 0 204 0.019824
-0.029918 0.007522 0.857135 0 0 219 0.025542
-0.027129 0.007338 0.858196 0 0 219 0.024150
-0.028936 0.007491 0.861019 0 0 219 0.026765
-0.032681 0.007715 0.856082 0 0 219 0.026815
-0.031698 0.007629 0.859922 0 0 219 0.026980
-0.034425 0.007796 0.858832 0 0 234 0.027907
-0.024367 0.007136 0.859255 0 0 204 0.021904
-0.026177 0.007341 0.862117 0 0 219 0.025852
-0.022707 0.006848 0.856343 0 0 189 0.018621
-0.020950 0.006432 0.853344 0 0 174 0.015140
-0.023560 0.006557 0.852286 0 0 174 0.015533
-0.021782 0.006079 0.849234 0 0 174 0.013291
-0.019149 0.005975 0.850263 0 0 174 0.012454
-0.024387 0.006214 0.848204 0 0 174 0.014093
-0.035933 0.007238 0.861644 0 0 204 0.022193
-0.033093 0.007045 0.862705 0 0 204 0.022013
-0.034548 0.006435 0.865590 0 0 189 0.018549
-0.037340 0.006636 0.864463 0 0 189 0.019466
-0.031711 0.006243 0.866704 0 0 189 0.018008
-0.035982 0.005913 0.868459 0 0 189 0.017253
-0.033157 0.005670 0.869595 0 0 189 0.015934
-0.038720 0.006126 0.867301 0 0 189 0.018488
-0.030313 0.005456 0.870759 0 0 174 0.015117
-0.028990 0.006112 0.867868 0 0 189 0.018004
-0.027610 0.006753 0.864982 0 0 204 0.021332
-0.030348 0.006897 0.863840 0 0 204 0.021660
-0.013228 -0.001262 0.822946 0 0 128 0.002264
-0.014821 -0.000192 0.825960 0 0 128 0.002513
-0.012427 -0.000115 0.827160 0 0 128 0.002749
-0.014050 0.000900 0.830151 0 0 128 0.003102
-0.016444 0.000842 0.828989 0 0 128 0.002825
-0.011567 0.000978 0.831335 0 0 128 0.003429
-0.015639 0.001900 0.833175 0 0 128 0.003659
-0.013185 0.001946 0.834348 0 0 143 0.003989
-0.014795 0.002953 0.837303 0 0 143 0.004985
-0.018050 0.001869 0.832003 0 0 128 0.003430
-0.017246 0.002937 0.836132 0 0 143 0.005008
-0.019668 0.002931 0.834965 0 0 143 0.004778
-0.010732 0.002032 0.835475 0 0 143 0.004452
-0.012354 0.003023 0.838469 0 0 143 0.005637
-0.009893 0.003102 0.839636 0 0 143 0.006618
-0.008336 0.002194 0.836780 0 0 143 0.005424
-0.009207 0.001127 0.832623 0 0 143 0.003985
-0.006797 0.001302 0.833915 0 0 143 0.004967
-0.007683 0.000196 0.829772 0 0 128 0.003618
-0.010044 0.000024 0.828473 0 0 128 0.003149
-0.008538 -0.001011 0.825601 0 0 128 0.002665
-0.005273 0.000384 0.831077 0 0 143 0.004643
-0.006157 -0.000859 0.826905 0 0 128 0.003097
-0.003753 -0.000675 0.828243 0 0 128 0.003686
-0.010910 -0.001150 0.824277 0 0 128 0.002378
-0.021397 0.003682 0.838006 0 0 143 0.005433
-0.018832 0.003600 0.839062 0 0 143 0.005330
-0.020610 0.004400 0.842103 0 0 143 0.006379
-0.023219 0.004507 0.841080 0 0 143 0.006907
-0.018011 0.004322 0.843119 0 0 143 0.006287
-0.022477 0.005275 0.845133 0 0 158 0.008925
-0.019854 0.005166 0.846150 0 0 158 0.008573
-0.025087 0.005419 0.844139 0 0 158 0.010001
-0.017228 0.005076 0.847200 0 0 158 0.008257
-0.014721 0.005088 0.848381 0 0 158 0.008693
-0.015551 0.004339 0.844292 0 0 143 0.006542
-0.013067 0.004368 0.845513 0 0 143 0.007165
-0.013956 0.003653 0.841399 0 0 143 0.005829
-0.016387 0.003617 0.840246 0 0 143 0.005403
-0.011492 0.003700 0.842598 0 0 143 0.006286
-0.006847 0.004852 0.851695 0 0 158 0.008219
-0.005382 0.004243 0.848883 0 0 143 0.007256
-0.007846 0.004249 0.847708 0 0 143 0.007447
-0.003945 0.003719 0.846028 0 0 143 0.007116
-0.006412 0.003696 0.844865 0 0 143 0.007020
-0.004956 0.003220 0.841984 0 0 143 0.007772
-0.002481 0.003282 0.843143 0 0 158 0.008267
-0.008892 0.003674 0.843688 0 0 143 0.006429
-0.007409 0.003151 0.840805 0 0 143 0.007042
-0.010470 0.004307 0.846616 0 0 143 0.007295
-0.012085 0.005011 0.849484 0 0 158 0.008838
-0.009464 0.004931 0.850593 0 0 158 0.008907
-0.000923 0.002479 0.840245 0 0 158 0.007836
0.000567 0.001697 0.837495 0 0 158 0.007829
-0.001831 0.001538 0.836223 0 0 143 0.006878
0.002018 0.000797 0.834841 0 0 143 0.006740
-0.000394 0.000662 0.833534 0 0 143 0.006268
0.001046 -0.000406 0.830897 0 0 143 0.004637
0.003436 -0.000282 0.832232 0 0 143 0.004951
-0.002794 0.000492 0.832233 0 0 143 0.005428
-0.001391 -0.000543 0.829564 0 0 143 0.004173
-0.004317 0.001415 0.835084 0 0 143 0.005957
-0.005852 0.002288 0.837957 0 0 143 0.006454
-0.003406 0.002386 0.839112 0 0 143 0.007196
0.012574 0.005985 0.867963 0 0 189 0.017302
0.009667 0.005943 0.866529 0 0 189 0.016218
0.008157 0.006196 0.869394 0 0 189 0.018792
0.006716 0.005875 0.865101 0 0 174 0.014677
0.005237 0.006156 0.867957 0 0 189 0.017150
0.002315 0.006094 0.866537 0 0 189 0.016229
0.003788 0.005817 0.863669 0 0 174 0.013986
0.003722 0.006407 0.870805 0 0 204 0.020704
0.000739 0.006337 0.869398 0 0 189 0.019124
-0.000869 0.006437 0.872265 0 0 204 0.023377
0.002110 0.006489 0.873566 0 0 219 0.024565
0.006613 0.006442 0.872117 0 0 204 0.022713
0.005040 0.006548 0.874872 0 0 219 0.026378
0.009467 0.006472 0.873469 0 0 219 0.023922
0.011016 0.006197 0.870730 0 0 204 0.019638
0.007916 0.006613 0.876195 0 0 234 0.028200
0.000995 0.005857 0.862504 0 0 174 0.012866
-0.001806 0.005870 0.861256 0 0 174 0.012845
-0.003416 0.006183 0.864248 0 0 189 0.015859
-0.004639 0.005884 0.859984 0 0 174 0.013079
-0.006263 0.006199 0.862993 0 0 174 0.015499
-0.007904 0.006436 0.865994 0 0 189 0.019317
-0.009468 0.006540 0.868859 0 0 204 0.022659
-0.005019 0.006410 0.867150 0 0 189 0.019343
-0.006599 0.006507 0.870002 0 0 219 0.023470
-0.002132 0.006386 0.868271 0 0 189 0.019276
-0.000539 0.006151 0.865391 0 0 174 0.015608
-0.003739 0.006470 0.871142 0 0 204 0.023433
-0.013975 0.004502 0.877842 0 0 174 0.014065
-0.011219 0.004449 0.878971 0 0 174 0.014605
-0.009671 0.005198 0.876009 0 0 189 0.017330
-0.008455 0.004367 0.880054 0 0 174 0.014584
-0.006889 0.005176 0.877102 0 0 189 0.017676
-0.004083 0.005126 0.878174 0 0 189 0.017486
-0.005706 0.004254 0.881139 0 0 174 0.014269
-0.005304 0.005882 0.874172 0 0 204 0.020654
-0.002500 0.005866 0.875251 0 0 204 0.020718
-0.008127 0.005905 0.873011 0 0 204 0.020133
-0.010993 0.005952 0.871827 0 0 204 0.019740
-0.012516 0.005264 0.874793 0 0 189 0.016673
-0.002780 0.004261 0.882433 0 0 174 0.014791
0.000076 0.004317 0.883626 0 0 174 0.015612
0.001790 0.005217 0.880786 0 0 204 0.019851
0.002918 0.004360 0.884789 0 0 189 0.017265
0.004628 0.005263 0.881946 0 0 204 0.021417
0.006337 0.006067 0.879151 0 0 219 0.025847
0.003419 0.006005 0.877841 0 0 219 0.024273
0.000463 0.005921 0.876542 0 0 204 0.022271
-0.001154 0.005158 0.879478 0 0 189 0.018418
-0.043181 0.005781 0.869018 0 0 189 0.018292
-0.043888 0.004611 0.872263 0 0 174 0.014083
-0.046878 0.004806 0.871127 0 0 174 0.015538
-0.046152 0.005946 0.867920 0 0 204 0.019784
-0.047642 0.003755 0.874477 0 0 189 0.016111
-0.049721 0.005019 0.870014 0 0 189 0.017725
-0.050512 0.003973 0.873319 0 0 189 0.018264
-0.053312 0.004131 0.872197 0 0 204 0.020416
-0.048995 0.006137 0.866906 0 0 204 0.020456
-0.052538 0.005200 0.868949 0 0 204 0.020350
-0.051797 0.006344 0.865937 0 0 204 0.023130
-0.051301 0.002992 0.876797 0 0 204 0.022785
-0.054089 0.003107 0.875618 0 0 219 0.024997
-0.054853 0.002095 0.879047 0 0 250 0.032824
-0.052261 0.001937 0.880213 0 0 234 0.029138
-0.048619 0.002707 0.877889 0 0 189 0.018611
-0.049650 0.001704 0.881334 0 0 219 0.025760
-0.045898 0.002429 0.879008 0 0 174 0.015426
-0.044863 0.003466 0.875525 0 0 174 0.013132
-0.046947 0.001417 0.882504 0 0 204 0.021438
-0.054989 0.006550 0.864738 0 0 219 0.024840
-0.054994 0.005410 0.868286 0 0 219 0.023458
-0.058165 0.005568 0.867077 0 0 219 0.025356
-0.058227 0.006840 0.863594 0 0 234 0.028617
-0.058141 0.004449 0.870755 0 0 234 0.027928
-0.061257 0.005766 0.865844 0 0 234 0.027554
-0.061232 0.004479 0.869417 0 0 234 0.028638
-0.064330 0.004602 0.868082 0 0 234 0.028527
-0.061330 0.007169 0.862469 0 0 250 0.034491
-0.064406 0.006049 0.864613 0 0 250 0.031441
-0.064510 0.007578 0.861361 0 7 255 0.040747
-0.061191 0.003357 0.873090 0 0 250 0.032198
-0.064218 0.003280 0.871612 0 0 234 0.030830
-0.064113 0.002081 0.875238 0 0 255 0.035701
-0.061862 0.002174 0.876216 0 0 255 0.036283
-0.058851 0.003292 0.873943 0 0 234 0.030568
-0.059552 0.002177 0.877150 0 0 255 0.035698
-0.056539 0.003231 0.874783 0 0 234 0.028173
-0.055777 0.004314 0.871458 0 0 219 0.023828
-0.057271 0.002173 0.878096 0 0 250 0.035117
-0.061766 -0.003040 0.886135 0 20 255 0.045027
-0.059768 -0.002941 0.887247 0 20 255 0.045853
-0.059457 -0.001235 0.883882 0 0 255 0.038670
-0.057787 -0.002951 0.888387 0 34 255 0.048224
-0.057488 -0.001231 0.884975 0 7 255 0.040270
-0.055452 -0.001355 0.885955 0 0 255 0.037750
-0.055762 -0.003109 0.889478 0 34 255 0.047586
-0.057147 0.000424 0.881525 0 0 250 0.034922
-0.055143 0.000315 0.882478 0 0 250 0.033491
-0.059491 0.000454 0.880504 0 0 250 0.034803
-0.061826 0.000379 0.879438 0 0 255 0.035438
-0.061751 -0.001337 0.882767 0 0 255 0.038472
-0.064066 -0.001508 0.881589 0 0 255 0.035411
-0.064118 0.000277 0.878419 0 0 250 0.034679
-0.064046 -0.003247 0.884847 0 7 255 0.040073
-0.053249 -0.003365 0.890850 0 20 255 0.045012
-0.050978 -0.003578 0.891995 0 7 255 0.040609
-0.050396 -0.001830 0.888591 0 0 250 0.032371
-0.048701 -0.003901 0.893086 0 0 255 0.035173
-0.048030 -0.002076 0.889581 0 0 219 0.027253
-0.047342 -0.000301 0.886142 0 0 204 0.022979
-0.050031 -0.000006 0.884997 0 0 234 0.027876
-0.052622 0.000175 0.883723 0 0 234 0.031190
-0.052940 -0.001533 0.887286 0 0 255 0.036473
-0.067138 0.007368 0.861871 0 7 255 0.042178
-0.068992 0.005807 0.864772 0 0 255 0.036683
-0.069746 0.007143 0.862261 0 20 255 0.044400
-0.068276 0.004567 0.867421 0 0 250 0.032139
-0.071595 0.005474 0.865159 0 0 255 0.037387
-0.070839 0.004158 0.867737 0 0 234 0.031150
-0.073488 0.003843 0.868076 0 0 255 0.035691
-0.072381 0.006938 0.862656 0 20 255 0.044197
-0.074271 0.005224 0.865543 0 0 255 0.037266
-0.075148 0.006774 0.863113 0 47 255 0.051350
-0.070131 0.003030 0.870438 0 0 250 0.034117
-0.072757 0.002593 0.870723 0 0 250 0.034151
-0.072013 0.001422 0.873382 0 0 250 0.034795
-0.068059 0.001772 0.874277 0 0 250 0.033904
-0.078190 0.004890 0.865596 0 7 255 0.041536
-0.079318 0.006277 0.863284 0 47 255 0.052608
-0.077122 0.003513 0.867902 0 0 250 0.033884
-0.081244 0.002957 0.868190 0 0 255 0.037343
-0.082421 0.004493 0.865854 0 20 255 0.045933
-0.083683 0.006005 0.863490 0 87 255 0.063502
-0.078122 0.001867 0.870346 0 0 250 0.032053
-0.079152 0.000366 0.872860 0 0 250 0.033598
-0.075538 0.000761 0.873049 0 0 250 0.032410
-0.075547 -0.005222 0.880373 0 0 234 0.028585
-0.074431 -0.003023 0.878174 0 0 234 0.029379
-0.072665 -0.004558 0.881424 0 0 250 0.032076
-0.071440 -0.002516 0.879004 0 0 250 0.031267
-0.073249 -0.000848 0.875793 0 0 234 0.030313
-0.076765 -0.001463 0.875459 0 0 234 0.029228
-0.077954 -0.003788 0.877740 0 0 234 0.028629
-0.069198 -0.003990 0.882577 0 0 250 0.034541
-0.067525 -0.001922 0.880216 0 0 250 0.033721
-0.067800 -0.000113 0.877182 0 0 250 0.032078
-0.041586 0.006192 0.865986 0 0 189 0.017320
-0.040239 0.006684 0.863217 0 0 189 0.018491
-0.043077 0.006726 0.862025 0 0 189 0.017248
-0.038841 0.007271 0.860463 0 0 204 0.021127
-0.041674 0.007319 0.859337 0 0 204 0.020644
-0.040271 0.007896 0.856630 0 0 219 0.026992
-0.037380 0.007864 0.857709 0 0 234 0.028402
-0.044488 0.007406 0.858239 0 0 204 0.021530
-0.043071 0.007986 0.855550 0 0 219 0.026682
-0.045844 0.008090 0.854493 0 0 219 0.026558
-0.047377 0.007594 0.857344 0 0 204 0.022482
-0.046026 0.006916 0.861101 0 0 189 0.018041
-0.048860 0.007161 0.860174 0 0 204 0.019993
-0.047513 0.006516 0.863965 0 0 189 0.018691
-0.044625 0.006314 0.864941 0 0 189 0.016951
-0.050309 0.006757 0.863035 0 0 204 0.020612
-0.035359 0.007654 0.854782 0 0 219 0.024926
-0.033560 0.007423 0.851982 0 0 204 0.022782
-0.036219 0.007443 0.850726 0 0 204 0.022268
-0.031690 0.007029 0.849037 0 0 189 0.019504
-0.034401 0.007073 0.847778 0 0 204 0.019599
-0.032527 0.006537 0.844710 0 0 189 0.015959
-0.029776 0.006467 0.845941 0 0 174 0.015602
-0.037049 0.007138 0.846528 0 0 204 0.019767
-0.035183 0.006601 0.843488 0 0 189 0.016982
-0.037780 0.006694 0.842278 0 0 189 0.018039
-0.039914 0.007374 0.845539 0 0 204 0.021971
-0.039156 0.007624 0.849683 0 0 219 0.023471
-0.042013 0.007817 0.848677 0 0 219 0.024840
-0.041160 0.007895 0.852669 0 0 219 0.025727
-0.038281 0.007770 0.853720 0 0 219 0.024909
-0.043976 0.008021 0.851655 0 0 219 0.025648
-0.047665 0.006502 0.836855 0 0 174 0.014330
-0.049968 0.007275 0.840159 0 0 189 0.018734
-0.047344 0.007110 0.841442 0 0 189 0.017739
-0.049543 0.007632 0.844657 0 0 204 0.020437
