ply
format ascii 1.0
comment VCGLIB generated
element vertex 1026
property float x
property float y
property float z
property uchar red
property uchar green
property uchar blue
property float quality
end_header
-0.039691 0.006253 0.837905 0 0 174 0.013067
-0.044729 0.006149 0.835191 0 0 158 0.011577
-0.057916 0.008402 0.849231 0 0 219 0.026184
-0.054558 0.007851 0.850242 0 0 204 0.020911
-0.056772 0.007776 0.853335 0 0 204 0.023280
-0.060112 0.008321 0.852322 0 0 234 0.029209
-0.053462 0.007355 0.854361 0 0 189 0.019325
-0.058968 0.007671 0.856389 0 0 234 0.028654
-0.055651 0.007265 0.857471 0 0 204 0.023147
-0.062294 0.008152 0.855306 0 0 250 0.034250
-0.052346 0.006951 0.858573 0 0 204 0.020103
-0.050888 0.007338 0.855722 0 0 204 0.019844
-0.049374 0.007706 0.852838 0 0 204 0.020755
-0.051984 0.007742 0.851534 0 0 204 0.020841
-0.042967 0.005123 0.832231 0 0 143 0.007647
-0.040429 0.005164 0.833600 0 0 158 0.007824
-0.038632 0.004117 0.830597 0 0 143 0.004948
-0.037889 0.005237 0.834967 0 0 158 0.008497
-0.036078 0.004211 0.831969 0 0 143 0.005474
-0.033498 0.004325 0.833318 0 0 143 0.005983
-0.035328 0.005346 0.836309 0 0 158 0.009208
-0.034252 0.003198 0.828924 0 0 128 0.003314
-0.031662 0.003334 0.830286 0 0 128 0.003755
-0.029837 0.002399 0.827211 0 0 128 0.002794
-0.032397 0.002202 0.825856 0 0 128 0.002365
-0.036785 0.003039 0.827560 0 0 128 0.002997
-0.034928 0.002024 0.824503 0 0 128 0.002098
-0.039278 0.002927 0.826179 0 0 128 0.002928
-0.041123 0.004022 0.829220 0 0 143 0.004883
-0.043625 0.003981 0.827832 0 0 143 0.005126
-0.037447 0.001896 0.823121 0 0 128 0.002054
-0.041791 0.002863 0.824782 0 0 128 0.003127
-0.039965 0.001805 0.821705 0 0 128 0.002155
-0.045440 0.005107 0.830853 0 0 158 0.007890
-0.032771 0.005348 0.837606 0 0 158 0.009246
-0.030089 0.005290 0.838815 0 0 158 0.008752
-0.028330 0.004365 0.835927 0 0 143 0.005896
-0.027346 0.005264 0.840053 0 0 158 0.008545
-0.025593 0.004363 0.837154 0 0 143 0.005873
-0.023830 0.003519 0.834221 0 0 143 0.004544
-0.022056 0.002661 0.831173 0 0 128 0.003628
-0.026510 0.003427 0.832899 0 0 143 0.004076
-0.024702 0.002539 0.829831 0 0 128 0.002990
-0.029109 0.003358 0.831592 0 0 128 0.003750
-0.030951 0.004330 0.834614 0 0 143 0.005889
-0.027296 0.002450 0.828528 0 0 128 0.002792
-0.015790 -0.001577 0.819626 0 0 128 0.001046
-0.017326 -0.000524 0.822555 0 0 128 0.001206
-0.019927 -0.000726 0.821169 0 0 128 0.000884
-0.018378 -0.001774 0.818212 0 0 128 0.000803
-0.021515 0.000359 0.824100 0 0 128 0.001265
-0.022490 -0.000889 0.819774 0 0 128 0.000729
-0.024091 0.000209 0.822739 0 0 128 0.001056
-0.026615 0.000103 0.821377 0 0 128 0.001006
-0.020923 -0.001936 0.816811 0 0 128 0.000667
-0.025015 -0.001000 0.818411 0 0 128 0.000669
-0.023433 -0.002053 0.815447 0 0 128 0.000641
-0.025689 0.001334 0.825652 0 0 128 0.001714
-0.028226 0.001237 0.824298 0 0 128 0.001659
-0.023103 0.001441 0.826980 0 0 128 0.001892
-0.020473 0.001575 0.828319 0 0 128 0.002314
-0.018898 0.000508 0.825430 0 0 128 0.001631
-0.026006 -0.002286 0.814123 0 0 128 0.000432
-0.027556 -0.001226 0.817061 0 0 128 0.000459
-0.030102 -0.001424 0.815729 0 0 128 0.000349
-0.028550 -0.002481 0.812788 0 0 128 0.000335
-0.031665 -0.000305 0.818649 0 0 128 0.000579
-0.032675 -0.001576 0.814383 0 0 128 0.000331
-0.034238 -0.000450 0.817310 0 0 128 0.000551
-0.036828 -0.000559 0.815946 0 0 128 0.000593
-0.031117 -0.002628 0.811449 0 0 128 0.000337
-0.035254 -0.001681 0.813022 0 0 128 0.000409
-0.033680 -0.002727 0.810084 0 0 128 0.000445
-0.035809 0.000704 0.820195 0 0 128 0.001055
-0.038389 0.000615 0.818855 0 0 128 0.001118
-0.033268 0.000836 0.821569 0 0 128 0.001144
-0.030759 0.001019 0.822933 0 0 128 0.001333
-0.029151 -0.000122 0.820014 0 0 128 0.000717
-0.049552 0.005981 0.832288 0 0 158 0.010768
-0.051772 0.006863 0.835161 0 0 174 0.014159
-0.054122 0.006747 0.833591 0 0 174 0.013751
-0.051904 0.005844 0.830700 0 0 158 0.010963
-0.056247 0.007503 0.836439 0 0 189 0.017636
-0.056517 0.006687 0.831958 0 0 174 0.014744
-0.058622 0.007490 0.834791 0 0 189 0.018306
-0.061116 0.007598 0.833061 0 0 204 0.021424
-0.054304 0.005749 0.829062 0 0 158 0.011266
-0.058975 0.006744 0.830250 0 0 189 0.016883
-0.056768 0.005700 0.827377 0 0 174 0.012119
-0.060683 0.008186 0.837567 0 0 204 0.022922
-0.063196 0.008303 0.835863 0 0 219 0.025874
-0.065230 0.008890 0.838627 0 0 234 0.030117
-0.062723 0.008677 0.840601 0 0 219 0.025591
-0.058282 0.008084 0.839508 0 0 204 0.020683
-0.060292 0.008514 0.842497 0 0 219 0.025067
-0.055973 0.008042 0.841370 0 0 204 0.020630
-0.053932 0.007532 0.838327 0 0 189 0.017060
-0.057958 0.008424 0.844340 0 0 204 0.022823
-0.059199 0.005458 0.825668 0 0 174 0.012719
-0.061297 0.006506 0.828067 0 0 189 0.017630
-0.063884 0.006307 0.826239 0 0 204 0.019738
-0.061792 0.005245 0.823842 0 0 174 0.013844
-0.065912 0.007240 0.828630 0 0 219 0.025862
-0.066587 0.006044 0.824360 0 0 204 0.022369
-0.068618 0.006972 0.826759 0 0 234 0.028784
-0.071347 0.006621 0.824835 0 0 250 0.032299
-0.064479 0.004995 0.821963 0 0 189 0.016691
-0.069362 0.005684 0.822411 0 0 219 0.026444
-0.067269 0.004678 0.819996 0 0 204 0.020941
-0.070611 0.007809 0.829160 0 0 255 0.035402
-0.073376 0.007470 0.827254 0 7 255 0.039951
-0.075358 0.008250 0.829648 0 34 255 0.048394
-0.072708 0.008544 0.831999 0 7 255 0.042124
-0.068044 0.008058 0.831456 0 0 234 0.031078
-0.070098 0.008715 0.834292 0 0 255 0.036169
-0.065535 0.008191 0.833730 0 0 234 0.027540
-0.063439 0.007433 0.830904 0 0 204 0.022001
-0.067609 0.008837 0.836511 0 0 250 0.033592
-0.083879 0.009575 0.836858 0 141 255 0.080988
-0.081285 0.009849 0.839447 0 114 255 0.073692
-0.079087 0.009623 0.837425 0 87 255 0.062936
-0.076589 0.009787 0.839959 0 60 255 0.057127
-0.078757 0.010002 0.841970 0 87 255 0.066375
-0.074322 0.009477 0.837957 0 34 255 0.048975
-0.074104 0.009803 0.842483 0 47 255 0.051144
-0.071938 0.009573 0.840410 0 20 255 0.044786
-0.069602 0.009532 0.842846 0 7 255 0.041126
-0.076279 0.010033 0.844424 0 74 255 0.062403
-0.071797 0.009808 0.844833 0 34 255 0.050447
-0.073897 0.009956 0.846831 0 74 255 0.059158
-0.069723 0.009231 0.838328 0 0 255 0.037956
-0.067476 0.009256 0.840764 0 0 255 0.035390
-0.072263 0.009160 0.836132 0 7 255 0.042822
-0.074833 0.008968 0.833899 0 34 255 0.046926
-0.077002 0.009344 0.835656 0 60 255 0.055084
-0.079726 0.009070 0.833372 0 87 255 0.062529
-0.077547 0.008683 0.831535 0 47 255 0.053822
-0.081782 0.009355 0.835151 0 114 255 0.071534
-0.071320 0.009232 0.849806 0 20 255 0.045825
-0.069147 0.009448 0.846846 0 20 255 0.043965
-0.066769 0.008876 0.849711 0 0 255 0.035581
-0.068920 0.008633 0.852679 0 7 255 0.040205
-0.064567 0.009024 0.846711 0 0 250 0.033320
-0.064492 0.008466 0.852524 0 0 250 0.033908
-0.062308 0.008600 0.849540 0 0 234 0.028920
-0.066612 0.008151 0.855526 0 0 255 0.038964
-0.060069 0.008686 0.846467 0 0 234 0.027827
-0.062451 0.008783 0.844618 0 0 219 0.027085
-0.064912 0.008993 0.842754 0 0 234 0.030166
-0.067021 0.009251 0.844825 0 0 255 0.036404
-0.036113 -0.002987 0.808889 0 0 128 0.000422
-0.037661 -0.001962 0.811692 0 0 128 0.000420
-0.040128 -0.002174 0.810463 0 0 128 0.000533
-0.038589 -0.003195 0.807654 0 0 128 0.000502
-0.041667 -0.001085 0.813234 0 0 128 0.000632
-0.042655 -0.002342 0.809164 0 0 128 0.000743
-0.044186 -0.001261 0.811934 0 0 128 0.000825
-0.046735 -0.001381 0.810595 0 0 128 0.001283
-0.041121 -0.003359 0.806370 0 0 128 0.000732
-0.045236 -0.002466 0.807820 0 0 128 0.001185
-0.043712 -0.003471 0.805058 0 0 128 0.001136
-0.045671 -0.000114 0.814707 0 0 128 0.001098
-0.048221 -0.000240 0.813343 0 0 128 0.001604
-0.049675 0.000967 0.816104 0 0 128 0.002343
-0.047181 0.001107 0.817591 0 0 128 0.001737
-0.043223 0.000075 0.816137 0 0 128 0.000885
-0.044744 0.001287 0.819012 0 0 128 0.001562
-0.040803 0.000311 0.817505 0 0 128 0.000928
-0.039234 -0.000847 0.814607 0 0 128 0.000542
-0.042345 0.001513 0.820366 0 0 128 0.001726
-0.046248 -0.003755 0.803842 0 0 128 0.001393
-0.047715 -0.002787 0.806442 0 0 128 0.001405
-0.050335 -0.003043 0.805139 0 0 128 0.002039
-0.048887 -0.004007 0.802558 0 0 128 0.002026
-0.051779 -0.002005 0.807706 0 0 128 0.002127
-0.053068 -0.003295 0.803766 0 0 128 0.002942
-0.054506 -0.002266 0.806320 0 0 128 0.003037
-0.057347 -0.002529 0.804868 0 0 143 0.004255
-0.051622 -0.004254 0.801214 0 0 128 0.002950
-0.055903 -0.003543 0.802338 0 0 143 0.004092
-0.054451 -0.004494 0.799812 0 0 143 0.004150
-0.055973 -0.001153 0.808861 0 0 128 0.003452
-0.058814 -0.001413 0.807404 0 0 143 0.005141
-0.060310 -0.000212 0.809965 0 0 143 0.006236
-0.057490 0.000092 0.811596 0 0 143 0.004300
-0.053260 -0.000852 0.810445 0 0 128 0.002421
-0.054747 0.000378 0.813199 0 0 128 0.003111
-0.050673 -0.000562 0.811943 0 0 128 0.001842
-0.049194 -0.001714 0.809196 0 0 128 0.001567
-0.052143 0.000652 0.814675 0 0 128 0.002418
-0.062760 0.003738 0.819212 0 0 158 0.011687
-0.060057 0.004005 0.821093 0 0 158 0.009244
-0.058264 0.002737 0.818294 0 0 143 0.006331
-0.057482 0.004248 0.822890 0 0 158 0.008146
-0.055685 0.003016 0.820083 0 0 143 0.005288
-0.053229 0.003284 0.821778 0 0 143 0.004635
-0.055025 0.004524 0.824604 0 0 143 0.007770
-0.053893 0.001784 0.817237 0 0 128 0.003484
-0.051437 0.002083 0.818924 0 0 128 0.003071
-0.056511 0.001529 0.815744 0 0 143 0.004249
-0.059250 0.001238 0.814138 0 0 143 0.005632
-0.061007 0.002462 0.816688 0 0 158 0.007983
-0.063857 0.002188 0.815049 0 0 158 0.010622
-0.062091 0.000957 0.812502 0 0 143 0.007733
-0.065595 0.003438 0.817538 0 0 174 0.014833
-0.052523 0.004586 0.826102 0 0 143 0.007133
-0.050115 0.004695 0.827738 0 0 143 0.007041
-0.048303 0.003515 0.824706 0 0 143 0.004310
-0.047767 0.004882 0.829322 0 0 143 0.007184
-0.045955 0.003732 0.826289 0 0 143 0.004562
-0.044138 0.002588 0.823223 0 0 128 0.002745
-0.046516 0.002358 0.821848 0 0 128 0.002465
-0.048954 0.002206 0.820432 0 0 128 0.002612
-0.050728 0.003369 0.823279 0 0 143 0.004239
-0.068328 0.002921 0.816098 0 0 189 0.015842
-0.066621 0.001696 0.813616 0 0 158 0.011365
-0.069392 0.001126 0.812184 0 0 174 0.013130
-0.064842 0.000478 0.811100 0 0 158 0.008982
-0.067621 -0.000076 0.809691 0 0 158 0.009998
-0.065789 -0.001216 0.807202 0 0 158 0.008849
-0.063020 -0.000705 0.808563 0 0 143 0.007398
-0.070354 -0.000701 0.808312 0 0 158 0.011473
-0.068577 -0.001798 0.805832 0 0 158 0.010009
-0.071344 -0.002459 0.804463 0 0 174 0.011762
-0.072960 -0.001436 0.806803 0 0 174 0.013151
-0.071991 0.000374 0.810604 0 0 174 0.014071
-0.074632 -0.000346 0.809098 0 0 189 0.015992
-0.073619 0.001501 0.812905 0 0 189 0.017726
-0.070996 0.002237 0.814470 0 0 189 0.016253
-0.072566 0.003376 0.816754 0 0 204 0.022718
-0.076218 0.000707 0.811373 0 0 204 0.020024
-0.075175 0.002559 0.815143 0 0 204 0.022895
-0.077781 0.001763 0.813636 0 0 219 0.025025
-0.069962 0.004071 0.818350 0 0 204 0.021548
-0.061571 -0.001871 0.806155 0 0 143 0.005754
-0.060129 -0.002985 0.803616 0 0 143 0.005347
-0.062914 -0.003461 0.802367 0 0 143 0.006708
-0.058672 -0.004008 0.801089 0 0 143 0.005059
-0.061475 -0.004484 0.799830 0 0 143 0.006271
-0.060008 -0.005417 0.797320 0 0 143 0.006382
-0.057241 -0.004940 0.798554 0 0 143 0.005052
-0.064295 -0.005004 0.798586 0 0 143 0.007719
-0.062867 -0.005946 0.796064 0 0 143 0.007761
-0.065687 -0.006515 0.794843 0 0 158 0.009400
-0.067086 -0.005616 0.797247 0 0 158 0.009153
-0.065726 -0.004026 0.800987 0 0 143 0.007699
-0.068496 -0.004639 0.799652 0 0 158 0.009084
-0.067136 -0.002956 0.803401 0 0 158 0.008685
-0.064354 -0.002373 0.804780 0 0 143 0.007383
-0.069933 -0.003582 0.802045 0 0 158 0.010523
-0.076624 -0.010118 0.790770 0 0 158 0.011345
-0.077921 -0.009280 0.793026 0 0 158 0.011140
-0.075369 -0.008297 0.794103 0 0 158 0.010353
-0.076662 -0.007385 0.796384 0 0 158 0.010332
-0.079204 -0.008409 0.795324 0 0 158 0.010920
-0.073987 -0.006397 0.797525 0 0 158 0.010417
-0.077943 -0.006434 0.798693 0 0 158 0.011135
-0.075332 -0.005397 0.799836 0 0 158 0.011376
-0.076656 -0.004351 0.802140 0 0 174 0.012825
-0.080444 -0.007453 0.797617 0 0 158 0.011401
-0.079214 -0.005405 0.800990 0 0 174 0.012235
-0.081733 -0.006455 0.799923 0 0 174 0.013686
-0.072680 -0.004461 0.800949 0 0 158 0.010848
-0.074026 -0.003375 0.803305 0 0 174 0.012013
-0.071264 -0.005507 0.798547 0 0 158 0.010086
-0.069863 -0.006470 0.796163 0 0 158 0.009744
-0.072627 -0.007352 0.795116 0 0 158 0.010171
-0.071245 -0.008242 0.792725 0 0 158 0.010507
-0.068472 -0.007360 0.793776 0 0 158 0.009865
-0.074001 -0.009159 0.791707 0 0 158 0.010648
-0.083198 -0.005630 0.802056 0 0 174 0.014296
-0.080801 -0.004472 0.803308 0 0 174 0.013900
-0.082247 -0.003563 0.805456 0 0 189 0.015892
-0.084636 -0.004763 0.804213 0 0 189 0.016731
-0.079814 -0.002425 0.806723 0 0 189 0.015959
-0.083707 -0.002674 0.807578 0 0 189 0.018174
-0.081298 -0.001462 0.808852 0 0 189 0.019478
-0.082745 -0.000556 0.810953 0 0 219 0.023456
-0.086023 -0.003887 0.806363 0 0 189 0.018089
-0.085123 -0.001783 0.809694 0 0 204 0.021640
-0.087446 -0.003040 0.808480 0 0 204 0.020922
-0.078840 -0.000325 0.810167 0 0 204 0.020236
-0.080299 0.000630 0.812274 0 0 219 0.024460
-0.077239 -0.001364 0.807893 0 0 189 0.015655
-0.075660 -0.002377 0.805604 0 0 174 0.013624
-0.078241 -0.003405 0.804432 0 0 174 0.014107
-0.125412 -0.007432 0.929661 182 255 66 0.267269
-0.126884 -0.008537 0.926027 157 255 90 0.216010
-0.123902 -0.006327 0.933159 205 255 43 0.313033
-0.126927 -0.007652 0.932860 192 255 56 0.287605
-0.128448 -0.008692 0.929244 173 255 75 0.247525
-0.129933 -0.009748 0.925604 152 255 96 0.203174
-0.123901 -0.005934 0.936599 211 255 37 0.327117
-0.123842 -0.005519 0.940133 232 255 16 0.368397
-0.120937 -0.004253 0.940047 237 255 10 0.382429
-0.120996 -0.004621 0.936430 218 255 29 0.343168
-0.131103 -0.010541 0.929098 157 255 90 0.217735
-0.132631 -0.011634 0.925324 138 255 109 0.175826
-0.129528 -0.009508 0.932770 178 255 69 0.259998
-0.132267 -0.011307 0.932394 163 255 85 0.230458
-0.133816 -0.012311 0.928746 142 255 106 0.184497
-0.135343 -0.013334 0.925021 129 255 119 0.158658
-0.129307 -0.009378 0.936354 190 255 58 0.284549
-0.129046 -0.009179 0.939908 215 255 33 0.333321
-0.126376 -0.007378 0.940158 224 255 24 0.355000
-0.126687 -0.007551 0.936469 205 255 43 0.314280
-0.123181 -0.005051 0.948066 255 225 0 0.439543
-0.123540 -0.005335 0.944038 251 242 0 0.409274
-0.126125 -0.007122 0.944024 243 251 5 0.390690
-0.125803 -0.006755 0.947962 255 238 0 0.415231
-0.117957 -0.002530 0.943675 255 229 0 0.429925
-0.120880 -0.003806 0.943869 255 233 0 0.425453
-0.135813 -0.022902 0.954940 249 244 0 0.404032
-0.137205 -0.023257 0.950709 224 255 24 0.353788
-0.134812 -0.020558 0.954545 247 246 1 0.399566
-0.138535 -0.023523 0.946587 203 255 45 0.309250
-0.136243 -0.020886 0.950326 234 255 14 0.373293
-0.137658 -0.021082 0.946126 205 255 43 0.313273
-0.133859 -0.018041 0.954344 255 238 0 0.415440
-0.139868 -0.023666 0.942532 167 255 81 0.235344
-0.141177 -0.023705 0.938556 142 255 106 0.187162
-0.142267 -0.026324 0.939003 140 255 108 0.179982
-0.140998 -0.026268 0.942952 163 255 85 0.230237
-0.139740 -0.026113 0.946923 199 255 48 0.302664
-0.143423 -0.028963 0.939486 142 255 106 0.185617
-0.134889 -0.018282 0.950301 239 255 8 0.383758
-0.132301 -0.015481 0.954495 255 238 0 0.416063
-0.135920 -0.018410 0.946218 211 255 37 0.326790
-0.133422 -0.015713 0.950269 236 255 12 0.377237
-0.134484 -0.015840 0.946201 220 255 28 0.344979
-0.136905 -0.018446 0.942280 184 255 64 0.272208
-0.137856 -0.018382 0.938439 161 255 87 0.223067
-0.139477 -0.021095 0.938462 146 255 102 0.193544
-0.138576 -0.021131 0.942273 171 255 77 0.244678
-0.144635 -0.022509 0.923761 4 234 244 0.105531
-0.143719 -0.022878 0.927521 4 234 244 0.105585
-0.146473 -0.025337 0.923846 0 208 255 0.100508
-0.142838 -0.023217 0.931219 47 255 201 0.121756
-0.145549 -0.025604 0.927703 0 221 255 0.102672
-0.144729 -0.025969 0.931330 26 255 222 0.114300
-0.148374 -0.028197 0.923895 0 208 255 0.098340
-0.142005 -0.023511 0.934879 112 255 136 0.146547
-0.140354 -0.020832 0.934745 129 255 119 0.159428
-0.141247 -0.020542 0.931019 69 255 179 0.129634
-0.147053 -0.028366 0.927977 0 221 255 0.104770
-0.149674 -0.031096 0.924146 0 208 255 0.098664
-0.145801 -0.028605 0.931834 26 255 222 0.116906
-0.148349 -0.031254 0.928312 15 248 233 0.109788
-0.147129 -0.031455 0.932175 58 255 190 0.125814
-0.151036 -0.034034 0.924439 0 208 255 0.100859
-0.144603 -0.028794 0.935661 101 255 147 0.141397
-0.143481 -0.026156 0.935173 101 255 147 0.140878
-0.135510 -0.013299 0.921664 112 255 136 0.145807
-0.135646 -0.013324 0.918172 112 255 136 0.145536
-0.132783 -0.011509 0.922024 131 255 117 0.160757
-0.132908 -0.011532 0.918441 129 255 119 0.158900
-0.135757 -0.013441 0.914465 112 255 136 0.146679
-0.135871 -0.013966 0.910267 69 255 179 0.130129
-0.139008 -0.015801 0.909583 36 255 211 0.117753
-0.138807 -0.015344 0.913601 80 255 168 0.134463
-0.138598 -0.015079 0.917520 90 255 157 0.139841
-0.142164 -0.017383 0.908991 15 248 233 0.110931
-0.129849 -0.009937 0.922486 142 255 106 0.187189
-0.129716 -0.010214 0.919252 136 255 111 0.172499
-0.126811 -0.008679 0.922905 150 255 98 0.199283
-0.129581 -0.010593 0.915882 123 255 125 0.150452
-0.130932 -0.011918 0.911936 90 255 157 0.137046
-0.132748 -0.011942 0.915082 123 255 125 0.149487
-0.135689 -0.015721 0.901994 0 154 255 0.085019
-0.134647 -0.014754 0.904825 0 194 255 0.095240
-0.138214 -0.015797 0.903980 0 194 255 0.095968
-0.137098 -0.015000 0.906907 15 248 233 0.109459
-0.133623 -0.013781 0.907919 26 255 222 0.116054
-0.140796 -0.017055 0.901374 0 167 255 0.086169
-0.141329 -0.017096 0.903832 0 194 255 0.096197
-0.144163 -0.018205 0.901165 0 181 255 0.091768
-0.144700 -0.018322 0.903543 0 221 255 0.101753
-0.141803 -0.017204 0.906371 0 221 255 0.105072
-0.145369 -0.022253 0.919978 4 234 244 0.106651
-0.142365 -0.020053 0.924045 15 248 233 0.112591
-0.146185 -0.021979 0.915999 0 221 255 0.103601
-0.143098 -0.019683 0.920372 26 255 222 0.116122
-0.143893 -0.019400 0.916365 26 255 222 0.115520
-0.140231 -0.017604 0.924238 47 255 201 0.124322
-0.146997 -0.021592 0.912186 15 248 233 0.109605
-0.147654 -0.020997 0.908735 4 234 244 0.108540
-0.150009 -0.023094 0.908954 4 234 244 0.107965
-0.149365 -0.023817 0.912180 0 221 255 0.105054
-0.148623 -0.024344 0.915727 0 221 255 0.104279
-0.152378 -0.025127 0.909224 26 255 222 0.115152
-0.140670 -0.017353 0.920789 80 255 168 0.134399
-0.137768 -0.015520 0.924624 101 255 147 0.140700
-0.141162 -0.017263 0.917111 69 255 179 0.129653
-0.138202 -0.015301 0.921108 80 255 168 0.134923
-0.141700 -0.017323 0.912944 36 255 211 0.118964
-0.144934 -0.019264 0.908818 4 234 244 0.106621
-0.144495 -0.019430 0.912369 15 248 233 0.112633
-0.147270 -0.019417 0.901176 0 194 255 0.095046
-0.149974 -0.020513 0.898657 0 208 255 0.098502
-0.147463 -0.019931 0.903688 0 221 255 0.103643
-0.150229 -0.020903 0.901201 4 234 244 0.108154
-0.150418 -0.021456 0.903680 15 248 233 0.109821
-0.152969 -0.021873 0.898599 0 221 255 0.103664
-0.147599 -0.020440 0.906203 15 248 233 0.110820
-0.144859 -0.018767 0.906158 4 234 244 0.109307
-0.152909 -0.022610 0.901354 15 248 233 0.111616
-0.155598 -0.023736 0.898801 26 255 222 0.115166
-0.152774 -0.023373 0.904035 4 234 244 0.108892
-0.155474 -0.024470 0.901614 47 255 201 0.122572
-0.155344 -0.025280 0.904284 58 255 190 0.125802
-0.158229 -0.025596 0.898930 58 255 190 0.126760
-0.152619 -0.024225 0.906630 26 255 222 0.117095
-0.150252 -0.022213 0.906319 15 248 233 0.111292
-0.136161 -0.014507 0.928407 127 255 121 0.155700
-0.134585 -0.013515 0.932079 148 255 100 0.197368
-0.137052 -0.015651 0.931593 136 255 111 0.173353
-0.138632 -0.016612 0.927939 112 255 136 0.147274
-0.134169 -0.013543 0.935610 165 255 83 0.232156
-0.133732 -0.013481 0.939145 186 255 62 0.275061
-0.131373 -0.011372 0.939570 196 255 52 0.296293
-0.131838 -0.011383 0.935963 175 255 73 0.251711
-0.140690 -0.019107 0.927699 47 255 201 0.124677
-0.139031 -0.018146 0.931330 112 255 136 0.145917
-0.138448 -0.018296 0.934868 140 255 108 0.180615
-0.135770 -0.015976 0.938793 175 255 73 0.252399
-0.136395 -0.015834 0.935196 150 255 98 0.199858
-0.131588 -0.013208 0.950634 243 251 5 0.392974
-0.132330 -0.013394 0.946734 230 255 18 0.364468
-0.129638 -0.010825 0.951096 255 229 0 0.429947
-0.130451 -0.010968 0.947078 247 246 1 0.399767
-0.133044 -0.013481 0.942859 207 255 41 0.316853
-0.135136 -0.015948 0.942464 194 255 54 0.289497
-0.128048 -0.008869 0.947616 251 242 0 0.407483
-0.128571 -0.009087 0.943675 236 255 12 0.376717
-0.130971 -0.011255 0.943220 220 255 28 0.347225
-0.164958 -0.026515 0.873310 0 167 255 0.086407
-0.166880 -0.028279 0.871510 0 167 255 0.086244
-0.164958 -0.026511 0.870426 0 154 255 0.082231
-0.168859 -0.030047 0.869722 0 194 255 0.094114
-0.166928 -0.028240 0.868644 0 167 255 0.086114
-0.168943 -0.029963 0.866845 0 194 255 0.095572
-0.164904 -0.026488 0.867561 0 154 255 0.083411
-0.170915 -0.031791 0.867932 4 234 244 0.106529
-0.172916 -0.033567 0.866196 58 255 190 0.125739
-0.172576 -0.033380 0.869145 36 255 211 0.117875
-0.170571 -0.031602 0.870929 0 221 255 0.102647
-0.168617 -0.029750 0.872750 0 194 255 0.097042
-0.172247 -0.033144 0.872148 36 255 211 0.117267
-0.166835 -0.028399 0.865678 0 154 255 0.083732
-0.164469 -0.026564 0.864588 0 127 255 0.077768
-0.168820 -0.030245 0.863749 0 194 255 0.095290
-0.166420 -0.028411 0.862687 0 154 255 0.082800
-0.168462 -0.030220 0.860734 0 194 255 0.096398
-0.164014 -0.026551 0.861602 0 127 255 0.077552
-0.170820 -0.032151 0.861876 15 248 233 0.111957
-0.172859 -0.034039 0.860025 69 255 179 0.130702
-0.172940 -0.033827 0.863092 58 255 190 0.126284
-0.170942 -0.031881 0.864954 15 248 233 0.111363
-0.179464 -0.043831 0.860404 140 255 108 0.181822
-0.177966 -0.041218 0.861765 129 255 119 0.158965
-0.179139 -0.043312 0.863489 131 255 117 0.163282
-0.176327 -0.038672 0.863175 90 255 157 0.140345
-0.177565 -0.040712 0.864896 112 255 136 0.145521
-0.175948 -0.038116 0.866380 69 255 179 0.131338
-0.178763 -0.042752 0.866596 127 255 121 0.155174
-0.174631 -0.036131 0.864680 58 255 190 0.125676
-0.174652 -0.036356 0.861587 80 255 168 0.133615
-0.176370 -0.038830 0.860125 123 255 125 0.149128
-0.177168 -0.040338 0.867925 80 255 168 0.134306
-0.178045 -0.042260 0.869671 90 255 157 0.138322
-0.175595 -0.037916 0.869260 69 255 179 0.129819
-0.176540 -0.039799 0.870986 47 255 201 0.121267
-0.174871 -0.037361 0.872484 36 255 211 0.119012
-0.177364 -0.041689 0.872791 69 255 179 0.131762
-0.173843 -0.035530 0.870731 26 255 222 0.116161
-0.174280 -0.035731 0.867756 58 255 190 0.125818
-0.161980 -0.025336 0.863630 0 87 255 0.062520
-0.159950 -0.024073 0.865670 0 47 255 0.052810
-0.162471 -0.025247 0.866619 0 101 255 0.067321
-0.160409 -0.023974 0.868672 0 74 255 0.059024
-0.157955 -0.022796 0.867733 0 34 255 0.049850
-0.156037 -0.021550 0.869745 0 34 255 0.047232
-0.155396 -0.021456 0.866816 0 20 255 0.044289
-0.157323 -0.022672 0.864821 0 20 255 0.046819
-0.159283 -0.023927 0.862844 0 47 255 0.051502
-0.154754 -0.021258 0.863944 0 20 255 0.044990
-0.162777 -0.025293 0.869532 0 101 255 0.069042
-0.160619 -0.024119 0.871538 0 74 255 0.062010
-0.162817 -0.025351 0.872370 0 114 255 0.071214
-0.160742 -0.024083 0.874378 0 87 255 0.066004
-0.158576 -0.022974 0.873440 0 60 255 0.055063
-0.156623 -0.021798 0.875331 0 47 255 0.054593
-0.156308 -0.021720 0.872546 0 34 255 0.050657
-0.158309 -0.022851 0.870664 0 47 255 0.052828
-0.149660 -0.019381 0.874210 0 0 234 0.028620
-0.151677 -0.020070 0.872296 0 0 250 0.032318
-0.154259 -0.020988 0.874517 0 7 255 0.042586
-0.152249 -0.020217 0.876481 0 0 255 0.038217
-0.148862 -0.019036 0.870121 0 0 234 0.027986
-0.150787 -0.019802 0.868078 0 0 234 0.030635
-0.148075 -0.018755 0.867409 0 0 219 0.026957
-0.150017 -0.019471 0.865370 0 0 250 0.031966
-0.152761 -0.020499 0.866042 0 0 255 0.035604
-0.153428 -0.020716 0.868950 0 0 255 0.036546
-0.152523 -0.020702 0.888127 0 74 255 0.058932
-0.156024 -0.022170 0.888737 0 141 255 0.079725
-0.154606 -0.021380 0.886399 0 114 255 0.070464
-0.153934 -0.021470 0.890459 0 127 255 0.075075
-0.158210 -0.023132 0.885680 0 154 255 0.084030
-0.159074 -0.024077 0.888463 0 194 255 0.094302
-0.161221 -0.025193 0.886560 0 194 255 0.097486
-0.163434 -0.026320 0.884588 4 234 244 0.107658
-0.162040 -0.026134 0.889372 0 221 255 0.103778
-0.160056 -0.025087 0.891074 0 221 255 0.103058
-0.157042 -0.023095 0.891341 0 181 255 0.093326
-0.156916 -0.023867 0.895232 4 234 244 0.108420
-0.154268 -0.022028 0.895151 0 194 255 0.097405
-0.159875 -0.025808 0.895058 36 255 211 0.120478
-0.150963 -0.020550 0.895487 0 154 255 0.083580
-0.162729 -0.025341 0.876559 0 127 255 0.075544
-0.160687 -0.024180 0.878422 0 114 255 0.072403
-0.164649 -0.026510 0.877399 0 167 255 0.089358
-0.158727 -0.023013 0.880248 0 114 255 0.071569
-0.156760 -0.021950 0.879321 0 74 255 0.060723
-0.162419 -0.025349 0.880684 0 167 255 0.086211
-0.160367 -0.024214 0.882522 0 141 255 0.081221
-0.156648 -0.022055 0.883339 0 114 255 0.070963
-0.150825 -0.020064 0.885791 0 60 255 0.055012
-0.152790 -0.020624 0.884223 0 60 255 0.055033
-0.150659 -0.019739 0.882139 0 20 255 0.044715
-0.154761 -0.021172 0.881229 0 60 255 0.057790
-0.150255 -0.019569 0.878270 0 0 250 0.034629
-0.152595 -0.020429 0.880395 0 20 255 0.045534
-0.139374 -0.015178 0.856215 0 0 234 0.027369
-0.137755 -0.014608 0.858473 0 0 219 0.025649
-0.141059 -0.015950 0.858780 0 0 219 0.024417
-0.136177 -0.014038 0.860677 0 0 219 0.024640
-0.139489 -0.015397 0.861014 0 0 204 0.023414
-0.137919 -0.014846 0.863182 0 0 204 0.023408
-0.142795 -0.016546 0.861342 0 0 204 0.022986
-0.134656 -0.013441 0.862839 0 0 219 0.025349
-0.133140 -0.012937 0.864983 0 0 219 0.026299
-0.131315 -0.011775 0.863017 0 0 234 0.029371
-0.132836 -0.012385 0.860822 0 0 219 0.026979
-0.134386 -0.012986 0.858599 0 0 219 0.026927
-0.129566 -0.010484 0.861049 0 0 250 0.033568
-0.141102 -0.016152 0.863393 0 0 204 0.020693
-0.144057 -0.017191 0.863970 0 0 204 0.020675
-0.139433 -0.015712 0.865452 0 0 189 0.019194
-0.142377 -0.016754 0.866087 0 0 189 0.018086
-0.135378 -0.014357 0.868229 0 0 219 0.023535
-0.137008 -0.014879 0.866313 0 0 204 0.021302
-0.127615 -0.012686 0.870293 0 0 234 0.028434
-0.129958 -0.013181 0.869088 0 0 219 0.025478
-0.128364 -0.011955 0.867380 0 0 219 0.026684
-0.131526 -0.013077 0.867063 0 0 219 0.025923
-0.125167 -0.010622 0.867770 0 0 250 0.032049
-0.126573 -0.010628 0.865572 0 0 234 0.028967
-0.123332 -0.009060 0.866319 0 0 255 0.036123
-0.124754 -0.009105 0.864114 0 0 250 0.034091
-0.128030 -0.010601 0.863310 0 0 234 0.028385
-0.129821 -0.011872 0.865182 0 0 219 0.027137
-0.147064 -0.018430 0.864568 0 0 204 0.020628
-0.148841 -0.019276 0.862422 0 0 204 0.022557
-0.145809 -0.017974 0.861900 0 0 204 0.021841
-0.147546 -0.018799 0.859822 0 0 219 0.024183
-0.150652 -0.020096 0.860262 0 0 219 0.027053
-0.152418 -0.020983 0.858108 0 7 255 0.039582
-0.153597 -0.021186 0.860996 0 7 255 0.039902
-0.151808 -0.020324 0.863164 0 0 250 0.034535
-0.144400 -0.017582 0.859020 0 0 219 0.023482
-0.146047 -0.018627 0.856674 0 0 204 0.022877
-0.142697 -0.016975 0.856452 0 0 219 0.026032
-0.144342 -0.017993 0.854064 0 0 219 0.025431
-0.147721 -0.019680 0.854234 0 0 250 0.032784
-0.149411 -0.020661 0.851917 0 0 255 0.037781
-0.150894 -0.020888 0.854949 0 0 255 0.037417
-0.149198 -0.019875 0.857403 0 0 219 0.025278
-0.159354 -0.027348 0.848619 0 47 255 0.054655
-0.157634 -0.025730 0.850969 0 20 255 0.046071
-0.160823 -0.027010 0.851853 0 74 255 0.061494
-0.155813 -0.024215 0.853351 0 0 255 0.038837
-0.158900 -0.025508 0.854313 0 34 255 0.048531
-0.157095 -0.023883 0.856855 0 20 255 0.044381
-0.162105 -0.026734 0.855288 0 101 255 0.068594
-0.154056 -0.022629 0.855744 0 0 255 0.036226
-0.152606 -0.022507 0.852664 0 0 255 0.035716
-0.154313 -0.024095 0.850366 0 0 255 0.037744
-0.160179 -0.025385 0.857497 0 47 255 0.054401
-0.163101 -0.026646 0.858410 0 141 255 0.078808
-0.158280 -0.024065 0.859691 0 47 255 0.052607
-0.161146 -0.025322 0.860642 0 60 255 0.057476
-0.156483 -0.022695 0.861843 0 20 255 0.043231
-0.155323 -0.022532 0.858924 0 34 255 0.047671
-0.105380 -0.011086 0.878668 0 7 255 0.040914
-0.106272 -0.009115 0.876721 0 7 255 0.041392
-0.102817 -0.009665 0.877863 0 0 255 0.035726
-0.107156 -0.007047 0.874781 0 47 255 0.051494
-0.108168 -0.004793 0.872846 0 127 255 0.074251
-0.102561 -0.007194 0.875694 0 7 255 0.040108
-0.099906 -0.008570 0.877249 0 0 250 0.031817
-0.103373 -0.005027 0.873801 0 74 255 0.059677
-0.104287 -0.002718 0.871841 0 167 255 0.089183
-0.112814 -0.001597 0.863573 0 167 255 0.087871
-0.111589 -0.002347 0.865973 0 141 255 0.080697
-0.114752 -0.002914 0.864393 0 141 255 0.079895
-0.110468 -0.003050 0.868305 0 141 255 0.079739
-0.113570 -0.003654 0.866814 0 114 255 0.072294
-0.112436 -0.004465 0.869157 0 101 255 0.067514
-0.116665 -0.004332 0.865192 0 87 255 0.064886
-0.109267 -0.003961 0.870619 0 114 255 0.073759
-0.106366 -0.002369 0.869895 0 154 255 0.082974
-0.116245 -0.005841 0.868023 0 60 255 0.056412
-0.114996 -0.006659 0.870265 0 47 255 0.052701
-0.086814 0.004141 0.863194 0 34 255 0.050369
-0.088322 0.005305 0.860973 0 74 255 0.060521
-0.085352 0.003006 0.865421 0 7 255 0.042448
-0.089523 0.001835 0.865811 0 7 255 0.040731
-0.091069 0.003059 0.863577 0 34 255 0.049961
-0.092647 0.004270 0.861319 0 87 255 0.063624
-0.085992 0.001331 0.867785 0 0 255 0.036483
-0.086646 -0.000414 0.870095 0 0 250 0.032710
-0.083101 0.000299 0.870081 0 0 250 0.032252
-0.082351 0.001866 0.867708 0 0 250 0.033507
-0.094726 0.002247 0.863854 0 47 255 0.052920
-0.096572 0.003000 0.861619 0 74 255 0.059393
-0.092951 0.001420 0.865981 0 47 255 0.050833
-0.096856 0.000231 0.866383 0 34 255 0.050063
-0.098660 0.000985 0.864250 0 47 255 0.053366
-0.100585 0.001689 0.861927 0 74 255 0.058839
-0.093127 -0.000092 0.868275 0 20 255 0.044810
-0.093354 -0.001503 0.870458 0 7 255 0.042629
-0.089958 -0.001024 0.870304 0 0 255 0.036325
-0.089768 0.000482 0.868071 0 0 255 0.038203
-0.087604 -0.006747 0.876133 0 0 189 0.018140
-0.085369 -0.008275 0.878385 0 0 189 0.018871
-0.087281 -0.004711 0.874167 0 0 204 0.022487
-0.084979 -0.006369 0.876332 0 0 204 0.020113
-0.084627 -0.004375 0.874333 0 0 204 0.021726
-0.082785 -0.007757 0.878699 0 0 204 0.020746
-0.086971 -0.002588 0.872134 0 0 219 0.025156
-0.090251 -0.003237 0.872311 0 0 219 0.026684
-0.090554 -0.005377 0.874265 0 0 204 0.021680
-0.081961 -0.005647 0.876563 0 0 204 0.021836
-0.079922 -0.007267 0.879166 0 0 204 0.023259
-0.081164 -0.003452 0.874484 0 0 219 0.024207
-0.079106 -0.005177 0.877031 0 0 219 0.024606
-0.080358 -0.001159 0.872303 0 0 234 0.027817
-0.083861 -0.002060 0.872211 0 0 219 0.025155
-0.083566 0.009865 0.840287 0 154 255 0.082665
-0.087993 0.009305 0.838675 0 181 255 0.092766
-0.083225 0.010054 0.843656 0 167 255 0.086682
-0.087639 0.009575 0.842110 0 181 255 0.093673
-0.087274 0.009735 0.845503 0 194 255 0.096544
-0.092049 0.008897 0.840467 0 221 255 0.103950
-0.082908 0.010061 0.846968 0 167 255 0.089065
-0.082625 0.009995 0.850265 0 194 255 0.095242
-0.080428 0.010028 0.849392 0 154 255 0.083640
-0.080704 0.010103 0.846117 0 141 255 0.079063
-0.078247 0.010087 0.848514 0 127 255 0.075152
-0.078514 0.010105 0.845283 0 114 255 0.071224
-0.080994 0.010046 0.842788 0 127 255 0.076169
-0.076071 0.010027 0.847669 0 101 255 0.067323
-0.091966 0.008978 0.843228 0 221 255 0.102137
-0.096288 0.007607 0.841220 0 208 255 0.099017
-0.091843 0.008948 0.845962 0 208 255 0.100056
-0.096185 0.007696 0.843968 0 194 255 0.095531
-0.096059 0.007708 0.846694 0 194 255 0.095496
-0.100434 0.006123 0.841967 0 181 255 0.090635
-0.091725 0.008836 0.848661 0 208 255 0.100387
-0.091613 0.008610 0.851339 0 221 255 0.103843
-0.087142 0.009375 0.850788 0 208 255 0.100128
-0.087226 0.009626 0.848166 0 208 255 0.098328
-0.083675 0.007365 0.858085 0 101 255 0.068561
-0.083306 0.008282 0.855483 0 114 255 0.072379
-0.079208 0.007641 0.857837 0 74 255 0.059535
-0.078800 0.008571 0.855275 0 87 255 0.064740
-0.082923 0.009189 0.852925 0 154 255 0.082789
-0.087430 0.008544 0.853469 0 181 255 0.089866
-0.087700 0.007622 0.856094 0 141 255 0.079794
-0.074984 0.007969 0.856854 0 47 255 0.051665
-0.072132 0.008005 0.856408 0 20 255 0.045958
-0.074597 0.008705 0.853567 0 47 255 0.052051
-0.069365 0.008108 0.855995 0 20 255 0.043202
-0.071724 0.008628 0.853123 0 20 255 0.045046
-0.074241 0.009358 0.850233 0 60 255 0.055082
-0.076379 0.009399 0.851086 0 74 255 0.062389
-0.078529 0.009383 0.851928 0 101 255 0.069476
-0.076708 0.008665 0.854415 0 74 255 0.059041
-0.121487 -0.007470 0.864937 0 20 255 0.043286
-0.122827 -0.007603 0.862540 0 0 255 0.038339
-0.118819 -0.005267 0.863313 0 47 255 0.052305
-0.124230 -0.007687 0.860119 0 7 255 0.042027
-0.125626 -0.007794 0.857761 0 20 255 0.044447
-0.127622 -0.009171 0.859363 0 0 255 0.036366
-0.126183 -0.009127 0.861756 0 0 250 0.034751
-0.116820 -0.003760 0.862265 0 74 255 0.061785
-0.118971 -0.004571 0.860094 0 60 255 0.055847
-0.117046 -0.003246 0.859245 0 74 255 0.060750
-0.114906 -0.002384 0.861407 0 101 255 0.068815
-0.120133 -0.004824 0.857512 0 34 255 0.050072
-0.121361 -0.005044 0.855004 0 34 255 0.050303
-0.123511 -0.006367 0.856354 0 34 255 0.048700
-0.122264 -0.006227 0.858927 0 20 255 0.045737
-0.130662 -0.011338 0.847112 0 0 234 0.029191
-0.129360 -0.010400 0.849723 0 0 234 0.029640
-0.133026 -0.012414 0.849157 0 0 234 0.029850
-0.128066 -0.009578 0.852359 0 0 234 0.030942
-0.131640 -0.011623 0.851816 0 0 234 0.028408
-0.130340 -0.010768 0.854444 0 0 250 0.031290
-0.135311 -0.013537 0.851278 0 0 234 0.028657
-0.126806 -0.008664 0.855047 0 0 255 0.036175
-0.124659 -0.007373 0.853615 0 0 255 0.037446
-0.125826 -0.008367 0.850949 0 0 250 0.032421
-0.133855 -0.012737 0.853657 0 0 234 0.028686
-0.137362 -0.014374 0.853697 0 0 234 0.028131
-0.132380 -0.012009 0.856145 0 0 234 0.028104
-0.135855 -0.013628 0.856147 0 0 219 0.027047
-0.130947 -0.011266 0.858583 0 0 234 0.029400
-0.128975 -0.009978 0.856892 0 0 250 0.033513
-0.102676 0.004861 0.842143 0 127 255 0.077596
-0.100510 0.005967 0.844486 0 167 255 0.086077
-0.102736 0.004720 0.844619 0 127 255 0.074696
-0.104844 0.003543 0.842280 0 101 255 0.066749
-0.100582 0.005744 0.846993 0 141 255 0.080190
-0.104935 0.003456 0.844800 0 87 255 0.062625
-0.102793 0.004502 0.847142 0 101 255 0.069843
-0.104979 0.003241 0.847312 0 74 255 0.060236
-0.106982 0.002199 0.842440 0 60 255 0.056101
-0.107082 0.002142 0.844986 0 47 255 0.054177
-0.109113 0.000937 0.842676 0 34 255 0.049338
-0.100644 0.005431 0.849493 0 141 255 0.080404
-0.102892 0.004264 0.849632 0 101 255 0.069876
-0.100744 0.005066 0.851965 0 127 255 0.078025
-0.098494 0.006027 0.851834 0 154 255 0.084097
-0.098416 0.006407 0.849368 0 154 255 0.085909
-0.096229 0.006947 0.851665 0 167 255 0.088217
-0.096152 0.007358 0.849174 0 181 255 0.092408
-0.098351 0.006789 0.846871 0 181 255 0.090496
-0.093918 0.007801 0.851532 0 194 255 0.096471
-0.111135 -0.000429 0.842850 0 7 255 0.041383
-0.111168 -0.000378 0.845290 0 7 255 0.041871
-0.113264 -0.001725 0.843057 0 0 255 0.037573
-0.109113 0.000971 0.847574 0 34 255 0.049479
-0.113229 -0.001714 0.845490 0 0 255 0.036107
-0.111141 -0.000404 0.847740 0 20 255 0.043438
-0.115324 -0.003099 0.843192 0 0 250 0.032842
-0.117431 -0.004364 0.843449 0 0 234 0.029230
-0.109110 0.000745 0.852516 0 60 255 0.055947
-0.107070 0.002034 0.849900 0 60 255 0.057697
-0.105000 0.003012 0.852223 0 101 255 0.066819
-0.100618 0.002647 0.859464 0 87 255 0.062689
-0.100637 0.003482 0.857002 0 101 255 0.066637
-0.096581 0.004013 0.859241 0 87 255 0.063533
-0.096596 0.004857 0.856753 0 101 255 0.067214
-0.100675 0.004318 0.854490 0 101 255 0.070143
-0.104921 0.002270 0.854750 0 74 255 0.061216
-0.104854 0.001463 0.857307 0 60 255 0.056991
-0.092334 0.005364 0.858807 0 101 255 0.069133
-0.092064 0.006457 0.856332 0 127 255 0.075264
-0.087985 0.006437 0.858533 0 101 255 0.067908
-0.091810 0.007542 0.853867 0 167 255 0.086366
-0.094101 0.006761 0.854050 0 141 255 0.081349
-0.096374 0.005944 0.854230 0 127 255 0.076923
-0.094322 0.005666 0.856551 0 114 255 0.072293
-0.103552 -0.015852 0.799537 0 0 143 0.005416
-0.101675 -0.014352 0.800593 0 0 143 0.005366
-0.098539 -0.013312 0.799660 0 0 143 0.005940
-0.096683 -0.011723 0.800739 0 0 143 0.007519
-0.093556 -0.010676 0.799887 0 0 158 0.009317
-0.096079 -0.009468 0.803820 0 0 158 0.009897
-0.094191 -0.012859 0.796819 0 0 143 0.007587
-0.091025 -0.011913 0.795939 0 0 158 0.009225
-0.096183 -0.014305 0.795944 0 0 143 0.006573
-0.098148 -0.015673 0.795098 0 0 143 0.006671
-0.101269 -0.016607 0.796018 0 0 143 0.006613
-0.099012 -0.017441 0.792519 0 0 158 0.008025
-0.093990 -0.007912 0.804950 0 0 158 0.011376
-0.092656 -0.008626 0.802793 0 0 158 0.010941
-0.090501 -0.007078 0.803934 0 0 174 0.012686
-0.091893 -0.006322 0.806094 0 0 174 0.013581
-0.089138 -0.007869 0.801759 0 0 158 0.011546
-0.088312 -0.005496 0.805124 0 0 174 0.015163
-0.086940 -0.006330 0.802969 0 0 174 0.013722
-0.089695 -0.004694 0.807249 0 0 189 0.017375
-0.085512 -0.007119 0.800836 0 0 174 0.012625
-0.086533 -0.009216 0.797868 0 0 158 0.010907
-0.090098 -0.009942 0.798835 0 0 158 0.009937
-0.079220 -0.011348 0.789972 0 0 158 0.010471
-0.082888 -0.011813 0.791254 0 0 158 0.009409
-0.085313 -0.013054 0.790467 0 0 158 0.008866
-0.088774 -0.013465 0.791811 0 0 158 0.008857
-0.086478 -0.014999 0.787698 0 0 158 0.009143
-0.087581 -0.011453 0.794623 0 0 158 0.009293
-0.085301 -0.010130 0.795592 0 0 158 0.009964
-0.082921 -0.008795 0.796584 0 0 158 0.010894
-0.081673 -0.009717 0.794300 0 0 158 0.010002
-0.088657 -0.016302 0.787098 0 0 158 0.008135
-0.091793 -0.016907 0.788258 0 0 143 0.007350
-0.093889 -0.018118 0.787657 0 0 158 0.008393
-0.097010 -0.018685 0.788871 0 0 158 0.008770
-0.094990 -0.019979 0.785291 0 0 158 0.010099
-0.095914 -0.016843 0.791293 0 0 143 0.007532
-0.093909 -0.015493 0.792129 0 0 143 0.006930
-0.091892 -0.014092 0.793011 0 0 143 0.007360
-0.089055 -0.002504 0.810358 0 0 204 0.022435
-0.086979 -0.001094 0.811787 0 0 219 0.025080
-0.088557 -0.000546 0.813675 0 0 219 0.027154
-0.090663 -0.001990 0.812231 0 0 219 0.025277
-0.086452 0.000884 0.815158 0 0 234 0.030915
-0.090189 -0.000011 0.815570 0 0 234 0.029917
-0.088070 0.001451 0.817047 0 0 250 0.033662
-0.089639 0.001996 0.818958 0 0 255 0.036798
-0.092202 -0.001502 0.814143 0 0 219 0.025858
-0.091749 0.000476 0.817457 0 0 250 0.031849
-0.093788 -0.001035 0.816064 0 0 234 0.029312
-0.085862 0.002871 0.818572 0 0 255 0.038401
-0.087457 0.003445 0.820474 0 7 255 0.042522
-0.085186 0.004821 0.822050 0 34 255 0.048681
-0.083372 0.004126 0.819930 0 7 255 0.041771
-0.084048 0.002145 0.816447 0 0 250 0.033542
-0.081539 0.003367 0.817803 0 0 255 0.035607
-0.082167 0.001409 0.814357 0 0 234 0.028593
-0.084604 0.000173 0.813035 0 0 219 0.026108
-0.079662 0.002580 0.815703 0 0 234 0.030073
-0.093615 0.000660 0.819157 0 0 250 0.033959
-0.097172 -0.001010 0.819043 0 0 234 0.028049
-0.093453 0.002351 0.822293 0 7 255 0.041784
-0.096960 0.000661 0.822114 0 0 250 0.034478
-0.096718 0.002288 0.825154 0 20 255 0.043585
-0.100395 -0.001117 0.821958 0 0 234 0.028530
-0.093165 0.003981 0.825388 0 47 255 0.052489
-0.092790 0.005588 0.828549 0 101 255 0.066881
-0.090938 0.005479 0.826948 0 74 255 0.060985
-0.091290 0.003855 0.823766 0 34 255 0.048591
-0.089056 0.005323 0.825349 0 60 255 0.056657
-0.089385 0.003698 0.822157 0 20 255 0.045776
-0.091548 0.002198 0.820629 0 7 255 0.039421
-0.087162 0.005082 0.823698 0 47 255 0.052240
-0.084215 0.008644 0.833307 0 101 255 0.069163
-0.082157 0.008361 0.831512 0 74 255 0.060579
-0.084603 0.007516 0.829596 0 74 255 0.059462
-0.080019 0.007994 0.829657 0 47 255 0.053671
-0.082486 0.007187 0.827747 0 47 255 0.053747
-0.080269 0.006762 0.825865 0 20 255 0.046802
-0.077804 0.007551 0.827758 0 34 255 0.047535
-0.084926 0.006233 0.825835 0 47 255 0.052796
-0.082765 0.005829 0.823900 0 34 255 0.047422
-0.086869 0.006468 0.827438 0 60 255 0.058021
-0.088745 0.006660 0.829036 0 87 255 0.063781
-0.086476 0.007716 0.831138 0 87 255 0.066122
-0.088374 0.007852 0.832687 0 114 255 0.074074
-0.090589 0.006808 0.830647 0 114 255 0.070538
-0.086128 0.008793 0.834775 0 127 255 0.077593
-0.076020 0.006847 0.825644 0 7 255 0.039941
-0.074007 0.005982 0.823199 0 0 250 0.033272
-0.076672 0.005269 0.821583 0 0 250 0.033471
-0.071979 0.005045 0.820774 0 0 219 0.026489
-0.074614 0.004355 0.819158 0 0 219 0.027342
-0.077257 0.003516 0.817548 0 0 234 0.027514
-0.079104 0.004355 0.819673 0 0 250 0.033973
-0.080945 0.005121 0.821786 0 7 255 0.040545
-0.078480 0.006053 0.823731 0 7 255 0.040373
-0.100441 0.000152 0.824522 0 0 250 0.034203
-0.103829 -0.002324 0.823721 0 0 204 0.023000
-0.100379 0.001395 0.827045 0 7 255 0.042088
-0.103833 -0.001101 0.826229 0 0 234 0.027785
-0.103842 0.000156 0.828773 0 0 255 0.036625
-0.107228 -0.003514 0.825464 0 0 204 0.020126
-0.100339 0.002642 0.829622 0 47 255 0.051723
-0.100233 0.003864 0.832207 0 87 255 0.064550
-0.096562 0.004809 0.830401 0 87 255 0.065155
-0.096665 0.003583 0.827781 0 47 255 0.053562
-0.109261 -0.003810 0.828138 0 0 189 0.018476
-0.110887 -0.005722 0.826527 0 0 174 0.012798
-0.107627 -0.001845 0.829792 0 0 234 0.027702
-0.111275 -0.004122 0.830668 0 0 189 0.018788
-0.112923 -0.005993 0.829038 0 0 174 0.013595
-0.114582 -0.007786 0.827444 0 0 158 0.010074
-0.109583 -0.002213 0.832317 0 0 219 0.026767
-0.107918 -0.000253 0.834007 0 0 255 0.038841
-0.105885 -0.000051 0.831430 0 0 255 0.036709
-0.104132 0.001803 0.833111 0 34 255 0.048680
-0.100428 0.005641 0.839532 0 154 255 0.082238
-0.100391 0.005105 0.837085 0 127 255 0.076549
-0.096293 0.007166 0.838775 0 181 255 0.091440
-0.096272 0.006632 0.836302 0 154 255 0.084018
-0.100317 0.004522 0.834668 0 101 255 0.069920
-0.104213 0.002432 0.835501 0 47 255 0.052761
-0.104274 0.003033 0.837868 0 74 255 0.058961
-0.092265 0.008231 0.837522 0 181 255 0.093258
-0.092454 0.007459 0.834573 0 154 255 0.082461
-0.094527 0.006190 0.832462 0 114 255 0.073440
-0.133181 -0.013505 0.845286 0 0 204 0.023229
-0.136902 -0.015920 0.844832 0 0 204 0.022109
-0.139410 -0.017931 0.843063 0 0 204 0.022106
-0.143238 -0.020126 0.842692 0 0 234 0.029958
-0.140719 -0.019644 0.840096 0 0 204 0.020771
-0.141835 -0.018465 0.845777 0 0 204 0.023272
-0.145682 -0.020619 0.845344 0 0 250 0.031936
-0.139255 -0.016731 0.847242 0 0 219 0.024447
-0.136729 -0.014817 0.848690 0 0 219 0.025743
-0.143258 -0.022403 0.838507 0 0 204 0.021192
-0.144326 -0.022168 0.840523 0 0 219 0.023815
-0.146910 -0.024834 0.838869 0 0 204 0.021687
-0.145809 -0.025126 0.836912 0 0 189 0.019080
-0.148058 -0.024547 0.840836 0 0 219 0.025015
-0.149603 -0.027415 0.837255 0 0 204 0.021089
-0.150738 -0.027066 0.839173 0 0 219 0.024282
-0.153479 -0.029576 0.837465 0 0 219 0.027100
-0.148439 -0.027787 0.835364 0 0 189 0.018027
-0.152267 -0.030033 0.835623 0 0 204 0.022182
-0.150952 -0.030569 0.833827 0 0 189 0.016445
-0.151851 -0.026785 0.841103 0 0 219 0.027095
-0.154652 -0.029186 0.839399 0 0 250 0.031569
-0.155803 -0.028854 0.841308 0 0 255 0.035788
-0.150652 -0.024829 0.843359 0 0 234 0.029015
-0.146866 -0.022571 0.843037 0 0 234 0.027962
-0.155832 -0.025869 0.847892 0 7 255 0.039456
-0.152355 -0.024250 0.847096 0 0 250 0.033312
-0.150891 -0.022467 0.849458 0 0 250 0.033290
-0.147570 -0.020683 0.848557 0 0 250 0.034298
-0.148991 -0.022497 0.846262 0 0 234 0.030892
-0.154144 -0.026520 0.844109 0 0 255 0.035626
-0.157691 -0.028104 0.844843 0 20 255 0.045812
-0.145804 -0.019087 0.851765 0 0 250 0.033136
-0.142287 -0.017304 0.851561 0 0 219 0.025089
-0.140846 -0.016234 0.853833 0 0 219 0.025684
-0.138784 -0.015471 0.851375 0 0 219 0.026306
-0.143998 -0.018968 0.848446 0 0 250 0.033076
-0.116710 -0.009235 0.827801 0 0 158 0.008195
-0.118832 -0.010661 0.828114 0 0 143 0.006747
-0.115590 -0.006895 0.831216 0 0 174 0.013923
-0.117725 -0.008400 0.831552 0 0 158 0.010761
-0.119880 -0.009834 0.831816 0 0 158 0.009645
-0.121043 -0.012060 0.828451 0 0 143 0.006292
-0.123234 -0.013408 0.828776 0 0 143 0.006042
-0.116489 -0.006046 0.835006 0 0 189 0.018098
-0.114273 -0.004679 0.834722 0 0 204 0.020170
-0.112125 -0.003256 0.834497 0 0 204 0.023382
-0.125455 -0.014929 0.829018 0 0 143 0.005461
-0.127749 -0.016411 0.829343 0 0 143 0.005172
-0.124416 -0.012544 0.832342 0 0 158 0.009386
-0.126656 -0.014081 0.832567 0 0 158 0.008760
-0.128947 -0.015590 0.832817 0 0 158 0.008447
-0.130005 -0.017852 0.829672 0 0 143 0.005266
-0.132362 -0.019332 0.829943 0 0 143 0.005698
-0.125487 -0.011789 0.835837 0 0 174 0.012800
-0.123200 -0.010405 0.835663 0 0 174 0.013991
-0.120952 -0.008987 0.835464 0 0 174 0.014754
-0.122124 -0.011212 0.832047 0 0 158 0.009629
-0.118690 -0.007528 0.835246 0 0 174 0.015197
-0.117016 -0.005149 0.839175 0 0 204 0.023376
-0.114855 -0.003928 0.838942 0 0 219 0.025374
-0.112773 -0.002604 0.838739 0 0 234 0.028496
-0.119191 -0.006690 0.839331 0 0 204 0.020217
-0.121403 -0.008215 0.839533 0 0 189 0.016916
-0.108522 0.000377 0.838283 0 7 255 0.042480
-0.106415 0.001717 0.838072 0 34 255 0.050222
-0.110330 -0.001423 0.836383 0 0 250 0.031999
-0.104319 -0.014000 0.803912 0 0 143 0.004548
-0.106060 -0.015608 0.802652 0 0 143 0.004317
-0.102579 -0.012317 0.805153 0 0 143 0.005202
-0.105065 -0.012030 0.808231 0 0 143 0.004697
-0.106787 -0.013723 0.806987 0 0 143 0.004017
-0.108541 -0.015378 0.805719 0 0 128 0.003824
-0.102098 -0.010379 0.807957 0 0 143 0.006570
-0.101644 -0.008362 0.810750 0 0 158 0.009035
-0.098884 -0.008882 0.807293 0 0 158 0.009229
-0.099305 -0.010868 0.804470 0 0 143 0.007314
-0.109688 -0.014117 0.809649 0 0 128 0.003019
-0.111349 -0.015823 0.808228 0 0 128 0.002907
-0.108058 -0.012303 0.811030 0 0 128 0.003826
-0.110794 -0.012769 0.813466 0 0 128 0.003035
-0.112431 -0.014545 0.812068 0 0 128 0.002570
-0.114143 -0.016276 0.810686 0 0 128 0.002623
-0.107840 -0.010676 0.813623 0 0 143 0.004620
-0.107605 -0.008977 0.816179 0 0 143 0.006448
-0.104639 -0.008647 0.813501 0 0 143 0.007176
-0.104875 -0.010383 0.810878 0 0 143 0.005477
-0.100778 -0.002981 0.819183 0 0 204 0.019971
-0.101111 -0.004831 0.816401 0 0 174 0.014579
-0.097486 -0.002915 0.816198 0 0 204 0.020377
-0.097817 -0.004784 0.813368 0 0 174 0.015403
-0.101406 -0.006645 0.813584 0 0 158 0.010721
-0.104375 -0.006934 0.816270 0 0 158 0.009469
-0.104057 -0.005167 0.818999 0 0 174 0.013011
-0.094428 -0.003263 0.812968 0 0 204 0.020549
-0.092861 -0.003713 0.811055 0 0 189 0.019122
-0.095038 -0.005424 0.809914 0 0 174 0.014991
-0.091296 -0.004194 0.809155 0 0 189 0.018417
-0.093502 -0.005866 0.807998 0 0 174 0.014487
-0.095566 -0.007500 0.806878 0 0 158 0.011476
-0.098387 -0.006900 0.810319 0 0 158 0.011391
-0.115644 -0.015745 0.813764 0 0 128 0.002149
-0.117262 -0.017510 0.812331 0 0 128 0.002068
-0.114049 -0.013912 0.815181 0 0 128 0.002607
-0.117159 -0.015147 0.816715 0 0 128 0.002342
-0.118787 -0.016947 0.815327 0 0 128 0.002012
-0.120432 -0.018704 0.813878 0 0 128 0.002246
-0.114047 -0.012692 0.817341 0 0 128 0.003365
-0.114032 -0.011433 0.819523 0 0 143 0.004458
-0.110812 -0.010242 0.817904 0 0 143 0.004664
-0.110808 -0.011518 0.815668 0 0 128 0.003775
-0.122332 -0.018766 0.816482 0 0 128 0.001840
-0.123844 -0.020484 0.815109 0 0 128 0.001748
-0.120843 -0.017033 0.817851 0 0 128 0.002155
-0.124231 -0.018789 0.819000 0 0 128 0.002078
-0.125744 -0.020525 0.817659 0 0 128 0.001893
-0.127293 -0.022246 0.816282 0 0 128 0.002057
-0.122730 -0.017054 0.820315 0 0 128 0.002565
-0.121253 -0.015250 0.821670 0 0 128 0.003551
-0.119198 -0.015221 0.819226 0 0 128 0.002563
-0.117587 -0.013372 0.820627 0 0 128 0.003252
-0.112592 -0.007715 0.824988 0 0 158 0.008728
-0.114314 -0.009633 0.823490 0 0 143 0.006384
-0.110640 -0.007667 0.822442 0 0 158 0.008202
-0.108932 -0.005637 0.823937 0 0 174 0.012457
-0.112340 -0.009613 0.820965 0 0 143 0.005697
-0.115941 -0.011540 0.822064 0 0 143 0.004311
-0.117918 -0.011632 0.824519 0 0 143 0.005188
-0.119547 -0.013458 0.823062 0 0 143 0.003959
-0.105654 -0.004341 0.822257 0 0 174 0.015600
-0.107477 -0.006306 0.820862 0 0 158 0.010591
-0.107579 -0.007666 0.818574 0 0 158 0.008019
-0.125181 -0.124413 0.809748 0 0 158 0.011010
