ply
format ascii 1.0
comment VCGLIB generated
element vertex 1041
property float x
property float y
property float z
property uchar red
property uchar green
property uchar blue
property float quality
end_header
-0.046704 -0.075641 0.926689 0 154 255 0.083493
-0.045316 -0.065969 0.926386 0 20 255 0.043626
-0.045466 -0.061392 0.925917 0 0 250 0.034637
-0.047777 -0.080391 0.925373 0 167 255 0.088492
-0.047122 -0.084948 0.924460 0 194 255 0.097422
-0.044763 -0.089283 0.924018 4 234 244 0.107353
-0.043789 -0.084500 0.925727 0 194 255 0.095617
-0.044455 -0.079918 0.926596 0 154 255 0.085360
-0.024710 -0.060055 0.933529 0 20 255 0.044256
-0.026349 -0.064327 0.933066 0 20 255 0.043359
-0.028257 -0.060119 0.932160 0 0 255 0.037982
-0.029915 -0.064442 0.931765 0 7 255 0.042434
-0.028024 -0.068746 0.932719 0 47 255 0.052509
-0.029696 -0.073322 0.932390 0 87 255 0.065530
-0.026151 -0.072988 0.933475 0 74 255 0.062339
-0.024497 -0.068428 0.933791 0 34 255 0.050017
-0.031783 -0.060322 0.930927 0 0 255 0.037918
-0.033416 -0.064802 0.930682 0 20 255 0.043250
-0.035308 -0.060472 0.929652 0 0 255 0.038187
-0.033315 -0.069252 0.931063 0 47 255 0.054412
-0.033193 -0.073752 0.931379 0 114 255 0.072069
-0.031213 -0.087496 0.928994 0 221 255 0.103586
-0.031894 -0.082944 0.929942 0 167 255 0.086271
-0.028454 -0.082321 0.930900 0 127 255 0.078089
-0.027798 -0.086872 0.930000 0 194 255 0.095274
-0.030821 -0.078106 0.931213 0 114 255 0.073507
-0.034298 -0.078511 0.930158 0 141 255 0.078227
-0.024296 -0.086402 0.931046 0 167 255 0.088380
-0.024952 -0.081976 0.932019 0 127 255 0.074664
-0.023792 -0.077243 0.933272 0 74 255 0.062480
-0.027313 -0.077619 0.932241 0 87 255 0.065639
-0.016860 0.004520 0.873320 0 0 174 0.012928
-0.019502 0.004741 0.872240 0 0 174 0.013986
-0.020745 0.003637 0.875460 0 0 158 0.010576
-0.023381 0.003869 0.874338 0 0 158 0.011186
-0.022167 0.004951 0.871135 0 0 174 0.014868
-0.024609 0.002775 0.877562 0 0 158 0.009740
-0.026030 0.004086 0.873182 0 0 174 0.011950
-0.027243 0.002994 0.876374 0 0 158 0.010229
-0.029872 0.003198 0.875180 0 0 158 0.010611
-0.024838 0.005147 0.870003 0 0 174 0.015401
-0.028679 0.004264 0.872015 0 0 174 0.012159
-0.027517 0.005329 0.868864 0 0 189 0.016142
-0.028464 0.001907 0.879568 0 0 158 0.009539
-0.031075 0.002136 0.878348 0 0 158 0.009740
-0.032310 0.001122 0.881558 0 0 158 0.011639
-0.029766 0.000959 0.882658 0 0 158 0.010981
-0.025899 0.001739 0.880630 0 0 158 0.009358
-0.027219 0.000770 0.883741 0 0 158 0.010790
-0.023360 0.001566 0.881701 0 0 158 0.009174
-0.022043 0.002587 0.878578 0 0 158 0.009346
-0.019493 0.002392 0.879595 0 0 158 0.008627
-0.024689 0.000547 0.884794 0 0 158 0.010118
-0.020831 0.001346 0.882716 0 0 158 0.008370
-0.022175 0.000322 0.885810 0 0 158 0.009363
-0.018175 0.003454 0.876458 0 0 158 0.009891
-0.030333 0.005551 0.867791 0 0 189 0.016956
-0.031379 0.004473 0.871023 0 0 174 0.013089
-0.034166 0.004712 0.869906 0 0 174 0.014065
-0.033129 0.005772 0.866704 0 0 189 0.018371
-0.035221 0.003616 0.873117 0 0 174 0.012135
-0.036925 0.004926 0.868764 0 0 174 0.015424
-0.037954 0.003823 0.871955 0 0 174 0.013275
-0.040682 0.004029 0.870808 0 0 174 0.014645
-0.035910 0.006012 0.865602 0 0 204 0.019793
-0.039673 0.005129 0.867624 0 0 189 0.016489
-0.038691 0.006259 0.864497 0 0 204 0.021642
-0.039019 0.002794 0.875219 0 0 174 0.013287
-0.041745 0.003004 0.874065 0 0 174 0.014815
-0.042813 0.002043 0.877384 0 0 189 0.018563
-0.040202 0.001840 0.878436 0 0 189 0.016148
-0.036374 0.002583 0.876264 0 0 158 0.011658
-0.037578 0.001617 0.879485 0 0 174 0.014420
-0.033727 0.002364 0.877303 0 0 158 0.010386
-0.032557 0.003424 0.874173 0 0 158 0.011319
-0.034945 0.001370 0.880509 0 0 174 0.012679
-0.042668 -0.003189 0.888631 0 0 204 0.022997
-0.040339 -0.003356 0.889598 0 0 204 0.021417
-0.039297 -0.001691 0.886354 0 0 189 0.016674
-0.037982 -0.003524 0.890550 0 0 204 0.020309
-0.036934 -0.001846 0.887279 0 0 189 0.015627
-0.034529 -0.002041 0.888146 0 0 174 0.014089
-0.035640 -0.003695 0.891468 0 0 189 0.017866
-0.035830 -0.000287 0.883907 0 0 174 0.012703
-0.033389 -0.000472 0.884810 0 0 158 0.010923
-0.038416 -0.000031 0.882840 0 0 174 0.014365
-0.041039 0.000231 0.881838 0 0 189 0.017255
-0.041862 -0.001459 0.885249 0 0 189 0.018734
-0.044440 -0.001237 0.884156 0 0 204 0.020992
-0.043633 0.000432 0.880762 0 0 189 0.018380
-0.045200 -0.002977 0.887491 0 0 219 0.026198
-0.033185 -0.003908 0.892552 0 0 189 0.016888
-0.030849 -0.003997 0.893462 0 0 189 0.017273
-0.029536 -0.002460 0.890281 0 0 174 0.012911
-0.028517 -0.004128 0.894356 0 0 189 0.016051
-0.027194 -0.002585 0.891172 0 0 174 0.011898
-0.024833 -0.002730 0.892050 0 0 158 0.011266
-0.026175 -0.004244 0.895175 0 0 174 0.015334
-0.025868 -0.001086 0.888024 0 0 158 0.009549
-0.023487 -0.001216 0.888889 0 0 158 0.009325
-0.028360 -0.000872 0.886982 0 0 158 0.010535
-0.030889 -0.000659 0.885930 0 0 158 0.010617
-0.032053 -0.002232 0.889233 0 0 174 0.013043
0.002058 0.004072 0.881532 0 0 174 0.014028
0.000532 0.002766 0.884509 0 0 158 0.008511
-0.002211 0.002842 0.883303 0 0 158 0.008774
-0.000686 0.004096 0.880324 0 0 174 0.013604
-0.003759 0.001653 0.886339 0 0 143 0.006757
-0.004936 0.002913 0.882117 0 0 158 0.008742
-0.006470 0.001784 0.885162 0 0 143 0.007009
-0.009162 0.001875 0.883951 0 0 143 0.007079
-0.003422 0.004107 0.879108 0 0 174 0.012590
-0.007646 0.002967 0.880902 0 0 158 0.008643
-0.006143 0.004124 0.877876 0 0 174 0.012235
-0.008010 0.000711 0.888219 0 0 143 0.006242
-0.010706 0.000833 0.887018 0 0 143 0.006795
-0.012222 -0.000187 0.890086 0 0 158 0.007816
-0.009687 -0.000265 0.891194 0 0 143 0.007646
-0.005446 0.000614 0.889333 0 0 143 0.006047
-0.007134 -0.000368 0.892326 0 0 143 0.006914
-0.002853 0.000494 0.890434 0 0 143 0.005457
-0.001157 0.001567 0.887433 0 0 143 0.006530
-0.004548 -0.000515 0.893439 0 0 143 0.006373
-0.008816 0.004253 0.876754 0 0 174 0.012687
-0.010204 0.003071 0.879887 0 0 158 0.008933
-0.012854 0.003219 0.878774 0 0 158 0.009501
-0.011487 0.004351 0.875631 0 0 174 0.012944
-0.014233 0.002118 0.881935 0 0 158 0.007959
-0.015517 0.003347 0.877637 0 0 158 0.009660
-0.016865 0.002268 0.880800 0 0 158 0.008264
-0.014175 0.004440 0.874489 0 0 174 0.013064
-0.018220 0.001205 0.883911 0 0 158 0.008118
-0.019687 0.000221 0.886941 0 0 158 0.009408
-0.015721 0.001107 0.884979 0 0 158 0.007956
-0.017206 0.000117 0.887990 0 0 158 0.009242
-0.013223 0.000983 0.886006 0 0 143 0.007421
-0.011699 0.002000 0.882945 0 0 143 0.007551
-0.014717 -0.000027 0.889050 0 0 158 0.008602
-0.023736 -0.004415 0.896268 0 0 174 0.015191
-0.021442 -0.004472 0.897216 0 0 174 0.015067
-0.019922 -0.003010 0.894205 0 0 158 0.010846
-0.019117 -0.004608 0.898186 0 0 174 0.014713
-0.017604 -0.003106 0.895145 0 0 158 0.010781
-0.015283 -0.003202 0.896120 0 0 158 0.009817
-0.016811 -0.004697 0.899122 0 0 174 0.014278
-0.016097 -0.001618 0.892134 0 0 158 0.008503
-0.013759 -0.001697 0.893112 0 0 143 0.007779
-0.018563 -0.001454 0.891079 0 0 158 0.008761
-0.021041 -0.001306 0.890002 0 0 158 0.009373
-0.022376 -0.002850 0.893124 0 0 158 0.011318
-0.014313 -0.004829 0.900297 0 0 174 0.013501
-0.011968 -0.004886 0.901398 0 0 174 0.013828
-0.010272 -0.003416 0.898485 0 0 158 0.009041
-0.009597 -0.004969 0.902446 0 0 174 0.012576
-0.007893 -0.003503 0.899546 0 0 158 0.007984
-0.006138 -0.002056 0.896530 0 0 143 0.006227
-0.008714 -0.001899 0.895434 0 0 143 0.006943
-0.011250 -0.001777 0.894283 0 0 143 0.007665
-0.012783 -0.003306 0.897321 0 0 158 0.009529
0.024536 0.000132 0.840049 0 0 128 0.002401
0.023271 0.001141 0.842392 0 0 143 0.003981
0.020410 0.001102 0.840877 0 0 143 0.003968
0.021676 0.000096 0.838521 0 0 128 0.002440
0.019118 0.002058 0.843255 0 0 143 0.005968
0.017538 0.001008 0.839362 0 0 128 0.003860
0.016262 0.001960 0.841740 0 0 143 0.005764
0.013383 0.001823 0.840217 0 0 143 0.005083
0.018810 0.000017 0.837008 0 0 128 0.002316
0.014659 0.000883 0.837829 0 0 128 0.003425
0.015917 -0.000106 0.835482 0 0 128 0.002074
0.014943 0.002855 0.844142 0 0 143 0.007439
0.012068 0.002697 0.842627 0 0 143 0.006762
0.010734 0.003524 0.845053 0 0 158 0.008813
0.013663 0.003671 0.846533 0 0 158 0.009699
0.017847 0.002939 0.845612 0 0 158 0.008183
0.016557 0.003767 0.847993 0 0 158 0.010314
0.020750 0.002979 0.847070 0 0 158 0.008563
0.022030 0.002094 0.844718 0 0 143 0.006111
0.019450 0.003814 0.849464 0 0 158 0.011116
0.013327 -0.000170 0.834073 0 0 128 0.002026
0.011994 0.000844 0.836495 0 0 128 0.003384
0.009396 0.000747 0.835098 0 0 128 0.003069
0.010734 -0.000261 0.832662 0 0 128 0.001838
0.008038 0.001681 0.837551 0 0 143 0.004585
0.006792 0.000609 0.833681 0 0 128 0.002807
0.005441 0.001541 0.836139 0 0 143 0.004203
0.002854 0.001387 0.834737 0 0 128 0.003655
0.008117 -0.000377 0.831235 0 0 128 0.001732
0.004196 0.000460 0.832265 0 0 128 0.002516
0.005517 -0.000513 0.829807 0 0 128 0.001576
0.004066 0.002424 0.838627 0 0 143 0.005491
0.001471 0.002257 0.837235 0 0 143 0.004729
0.000089 0.003111 0.839748 0 0 143 0.006155
0.002761 0.003247 0.841072 0 0 143 0.007048
0.006749 0.002536 0.839962 0 0 143 0.006091
0.005435 0.003361 0.842402 0 0 143 0.007744
0.009413 0.002641 0.841299 0 0 143 0.006584
0.010721 0.001775 0.838877 0 0 143 0.005076
0.008090 0.003456 0.843735 0 0 158 0.008505
-0.005553 0.005394 0.850288 0 0 158 0.009430
-0.002800 0.005457 0.851594 0 0 158 0.010062
-0.001466 0.004864 0.849038 0 0 158 0.008178
0.001277 0.004905 0.850311 0 0 158 0.008570
-0.000054 0.005489 0.852883 0 0 158 0.010709
0.002599 0.004403 0.847734 0 0 143 0.007756
0.003995 0.004973 0.851591 0 0 158 0.009315
0.005333 0.004443 0.848991 0 0 158 0.008282
0.008056 0.004463 0.850265 0 0 158 0.008420
0.002675 0.005504 0.854168 0 0 158 0.011342
0.006719 0.004974 0.852854 0 0 158 0.009529
0.005368 0.005518 0.855438 0 0 174 0.011942
0.006661 0.003956 0.846400 0 0 158 0.008126
0.009397 0.003991 0.847665 0 0 158 0.008247
0.004019 0.003873 0.845064 0 0 143 0.007281
0.001347 0.003759 0.843737 0 0 143 0.006473
-0.000059 0.004283 0.846405 0 0 143 0.006909
-0.002723 0.004182 0.845067 0 0 143 0.006412
-0.001322 0.003623 0.842414 0 0 143 0.005852
-0.004129 0.004778 0.847699 0 0 143 0.007441
0.008269 0.005608 0.856873 0 0 174 0.012639
0.009591 0.005102 0.854338 0 0 158 0.010889
0.012490 0.005176 0.855760 0 0 158 0.011468
0.011156 0.005676 0.858292 0 0 174 0.013665
0.013817 0.004693 0.853217 0 0 158 0.010090
0.015376 0.005201 0.857177 0 0 158 0.011650
0.016709 0.004727 0.854625 0 0 158 0.010278
0.014035 0.005707 0.859721 0 0 174 0.014094
0.018055 0.004278 0.852076 0 0 158 0.009994
0.015183 0.004234 0.850606 0 0 158 0.009949
0.012297 0.004138 0.849132 0 0 158 0.009315
0.010943 0.004604 0.851739 0 0 158 0.009743
-0.015508 0.005015 0.870326 0 0 174 0.013137
-0.018095 0.005211 0.869216 0 0 174 0.013953
-0.016749 0.005725 0.866318 0 0 174 0.014927
-0.014141 0.005551 0.867404 0 0 174 0.014156
-0.019366 0.005889 0.865193 0 0 174 0.015390
-0.015386 0.006189 0.863420 0 0 189 0.015947
-0.018034 0.006353 0.862318 0 0 189 0.016746
-0.016672 0.006728 0.859423 0 0 189 0.018390
-0.012747 0.006024 0.864484 0 0 174 0.015132
-0.014004 0.006580 0.860500 0 0 189 0.017822
-0.011336 0.006429 0.861563 0 0 189 0.016675
-0.020683 0.006496 0.861196 0 0 189 0.017048
-0.019344 0.006876 0.858323 0 0 189 0.019205
-0.021997 0.007023 0.857213 0 0 204 0.019558
-0.023405 0.006646 0.860100 0 0 189 0.017601
-0.022076 0.006054 0.864093 0 0 189 0.015957
-0.024786 0.006206 0.862985 0 0 189 0.016231
-0.023464 0.005583 0.867018 0 0 174 0.015066
-0.020772 0.005389 0.868129 0 0 174 0.014341
-0.026153 0.005759 0.865900 0 0 189 0.015705
-0.009875 0.006224 0.858748 0 0 174 0.013708
-0.012399 0.006309 0.857655 0 0 174 0.014290
-0.010927 0.006046 0.854836 0 0 174 0.011834
-0.008401 0.005955 0.855913 0 0 158 0.011361
-0.013476 0.006122 0.853732 0 0 174 0.012579
-0.009464 0.005751 0.852021 0 0 158 0.010187
-0.012011 0.005824 0.850910 0 0 158 0.011017
-0.010598 0.005543 0.848105 0 0 158 0.010143
-0.006954 0.005676 0.853086 0 0 158 0.010133
-0.008058 0.005472 0.849204 0 0 158 0.009782
-0.014576 0.005912 0.849818 0 0 158 0.011309
-0.013142 0.005608 0.847002 0 0 158 0.010310
-0.015697 0.005698 0.845920 0 0 158 0.010464
-0.017291 0.006065 0.848774 0 0 174 0.011933
-0.016191 0.006278 0.852676 0 0 174 0.013419
-0.018894 0.006437 0.851622 0 0 174 0.014038
-0.017782 0.006604 0.855508 0 0 189 0.016122
-0.015083 0.006450 0.856589 0 0 174 0.015227
-0.020466 0.006767 0.854430 0 0 189 0.016562
-0.025843 0.006034 0.841673 0 0 174 0.011735
-0.027630 0.006553 0.844584 0 0 174 0.014122
-0.024889 0.006327 0.845574 0 0 174 0.012867
-0.026672 0.006808 0.848445 0 0 189 0.015883
-0.029396 0.007025 0.847445 0 0 189 0.017333
-0.023936 0.006591 0.849447 0 0 174 0.014220
-0.028416 0.007203 0.851260 0 0 189 0.019035
-0.025690 0.007025 0.852297 0 0 189 0.017717
-0.027426 0.007348 0.855101 0 0 204 0.021244
-0.031131 0.007401 0.850232 0 0 204 0.020833
-0.030137 0.007512 0.854041 0 0 204 0.022933
-0.032842 0.007695 0.852992 0 0 219 0.024532
-0.022969 0.006837 0.853324 0 0 189 0.016837
-0.024717 0.007186 0.856153 0 0 204 0.020395
-0.021423 0.006506 0.850533 0 0 174 0.014070
-0.019843 0.006136 0.847710 0 0 174 0.011999
-0.022372 0.006221 0.846639 0 0 174 0.012177
-0.020797 0.005827 0.843796 0 0 158 0.010758
-0.018260 0.005754 0.844857 0 0 158 0.010351
-0.023328 0.005921 0.842739 0 0 158 0.011319
-0.034344 0.007339 0.855848 0 0 204 0.020856
-0.031508 0.007113 0.856853 0 0 189 0.019311
-0.032992 0.006719 0.859744 0 0 189 0.018631
-0.035807 0.006945 0.858702 0 0 204 0.020423
-0.030171 0.006511 0.860782 0 0 189 0.017415
-0.034474 0.006371 0.862662 0 0 189 0.018556
-0.031661 0.006124 0.863715 0 0 189 0.017050
-0.037254 0.006601 0.861583 0 0 204 0.020523
-0.028836 0.005903 0.864776 0 0 189 0.015931
-0.027478 0.006360 0.861886 0 0 189 0.016930
-0.026108 0.006793 0.859015 0 0 189 0.017999
-0.028810 0.006944 0.857928 0 0 189 0.018484
-0.013121 -0.001335 0.819336 0 0 128 0.000894
-0.014603 -0.000340 0.822115 0 0 128 0.001135
-0.012238 -0.000302 0.823300 0 0 128 0.001172
-0.013750 0.000698 0.826058 0 0 128 0.001700
-0.016120 0.000668 0.824896 0 0 128 0.001608
-0.011340 0.000743 0.827248 0 0 128 0.001791
-0.015260 0.001724 0.828843 0 0 128 0.002511
-0.012860 0.001756 0.830011 0 0 128 0.002623
-0.014380 0.002798 0.832748 0 0 143 0.004099
-0.017639 0.001704 0.827674 0 0 128 0.002482
-0.016780 0.002777 0.831587 0 0 143 0.004093
-0.019167 0.002776 0.830421 0 0 143 0.004023
-0.010451 0.001821 0.831173 0 0 128 0.002982
-0.011968 0.002855 0.833919 0 0 143 0.004528
-0.009557 0.002927 0.835094 0 0 143 0.005100
-0.008101 0.001968 0.832469 0 0 128 0.003504
-0.009002 0.000875 0.828539 0 0 128 0.002137
-0.006651 0.001027 0.829834 0 0 128 0.002551
-0.007566 -0.000062 0.825909 0 0 128 0.001515
-0.009903 -0.000199 0.824598 0 0 128 0.001270
-0.008489 -0.001146 0.821949 0 0 128 0.000997
-0.005217 0.000089 0.827205 0 0 128 0.001839
-0.006145 -0.001024 0.823259 0 0 128 0.001124
-0.003796 -0.000880 0.824580 0 0 128 0.001304
-0.010816 -0.001258 0.820646 0 0 128 0.000898
-0.020800 0.003539 0.833257 0 0 143 0.004590
-0.018288 0.003461 0.834314 0 0 143 0.004397
-0.019940 0.004243 0.837137 0 0 143 0.005520
-0.022468 0.004340 0.836084 0 0 143 0.005784
-0.017412 0.004176 0.838181 0 0 143 0.005490
-0.021623 0.005061 0.839927 0 0 143 0.007644
-0.019088 0.004981 0.840980 0 0 143 0.007268
-0.024152 0.005173 0.838890 0 0 143 0.007757
-0.016544 0.004916 0.842050 0 0 143 0.007192
-0.014126 0.004948 0.843233 0 0 143 0.007702
-0.015005 0.004200 0.839353 0 0 143 0.005766
-0.012583 0.004238 0.840550 0 0 143 0.006092
-0.013489 0.003513 0.836651 0 0 143 0.004740
-0.015891 0.003479 0.835489 0 0 143 0.004563
-0.011068 0.003561 0.837834 0 0 143 0.005242
-0.006518 0.004765 0.846523 0 0 143 0.007409
-0.005104 0.004156 0.843902 0 0 143 0.006190
-0.007500 0.004149 0.842729 0 0 143 0.006262
-0.003705 0.003581 0.841257 0 0 143 0.005550
-0.006112 0.003559 0.840092 0 0 143 0.005455
-0.004724 0.003012 0.837438 0 0 143 0.005509
-0.002308 0.003055 0.838601 0 0 143 0.005771
-0.008530 0.003535 0.838921 0 0 143 0.005327
-0.007133 0.002960 0.836263 0 0 143 0.005222
-0.010048 0.004192 0.841643 0 0 143 0.006160
-0.011583 0.004883 0.844327 0 0 143 0.007742
-0.009045 0.004820 0.845423 0 0 143 0.007622
-0.000844 0.002139 0.835952 0 0 143 0.004288
0.000526 0.001275 0.833442 0 0 128 0.003340
-0.001798 0.001163 0.832161 0 0 128 0.003073
0.001873 0.000368 0.830969 0 0 128 0.002390
-0.000456 0.000272 0.829666 0 0 128 0.002232
0.000870 -0.000677 0.827190 0 0 128 0.001531
0.003191 -0.000588 0.828505 0 0 128 0.001555
-0.002796 0.000153 0.828368 0 0 128 0.002015
-0.001473 -0.000783 0.825873 0 0 128 0.001390
-0.004231 0.001098 0.831009 0 0 128 0.002821
-0.005673 0.002026 0.833642 0 0 128 0.003817
-0.003263 0.002088 0.834804 0 0 143 0.004072
0.012640 0.005871 0.862481 0 0 174 0.014866
0.009773 0.005846 0.861048 0 0 174 0.013539
0.008385 0.006029 0.863783 0 0 174 0.015105
0.006894 0.005773 0.859616 0 0 174 0.012962
0.005515 0.005984 0.862346 0 0 174 0.014131
0.002640 0.005914 0.860897 0 0 174 0.013203
0.004002 0.005704 0.858178 0 0 174 0.011752
0.004118 0.006182 0.865063 0 0 189 0.016060
0.001223 0.006119 0.863620 0 0 174 0.014947
-0.000229 0.006272 0.866362 0 0 189 0.018069
0.002649 0.006312 0.867700 0 0 189 0.018904
0.006945 0.006222 0.866412 0 0 189 0.017394
0.005496 0.006353 0.869041 0 0 204 0.019868
0.009751 0.006232 0.867763 0 0 189 0.017936
0.011199 0.006037 0.865124 0 0 189 0.015989
0.008311 0.006383 0.870395 0 0 204 0.020388
0.001268 0.005730 0.856982 0 0 158 0.011708
-0.001453 0.005730 0.855702 0 0 158 0.011284
-0.002891 0.005994 0.858508 0 0 174 0.012747
-0.004202 0.005725 0.854418 0 0 158 0.010882
-0.005640 0.005994 0.857218 0 0 174 0.012198
-0.007107 0.006235 0.860049 0 0 174 0.014210
-0.008532 0.006412 0.862792 0 0 189 0.016881
-0.004325 0.006213 0.861247 0 0 174 0.014800
-0.005764 0.006382 0.863987 0 0 189 0.017577
-0.001543 0.006178 0.862429 0 0 174 0.014841
-0.000109 0.005963 0.859700 0 0 174 0.013252
-0.002998 0.006335 0.865175 0 0 189 0.017894
-0.012771 0.004957 0.871589 0 0 174 0.013354
-0.010060 0.004907 0.872734 0 0 174 0.013510
-0.008609 0.005448 0.869865 0 0 174 0.014487
-0.007358 0.004832 0.873854 0 0 174 0.013333
-0.005898 0.005408 0.870979 0 0 174 0.014655
-0.003187 0.005338 0.872089 0 0 174 0.015332
-0.004674 0.004736 0.874974 0 0 174 0.013802
-0.004432 0.005911 0.868127 0 0 189 0.016573
-0.001721 0.005861 0.869244 0 0 189 0.016349
-0.007180 0.005963 0.866925 0 0 189 0.015955
-0.009947 0.006001 0.865709 0 0 174 0.015537
-0.011370 0.005508 0.868630 0 0 174 0.014528
-0.001833 0.004738 0.876305 0 0 174 0.014475
0.000919 0.004769 0.877532 0 0 174 0.015075
0.002523 0.005379 0.874766 0 0 189 0.016457
0.003672 0.004775 0.878748 0 0 189 0.015753
0.005265 0.005410 0.875992 0 0 189 0.017457
0.006855 0.005955 0.873248 0 0 189 0.019103
0.004018 0.005929 0.871905 0 0 189 0.018576
0.001156 0.005893 0.870569 0 0 189 0.017303
-0.000338 0.005371 0.873430 0 0 189 0.016037
-0.041786 0.006409 0.863421 0 0 204 0.022521
-0.042568 0.005375 0.866666 0 0 189 0.018761
-0.045603 0.005533 0.865585 0 0 204 0.019781
-0.044831 0.006566 0.862394 0 0 204 0.023125
-0.046394 0.004547 0.868831 0 0 189 0.019094
-0.048574 0.005695 0.864507 0 0 204 0.021293
-0.049352 0.004700 0.867717 0 0 204 0.020867
-0.052294 0.004823 0.866637 0 0 204 0.022070
-0.047807 0.006742 0.861399 0 0 219 0.023742
-0.051522 0.005853 0.863460 0 0 204 0.022173
-0.050740 0.006939 0.860418 0 0 219 0.026181
-0.050153 0.003722 0.871009 0 0 204 0.022488
-0.053079 0.003812 0.869882 0 0 219 0.023782
-0.053876 0.002805 0.873158 0 0 234 0.028796
-0.051163 0.002688 0.874240 0 0 219 0.026392
-0.047380 0.003495 0.872043 0 0 189 0.019439
-0.048428 0.002516 0.875296 0 0 204 0.023023
-0.044593 0.003281 0.873086 0 0 189 0.017188
-0.043559 0.004304 0.869817 0 0 189 0.016987
-0.045642 0.002300 0.876378 0 0 204 0.021233
-0.054175 0.007151 0.859242 0 0 234 0.028521
-0.054101 0.006058 0.862798 0 0 219 0.025438
-0.057493 0.006229 0.861599 0 0 219 0.026917
-0.057587 0.007445 0.858103 0 0 250 0.032396
-0.057428 0.005135 0.865212 0 0 234 0.027689
-0.060828 0.006452 0.860371 0 0 234 0.030616
-0.060766 0.005216 0.863904 0 0 234 0.029435
-0.064125 0.005386 0.862627 0 0 234 0.028596
-0.060940 0.007779 0.856964 0 0 255 0.037944
-0.064227 0.006753 0.859178 0 0 250 0.034556
-0.064363 0.008198 0.855853 0 20 255 0.042982
-0.060713 0.004091 0.867502 0 0 234 0.030136
-0.064005 0.004083 0.866116 0 0 234 0.029571
-0.063893 0.002882 0.869670 0 0 250 0.033374
-0.061441 0.002909 0.870558 0 0 250 0.033933
-0.058175 0.003998 0.868301 0 0 234 0.029127
-0.058941 0.002886 0.871409 0 0 250 0.032539
-0.055652 0.003911 0.869098 0 0 219 0.026080
-0.054886 0.004990 0.865918 0 0 219 0.024844
-0.056440 0.002864 0.872283 0 0 250 0.031369
-0.061388 -0.002354 0.880065 0 0 250 0.033647
-0.059258 -0.002283 0.881053 0 0 250 0.034864
-0.058885 -0.000568 0.877845 0 0 250 0.032147
-0.057131 -0.002246 0.882105 0 0 255 0.035825
-0.056770 -0.000531 0.878838 0 0 234 0.030575
-0.054600 -0.000611 0.879743 0 0 234 0.029739
-0.054964 -0.002314 0.883083 0 0 255 0.035701
-0.056382 0.001132 0.875532 0 0 234 0.029191
-0.054212 0.001053 0.876415 0 0 234 0.028382
-0.058902 0.001147 0.874607 0 0 234 0.030548
-0.061403 0.001099 0.873641 0 0 234 0.030715
-0.061368 -0.000660 0.876836 0 0 234 0.030314
-0.063848 -0.000776 0.875797 0 0 234 0.029669
-0.063895 0.001046 0.872737 0 0 234 0.030651
-0.063869 -0.002521 0.878937 0 0 250 0.031312
-0.052330 -0.002433 0.884356 0 0 250 0.033787
-0.049970 -0.002561 0.885436 0 0 250 0.033820
-0.049255 -0.000845 0.882169 0 0 219 0.026857
-0.047596 -0.002741 0.886489 0 0 234 0.030246
-0.046840 -0.001032 0.883131 0 0 219 0.024122
-0.046086 0.000653 0.879838 0 0 204 0.021060
-0.048851 0.000872 0.878763 0 0 219 0.024823
-0.051549 0.000973 0.877576 0 0 219 0.026303
-0.051946 -0.000701 0.880973 0 0 234 0.029311
-0.067159 0.008033 0.856371 0 20 255 0.046588
-0.069151 0.006608 0.859403 0 7 255 0.039432
-0.069941 0.007861 0.856822 0 34 255 0.049309
-0.068373 0.005434 0.862057 0 0 255 0.035636
-0.071925 0.006346 0.859831 0 7 255 0.040598
-0.071097 0.005120 0.862449 0 0 250 0.034741
-0.073891 0.004844 0.862856 0 0 255 0.038659
-0.072734 0.007690 0.857268 0 34 255 0.050466
-0.074708 0.006139 0.860270 0 7 255 0.042681
-0.075601 0.007567 0.857754 0 74 255 0.058850
-0.070349 0.004015 0.865132 0 0 250 0.035011
-0.073126 0.003659 0.865495 0 0 255 0.035198
-0.072337 0.002518 0.868138 0 0 250 0.034098
-0.068134 0.002700 0.868880 0 0 250 0.033617
-0.078811 0.005826 0.860375 0 34 255 0.048054
-0.079902 0.007041 0.858001 0 74 255 0.061073
-0.077707 0.004570 0.862764 0 7 255 0.040505
-0.081987 0.004044 0.863052 0 7 255 0.042308
-0.083119 0.005356 0.860665 0 47 255 0.054586
-0.084326 0.006652 0.858267 0 101 255 0.070138
-0.078764 0.003072 0.865258 0 0 255 0.036423
-0.079869 0.001699 0.867802 0 0 255 0.036141
-0.076069 0.002005 0.867927 0 0 255 0.035198
-0.076176 -0.003870 0.875339 0 0 204 0.023396
-0.074909 -0.001746 0.872993 0 0 219 0.025562
-0.073040 -0.003403 0.876114 0 0 234 0.027759
-0.071716 -0.001396 0.873667 0 0 219 0.026521
-0.073647 0.000378 0.870584 0 0 234 0.028915
-0.077366 -0.000112 0.870354 0 0 234 0.027739
-0.078645 -0.002342 0.872701 0 0 219 0.024857
-0.069339 -0.003005 0.877036 0 0 234 0.028795
-0.067545 -0.001012 0.874645 0 0 234 0.027810
-0.067822 0.000796 0.871712 0 0 234 0.029516
-0.040163 0.006651 0.860349 0 0 204 0.019718
-0.038753 0.007011 0.857518 0 0 189 0.019375
-0.041654 0.007074 0.856363 0 0 189 0.018626
-0.037295 0.007399 0.854708 0 0 204 0.021384
-0.040209 0.007479 0.853582 0 0 204 0.021517
-0.038757 0.007863 0.850798 0 0 219 0.024396
-0.035814 0.007776 0.851887 0 0 219 0.024172
-0.043093 0.007590 0.852477 0 0 204 0.021510
-0.041642 0.007989 0.849721 0 0 219 0.024177
-0.044494 0.008138 0.848642 0 0 219 0.025312
-0.046099 0.007846 0.851582 0 0 219 0.023483
-0.044682 0.007300 0.855439 0 0 204 0.021306
-0.047647 0.007550 0.854509 0 0 204 0.023390
-0.046257 0.007016 0.858401 0 0 204 0.022015
-0.043252 0.006808 0.859341 0 0 204 0.020061
-0.049209 0.007242 0.857457 0 0 219 0.023722
-0.033832 0.007359 0.848955 0 0 204 0.019619
-0.032103 0.006989 0.846167 0 0 189 0.016696
-0.034787 0.006996 0.844908 0 0 189 0.015938
-0.030356 0.006546 0.843324 0 0 174 0.013732
-0.033054 0.006566 0.842060 0 0 174 0.013883
-0.031312 0.006073 0.839178 0 0 174 0.011952
-0.028597 0.006049 0.840428 0 0 158 0.011596
-0.035721 0.006606 0.840815 0 0 174 0.013936
-0.033979 0.006114 0.837940 0 0 174 0.012005
-0.036609 0.006185 0.836724 0 0 174 0.012346
-0.038629 0.006836 0.839809 0 0 174 0.015131
-0.037734 0.007178 0.843861 0 0 189 0.017332
-0.040631 0.007385 0.842826 0 0 189 0.018391
-0.039705 0.007636 0.846813 0 0 204 0.020146
-0.036789 0.007489 0.847879 0 0 204 0.019883
-0.042582 0.007815 0.845773 0 0 204 0.021417
-0.046892 0.006016 0.831220 0 0 158 0.010719
-0.049101 0.006808 0.834353 0 0 174 0.012549
-0.046346 0.006618 0.835672 0 0 174 0.011925
-0.048513 0.007297 0.838767 0 0 174 0.014350
-0.051242 0.007484 0.837428 0 0 174 0.015557
-0.045770 0.007184 0.840064 0 0 174 0.014751
-0.050610 0.007853 0.841771 0 0 189 0.018862
-0.047897 0.007738 0.843087 0 0 189 0.018620
-0.049951 0.008167 0.846013 0 0 204 0.022748
-0.053334 0.008040 0.840444 0 0 189 0.019097
-0.052636 0.008281 0.844700 0 0 204 0.023122
-0.055326 0.008478 0.843382 0 0 219 0.023516
-0.045152 0.007690 0.844391 0 0 189 0.018783
-0.047240 0.008124 0.847318 0 0 219 0.023734
-0.043216 0.007262 0.841440 0 0 189 0.016645
-0.041222 0.006710 0.838431 0 0 174 0.013909
-0.043796 0.006650 0.837059 0 0 174 0.013203
-0.041789 0.006012 0.833997 0 0 158 0.010626
-0.039213 0.006078 0.835359 0 0 158 0.011300
-0.044344 0.005978 0.832614 0 0 158 0.009948
-0.057631 0.008505 0.846569 0 0 219 0.025841
-0.054167 0.007955 0.847604 0 0 204 0.021205
-0.056436 0.007947 0.850751 0 0 204 0.023186
-0.059898 0.008489 0.849716 0 0 234 0.030678
-0.053029 0.007520 0.851801 0 0 189 0.019496
-0.058716 0.007900 0.853877 0 0 234 0.029099
-0.055278 0.007486 0.854965 0 0 219 0.024988
-0.062145 0.008374 0.852773 0 0 255 0.036554
-0.051869 0.007166 0.856069 0 0 204 0.022734
-0.050376 0.007495 0.853166 0 0 204 0.021174
-0.048836 0.007810 0.850239 0 0 204 0.021674
-0.051519 0.007847 0.848917 0 0 204 0.021079
-0.042640 0.004989 0.829729 0 0 143 0.006874
-0.040062 0.005033 0.831115 0 0 143 0.006769
-0.038326 0.004031 0.828199 0 0 143 0.004532
-0.037475 0.005107 0.832499 0 0 143 0.007567
-0.035734 0.004131 0.829587 0 0 143 0.005008
-0.033115 0.004247 0.830951 0 0 143 0.005393
-0.034873 0.005218 0.833852 0 0 158 0.007912
-0.033979 0.003154 0.826636 0 0 128 0.002958
-0.031355 0.003292 0.828016 0 0 128 0.003498
-0.029610 0.002377 0.825063 0 0 128 0.002585
-0.032197 0.002183 0.823691 0 0 128 0.002166
-0.036545 0.002996 0.825260 0 0 128 0.002747
-0.034766 0.002014 0.822316 0 0 128 0.001936
-0.039086 0.002888 0.823870 0 0 128 0.002711
-0.040864 0.003938 0.826807 0 0 143 0.004288
-0.043406 0.003890 0.825406 0 0 143 0.004505
-0.037322 0.001891 0.820925 0 0 128 0.001818
-0.041638 0.002824 0.822467 0 0 128 0.002929
-0.039876 0.001806 0.819505 0 0 128 0.002027
-0.045157 0.004962 0.828327 0 0 143 0.007000
-0.032303 0.005227 0.835166 0 0 158 0.008319
-0.029629 0.005184 0.836401 0 0 158 0.007969
-0.027935 0.004301 0.833599 0 0 143 0.005429
-0.026901 0.005169 0.837649 0 0 143 0.007693
-0.025218 0.004305 0.834840 0 0 143 0.005455
-0.023533 0.003482 0.832013 0 0 143 0.004231
-0.021823 0.002627 0.829064 0 0 128 0.003424
-0.026188 0.003387 0.830669 0 0 143 0.003923
-0.024456 0.002511 0.827714 0 0 128 0.002728
-0.028788 0.003316 0.829340 0 0 128 0.003555
-0.030549 0.004258 0.832266 0 0 143 0.005292
-0.027053 0.002425 0.826392 0 0 128 0.002556
-0.015745 -0.001537 0.817929 0 0 128 0.000651
-0.017231 -0.000523 0.820755 0 0 128 0.000787
-0.019843 -0.000702 0.819369 0 0 128 0.000591
-0.018341 -0.001711 0.816519 0 0 128 0.000515
-0.021371 0.000355 0.822193 0 0 128 0.000950
-0.022420 -0.000845 0.817966 0 0 128 0.000510
-0.023961 0.000221 0.820816 0 0 128 0.000829
-0.026512 0.000127 0.819443 0 0 128 0.000816
-0.020906 -0.001856 0.815113 0 0 128 0.000454
-0.024974 -0.000944 0.816594 0 0 128 0.000518
-0.023441 -0.001954 0.813737 0 0 128 0.000487
-0.025505 0.001327 0.823626 0 0 128 0.001460
-0.028061 0.001238 0.822260 0 0 128 0.001454
-0.022910 0.001420 0.824963 0 0 128 0.001629
-0.020282 0.001545 0.826308 0 0 128 0.001901
-0.018751 0.000490 0.823525 0 0 128 0.001138
-0.026046 -0.002179 0.812391 0 0 128 0.000339
-0.027541 -0.001159 0.815222 0 0 128 0.000363
-0.030127 -0.001342 0.813878 0 0 128 0.000295
-0.028625 -0.002358 0.811044 0 0 128 0.000277
-0.031637 -0.000259 0.816688 0 0 128 0.000492
-0.032723 -0.001485 0.812513 0 0 128 0.000305
-0.034237 -0.000397 0.815334 0 0 128 0.000488
-0.036855 -0.000499 0.813951 0 0 128 0.000577
-0.031214 -0.002498 0.809685 0 0 128 0.000301
-0.035335 -0.001584 0.811135 0 0 128 0.000409
-0.033812 -0.002592 0.808300 0 0 128 0.000427
-0.035753 0.000731 0.818114 0 0 128 0.000955
-0.038359 0.000641 0.816746 0 0 128 0.001077
-0.033185 0.000856 0.819503 0 0 128 0.001021
-0.030634 0.001027 0.820879 0 0 128 0.001156
-0.029084 -0.000088 0.818064 0 0 128 0.000610
-0.049279 0.005794 0.829680 0 0 158 0.009747
-0.051466 0.006668 0.832494 0 0 174 0.012746
-0.053878 0.006540 0.830918 0 0 174 0.012191
-0.051690 0.005654 0.828099 0 0 158 0.009388
-0.056005 0.007333 0.833707 0 0 189 0.015816
-0.056326 0.006464 0.829290 0 0 174 0.011972
-0.058437 0.007297 0.832069 0 0 174 0.015355
-0.060972 0.007353 0.830356 0 0 189 0.018128
-0.054139 0.005542 0.826472 0 0 158 0.009241
-0.058830 0.006482 0.827598 0 0 174 0.014257
-0.056646 0.005467 0.824792 0 0 158 0.010520
-0.060519 0.008036 0.834810 0 0 204 0.021059
-0.063059 0.008095 0.833112 0 0 219 0.023499
-0.065108 0.008727 0.835857 0 0 234 0.029190
-0.062568 0.008581 0.837823 0 0 219 0.024429
-0.058054 0.007975 0.836743 0 0 189 0.019302
-0.060090 0.008475 0.839731 0 0 219 0.023890
-0.055675 0.007967 0.838618 0 0 189 0.018670
-0.053610 0.007377 0.835596 0 0 174 0.015051
-0.057693 0.008431 0.841592 0 0 204 0.022527
-0.059086 0.005198 0.823115 0 0 158 0.010459
-0.061167 0.006211 0.825453 0 0 174 0.014990
-0.063719 0.005969 0.823691 0 0 189 0.016949
-0.061644 0.004949 0.821343 0 0 174 0.012173
-0.065744 0.006886 0.826028 0 0 204 0.022243
-0.066346 0.005678 0.821895 0 0 189 0.018760
-0.068374 0.006582 0.824240 0 0 219 0.024603
-0.071028 0.006216 0.822398 0 0 234 0.027540
-0.064267 0.004677 0.819549 0 0 174 0.014113
-0.069037 0.005306 0.820031 0 0 204 0.021873
-0.066962 0.004353 0.817682 0 0 189 0.017803
-0.070366 0.007418 0.826586 0 0 234 0.031247
-0.073054 0.007052 0.824761 0 0 250 0.034016
-0.075043 0.007829 0.827106 0 7 255 0.042247
-0.072473 0.008168 0.829377 0 0 255 0.036995
-0.067865 0.007715 0.828800 0 0 219 0.027335
-0.069944 0.008402 0.831590 0 0 250 0.032741
-0.065407 0.007913 0.831011 0 0 219 0.024362
-0.063304 0.007133 0.828232 0 0 204 0.019543
-0.067489 0.008596 0.833762 0 0 234 0.030488
-0.083593 0.009199 0.834382 0 114 255 0.072365
-0.081107 0.009526 0.836917 0 87 255 0.066128
-0.078868 0.009283 0.834840 0 60 255 0.055581
-0.076462 0.009516 0.837324 0 47 255 0.051579
-0.078670 0.009752 0.839389 0 74 255 0.062105
-0.074188 0.009190 0.835269 0 20 255 0.044266
-0.074064 0.009633 0.839796 0 34 255 0.048221
-0.071862 0.009369 0.837696 0 7 255 0.041511
-0.069564 0.009429 0.840104 0 7 255 0.039267
-0.076263 0.009876 0.841813 0 74 255 0.059781
-0.071798 0.009726 0.842144 0 34 255 0.048022
-0.073928 0.009902 0.844196 0 60 255 0.057246
-0.069617 0.009008 0.835576 0 0 255 0.035762
-0.067381 0.009123 0.837994 0 0 250 0.033579
-0.072109 0.008853 0.833436 0 0 255 0.038977
-0.074610 0.008602 0.831250 0 7 255 0.041756
-0.076776 0.008988 0.833037 0 34 255 0.049204
-0.079396 0.008666 0.830826 0 60 255 0.055150
-0.077220 0.008269 0.828984 0 34 255 0.047163
-0.081483 0.008962 0.832637 0 87 255 0.062686
-0.071376 0.009299 0.847195 0 20 255 0.046601
-0.069147 0.009458 0.844142 0 7 255 0.041935
-0.066737 0.008978 0.847067 0 0 255 0.036518
-0.068946 0.008791 0.850113 0 7 255 0.041998
-0.064470 0.009068 0.843988 0 0 250 0.032926
-0.064401 0.008632 0.849931 0 0 250 0.034323
-0.062157 0.008715 0.846873 0 0 234 0.029900
-0.066581 0.008379 0.853001 0 7 255 0.039709
-0.059857 0.008734 0.843738 0 0 219 0.027192
-0.062283 0.008782 0.841864 0 0 219 0.026711
-0.064794 0.008934 0.839980 0 0 234 0.029690
-0.066965 0.009224 0.842078 0 0 250 0.034566
-0.036275 -0.002850 0.807094 0 0 128 0.000418
-0.037766 -0.001863 0.809791 0 0 128 0.000428
-0.040260 -0.002079 0.808545 0 0 128 0.000540
-0.038773 -0.003063 0.805841 0 0 128 0.000530
-0.041744 -0.001023 0.811222 0 0 128 0.000637
-0.042797 -0.002250 0.807246 0 0 128 0.000781
-0.044278 -0.001204 0.809917 0 0 128 0.000871
-0.046847 -0.001329 0.808578 0 0 128 0.001323
-0.041310 -0.003232 0.804552 0 0 128 0.000752
-0.045384 -0.002381 0.805904 0 0 128 0.001119
-0.043907 -0.003356 0.803231 0 0 128 0.001145
-0.045721 -0.000091 0.812590 0 0 128 0.001087
-0.048295 -0.000223 0.811229 0 0 128 0.001586
-0.049715 0.000950 0.813897 0 0 128 0.002266
-0.047195 0.001099 0.815373 0 0 128 0.001729
-0.043249 0.000105 0.814019 0 0 128 0.000908
-0.044728 0.001287 0.816798 0 0 128 0.001590
-0.040798 0.000342 0.815396 0 0 128 0.000889
-0.039284 -0.000785 0.812604 0 0 128 0.000535
-0.042297 0.001518 0.818160 0 0 128 0.001638
-0.046428 -0.003650 0.802023 0 0 128 0.001508
-0.047859 -0.002710 0.804542 0 0 128 0.001511
-0.050445 -0.002972 0.803271 0 0 128 0.002018
-0.049024 -0.003911 0.800772 0 0 128 0.002022
-0.051857 -0.001963 0.805758 0 0 128 0.002112
-0.053110 -0.003229 0.801949 0 0 128 0.002752
-0.054520 -0.002227 0.804428 0 0 128 0.002847
-0.057268 -0.002486 0.803049 0 0 143 0.004081
-0.051697 -0.004169 0.799460 0 0 128 0.002787
-0.055859 -0.003476 0.800582 0 0 128 0.003749
-0.054439 -0.004411 0.798119 0 0 128 0.003696
-0.055951 -0.001149 0.806891 0 0 128 0.003366
-0.058700 -0.001408 0.805504 0 0 143 0.004619
-0.060146 -0.000255 0.807980 0 0 143 0.005708
-0.057425 0.000045 0.809525 0 0 143 0.004086
-0.053309 -0.000848 0.808401 0 0 128 0.002477
-0.054762 0.000336 0.811058 0 0 128 0.002956
-0.050749 -0.000551 0.809855 0 0 128 0.001855
-0.049307 -0.001667 0.807202 0 0 128 0.001592
-0.052189 0.000626 0.812498 0 0 128 0.002471
-0.062557 0.003489 0.816880 0 0 158 0.010387
-0.059931 0.003768 0.818677 0 0 158 0.008475
-0.058183 0.002572 0.815973 0 0 143 0.005934
-0.057393 0.004038 0.820416 0 0 143 0.007041
-0.055643 0.002876 0.817708 0 0 143 0.004849
-0.053185 0.003163 0.819372 0 0 143 0.004508
-0.054933 0.004339 0.822100 0 0 143 0.006957
-0.053899 0.001706 0.814968 0 0 128 0.003480
-0.051441 0.002023 0.816620 0 0 128 0.003003
-0.056485 0.001431 0.813511 0 0 143 0.004079
-0.059139 0.001133 0.811980 0 0 143 0.005045
-0.060848 0.002286 0.814439 0 0 143 0.007194
-0.063595 0.002004 0.812878 0 0 158 0.009233
-0.061882 0.000853 0.810429 0 0 143 0.006947
-0.065300 0.003177 0.815286 0 0 174 0.012681
-0.052399 0.004425 0.823589 0 0 143 0.006159
-0.049943 0.004549 0.825217 0 0 143 0.006135
-0.048184 0.003425 0.822287 0 0 128 0.003807
-0.047540 0.004738 0.826795 0 0 143 0.006476
-0.045790 0.003643 0.823865 0 0 143 0.003978
-0.044032 0.002554 0.820910 0 0 128 0.002497
-0.046454 0.002323 0.819539 0 0 128 0.002305
-0.048924 0.002159 0.818120 0 0 128 0.002541
-0.050654 0.003266 0.820862 0 0 128 0.003686
-0.067936 0.002669 0.813932 0 0 174 0.013568
-0.066257 0.001511 0.811516 0 0 158 0.009846
-0.068906 0.000959 0.810168 0 0 158 0.011046
-0.064529 0.000371 0.809087 0 0 158 0.008009
-0.067183 -0.000172 0.807752 0 0 158 0.008527
-0.065424 -0.001249 0.805343 0 0 143 0.007669
-0.062767 -0.000738 0.806657 0 0 143 0.006589
-0.069811 -0.000767 0.806445 0 0 158 0.010026
-0.068088 -0.001812 0.804034 0 0 158 0.008351
-0.070745 -0.002434 0.802726 0 0 158 0.010508
-0.072336 -0.001460 0.804999 0 0 158 0.011335
-0.071423 0.000253 0.808674 0 0 174 0.011742
-0.073974 -0.000428 0.807225 0 0 174 0.013665
-0.073026 0.001318 0.810913 0 0 174 0.015263
-0.070498 0.002008 0.812391 0 0 174 0.013812
-0.072056 0.003096 0.814626 0 0 189 0.018708
-0.075544 0.000578 0.809452 0 0 189 0.017342
-0.074574 0.002332 0.813108 0 0 189 0.019033
-0.077101 0.001579 0.811657 0 0 204 0.021636
-0.069543 0.003759 0.816129 0 0 189 0.018139
-0.061356 -0.001861 0.804314 0 0 143 0.005193
-0.059948 -0.002941 0.801848 0 0 143 0.004696
-0.062622 -0.003409 0.800653 0 0 143 0.005769
-0.058529 -0.003937 0.799393 0 0 143 0.004374
-0.061221 -0.004406 0.798186 0 0 143 0.005453
-0.059795 -0.005329 0.795724 0 0 143 0.005541
-0.057133 -0.004856 0.796914 0 0 143 0.004708
-0.063913 -0.004911 0.796987 0 0 143 0.006593
-0.062514 -0.005842 0.794518 0 0 143 0.006597
-0.065218 -0.006385 0.793337 0 0 158 0.008149
-0.066588 -0.005494 0.795698 0 0 158 0.007938
-0.065300 -0.003954 0.799335 0 0 143 0.006578
-0.067967 -0.004537 0.798050 0 0 158 0.008119
-0.066680 -0.002920 0.801680 0 0 143 0.007334
-0.064026 -0.002358 0.802996 0 0 143 0.006448
-0.069375 -0.003513 0.800377 0 0 158 0.009009
-0.075805 -0.009837 0.789328 0 0 158 0.010894
-0.077094 -0.009007 0.791545 0 0 158 0.010534
-0.074585 -0.008060 0.792619 0 0 158 0.009354
-0.075861 -0.007166 0.794856 0 0 158 0.010055
-0.078356 -0.008143 0.793809 0 0 158 0.010392
-0.073273 -0.006225 0.795978 0 0 158 0.009154
-0.077132 -0.006242 0.797111 0 0 158 0.010521
-0.074595 -0.005259 0.798222 0 0 158 0.009735
-0.075905 -0.004250 0.800471 0 0 158 0.011289
-0.079606 -0.007220 0.796046 0 0 158 0.011121
-0.078410 -0.005252 0.799349 0 0 158 0.011635
-0.080885 -0.006262 0.798290 0 0 174 0.011943
-0.072025 -0.004356 0.799320 0 0 158 0.008819
-0.073344 -0.003317 0.801601 0 0 158 0.010438
-0.070637 -0.005369 0.796980 0 0 158 0.008520
-0.069261 -0.006316 0.794644 0 0 158 0.008442
-0.071933 -0.007160 0.793617 0 0 158 0.008961
-0.070576 -0.008044 0.791272 0 0 158 0.009342
-0.067896 -0.007199 0.792303 0 0 158 0.008525
-0.073234 -0.008918 0.790266 0 0 158 0.009724
-0.082346 -0.005467 0.800377 0 0 174 0.013274
-0.079983 -0.004364 0.801607 0 0 174 0.012774
-0.081432 -0.003496 0.803707 0 0 174 0.014222
-0.083782 -0.004629 0.802494 0 0 174 0.014958
-0.079038 -0.002409 0.804942 0 0 174 0.013987
-0.082882 -0.002639 0.805789 0 0 189 0.016248
-0.080512 -0.001491 0.807022 0 0 189 0.016710
-0.081952 -0.000620 0.809084 0 0 204 0.020495
-0.085192 -0.003797 0.804596 0 0 189 0.016426
-0.084312 -0.001790 0.807857 0 0 204 0.019584
-0.086620 -0.002983 0.806669 0 0 189 0.019126
-0.078099 -0.000412 0.808289 0 0 189 0.017011
-0.079545 0.000502 0.810354 0 0 204 0.021162
-0.076515 -0.001397 0.806073 0 0 174 0.013965
-0.074949 -0.002364 0.803837 0 0 158 0.011348
-0.077473 -0.003343 0.802708 0 0 174 0.012141
-0.125676 -0.007712 0.925448 169 255 79 0.241257
-0.127040 -0.008771 0.922026 150 255 98 0.201218
-0.124275 -0.006652 0.928775 190 255 58 0.283486
-0.127350 -0.007947 0.928469 182 255 66 0.266061
-0.128759 -0.008932 0.925056 161 255 87 0.226374
-0.130146 -0.009946 0.921621 144 255 104 0.189818
-0.124414 -0.006281 0.932030 205 255 43 0.314024
-0.124532 -0.005935 0.935302 218 255 29 0.343447
-0.121583 -0.004690 0.935231 228 255 20 0.361061
-0.121458 -0.005000 0.931899 209 255 39 0.322134
-0.131452 -0.010747 0.924962 148 255 100 0.195559
-0.132891 -0.011786 0.921397 131 255 117 0.161862
-0.129990 -0.009760 0.928446 169 255 79 0.238429
-0.132757 -0.011523 0.928146 157 255 90 0.217242
-0.134212 -0.012477 0.924678 138 255 109 0.178460
-0.135644 -0.013458 0.921144 123 255 125 0.151336
-0.129908 -0.009674 0.931853 186 255 62 0.277202
-0.129803 -0.009560 0.935210 197 255 50 0.300309
-0.127121 -0.007789 0.935356 211 255 37 0.327158
-0.127252 -0.007876 0.931910 196 255 52 0.294375
-0.124349 -0.005718 0.942566 255 233 0 0.424639
-0.124465 -0.005863 0.938898 237 255 10 0.381635
-0.127070 -0.007650 0.938927 232 255 16 0.370168
-0.126970 -0.007433 0.942535 255 238 0 0.415764
-0.118796 -0.003048 0.938594 241 253 7 0.387332
-0.121743 -0.004294 0.938774 245 249 3 0.396045
-0.136996 -0.024110 0.950028 234 255 14 0.374982
-0.138250 -0.024246 0.946090 209 255 39 0.324138
-0.136060 -0.021684 0.949525 236 255 12 0.377240
-0.139471 -0.024302 0.942223 182 255 66 0.267502
-0.137341 -0.021790 0.945604 215 255 33 0.335224
-0.138619 -0.021776 0.941684 188 255 60 0.280375
-0.135168 -0.019133 0.949158 245 249 3 0.394567
-0.140703 -0.024253 0.938388 157 255 90 0.215336
-0.141923 -0.024154 0.934579 135 255 113 0.170238
-0.142987 -0.026833 0.935116 135 255 113 0.168199
-0.141800 -0.026942 0.938874 156 255 92 0.214414
-0.140620 -0.026960 0.942670 186 255 62 0.273469
-0.144109 -0.029536 0.935653 135 255 113 0.171470
-0.136035 -0.019140 0.945423 224 255 24 0.353927
-0.133681 -0.016576 0.949092 243 251 5 0.394050
-0.136919 -0.019076 0.941613 196 255 52 0.295547
-0.134619 -0.016572 0.945220 224 255 24 0.351693
-0.135524 -0.016491 0.941418 213 255 35 0.328665
-0.137777 -0.018948 0.937905 176 255 71 0.255208
-0.138625 -0.018754 0.934226 154 255 94 0.208066
-0.140234 -0.021490 0.934394 140 255 108 0.180905
-0.139431 -0.021665 0.938026 161 255 87 0.224263
-0.145040 -0.022451 0.920380 0 208 255 0.101003
-0.144225 -0.022921 0.923968 4 234 244 0.107004
-0.146868 -0.025250 0.920588 0 194 255 0.093986
-0.143433 -0.023379 0.927521 26 255 222 0.115425
-0.146058 -0.025671 0.924214 4 234 244 0.106512
-0.145309 -0.026150 0.927728 36 255 211 0.118367
-0.148748 -0.028057 0.920810 0 208 255 0.099265
-0.142671 -0.023810 0.931053 80 255 168 0.135083
-0.141021 -0.021094 0.930824 112 255 136 0.145602
-0.141835 -0.020686 0.927234 58 255 190 0.128601
-0.147539 -0.028442 0.924596 0 221 255 0.102368
-0.150010 -0.030927 0.921248 0 194 255 0.093812
-0.146363 -0.028850 0.928287 26 255 222 0.114698
-0.148808 -0.031337 0.925039 4 234 244 0.108197
-0.147656 -0.031726 0.928731 26 255 222 0.114272
-0.151328 -0.033880 0.921650 0 208 255 0.100309
-0.145229 -0.029206 0.931968 90 255 157 0.138610
-0.144134 -0.026505 0.931424 80 255 168 0.136555
-0.135713 -0.013424 0.917937 90 255 157 0.138971
-0.135747 -0.013468 0.914609 47 255 201 0.123461
-0.132945 -0.011693 0.918203 123 255 125 0.150755
-0.132971 -0.011714 0.914826 90 255 157 0.139792
-0.135766 -0.013580 0.911166 58 255 190 0.126053
-0.135763 -0.013970 0.907439 26 255 222 0.113919
-0.138876 -0.015746 0.906847 0 221 255 0.105414
-0.138800 -0.015344 0.910569 36 255 211 0.120993
-0.138738 -0.015145 0.914093 58 255 190 0.126890
-0.141987 -0.017302 0.906303 0 221 255 0.102199
-0.129960 -0.010156 0.918619 135 255 113 0.171518
-0.129740 -0.010444 0.915562 129 255 119 0.156619
-0.126876 -0.008945 0.919009 146 255 102 0.192447
-0.129520 -0.010846 0.912371 90 255 157 0.138158
-0.130830 -0.012065 0.908793 58 255 190 0.125180
-0.132728 -0.012132 0.911687 69 255 179 0.131479
-0.135464 -0.015551 0.899502 0 127 255 0.075870
-0.134440 -0.014636 0.902286 0 167 255 0.087139
-0.137971 -0.015710 0.901430 0 154 255 0.084650
-0.136909 -0.014939 0.904279 0 208 255 0.099833
-0.133469 -0.013740 0.905224 0 221 255 0.102811
-0.140518 -0.017013 0.898761 0 114 255 0.071985
-0.141070 -0.017053 0.901223 0 154 255 0.082113
-0.143855 -0.018234 0.898462 0 114 255 0.071961
-0.144417 -0.018330 0.900839 0 154 255 0.084159
-0.141567 -0.017150 0.903738 0 167 255 0.088458
-0.145628 -0.022087 0.916862 0 221 255 0.102064
-0.142775 -0.020065 0.920488 15 248 233 0.109505
-0.146260 -0.021733 0.913171 0 181 255 0.093739
-0.143372 -0.019628 0.917040 15 248 233 0.109395
-0.143993 -0.019245 0.913360 15 248 233 0.110067
-0.140611 -0.017641 0.920568 47 255 201 0.123937
-0.146926 -0.021374 0.909458 0 194 255 0.095841
-0.147483 -0.020869 0.906012 0 194 255 0.095132
-0.149856 -0.022960 0.906196 0 194 255 0.094711
-0.149311 -0.023574 0.909461 0 194 255 0.093888
-0.148687 -0.024042 0.912982 0 194 255 0.097130
-0.152259 -0.024997 0.906419 0 208 255 0.101182
-0.140946 -0.017381 0.917284 36 255 211 0.120334
-0.138119 -0.015592 0.920866 80 255 168 0.135421
-0.141294 -0.017223 0.913879 36 255 211 0.118436
-0.138445 -0.015377 0.917506 58 255 190 0.126554
-0.141668 -0.017230 0.910063 15 248 233 0.112263
-0.144746 -0.019151 0.906134 0 208 255 0.097734
-0.144420 -0.019256 0.909616 4 234 244 0.106088
-0.146950 -0.019479 0.898392 0 141 255 0.078567
-0.149637 -0.020619 0.895793 0 127 255 0.075227
-0.147183 -0.019954 0.900915 0 154 255 0.084086
-0.149920 -0.020981 0.898344 0 167 255 0.086253
-0.150148 -0.021485 0.900836 0 194 255 0.094131
-0.152649 -0.021987 0.895705 0 167 255 0.088706
-0.147364 -0.020372 0.903466 0 181 255 0.093650
-0.144613 -0.018722 0.903468 0 181 255 0.091879
-0.152624 -0.022697 0.898464 0 194 255 0.094506
-0.155289 -0.023858 0.895883 0 194 255 0.096449
-0.152538 -0.023396 0.901147 0 208 255 0.097719
-0.155217 -0.024553 0.898682 0 221 255 0.101669
-0.155132 -0.025308 0.901359 4 234 244 0.106590
-0.157935 -0.025706 0.896011 15 248 233 0.110461
-0.152433 -0.024173 0.903789 0 208 255 0.100615
-0.150028 -0.022165 0.903525 0 194 255 0.096600
-0.136596 -0.014636 0.924432 129 255 119 0.157177
-0.135114 -0.013697 0.927918 142 255 106 0.186869
-0.137613 -0.015810 0.927558 133 255 115 0.165006
-0.139099 -0.016697 0.924091 101 255 147 0.140935
-0.134824 -0.013814 0.931279 157 255 90 0.214850
-0.134517 -0.013843 0.934644 173 255 75 0.247283
-0.132144 -0.011738 0.934975 184 255 64 0.270467
-0.132465 -0.011659 0.931554 169 255 79 0.241512
-0.141194 -0.019188 0.923950 36 255 211 0.120549
-0.139615 -0.018300 0.927417 123 255 125 0.149292
-0.139116 -0.018537 0.930822 136 255 111 0.172015
-0.136544 -0.016334 0.934451 163 255 85 0.226987
-0.137064 -0.016083 0.931011 146 255 102 0.193223
-0.132847 -0.014071 0.945361 237 255 10 0.380444
-0.133411 -0.014062 0.941771 215 255 33 0.333235
-0.130955 -0.011697 0.945621 247 246 1 0.399157
-0.131570 -0.011649 0.941925 230 255 18 0.365086
-0.133964 -0.013975 0.938170 190 255 58 0.284093
-0.136040 -0.016446 0.937911 184 255 64 0.271112
-0.129202 -0.009573 0.942286 243 251 5 0.393081
-0.129508 -0.009592 0.938727 224 255 24 0.353222
-0.131897 -0.011759 0.938379 207 255 41 0.319050
-0.164290 -0.026159 0.871630 0 141 255 0.079285
-0.166168 -0.027841 0.869992 0 154 255 0.082868
-0.164255 -0.026095 0.868877 0 141 255 0.078360
-0.168093 -0.029526 0.868354 0 167 255 0.087987
-0.166169 -0.027738 0.867245 0 154 255 0.082939
-0.168137 -0.029392 0.865586 0 181 255 0.091471
-0.164169 -0.026012 0.866134 0 141 255 0.078304
-0.170090 -0.031199 0.866706 0 208 255 0.100940
-0.172058 -0.032928 0.865083 26 255 222 0.114604
-0.171757 -0.032785 0.867947 15 248 233 0.112741
-0.169795 -0.031066 0.869592 0 194 255 0.097419
-0.167901 -0.029299 0.871240 0 181 255 0.092879
-0.171474 -0.032604 0.870826 15 248 233 0.112071
-0.166047 -0.027851 0.864390 0 141 255 0.081247
-0.163714 -0.026042 0.863261 0 127 255 0.074741
-0.167984 -0.029636 0.862594 0 181 255 0.090549
-0.165614 -0.027820 0.861489 0 141 255 0.079702
-0.167607 -0.029582 0.859671 0 154 255 0.084244
-0.163239 -0.025983 0.860385 0 114 255 0.072411
-0.169930 -0.031495 0.860839 0 194 255 0.096795
-0.171927 -0.033345 0.859098 36 255 211 0.120316
-0.172035 -0.033157 0.862078 26 255 222 0.116600
-0.170079 -0.031249 0.863832 0 221 255 0.103987
-0.178497 -0.043187 0.859645 133 255 115 0.164437
-0.177006 -0.040555 0.860937 101 255 147 0.142799
-0.178200 -0.042673 0.862680 123 255 125 0.152224
-0.175377 -0.037999 0.862286 58 255 190 0.128006
-0.176640 -0.040056 0.864007 69 255 179 0.132528
-0.175053 -0.037465 0.865379 36 255 211 0.118634
-0.177855 -0.042116 0.865709 101 255 147 0.141116
-0.173735 -0.035464 0.863674 36 255 211 0.119501
-0.173707 -0.035669 0.860683 47 255 201 0.123476
-0.175400 -0.038144 0.859297 80 255 168 0.136073
-0.176284 -0.039706 0.866957 47 255 201 0.124868
-0.177176 -0.041653 0.868699 58 255 190 0.126969
-0.174744 -0.037306 0.868195 26 255 222 0.114491
-0.175698 -0.039205 0.869923 26 255 222 0.115952
-0.174072 -0.036796 0.871282 4 234 244 0.106729
-0.176541 -0.041121 0.871701 36 255 211 0.120227
-0.173037 -0.034950 0.869539 0 221 255 0.102694
-0.173433 -0.035107 0.866652 15 248 233 0.111369
-0.161253 -0.024839 0.862284 0 74 255 0.060300
-0.159273 -0.023648 0.864187 0 47 255 0.050864
-0.161758 -0.024802 0.865152 0 87 255 0.062836
