ply
format ascii 1.0
comment VCGLIB generated
element vertex 1024
property float x
property float y
property float z
property uchar red
property uchar green
property uchar blue
property float quality
end_header
-0.166870 -0.057535 0.822129 0 114 255 0.071079
-0.166513 -0.059036 0.818955 0 154 255 0.084412
-0.165379 -0.054316 0.823564 0 60 255 0.056722
-0.167224 -0.056035 0.825294 0 101 255 0.067120
-0.163462 -0.051607 0.823287 0 20 255 0.046674
-0.161526 -0.048980 0.823115 0 0 255 0.035674
-0.166709 -0.050634 0.830040 0 47 255 0.051857
-0.164374 -0.048837 0.828108 0 7 255 0.041472
-0.162629 -0.044969 0.829387 0 0 250 0.033654
-0.160236 -0.043248 0.827522 0 0 234 0.027945
-0.161957 -0.047087 0.826220 0 0 250 0.032863
-0.165771 -0.052392 0.826689 0 47 255 0.051140
-0.168093 -0.054242 0.828663 0 87 255 0.065511
-0.158358 -0.039971 0.828985 0 0 204 0.021674
-0.155443 -0.037044 0.829042 0 0 189 0.016930
-0.155962 -0.038788 0.827241 0 0 189 0.018813
-0.152606 -0.034135 0.829042 0 0 174 0.015058
-0.153091 -0.035829 0.827301 0 0 174 0.014065
-0.150326 -0.032887 0.827292 0 0 174 0.014081
-0.149809 -0.031191 0.829073 0 0 174 0.015214
-0.153564 -0.037612 0.825514 0 0 189 0.015672
-0.150779 -0.034615 0.825544 0 0 174 0.012549
-0.157760 -0.042085 0.825791 0 0 204 0.021737
-0.167714 -0.061566 0.819157 0 194 255 0.094409
-0.169081 -0.063688 0.821225 0 194 255 0.096912
-0.170098 -0.066317 0.821485 15 248 233 0.113205
-0.171260 -0.068571 0.823625 26 255 222 0.113357
-0.170743 -0.069526 0.820047 80 255 168 0.134723
-0.170619 -0.065371 0.825062 0 194 255 0.095932
-0.171718 -0.067651 0.827193 0 194 255 0.094215
-0.169533 -0.062413 0.824556 0 154 255 0.084987
-0.168338 -0.059563 0.824122 0 127 255 0.075238
-0.171369 -0.071819 0.822412 47 255 201 0.123954
-0.171384 -0.074634 0.820774 80 255 168 0.133717
-0.171835 -0.074143 0.824803 15 248 233 0.109405
-0.171782 -0.076990 0.823192 47 255 201 0.124415
-0.172093 -0.079284 0.825564 36 255 211 0.117857
-0.171682 -0.079771 0.821540 101 255 147 0.143005
-0.172170 -0.076466 0.827183 4 234 244 0.105666
-0.172460 -0.078744 0.829547 0 208 255 0.098657
-0.172239 -0.073211 0.828374 0 194 255 0.094171
-0.171822 -0.070896 0.826004 0 221 255 0.103454
-0.173612 -0.074583 0.835215 0 127 255 0.076577
-0.173522 -0.071614 0.834435 0 141 255 0.078499
-0.172918 -0.069286 0.831757 0 154 255 0.085521
-0.172655 -0.066312 0.830952 0 167 255 0.085946
-0.172825 -0.075502 0.831042 0 167 255 0.089278
-0.173320 -0.077796 0.833708 0 181 255 0.092338
-0.172221 -0.062607 0.832261 0 141 255 0.078808
-0.171097 -0.059410 0.831566 0 114 255 0.073683
-0.169430 -0.057216 0.829233 0 114 255 0.071677
-0.170199 -0.060982 0.828004 0 127 255 0.076514
-0.171251 -0.063949 0.828525 0 154 255 0.084583
-0.173361 -0.079628 0.836341 0 167 255 0.086640
-0.172613 -0.082393 0.834798 0 181 255 0.090311
-0.172561 -0.080568 0.832165 0 181 255 0.093322
-0.171740 -0.083361 0.830657 0 208 255 0.098954
-0.171790 -0.085180 0.833276 0 194 255 0.096227
-0.170931 -0.087887 0.831691 0 221 255 0.104155
-0.171565 -0.087240 0.836285 0 194 255 0.094400
-0.172343 -0.084461 0.837814 0 167 255 0.088894
-0.172001 -0.081199 0.827904 4 234 244 0.107147
-0.171480 -0.083653 0.826252 26 255 222 0.115775
-0.171598 -0.081723 0.823908 58 255 190 0.127448
-0.171053 -0.084124 0.822218 69 255 179 0.129664
-0.170944 -0.086044 0.824556 58 255 190 0.127317
-0.170272 -0.088458 0.822881 80 255 168 0.133800
-0.170677 -0.088196 0.827297 26 255 222 0.116039
-0.171238 -0.085777 0.828974 15 248 233 0.111400
-0.166669 -0.096314 0.822511 4 234 244 0.107609
-0.167864 -0.094244 0.824842 0 221 255 0.102209
-0.166681 -0.096338 0.827014 0 221 255 0.102046
-0.168974 -0.092151 0.827144 15 248 233 0.110759
-0.167793 -0.094242 0.829310 0 194 255 0.095309
-0.168845 -0.092106 0.831581 0 194 255 0.096070
-0.166513 -0.096365 0.831491 0 181 255 0.091180
-0.170018 -0.090017 0.829420 4 234 244 0.107024
-0.169651 -0.090311 0.825025 36 255 211 0.118196
-0.168493 -0.092435 0.822728 36 255 211 0.117766
-0.166290 -0.096485 0.834474 0 154 255 0.083937
-0.168091 -0.093936 0.833841 0 194 255 0.094057
-0.167776 -0.094052 0.836846 0 167 255 0.087074
-0.165983 -0.096589 0.837437 0 154 255 0.083999
-0.169508 -0.091506 0.836205 0 194 255 0.096553
-0.167272 -0.094216 0.839801 0 141 255 0.081038
-0.169032 -0.091641 0.839179 0 154 255 0.085133
-0.165529 -0.096771 0.840402 0 141 255 0.079225
-0.170783 -0.089061 0.838533 0 181 255 0.093183
-0.170270 -0.089676 0.833942 0 194 255 0.095912
-0.164581 -0.098576 0.823639 0 154 255 0.082754
-0.163539 -0.100248 0.820769 0 141 255 0.080732
-0.162504 -0.100804 0.824731 0 101 255 0.067084
-0.161457 -0.102435 0.821839 0 101 255 0.069180
-0.159399 -0.104590 0.822884 0 74 255 0.062415
-0.160367 -0.104055 0.818933 0 114 255 0.071602
-0.160433 -0.102989 0.825789 0 60 255 0.057510
-0.158340 -0.105176 0.826848 0 60 255 0.054989
-0.162535 -0.100833 0.829217 0 101 255 0.067657
-0.164648 -0.098577 0.828130 0 154 255 0.082627
-0.158531 -0.105733 0.817446 0 87 255 0.062684
-0.155571 -0.107891 0.817529 0 20 255 0.045394
-0.153786 -0.109468 0.815979 0 7 255 0.042123
-0.150890 -0.111509 0.815976 0 0 250 0.034184
-0.153117 -0.110562 0.812827 0 7 255 0.040752
-0.151538 -0.110466 0.819139 0 0 250 0.031915
-0.148682 -0.112476 0.819111 0 0 234 0.027978
-0.153977 -0.108644 0.821101 0 0 255 0.037982
-0.156404 -0.106795 0.823015 0 20 255 0.046056
-0.146287 -0.112390 0.826622 0 0 204 0.021193
-0.149140 -0.110636 0.828937 0 0 219 0.025889
-0.150269 -0.110100 0.826807 0 0 219 0.027286
-0.151966 -0.108784 0.831155 0 0 250 0.034655
-0.153139 -0.108230 0.829024 0 0 250 0.033609
-0.156003 -0.106271 0.831182 0 20 255 0.045484
-0.154783 -0.106834 0.833313 0 7 255 0.040706
-0.154318 -0.107692 0.826874 0 0 255 0.038046
-0.157216 -0.105700 0.829013 0 34 255 0.050367
-0.151858 -0.109531 0.824949 0 0 234 0.031250
-0.149451 -0.111301 0.822980 0 0 219 0.025971
-0.147875 -0.111841 0.824814 0 0 219 0.024022
-0.145537 -0.113535 0.822796 0 0 204 0.021722
-0.147127 -0.113013 0.820971 0 0 219 0.023765
-0.143959 -0.114064 0.824575 0 0 204 0.020331
-0.156784 -0.104745 0.834530 0 7 255 0.040958
-0.159849 -0.102137 0.836520 0 47 255 0.053343
-0.160104 -0.101976 0.833564 0 34 255 0.049404
-0.162763 -0.099486 0.838480 0 87 255 0.065636
-0.163098 -0.099320 0.835522 0 87 255 0.062692
-0.163384 -0.099154 0.832527 0 87 255 0.063936
-0.161335 -0.101396 0.831389 0 74 255 0.058685
-0.159284 -0.103580 0.830223 0 47 255 0.051438
-0.158042 -0.104159 0.832397 0 20 255 0.046508
-0.141886 -0.115213 0.822395 0 0 189 0.016057
-0.143467 -0.114734 0.820630 0 0 189 0.017527
-0.141436 -0.115935 0.818434 0 0 174 0.014539
-0.145036 -0.114252 0.818810 0 0 204 0.019622
-0.143004 -0.115471 0.816613 0 0 189 0.018271
-0.144562 -0.114938 0.814781 0 0 204 0.020086
-0.146607 -0.113706 0.816966 0 0 219 0.024617
-0.141011 -0.116689 0.814385 0 0 189 0.016619
-0.142583 -0.116194 0.812542 0 0 189 0.017560
-0.140635 -0.117412 0.810278 0 0 174 0.015290
-0.138723 -0.117977 0.811849 0 0 174 0.013915
-0.139102 -0.117218 0.815934 0 0 158 0.011255
-0.136818 -0.118515 0.813406 0 0 174 0.012913
-0.137187 -0.117680 0.817455 0 0 158 0.009658
-0.139521 -0.116450 0.819948 0 0 174 0.012281
-0.134923 -0.118955 0.814946 0 0 158 0.008123
-0.149193 -0.112659 0.814091 0 0 234 0.027848
-0.147535 -0.113775 0.812164 0 0 219 0.023808
-0.149730 -0.112879 0.809011 0 0 219 0.025785
-0.151390 -0.111735 0.810939 0 0 250 0.032862
-0.146998 -0.114458 0.808634 0 0 204 0.021350
-0.146513 -0.115149 0.805077 0 0 204 0.019787
-0.143575 -0.116290 0.807685 0 0 189 0.016158
-0.141026 -0.118605 0.796029 0 0 158 0.011482
-0.140872 -0.118354 0.799616 0 0 174 0.012001
-0.137710 -0.119963 0.798236 0 0 158 0.010750
-0.140768 -0.118081 0.803209 0 0 174 0.012628
-0.137574 -0.119660 0.801801 0 0 158 0.011145
-0.137470 -0.119373 0.805379 0 0 174 0.011983
-0.134414 -0.121277 0.800413 0 0 158 0.010750
-0.140698 -0.117764 0.806756 0 0 174 0.014124
-0.143613 -0.116605 0.804139 0 0 174 0.014569
-0.143701 -0.116916 0.800566 0 0 174 0.013117
-0.132299 -0.121957 0.801759 0 0 158 0.010843
-0.134016 -0.120919 0.804492 0 0 158 0.011299
-0.131923 -0.121530 0.805829 0 0 158 0.010225
-0.130206 -0.122592 0.803079 0 0 158 0.010358
-0.133651 -0.120452 0.808517 0 0 158 0.010978
-0.129820 -0.122105 0.807140 0 0 158 0.010335
-0.131544 -0.120996 0.809833 0 0 158 0.010487
-0.128120 -0.123199 0.804434 0 0 158 0.010235
-0.133322 -0.119900 0.812557 0 0 143 0.006878
-0.135214 -0.119477 0.810962 0 0 158 0.011649
-0.137126 -0.118963 0.809412 0 0 174 0.012782
-0.135564 -0.119947 0.806959 0 0 174 0.011797
-0.096473 -0.020466 0.783321 0 0 158 0.009095
-0.097415 -0.022231 0.781421 0 0 158 0.009243
-0.099237 -0.021242 0.784328 0 0 158 0.008402
-0.100216 -0.023018 0.782427 0 0 158 0.008620
-0.103011 -0.023820 0.783442 0 0 158 0.008433
-0.101182 -0.024817 0.780544 0 0 158 0.008994
-0.102024 -0.022055 0.785348 0 0 158 0.007879
-0.104798 -0.022882 0.786403 0 0 143 0.007443
-0.101263 -0.020011 0.787894 0 0 143 0.007538
-0.098513 -0.019198 0.786841 0 0 158 0.008646
-0.103656 -0.025665 0.781358 0 0 174 0.013815
-0.106127 -0.026553 0.782185 0 0 174 0.013091
-0.109420 -0.029116 0.781505 0 0 174 0.012593
-0.106189 -0.028545 0.779466 0 0 174 0.013361
-0.110990 -0.028426 0.783913 0 0 174 0.012125
-0.107931 -0.025617 0.785144 0 0 174 0.012236
-0.105475 -0.024698 0.784289 0 0 174 0.013160
-0.114880 -0.027955 0.788523 0 0 158 0.010680
-0.112387 -0.026636 0.787955 0 0 158 0.010835
-0.111985 -0.024889 0.790253 0 0 158 0.010477
-0.109871 -0.025347 0.787404 0 0 158 0.011317
-0.109454 -0.023615 0.789706 0 0 158 0.011021
-0.106939 -0.022375 0.789183 0 0 143 0.006201
-0.109049 -0.021885 0.791999 0 0 143 0.005528
-0.107363 -0.020304 0.793040 0 0 143 0.005282
-0.104549 -0.019079 0.792354 0 0 143 0.006156
-0.102914 -0.017506 0.793372 0 0 143 0.006745
-0.100601 -0.018322 0.790021 0 0 143 0.007702
-0.104105 -0.021192 0.788534 0 0 143 0.006800
-0.120511 -0.039362 0.776242 0 0 189 0.019359
-0.120233 -0.037587 0.778628 0 0 189 0.017420
-0.119968 -0.035868 0.781053 0 0 189 0.016075
-0.122984 -0.038160 0.780084 0 0 189 0.018689
-0.116933 -0.033643 0.782003 0 0 174 0.014174
-0.117134 -0.035308 0.779492 0 0 189 0.015677
-0.117334 -0.037076 0.777005 0 0 189 0.017067
-0.114841 -0.034545 0.778853 0 0 174 0.014753
-0.123124 -0.036830 0.782520 0 0 189 0.016246
-0.123270 -0.035576 0.784972 0 0 174 0.015053
-0.126082 -0.037835 0.783882 0 0 189 0.017501
-0.120404 -0.033346 0.786110 0 0 174 0.013036
-0.120204 -0.034585 0.783558 0 0 174 0.014470
-0.114438 -0.029420 0.785705 0 0 174 0.011787
-0.113974 -0.030972 0.782930 0 0 174 0.012858
-0.117310 -0.032092 0.784628 0 0 174 0.013064
-0.117674 -0.030597 0.787277 0 0 174 0.011959
-0.112587 -0.031556 0.780829 0 0 174 0.013508
-0.111002 -0.032297 0.778436 0 0 174 0.013773
-0.134889 -0.034180 0.802250 0 0 158 0.008150
-0.136944 -0.034743 0.804525 0 0 143 0.004887
-0.139017 -0.035257 0.806752 0 0 143 0.004977
-0.139175 -0.037042 0.803825 0 0 143 0.005851
-0.136746 -0.032985 0.807462 0 0 143 0.003953
-0.134243 -0.030482 0.808079 0 0 128 0.002754
-0.134584 -0.032324 0.805163 0 0 128 0.003760
-0.132104 -0.029805 0.805742 0 0 128 0.003167
-0.141991 -0.038958 0.804722 0 0 143 0.006886
-0.141946 -0.037427 0.807660 0 0 143 0.005998
-0.144048 -0.039653 0.806743 0 0 143 0.007706
-0.146155 -0.041868 0.805817 0 0 158 0.008568
-0.144036 -0.038114 0.809643 0 0 143 0.006635
-0.141816 -0.035829 0.810519 0 0 143 0.005351
-0.138842 -0.033669 0.809639 0 0 143 0.004237
-0.138746 -0.031855 0.812832 0 0 128 0.002831
-0.135972 -0.029031 0.813698 0 0 128 0.001721
-0.136383 -0.030976 0.810523 0 0 128 0.002555
-0.141773 -0.034011 0.813671 0 0 143 0.004433
-0.132148 -0.027301 0.810760 0 0 128 0.002010
-0.128692 -0.025007 0.809576 0 0 128 0.002935
-0.123895 -0.029219 0.796548 0 0 158 0.010208
-0.125477 -0.028648 0.799319 0 0 143 0.006668
-0.127045 -0.028068 0.802056 0 0 143 0.006525
-0.127904 -0.030768 0.798936 0 0 158 0.010879
-0.124575 -0.026037 0.802482 0 0 128 0.003179
-0.121851 -0.023867 0.802864 0 0 128 0.003262
-0.122878 -0.026512 0.799722 0 0 143 0.006259
-0.120161 -0.024334 0.800106 0 0 128 0.003351
-0.130650 -0.031987 0.800336 0 0 158 0.007842
-0.130195 -0.029807 0.803326 0 0 128 0.003694
-0.132552 -0.031996 0.802790 0 0 143 0.007323
-0.129499 -0.027489 0.806304 0 0 128 0.002808
-0.126350 -0.025823 0.805073 0 0 128 0.002960
-0.124239 -0.021702 0.809723 0 0 128 0.003216
-0.125559 -0.023404 0.808371 0 0 128 0.002945
-0.122157 -0.021585 0.807176 0 0 128 0.003562
-0.120846 -0.019902 0.808547 0 0 143 0.003906
-0.123475 -0.023269 0.805817 0 0 128 0.003371
-0.117771 -0.018779 0.807001 0 0 128 0.003729
-0.119223 -0.020493 0.805632 0 0 128 0.003588
-0.116015 -0.019289 0.804061 0 0 128 0.003709
-0.114585 -0.017567 0.805428 0 0 143 0.003949
-0.119062 -0.021627 0.803473 0 0 128 0.003523
-0.114619 -0.026369 0.790641 0 0 158 0.010334
-0.117005 -0.028066 0.790675 0 0 158 0.010020
-0.114327 -0.024847 0.792803 0 0 158 0.009906
-0.116734 -0.026477 0.792792 0 0 158 0.009845
-0.116437 -0.024952 0.794934 0 0 158 0.009343
-0.119141 -0.028178 0.792800 0 0 158 0.010039
-0.114014 -0.023312 0.794943 0 0 143 0.006862
-0.113701 -0.021782 0.797076 0 0 143 0.004081
-0.111392 -0.021826 0.794532 0 0 143 0.004672
-0.111685 -0.023359 0.792393 0 0 143 0.007293
-0.119092 -0.026815 0.794948 0 0 158 0.009476
-0.121511 -0.028700 0.794687 0 0 158 0.009933
-0.119046 -0.025449 0.797059 0 0 143 0.006322
-0.121475 -0.027296 0.796792 0 0 158 0.009685
-0.117616 -0.022509 0.800248 0 0 128 0.003615
-0.116371 -0.023618 0.797082 0 0 143 0.006308
-0.111883 -0.017110 0.803189 0 0 143 0.004412
-0.113424 -0.018817 0.801965 0 0 143 0.003961
-0.110581 -0.018393 0.799561 0 0 143 0.004374
-0.109042 -0.016705 0.800802 0 0 143 0.004964
-0.113554 -0.020329 0.799554 0 0 128 0.003645
-0.116161 -0.020779 0.801640 0 0 128 0.003498
-0.106601 -0.016850 0.798052 0 0 143 0.005463
-0.108248 -0.018456 0.797058 0 0 143 0.004725
-0.109816 -0.020135 0.795805 0 0 143 0.004571
-0.126494 -0.036844 0.786288 0 0 189 0.015840
-0.126916 -0.035935 0.788735 0 0 174 0.014323
-0.128644 -0.038096 0.786633 0 0 189 0.016180
-0.124751 -0.034718 0.788430 0 0 174 0.013636
-0.122361 -0.033523 0.788033 0 0 174 0.012959
-0.130438 -0.038420 0.788357 0 0 189 0.015712
-0.129040 -0.036433 0.790457 0 0 174 0.014174
-0.130924 -0.036876 0.792035 0 0 174 0.013659
-0.132332 -0.038860 0.789940 0 0 174 0.014784
-0.128539 -0.034708 0.793376 0 0 174 0.012872
-0.126419 -0.034211 0.791699 0 0 174 0.012828
-0.124124 -0.031450 0.793264 0 0 158 0.011659
-0.121742 -0.030900 0.791364 0 0 174 0.011794
-0.126247 -0.031958 0.794966 0 0 158 0.011625
-0.119811 -0.030711 0.789409 0 0 174 0.012050
-0.133074 -0.033992 0.800079 0 0 158 0.011510
-0.131264 -0.033796 0.797900 0 0 158 0.011628
-0.133687 -0.035835 0.797650 0 0 174 0.012253
-0.135831 -0.037661 0.797277 0 0 174 0.012874
-0.135370 -0.035906 0.799761 0 0 174 0.011980
-0.137533 -0.037709 0.799367 0 0 174 0.012778
-0.128902 -0.032960 0.796529 0 0 158 0.011654
-0.130902 -0.035551 0.794760 0 0 174 0.012875
-0.134311 -0.039471 0.791339 0 0 174 0.014897
-0.133288 -0.037732 0.793424 0 0 174 0.013686
-0.135369 -0.038460 0.794614 0 0 174 0.013927
-0.136391 -0.040186 0.792525 0 0 174 0.014741
-0.138582 -0.041083 0.793593 0 0 174 0.015167
-0.137926 -0.039721 0.795747 0 0 174 0.013884
-0.140223 -0.040772 0.796718 0 0 174 0.014512
-0.140888 -0.042155 0.794553 0 0 189 0.016496
-0.143334 -0.043439 0.795485 0 0 189 0.017124
-0.145115 -0.044062 0.797222 0 0 189 0.018057
-0.147268 -0.045641 0.796766 0 0 204 0.022516
-0.143407 -0.042373 0.798998 0 0 174 0.015589
-0.141103 -0.040614 0.799382 0 0 174 0.014206
-0.149008 -0.046499 0.798347 0 0 189 0.019361
-0.150793 -0.047316 0.799886 0 0 189 0.018729
-0.152386 -0.048852 0.798075 0 0 250 0.031985
-0.149188 -0.045804 0.801688 0 0 174 0.013166
-0.147358 -0.044903 0.800138 0 0 174 0.014922
-0.145179 -0.043177 0.800667 0 0 174 0.012323
-0.144191 -0.041010 0.804086 0 0 143 0.007699
-0.142258 -0.040099 0.802333 0 0 158 0.010380
-0.147072 -0.043952 0.802407 0 0 158 0.009727
-0.139496 -0.038430 0.801377 0 0 158 0.009414
-0.137201 -0.036321 0.801818 0 0 158 0.008813
-0.156192 -0.049679 0.807244 0 0 250 0.031479
-0.158720 -0.051939 0.808685 0 20 255 0.045188
-0.161249 -0.054223 0.810136 0 87 255 0.063426
-0.160515 -0.054177 0.807411 0 101 255 0.069297
-0.159408 -0.052004 0.811400 0 20 255 0.045439
-0.157391 -0.049260 0.812637 0 0 234 0.028039
-0.156744 -0.049474 0.809971 0 0 234 0.030247
-0.154709 -0.046710 0.811207 0 0 204 0.020097
-0.163428 -0.057496 0.807437 4 234 244 0.105581
-0.164353 -0.058440 0.810146 4 234 244 0.107967
-0.166098 -0.060695 0.808770 101 255 147 0.143768
-0.167758 -0.062989 0.807423 150 255 98 0.200149
-0.166979 -0.061715 0.811565 101 255 147 0.144015
-0.165161 -0.059090 0.812851 0 208 255 0.099378
-0.162053 -0.054868 0.812807 0 87 255 0.062599
-0.165029 -0.057434 0.817391 0 114 255 0.072206
-0.163326 -0.054985 0.817277 0 60 255 0.055549
-0.161817 -0.053437 0.815740 0 34 255 0.047931
-0.160124 -0.051065 0.815666 0 0 255 0.037385
-0.163580 -0.056402 0.814311 0 101 255 0.069977
-0.166622 -0.060144 0.815954 0 208 255 0.098697
-0.156577 -0.046411 0.816927 0 0 219 0.025369
-0.153478 -0.043450 0.815329 0 0 174 0.014525
-0.155609 -0.046639 0.814015 0 0 204 0.020816
-0.160916 -0.055349 0.799057 0 221 255 0.101885
-0.162413 -0.056740 0.801003 36 255 211 0.120912
-0.164649 -0.058626 0.801935 131 255 117 0.163204
-0.161135 -0.055483 0.802955 0 167 255 0.089701
-0.159626 -0.054090 0.801003 0 141 255 0.080480
-0.158323 -0.052873 0.802921 0 74 255 0.058749
-0.165368 -0.059933 0.806294 123 255 125 0.151990
-0.163565 -0.057507 0.804062 69 255 179 0.129408
-0.166351 -0.060949 0.804020 146 255 102 0.194615
-0.168883 -0.063831 0.805090 173 255 75 0.248170
-0.158136 -0.051979 0.806235 0 34 255 0.047989
-0.169840 -0.066866 0.808807 161 255 87 0.222873
-0.171714 -0.070983 0.810373 180 255 68 0.263906
-0.171316 -0.069192 0.807335 190 255 58 0.284909
-0.170308 -0.068611 0.811782 156 255 92 0.211076
-0.168977 -0.065842 0.813044 135 255 113 0.170015
-0.168437 -0.064410 0.810231 142 255 106 0.184949
-0.172498 -0.073456 0.809045 197 255 50 0.297393
-0.173473 -0.077753 0.809131 199 255 48 0.303648
-0.172546 -0.077738 0.812335 175 255 73 0.251447
-0.171901 -0.075262 0.813651 159 255 88 0.220138
-0.171681 -0.077448 0.819493 129 255 119 0.156687
-0.171565 -0.075140 0.817417 136 255 111 0.173944
-0.171218 -0.072331 0.818721 123 255 125 0.149513
-0.170921 -0.070077 0.816707 133 255 115 0.167849
-0.171349 -0.072870 0.815371 146 255 102 0.193054
-0.172023 -0.077555 0.815721 148 255 100 0.195629
-0.172075 -0.079886 0.817809 142 255 106 0.184262
-0.169924 -0.067375 0.818208 80 255 168 0.133996
-0.168803 -0.064697 0.817910 36 255 211 0.120511
-0.167802 -0.062691 0.816152 36 255 211 0.120268
-0.170026 -0.067931 0.814851 135 255 113 0.169225
-0.168872 -0.096871 0.808383 146 255 102 0.192707
-0.167002 -0.098818 0.809499 127 255 121 0.155839
-0.166881 -0.099914 0.807443 129 255 119 0.160067
-0.165149 -0.101750 0.808458 80 255 168 0.135513
-0.166922 -0.100899 0.805282 136 255 111 0.173699
-0.165161 -0.100720 0.810574 58 255 190 0.126830
-0.163300 -0.102595 0.811619 4 234 244 0.108423
-0.165671 -0.099294 0.812985 69 255 179 0.131255
-0.167604 -0.097319 0.811859 129 255 119 0.159510
-0.169493 -0.095344 0.810708 150 255 98 0.200589
-0.168130 -0.095826 0.814233 129 255 119 0.159238
-0.164469 -0.102857 0.805822 47 255 201 0.124193
-0.164449 -0.103515 0.803545 69 255 179 0.131201
-0.162219 -0.104673 0.806213 0 208 255 0.098507
-0.162091 -0.105408 0.803973 0 194 255 0.095495
-0.159885 -0.107188 0.804298 0 127 255 0.075637
-0.162095 -0.106070 0.801651 0 181 255 0.093664
-0.157622 -0.108323 0.806942 0 74 255 0.059593
-0.160445 -0.105478 0.809344 0 127 255 0.078046
-0.162698 -0.103695 0.808960 4 234 244 0.105734
-0.155652 -0.108631 0.812580 0 34 255 0.047550
-0.157450 -0.107007 0.814115 0 60 255 0.056904
-0.159976 -0.105019 0.813808 0 114 255 0.071663
-0.161806 -0.103355 0.815294 0 167 255 0.086124
-0.157911 -0.107490 0.809633 0 87 255 0.063642
-0.155387 -0.109453 0.809883 0 20 255 0.046497
-0.162286 -0.102058 0.817803 0 127 255 0.075994
-0.164265 -0.100003 0.816646 0 208 255 0.098315
-0.165508 -0.098153 0.819582 0 208 255 0.098116
-0.167458 -0.096052 0.818379 47 255 201 0.123969
-0.166206 -0.097935 0.815454 58 255 190 0.126703
-0.163798 -0.101300 0.814120 0 221 255 0.103564
-0.171695 -0.081917 0.819837 131 255 117 0.160195
-0.171623 -0.084075 0.818143 140 255 108 0.182670
-0.172080 -0.081977 0.816065 150 255 98 0.203080
-0.171940 -0.084176 0.814374 156 255 92 0.214554
-0.171462 -0.086202 0.816422 144 255 104 0.189554
-0.171261 -0.088356 0.814705 148 255 100 0.197822
-0.170778 -0.088451 0.818833 133 255 115 0.165089
-0.170951 -0.086296 0.820536 123 255 125 0.150244
-0.172791 -0.081914 0.812425 176 255 71 0.257465
-0.173068 -0.083888 0.810860 182 255 66 0.268287
-0.172400 -0.088058 0.811222 180 255 68 0.262272
-0.172192 -0.086131 0.812805 169 255 79 0.239211
-0.170927 -0.093317 0.809107 163 255 85 0.227084
-0.171145 -0.091595 0.810925 167 255 81 0.238165
-0.169672 -0.093704 0.812588 150 255 98 0.200525
-0.169756 -0.092120 0.814486 136 255 111 0.174396
-0.168761 -0.094019 0.816415 123 255 125 0.150299
-0.169344 -0.092151 0.818573 123 255 125 0.149773
-0.167966 -0.094282 0.820567 47 255 201 0.122503
-0.169851 -0.090304 0.820733 112 255 136 0.145689
-0.170301 -0.090282 0.816666 136 255 111 0.172623
-0.152441 -0.111643 0.806600 0 0 250 0.033981
-0.155035 -0.109999 0.806780 0 7 255 0.042473
-0.154677 -0.110547 0.803685 0 0 255 0.038377
-0.152102 -0.112193 0.803458 0 0 234 0.031191
-0.151843 -0.112707 0.800284 0 0 219 0.026417
-0.149205 -0.113937 0.802681 0 0 204 0.020876
-0.149460 -0.113403 0.805863 0 0 219 0.024462
-0.157401 -0.108845 0.804211 0 47 255 0.054346
-0.157125 -0.109408 0.801514 0 47 255 0.052907
-0.159609 -0.107743 0.801598 0 87 255 0.065620
-0.159279 -0.108308 0.798895 0 87 255 0.062897
-0.156931 -0.109888 0.798702 0 34 255 0.048962
-0.156700 -0.110411 0.795923 0 7 255 0.042032
-0.154319 -0.111576 0.798129 0 0 255 0.036425
-0.154426 -0.111101 0.800920 0 0 255 0.036536
-0.152148 -0.113526 0.788361 0 0 219 0.026524
-0.152003 -0.113384 0.791426 0 0 219 0.025193
-0.149534 -0.114738 0.790218 0 0 204 0.020597
-0.151889 -0.113231 0.794388 0 0 219 0.024886
-0.149377 -0.114592 0.793221 0 0 189 0.019063
-0.149274 -0.114390 0.796211 0 0 189 0.018295
-0.146838 -0.115925 0.792058 0 0 189 0.016228
-0.151865 -0.112993 0.797373 0 0 219 0.025143
-0.154279 -0.111840 0.795207 0 0 250 0.034071
-0.154307 -0.112059 0.792218 0 0 250 0.032810
-0.146697 -0.115833 0.795364 0 0 189 0.016330
-0.143927 -0.117274 0.794046 0 0 174 0.013763
-0.146600 -0.115632 0.798600 0 0 189 0.016207
-0.143796 -0.117144 0.797315 0 0 174 0.013413
-0.146547 -0.115387 0.801841 0 0 189 0.017281
-0.149232 -0.114187 0.799463 0 0 189 0.019318
-0.154491 -0.112319 0.789436 0 0 234 0.030334
-0.156763 -0.110759 0.793219 0 20 255 0.045693
-0.159206 -0.108877 0.796400 0 87 255 0.063938
-0.133653 -0.045178 0.771571 0 181 255 0.092291
-0.133041 -0.044048 0.773882 0 141 255 0.080061
-0.132473 -0.042951 0.776226 0 87 255 0.062560
-0.135549 -0.044201 0.774839 0 167 255 0.088190
-0.129406 -0.041702 0.777626 0 0 255 0.038666
-0.129893 -0.042880 0.775223 0 34 255 0.050425
-0.130429 -0.044014 0.772830 0 101 255 0.067827
-0.127183 -0.042836 0.774098 0 7 255 0.040110
-0.135282 -0.043428 0.777264 0 114 255 0.071516
-0.135020 -0.042674 0.779678 0 60 255 0.056383
-0.137944 -0.043924 0.778202 0 141 255 0.081782
-0.132066 -0.041397 0.781191 0 0 250 0.035143
-0.132285 -0.042192 0.778715 0 34 255 0.047468
-0.126130 -0.038873 0.781367 0 0 204 0.020893
-0.126195 -0.039953 0.778871 0 0 219 0.026550
-0.129240 -0.040644 0.780071 0 0 234 0.030538
-0.129091 -0.039601 0.782516 0 0 219 0.024150
-0.123426 -0.039617 0.777615 0 0 204 0.021568
-0.123871 -0.041098 0.775153 0 0 234 0.027606
-0.126708 -0.041395 0.776460 0 0 250 0.032370
-0.139389 -0.044677 0.775142 36 255 211 0.119036
-0.141783 -0.044949 0.775992 69 255 179 0.129121
-0.137311 -0.045310 0.771972 58 255 190 0.125093
-0.143686 -0.045278 0.784606 0 74 255 0.061047
-0.142893 -0.044593 0.787310 0 7 255 0.039354
-0.146144 -0.046124 0.786253 0 60 255 0.057408
-0.142101 -0.043907 0.789994 0 0 219 0.026468
-0.139353 -0.043021 0.788361 0 0 219 0.024813
-0.147685 -0.046604 0.788459 0 60 255 0.055599
-0.150631 -0.047948 0.788505 0 114 255 0.071092
-0.146386 -0.045878 0.790487 0 0 255 0.037264
-0.142081 -0.043299 0.792500 0 0 204 0.020705
-0.139774 -0.042219 0.791562 0 0 189 0.018958
-0.145168 -0.044942 0.792551 0 0 219 0.026163
-0.136912 -0.041244 0.789855 0 0 189 0.018208
-0.137908 -0.043519 0.780666 0 74 255 0.061717
-0.137892 -0.043083 0.783156 0 20 255 0.046751
-0.140655 -0.044383 0.781593 0 101 255 0.067129
-0.135112 -0.041777 0.784686 0 0 234 0.028297
-0.135062 -0.042215 0.782199 0 7 255 0.040628
-0.140322 -0.043756 0.785440 0 7 255 0.040096
-0.134205 -0.040427 0.787700 0 0 189 0.019300
-0.132325 -0.039967 0.786112 0 0 204 0.020778
-0.132197 -0.040681 0.783642 0 0 219 0.026997
-0.144658 -0.045526 0.781530 0 181 255 0.089987
-0.140578 -0.044495 0.779161 0 167 255 0.089477
-0.143755 -0.045310 0.778440 26 255 222 0.116150
-0.150762 -0.048134 0.790883 0 47 255 0.054566
-0.152914 -0.049281 0.791590 0 87 255 0.063121
-0.150943 -0.048298 0.793300 0 7 255 0.041634
-0.148536 -0.047027 0.792536 0 0 255 0.035727
-0.155557 -0.050989 0.793245 0 101 255 0.068700
-0.151644 -0.048584 0.795692 0 0 250 0.033844
-0.149110 -0.046954 0.795040 0 0 234 0.030976
-0.154050 -0.050042 0.796245 0 34 255 0.048185
-0.149076 -0.047157 0.786436 0 114 255 0.070427
-0.147762 -0.046580 0.784076 0 154 255 0.085584
-0.074040 -0.120495 0.870629 0 0 204 0.022061
-0.075928 -0.119156 0.874322 0 0 234 0.031062
-0.072125 -0.121686 0.866849 0 0 174 0.013846
-0.074647 -0.121937 0.865672 0 0 174 0.015321
-0.076556 -0.120707 0.869424 0 0 204 0.023413
-0.078439 -0.119351 0.873107 0 0 234 0.031186
-0.071475 -0.122968 0.862448 0 0 158 0.011195
-0.070822 -0.124157 0.858030 0 0 143 0.007401
-0.068346 -0.123976 0.859302 0 0 143 0.006949
-0.069001 -0.122796 0.863740 0 0 158 0.010692
-0.079184 -0.120815 0.867902 0 0 204 0.020575
-0.081132 -0.119546 0.871547 0 0 234 0.028899
-0.077220 -0.122028 0.864198 0 0 174 0.013898
-0.076599 -0.123191 0.859672 0 0 143 0.007803
-0.073388 -0.124274 0.856592 0 0 143 0.007569
-0.074018 -0.123093 0.861124 0 0 158 0.008194
-0.068548 -0.127208 0.844440 0 0 174 0.013725
-0.065327 -0.128588 0.841415 0 0 174 0.014095
-0.069292 -0.125977 0.848924 0 0 143 0.007603
-0.066026 -0.127086 0.845837 0 0 158 0.009551
-0.066775 -0.125868 0.850324 0 0 143 0.007428
-0.062794 -0.128478 0.842809 0 0 158 0.009496
-0.070039 -0.124943 0.853459 0 0 143 0.005869
-0.072614 -0.125088 0.852034 0 0 143 0.006130
-0.063528 -0.126909 0.847141 0 0 158 0.009803
-0.060365 -0.128305 0.844118 0 0 158 0.009620
-0.064295 -0.125678 0.851574 0 0 143 0.007625
-0.061097 -0.126755 0.848471 0 0 158 0.009861
-0.066313 -0.124748 0.855435 0 0 143 0.005716
-0.081060 -0.029577 0.893631 140 255 108 0.181151
-0.081796 -0.026545 0.891008 129 255 119 0.157281
-0.081683 -0.023354 0.888714 15 248 233 0.109995
-0.079460 -0.026036 0.891729 90 255 157 0.136775
-0.078796 -0.029130 0.894351 133 255 115 0.166385
-0.081450 -0.020047 0.886475 0 101 255 0.069976
-0.081183 -0.016523 0.884339 0 0 250 0.032314
-0.076510 -0.025654 0.893002 36 255 211 0.119782
-0.077137 -0.019353 0.887947 0 7 255 0.041861
-0.078819 -0.016207 0.885102 0 0 219 0.023460
-0.078921 -0.022882 0.889591 0 167 255 0.088165
-0.080157 -0.008161 0.877530 0 0 189 0.016375
-0.079526 -0.010855 0.879998 0 0 174 0.015261
-0.082476 -0.011389 0.879357 0 0 174 0.015524
-0.083132 -0.008636 0.877022 0 0 189 0.016138
-0.080353 -0.013771 0.882124 0 0 189 0.017149
-0.078010 -0.013399 0.882889 0 0 189 0.015859
-0.085566 -0.009065 0.876727 0 0 189 0.015722
-0.085974 -0.012053 0.878815 0 0 189 0.018891
-0.083951 -0.014448 0.881362 0 0 219 0.026388
-0.083382 -0.072183 0.909728 69 255 179 0.131710
-0.082863 -0.067620 0.909616 135 255 113 0.168910
-0.085205 -0.076991 0.909159 0 208 255 0.098290
-0.086947 -0.081657 0.908371 0 141 255 0.079093
-0.085247 -0.067818 0.909008 136 255 111 0.173096
-0.087865 -0.076979 0.908437 0 208 255 0.098431
-0.085728 -0.072464 0.909056 80 255 168 0.136215
-0.092016 -0.094312 0.901465 0 34 255 0.047513
-0.092409 -0.098230 0.899388 0 60 255 0.056237
-0.089814 -0.090115 0.904096 0 34 255 0.047987
-0.088511 -0.093860 0.902572 0 34 255 0.048025
-0.088887 -0.097836 0.900426 0 60 255 0.057697
-0.089302 -0.086083 0.906009 0 60 255 0.055509
-0.086586 -0.097570 0.901396 0 87 255 0.062646
-0.086195 -0.089635 0.905352 0 47 255 0.054684
-0.085299 -0.093475 0.903965 0 60 255 0.056266
-0.086625 -0.085677 0.906944 0 74 255 0.060359
-0.084526 -0.100585 0.898693 0 47 255 0.051943
-0.084749 -0.103810 0.894979 0 7 255 0.039992
-0.086822 -0.100805 0.897705 0 34 255 0.046965
-0.087052 -0.104033 0.894041 0 0 255 0.037656
-0.084958 -0.107046 0.891320 0 0 255 0.036314
-0.085177 -0.110240 0.887656 0 0 255 0.035721
-0.082693 -0.110083 0.888792 0 0 255 0.038345
-0.082501 -0.106887 0.892518 0 7 255 0.041040
-0.089347 -0.101141 0.896276 0 0 255 0.039054
-0.089827 -0.104444 0.892155 0 0 234 0.029910
-0.088897 -0.107486 0.888920 0 0 219 0.025799
-0.087982 -0.110662 0.885844 0 0 234 0.030167
-0.082815 -0.117370 0.875118 0 0 219 0.025288
-0.084509 -0.115141 0.878734 0 0 219 0.024785
-0.081819 -0.114988 0.880343 0 0 234 0.028576
-0.080123 -0.117208 0.876704 0 0 234 0.028191
-0.084845 -0.112724 0.883183 0 0 219 0.026010
-0.087656 -0.113133 0.881402 0 0 219 0.024995
-0.077611 -0.117078 0.877874 0 0 234 0.029865
-0.079314 -0.114793 0.881424 0 0 234 0.028480
-0.079768 -0.112439 0.885697 0 0 250 0.033745
-0.082253 -0.112585 0.884565 0 0 250 0.031325
-0.077935 -0.057319 0.908757 163 255 85 0.227900
-0.077745 -0.052830 0.907018 175 255 73 0.251287
-0.077084 -0.048228 0.905478 175 255 73 0.251001
-0.076590 -0.043734 0.903966 169 255 79 0.240883
-0.075959 -0.056766 0.909371 159 255 88 0.221924
-0.075089 -0.047788 0.906267 167 255 81 0.236580
-0.075792 -0.052320 0.907690 167 255 81 0.237450
-0.076515 -0.032397 0.897467 144 255 104 0.188475
-0.076794 -0.036034 0.899435 161 255 87 0.223002
-0.076277 -0.039754 0.901853 165 255 83 0.233902
-0.078828 -0.032723 0.896418 152 255 96 0.203263
-0.078839 -0.036359 0.898690 169 255 79 0.240660
-0.102555 0.000256 0.859597 0 20 255 0.045891
-0.104473 0.000548 0.857504 0 34 255 0.049071
-0.100692 0.000064 0.861713 0 34 255 0.047471
-0.104048 -0.000754 0.862053 0 47 255 0.051078
-0.105900 -0.000566 0.859959 0 34 255 0.050705
-0.107829 -0.000285 0.857866 0 47 255 0.053803
-0.102184 -0.001014 0.864117 0 47 255 0.051830
-0.100344 -0.001341 0.866139 0 60 255 0.056490
-0.099011 -0.000454 0.863835 0 34 255 0.047112
-0.097387 -0.000919 0.865954 0 34 255 0.049647
-0.108509 -0.001194 0.860388 0 47 255 0.054346
-0.110544 -0.001018 0.858414 0 60 255 0.058298
-0.106537 -0.001236 0.862349 0 60 255 0.054761
-0.104676 -0.001514 0.864409 0 60 255 0.057870
-0.102842 -0.001775 0.866446 0 87 255 0.062976
-0.097945 -0.006363 0.872322 0 0 234 0.030335
-0.099433 -0.004967 0.870304 0 0 250 0.032525
-0.099867 -0.003151 0.868247 0 7 255 0.040221
-0.094239 -0.005739 0.872064 0 0 219 0.024846
-0.094263 -0.004104 0.869971 0 0 219 0.027295
-0.091757 -0.005393 0.872066 0 0 204 0.023382
-0.094323 -0.002335 0.867905 0 0 250 0.034184
-0.097288 -0.002688 0.868066 0 0 255 0.037019
-0.116708 -0.004034 0.842473 0 0 219 0.025645
-0.120571 -0.006409 0.840957 0 0 204 0.022355
-0.116406 -0.003607 0.844849 0 0 234 0.028407
-0.120261 -0.006017 0.843302 0 0 204 0.022182
-0.119961 -0.005613 0.845658 0 0 219 0.023901
-0.124150 -0.008293 0.841823 0 0 204 0.020415
-0.116140 -0.003168 0.847236 0 0 250 0.033970
-0.115841 -0.002860 0.849598 0 0 255 0.035336
-0.112429 -0.001380 0.848993 0 0 255 0.038392
-0.112702 -0.001776 0.846610 0 0 250 0.033948
-0.123446 -0.007479 0.844195 0 0 219 0.023594
-0.127113 -0.009670 0.843145 0 0 204 0.021053
-0.122757 -0.006652 0.846604 0 0 219 0.026657
-0.126396 -0.008860 0.845539 0 0 204 0.021499
-0.122104 -0.005835 0.849027 0 0 234 0.030247
-0.118671 -0.003885 0.850524 0 0 255 0.038324
-0.119318 -0.004717 0.848104 0 0 234 0.030062
-0.112525 -0.001636 0.856343 0 34 255 0.050355
-0.114534 -0.002226 0.854277 0 34 255 0.046974
-0.111825 -0.001523 0.853731 0 7 255 0.042121
-0.109815 -0.000897 0.855803 0 20 255 0.046873
-0.115195 -0.002499 0.851952 0 7 255 0.041940
-0.117982 -0.003644 0.852854 0 7 255 0.041277
-0.106426 0.000273 0.855334 0 20 255 0.046021
-0.108372 -0.000106 0.853145 0 20 255 0.043670
-0.110418 -0.000702 0.851072 0 7 255 0.040115
-0.133667 -0.019345 0.829091 0 0 143 0.006160
-0.135360 -0.021351 0.827542 0 0 143 0.004919
-0.131955 -0.017318 0.830667 0 0 143 0.007372
-0.136070 -0.019910 0.831464 0 0 143 0.007711
-0.137448 -0.022623 0.827937 0 0 143 0.005434
-0.139540 -0.023862 0.828330 0 0 174 0.012206
-0.134329 -0.017955 0.833052 0 0 158 0.008632
-0.132578 -0.016000 0.834650 0 0 158 0.010653
-0.130271 -0.015537 0.832229 0 0 158 0.008763
-0.128576 -0.013756 0.833773 0 0 158 0.009703
-0.141944 -0.025320 0.828984 0 0 174 0.012352
-0.139608 -0.022531 0.830616 0 0 174 0.014630
-0.141968 -0.024011 0.831292 0 0 174 0.014589
-0.144372 -0.026763 0.829627 0 0 174 0.013054
-0.139623 -0.021264 0.832943 0 0 189 0.016960
-0.144395 -0.025449 0.831929 0 0 174 0.015569
-0.141983 -0.022756 0.833595 0 0 189 0.016595
-0.146837 -0.028162 0.830258 0 0 174 0.014608
-0.139591 -0.020036 0.835282 0 0 189 0.019427
-0.136044 -0.017439 0.836166 0 0 174 0.013311
-0.129229 -0.011564 0.841328 0 0 189 0.016779
-0.131347 -0.013455 0.839515 0 0 174 0.014184
-0.128329 -0.012222 0.838199 0 0 174 0.012124
-0.126230 -0.010286 0.839996 0 0 189 0.016744
-0.131968 -0.014715 0.837072 0 0 174 0.012032
-0.135377 -0.016251 0.838569 0 0 174 0.012927
-0.122485 -0.008119 0.839136 0 0 189 0.018196
-0.124436 -0.009778 0.837337 0 0 174 0.015516
-0.124550 -0.010581 0.835106 0 0 174 0.012714
-0.128460 -0.012966 0.835982 0 0 158 0.011255
-0.141651 -0.032263 0.816710 0 0 128 0.003243
-0.141868 -0.030622 0.819650 0 0 128 0.002933
-0.144132 -0.033152 0.818592 0 0 158 0.009330
-0.146355 -0.035641 0.817511 0 0 143 0.006010
-0.144351 -0.031487 0.821518 0 0 158 0.009681
-0.141760 -0.028893 0.822533 0 0 158 0.008734
-0.137979 -0.026381 0.821858 0 0 128 0.002475
-0.149151 -0.037253 0.819242 0 0 174 0.012372
-0.148101 -0.034689 0.822011 0 0 158 0.011431
-0.146484 -0.029839 0.826855 0 0 174 0.012559
-0.144026 -0.028380 0.826256 0 0 158 0.011139
-0.141612 -0.026916 0.825612 0 0 158 0.010151
-0.146978 -0.031536 0.825095 0 0 158 0.011273
-0.137857 -0.024462 0.824930 0 0 143 0.004134
-0.135760 -0.023196 0.824542 0 0 128 0.003479
-0.148059 -0.042515 0.807605 0 0 158 0.009484
-0.149953 -0.043119 0.809359 0 0 158 0.011459
-0.149866 -0.044540 0.806534 0 0 174 0.011810
-0.148123 -0.041107 0.810436 0 0 158 0.009257
-0.146013 -0.038880 0.811458 0 0 143 0.007158
-0.146115 -0.040376 0.808642 0 0 158 0.008068
-0.152383 -0.046495 0.806881 0 0 189 0.017361
-0.152675 -0.045594 0.809647 0 0 189 0.016747
-0.154377 -0.047639 0.808477 0 0 204 0.022070
-0.152894 -0.044510 0.812354 0 0 174 0.015182
-0.150108 -0.042063 0.812102 0 0 158 0.010849
-0.150107 -0.039731 0.816443 0 0 174 0.014414
-0.147619 -0.038233 0.814708 0 0 143 0.007675
-0.144056 -0.034855 0.815614 0 0 143 0.005085
-0.144079 -0.036578 0.812588 0 0 143 0.005807
-0.154754 -0.050398 0.799587 0 0 255 0.035236
-0.153347 -0.048996 0.801442 0 0 234 0.027923
-0.157655 -0.052739 0.798860 0 87 255 0.064609
-0.156003 -0.050959 0.802750 0 7 255 0.039717
-0.154264 -0.048461 0.805971 0 0 219 0.024280
-0.150145 -0.045629 0.804230 0 0 174 0.013473
-0.151924 -0.047338 0.803392 0 0 189 0.018506
-0.159217 -0.053818 0.796965 0 167 255 0.087015
-0.156108 -0.051535 0.796618 0 60 255 0.055311
0.118830 -0.003313 0.881043 0 0 255 0.037236
0.113902 -0.002512 0.881149 0 0 219 0.024809
0.120005 -0.003532 0.878545 0 20 255 0.044851
0.115052 -0.002680 0.878648 0 0 250 0.034382
0.116231 -0.002892 0.876145 0 20 255 0.045742
0.112706 -0.002103 0.883519 0 0 204 0.022530
0.126567 -0.006873 0.869859 0 141 255 0.079714
0.122205 -0.005400 0.870334 0 114 255 0.072336
0.121397 -0.004664 0.873034 0 74 255 0.061266
0.117792 -0.004090 0.870795 0 87 255 0.065160
0.122891 -0.006130 0.867466 0 141 255 0.081887
0.118517 -0.004788 0.868050 0 101 255 0.068684
0.119303 -0.005545 0.865286 0 154 255 0.083632
0.120625 -0.004024 0.875689 0 60 255 0.055536
0.117024 -0.003467 0.873518 0 47 255 0.053416
0.085524 -0.002180 0.868548 0 0 128 0.002878
0.089471 -0.002021 0.870677 0 0 128 0.001890
0.090612 -0.002351 0.868234 0 0 128 0.001960
0.093314 -0.001940 0.872764 0 0 128 0.002314
0.094520 -0.002235 0.870352 0 0 128 0.003561
0.098401 -0.002021 0.872424 0 0 143 0.007122
0.097174 -0.001755 0.874824 0 0 143 0.004410
0.095733 -0.002386 0.867882 0 0 143 0.006716
0.099611 -0.002213 0.869965 0 0 174 0.012147
0.100790 -0.002353 0.867436 0 0 204 0.021072
0.096953 -0.002479 0.865396 0 0 174 0.012925
0.091831 -0.002545 0.865822 0 0 128 0.003434
0.093026 -0.002646 0.863334 0 0 158 0.007839
0.087869 -0.002765 0.863719 0 0 128 0.002442
0.086682 -0.002539 0.866155 0 0 128 0.002435
0.082581 -0.002748 0.863974 0 0 143 0.003990
0.089111 -0.002862 0.861250 0 0 143 0.004991
0.083736 -0.002976 0.861519 0 0 128 0.002726
0.084873 -0.003065 0.858967 0 0 128 0.003335
0.081429 -0.002360 0.866370 0 0 143 0.004908
0.101001 -0.001802 0.876924 0 0 143 0.007627
0.104846 -0.001897 0.879072 0 0 158 0.010767
0.106034 -0.002190 0.876642 0 0 174 0.015572
0.108773 -0.002010 0.881277 0 0 189 0.016455
0.109976 -0.002284 0.878875 0 0 204 0.022059
0.111117 -0.002441 0.876371 0 0 234 0.027596
0.112305 -0.002730 0.873906 0 7 255 0.039845
0.107251 -0.002358 0.874208 0 0 204 0.023197
0.108485 -0.002549 0.871726 0 0 250 0.032929
0.103394 -0.002269 0.872064 0 0 189 0.017148
0.102201 -0.002082 0.874516 0 0 158 0.011614
0.104620 -0.002424 0.869558 0 0 219 0.027067
0.115537 -0.005312 0.863093 0 141 255 0.080475
0.114702 -0.004517 0.865786 0 101 255 0.069510
0.110961 -0.004336 0.863661 0 74 255 0.060634
0.111743 -0.005015 0.860890 0 114 255 0.073939
0.110046 -0.003629 0.866294 0 47 255 0.052143
0.107165 -0.004069 0.861527 0 60 255 0.055795
0.106291 -0.003424 0.864227 0 20 255 0.045376
0.102590 -0.003270 0.862161 0 0 255 0.037492
0.108105 -0.004824 0.858787 0 101 255 0.068774
0.103491 -0.003839 0.859416 0 34 255 0.049008
0.104349 -0.004546 0.856761 0 74 255 0.059391
0.105457 -0.002856 0.866871 0 0 255 0.036093
0.101672 -0.002768 0.864810 0 0 219 0.026892
0.109238 -0.003017 0.869022 0 7 255 0.042500
0.113114 -0.003262 0.871226 0 34 255 0.049659
0.113874 -0.003837 0.868537 0 60 255 0.056891
0.100565 -0.004489 0.854740 0 34 255 0.048915
0.099638 -0.003835 0.857392 0 0 255 0.037160
0.095782 -0.003808 0.855324 0 0 250 0.031498
0.096737 -0.004377 0.852686 0 20 255 0.045591
0.094792 -0.003386 0.857998 0 0 189 0.019240
0.091800 -0.003951 0.853236 0 0 219 0.025458
0.090878 -0.003555 0.855942 0 0 174 0.015236
0.086577 -0.003711 0.853574 0 0 158 0.011496
0.092700 -0.004393 0.850522 0 7 255 0.040739
0.087444 -0.003939 0.850715 0 0 219 0.024517
0.088339 -0.004304 0.847919 0 7 255 0.041330
0.089938 -0.003174 0.858561 0 0 158 0.009579
0.085707 -0.003395 0.856284 0 0 143 0.005855
0.093912 -0.002967 0.860667 0 0 174 0.013606
0.097827 -0.002865 0.862732 0 0 204 0.019865
0.098710 -0.003328 0.860076 0 0 234 0.027852
0.093027 -0.005159 0.847372 0 60 255 0.057051
0.097232 -0.005312 0.849755 0 60 255 0.054770
0.097665 -0.006369 0.846777 0 87 255 0.065800
0.101072 -0.005495 0.851837 0 60 255 0.056061
0.101575 -0.006645 0.848935 0 87 255 0.065696
0.105328 -0.006873 0.851010 0 101 255 0.067785
0.104827 -0.005648 0.853904 0 87 255 0.062812
0.102053 -0.007873 0.846002 0 101 255 0.069703
0.105839 -0.008158 0.848144 0 114 255 0.072138
0.106314 -0.009482 0.845222 0 141 255 0.080119
0.102620 -0.009257 0.843134 0 141 255 0.081677
0.098230 -0.007570 0.843852 0 127 255 0.075318
0.098763 -0.008875 0.840847 0 181 255 0.092073
0.094024 -0.007125 0.841162 0 167 255 0.087707
0.093519 -0.006077 0.844293 0 101 255 0.067204
0.089528 -0.006015 0.841876 0 101 255 0.069412
0.094586 -0.008337 0.838084 15 248 233 0.110003
0.090197 -0.007070 0.838858 0 181 255 0.091856
0.090876 -0.008282 0.835898 26 255 222 0.114440
0.088913 -0.005091 0.844884 0 60 255 0.054995
0.108381 -0.005852 0.855883 0 114 255 0.073154
0.112135 -0.006186 0.857976 0 127 255 0.076979
0.112436 -0.007287 0.854995 0 141 255 0.079583
0.115807 -0.006363 0.860092 0 154 255 0.084750
0.116160 -0.007574 0.857155 0 181 255 0.090927
0.119798 -0.007861 0.859281 0 181 255 0.091947
0.119543 -0.006652 0.862295 0 167 255 0.088723
0.116405 -0.008815 0.854108 0 181 255 0.093652
0.120117 -0.009184 0.856244 0 208 255 0.098057
0.120319 -0.010488 0.853260 0 208 255 0.101503
0.116872 -0.010272 0.851237 0 194 255 0.096734
0.112889 -0.008605 0.852122 0 167 255 0.085998
0.113335 -0.010029 0.849206 0 181 255 0.091032
0.109376 -0.008378 0.850100 0 141 255 0.080689
0.108901 -0.007074 0.853012 0 127 255 0.075585
0.109813 -0.009774 0.847203 0 141 255 0.081180
0.119519 -0.018480 0.841006 0 154 255 0.082954
0.116226 -0.018293 0.839202 0 141 255 0.081256
0.116265 -0.016070 0.842014 0 154 255 0.084397
0.112988 -0.015882 0.840205 0 127 255 0.074617
0.112948 -0.018093 0.837403 0 114 255 0.072046
0.113011 -0.013772 0.843090 0 141 255 0.080690
0.109697 -0.015656 0.838383 0 114 255 0.070454
0.109713 -0.013567 0.841221 0 114 255 0.073455
0.106385 -0.013311 0.839413 0 127 255 0.074426
0.109681 -0.017911 0.835593 0 101 255 0.069335
0.106405 -0.015441 0.836502 0 114 255 0.071810
0.106366 -0.017668 0.833600 0 127 255 0.077601
0.109718 -0.011631 0.844162 0 127 255 0.077974
0.106366 -0.011366 0.842284 0 127 255 0.077207
0.113188 -0.011893 0.846129 0 141 255 0.081316
0.116681 -0.012139 0.848111 0 181 255 0.091575
0.116482 -0.014048 0.845089 0 167 255 0.087664
0.119940 -0.014324 0.847015 0 181 255 0.090578
0.120169 -0.012373 0.850159 0 194 255 0.096630
0.119730 -0.016327 0.844020 0 167 255 0.088048
0.102665 -0.017320 0.830992 0 194 255 0.095056
0.102605 -0.015070 0.833993 0 181 255 0.090392
0.098786 -0.014578 0.831220 15 248 233 0.113120
0.098990 -0.017015 0.828498 15 248 233 0.112318
0.098571 -0.012390 0.834177 15 248 233 0.112557
0.095325 -0.014431 0.829173 36 255 211 0.119888
0.094999 -0.012152 0.831931 47 255 201 0.122437
0.091712 -0.012227 0.830190 47 255 201 0.121832
0.095622 -0.016961 0.826572 26 255 222 0.116177
0.092107 -0.014540 0.827480 36 255 211 0.117944
0.092420 -0.017025 0.824973 15 248 233 0.112724
0.094662 -0.010097 0.834844 47 255 201 0.122988
0.091292 -0.010145 0.833005 36 255 211 0.120971
0.098642 -0.010536 0.837488 0 221 255 0.102516
0.102645 -0.011058 0.840154 0 154 255 0.083516
0.102665 -0.013014 0.837138 0 154 255 0.083359
0.122921 -0.007139 0.864280 0 167 255 0.089107
0.126559 -0.007828 0.866633 0 154 255 0.084993
0.126454 -0.008873 0.863185 0 194 255 0.094791
0.130107 -0.009659 0.865615 0 181 255 0.092418
0.130106 -0.010804 0.862319 0 208 255 0.101396
0.133707 -0.012866 0.861318 0 221 255 0.102038
0.130239 -0.012173 0.859167 0 208 255 0.100792
0.126664 -0.010161 0.860226 0 194 255 0.096015
0.126905 -0.011538 0.857146 0 208 255 0.101134
0.123384 -0.009660 0.858211 0 194 255 0.095179
0.123112 -0.008357 0.861230 0 194 255 0.094327
0.123620 -0.010988 0.855160 0 208 255 0.101019
0.139647 -0.022004 0.851404 0 208 255 0.099021
0.137552 -0.019505 0.853582 0 208 255 0.099818
0.136933 -0.021399 0.850031 0 208 255 0.098192
0.134770 -0.018835 0.852125 0 208 255 0.100113
0.135289 -0.016950 0.855565 0 221 255 0.101977
0.132593 -0.016334 0.854164 0 208 255 0.099018
0.134139 -0.020754 0.848640 0 194 255 0.096920
0.131970 -0.018170 0.850670 0 194 255 0.096693
0.131414 -0.020114 0.847237 0 194 255 0.094715
0.133144 -0.014565 0.857663 0 208 255 0.100810
0.128453 -0.019725 0.845658 0 194 255 0.094941
0.128756 -0.017673 0.848790 0 181 255 0.092405
0.125759 -0.017259 0.847138 0 194 255 0.094683
0.125482 -0.019353 0.844128 0 181 255 0.091046
0.125975 -0.015172 0.850258 0 194 255 0.094388
0.122738 -0.016814 0.845586 0 167 255 0.089775
0.123007 -0.014772 0.848662 0 194 255 0.095483
0.122476 -0.018872 0.842570 0 167 255 0.088303
0.123127 -0.012739 0.851722 0 194 255 0.096833
0.126486 -0.013324 0.853692 0 208 255 0.098869
0.129756 -0.013926 0.855547 0 208 255 0.100467
0.129283 -0.015782 0.852197 0 208 255 0.098905
0.084878 -0.144560 0.897405 0 60 255 0.055862
0.083520 -0.143603 0.900437 0 20 255 0.044828
0.081377 -0.142514 0.898752 0 0 255 0.035466
0.080011 -0.141570 0.901780 0 0 234 0.027987
0.082141 -0.142666 0.903449 0 0 255 0.037356
0.077828 -0.140452 0.900078 0 0 204 0.021869
0.078643 -0.140621 0.904771 0 0 204 0.022443
0.076492 -0.139506 0.903085 0 0 189 0.016731
0.075152 -0.138560 0.906062 0 0 174 0.014397
0.080767 -0.141721 0.906426 0 0 250 0.031751
0.077285 -0.139683 0.907737 0 0 189 0.019321
0.079392 -0.140794 0.909393 0 0 234 0.027599
0.074266 -0.138377 0.901346 0 0 174 0.013596
0.072948 -0.137429 0.904341 0 0 189 0.017246
0.070661 -0.136273 0.902565 0 0 174 0.014343
0.072033 -0.137068 0.899502 0 0 174 0.015579
0.075656 -0.139178 0.898275 0 0 189 0.015730
0.073414 -0.137863 0.896418 0 0 158 0.011311
0.077068 -0.139974 0.895175 0 0 204 0.019598
0.079245 -0.141252 0.896991 0 0 219 0.026245
0.080674 -0.142071 0.893887 0 0 250 0.033027
0.074802 -0.138626 0.893302 0 0 174 0.014441
0.078493 -0.140770 0.892063 0 0 219 0.025263
0.076205 -0.139393 0.890178 0 0 189 0.019386
0.082812 -0.143339 0.895674 0 20 255 0.043304
0.077926 -0.139645 0.912060 0 0 204 0.022843
0.075796 -0.138638 0.910551 0 0 189 0.016648
0.074359 -0.137490 0.913238 0 0 174 0.012913
0.076497 -0.138516 0.914749 0 0 189 0.018782
0.072189 -0.136447 0.911697 0 0 189 0.016867
0.072921 -0.136344 0.915936 0 0 158 0.011125
0.070751 -0.135289 0.914409 0 0 174 0.014998
0.075055 -0.137385 0.917441 0 0 189 0.016093
0.068541 -0.134235 0.912824 0 0 174 0.012361
0.066286 -0.133064 0.911059 0 0 158 0.010298
0.070023 -0.135308 0.909993 0 0 174 0.013412
0.067758 -0.134138 0.908212 0 0 158 0.010783
0.071489 -0.136373 0.907167 0 0 174 0.015029
0.073679 -0.137510 0.908885 0 0 174 0.012221
0.069217 -0.135208 0.905382 0 0 174 0.012147
0.056922 -0.128372 0.904129 0 0 158 0.007863
0.059296 -0.129776 0.906066 0 0 158 0.007901
0.060834 -0.130692 0.903054 0 0 158 0.008142
0.058471 -0.129235 0.901101 0 0 158 0.007912
0.063157 -0.131969 0.904915 0 0 158 0.008593
0.062355 -0.131591 0.900053 0 0 158 0.008612
0.064679 -0.132908 0.901935 0 0 158 0.009177
0.066182 -0.133853 0.898954 0 0 158 0.010364
0.059994 -0.130097 0.898091 0 0 158 0.008156
0.063857 -0.132496 0.897061 0 0 158 0.009413
0.061501 -0.130952 0.895095 0 0 158 0.008583
0.066951 -0.134145 0.903759 0 0 158 0.010783
0.068456 -0.135121 0.900799 0 0 174 0.012312
0.065498 -0.133087 0.906594 0 0 158 0.009444
0.064030 -0.132003 0.909447 0 0 158 0.008765
0.061690 -0.130921 0.907779 0 0 158 0.008101
0.062919 -0.131471 0.891908 0 0 158 0.008944
0.065204 -0.133202 0.893960 0 0 158 0.010369
0.066616 -0.133751 0.890772 0 0 158 0.011007
0.064318 -0.132020 0.888726 0 0 158 0.009925
0.068892 -0.135329 0.892763 0 0 174 0.013529
0.068026 -0.134318 0.887576 0 0 143 0.006014
0.070322 -0.135915 0.889576 0 0 158 0.008688
0.071761 -0.136499 0.886363 0 0 158 0.010981
0.065719 -0.132578 0.885544 0 0 143 0.004564
0.069432 -0.134911 0.884365 0 0 158 0.008107
0.067110 -0.133155 0.882333 0 0 143 0.006170
0.072556 -0.137388 0.891512 0 0 174 0.012001
0.074016 -0.137981 0.888302 0 0 174 0.014601
0.071181 -0.136640 0.894618 0 0 174 0.015395
0.069812 -0.135885 0.897716 0 0 174 0.013149
0.067541 -0.134592 0.895862 0 0 158 0.011608
0.063327 -0.131412 0.883793 0 0 143 0.005734
0.061938 -0.130826 0.886969 0 0 158 0.010378
0.059589 -0.129604 0.885219 0 0 158 0.011508
0.060534 -0.130320 0.890153 0 0 158 0.009426
0.058189 -0.129119 0.888388 0 0 158 0.010079
0.056766 -0.128604 0.891557 0 0 158 0.009440
0.059118 -0.129857 0.893338 0 0 158 0.008912
0.055878 -0.127764 0.886604 0 0 158 0.011651
