ply
format ascii 1.0
comment VCGLIB generated
element vertex 1021
property float x
property float y
property float z
property uchar red
property uchar green
property uchar blue
property float quality
end_header
0.041153 -0.031017 0.793177 0 0 255 0.038516
0.043453 -0.026279 0.795554 0 74 255 0.060351
0.040790 -0.026836 0.794202 0 60 255 0.056922
0.042918 -0.022275 0.796771 0 194 255 0.094897
0.045519 -0.021821 0.798225 0 194 255 0.095072
0.044745 -0.018039 0.799571 58 255 190 0.126018
0.040288 -0.022782 0.795368 0 167 255 0.087447
0.042168 -0.018489 0.798113 58 255 190 0.125370
0.039545 -0.018947 0.796679 36 255 211 0.119456
0.047309 -0.017627 0.801064 47 255 201 0.124237
0.049106 -0.038350 0.795445 0 0 189 0.016840
0.049060 -0.042781 0.794746 0 0 174 0.014906
0.046706 -0.043242 0.793547 0 0 174 0.014256
0.049027 -0.047063 0.794173 0 0 174 0.013851
0.046701 -0.047467 0.792975 0 0 174 0.013809
0.044417 -0.047829 0.791811 0 0 174 0.013432
0.042002 -0.048193 0.790606 0 0 174 0.013765
0.044225 -0.043678 0.792310 0 0 174 0.013974
0.041768 -0.044060 0.791082 0 0 174 0.013636
0.044078 -0.039256 0.792842 0 0 189 0.016634
0.046572 -0.038816 0.794114 0 0 189 0.017041
0.041591 -0.039729 0.791662 0 0 189 0.015909
0.035580 -0.049285 0.787251 0 0 174 0.013915
0.035136 -0.045280 0.787628 0 0 174 0.013417
0.037450 -0.044946 0.788871 0 0 174 0.013054
0.034715 -0.041089 0.788074 0 0 174 0.014671
0.037065 -0.040653 0.789280 0 0 174 0.015180
0.036740 -0.036247 0.789723 0 0 219 0.024624
0.034328 -0.036769 0.788529 0 0 219 0.023530
0.039399 -0.040185 0.790474 0 0 189 0.015860
0.039106 -0.035731 0.790956 0 0 219 0.025117
0.039626 -0.044494 0.789947 0 0 174 0.013871
0.039850 -0.048621 0.789464 0 0 174 0.013596
0.037708 -0.048962 0.788330 0 0 174 0.013702
0.033916 -0.032746 0.789413 0 0 250 0.031859
0.033416 -0.028569 0.790254 0 47 255 0.052269
0.035959 -0.028053 0.791584 0 47 255 0.053648
0.032800 -0.024390 0.791248 0 127 255 0.075938
0.035357 -0.023844 0.792606 0 141 255 0.078375
0.034555 -0.019849 0.793759 26 255 222 0.114185
0.032014 -0.020357 0.792363 4 234 244 0.108497
0.037882 -0.023336 0.794000 0 154 255 0.082441
0.037058 -0.019374 0.795193 36 255 211 0.119795
0.038387 -0.027423 0.792859 0 60 255 0.055265
0.038763 -0.031573 0.791876 0 0 255 0.037358
0.036354 -0.032165 0.790625 0 0 250 0.034550
0.026444 -0.001321 0.840174 0 0 128 0.003510
0.027737 -0.002733 0.837907 0 0 143 0.006628
0.024861 -0.002775 0.836294 0 0 143 0.005942
0.029066 -0.003964 0.835529 0 0 158 0.011708
0.026189 -0.004019 0.833923 0 0 158 0.010742
0.027571 -0.004998 0.831421 0 0 174 0.013803
0.030448 -0.004925 0.833011 0 0 174 0.014823
0.023253 -0.004105 0.832330 0 0 158 0.010172
0.024648 -0.005119 0.829828 0 0 174 0.013238
0.021690 -0.005270 0.828216 0 0 174 0.012922
0.020306 -0.004226 0.830777 0 0 158 0.009772
0.021906 -0.002826 0.834766 0 0 143 0.005515
0.018946 -0.002935 0.833235 0 0 143 0.005351
0.020582 -0.001386 0.837119 0 0 128 0.002920
0.023531 -0.001348 0.838633 0 0 128 0.003182
0.017614 -0.001473 0.835579 0 0 128 0.002728
0.031892 -0.005883 0.830414 0 0 189 0.016944
0.033377 -0.006421 0.827699 0 0 174 0.013605
0.030523 -0.006552 0.826068 0 0 174 0.012724
0.034938 -0.006555 0.824813 0 0 158 0.009477
0.032082 -0.006710 0.823173 0 0 158 0.009007
0.033706 -0.006602 0.820155 0 0 174 0.014060
0.036555 -0.006422 0.821804 0 0 174 0.014108
0.029190 -0.006929 0.821530 0 0 158 0.008542
0.030821 -0.006853 0.818516 0 0 174 0.013571
0.027899 -0.007114 0.816889 0 0 174 0.012786
0.026235 -0.007138 0.819935 0 0 158 0.008263
0.027598 -0.006722 0.824483 0 0 174 0.012402
0.024638 -0.006950 0.822871 0 0 174 0.012648
0.026082 -0.006122 0.827241 0 0 174 0.015424
0.029015 -0.005972 0.828831 0 0 189 0.015884
0.023127 -0.006314 0.825627 0 0 174 0.015439
0.017187 -0.007897 0.810468 0 0 174 0.012760
0.015542 -0.007831 0.813510 0 0 143 0.007118
0.018253 -0.007646 0.814999 0 0 143 0.007270
0.016652 -0.007368 0.817948 0 0 158 0.009736
0.013953 -0.007529 0.816418 0 0 158 0.009234
0.019340 -0.007209 0.819494 0 0 158 0.010240
0.015138 -0.006699 0.820784 0 0 174 0.012223
0.017809 -0.006555 0.822367 0 0 174 0.013041
0.016345 -0.005446 0.825073 0 0 158 0.010686
0.012448 -0.006831 0.819210 0 0 158 0.011367
0.013670 -0.005597 0.823483 0 0 158 0.009969
0.011017 -0.005736 0.821884 0 0 158 0.009236
0.020481 -0.006415 0.823935 0 0 174 0.013734
0.019037 -0.005341 0.826640 0 0 158 0.011491
0.022013 -0.007024 0.821167 0 0 158 0.010836
0.023595 -0.007289 0.818285 0 0 143 0.007687
0.020937 -0.007466 0.816622 0 0 143 0.007496
0.022582 -0.007462 0.813661 0 0 174 0.013571
0.025252 -0.007269 0.815260 0 0 174 0.013203
0.019906 -0.007680 0.812050 0 0 174 0.013070
0.009601 -0.004610 0.824580 0 0 143 0.006783
0.012267 -0.004524 0.826072 0 0 143 0.007585
0.010905 -0.003147 0.828647 0 0 128 0.003717
0.008245 -0.003268 0.827169 0 0 128 0.003467
0.013587 -0.003069 0.830107 0 0 143 0.004134
0.009610 -0.001679 0.831127 0 0 128 0.002127
0.012280 -0.001591 0.832571 0 0 128 0.002310
0.006953 -0.001812 0.829670 0 0 128 0.001895
0.014953 -0.001546 0.834028 0 0 128 0.002531
0.016276 -0.002976 0.831680 0 0 143 0.004563
0.017636 -0.004289 0.829224 0 0 158 0.008730
0.014942 -0.004388 0.827649 0 0 158 0.008055
0.025831 -0.018120 0.791265 26 255 222 0.115761
0.023279 -0.018608 0.789781 15 248 233 0.113227
0.022049 -0.015771 0.791663 36 255 211 0.118831
0.020694 -0.019155 0.788296 15 248 233 0.110305
0.019493 -0.016260 0.790163 36 255 211 0.117637
0.016902 -0.016791 0.788654 26 255 222 0.116884
0.018082 -0.019716 0.786820 4 234 244 0.109017
0.018122 -0.013832 0.792211 47 255 201 0.124792
0.015584 -0.014308 0.790661 47 255 201 0.121602
0.014154 -0.012227 0.792880 26 255 222 0.113512
0.016648 -0.011804 0.794391 26 255 222 0.115934
0.020632 -0.013410 0.793689 58 255 190 0.125361
0.019124 -0.011421 0.795922 26 255 222 0.117074
0.023121 -0.012985 0.795168 69 255 179 0.128912
0.024547 -0.015353 0.793101 47 255 201 0.122841
0.026999 -0.014953 0.794560 58 255 190 0.125737
0.021591 -0.011041 0.797438 26 255 222 0.116720
0.025560 -0.012613 0.796674 69 255 179 0.129293
0.024031 -0.010674 0.798959 26 255 222 0.117103
0.028294 -0.017727 0.792686 26 255 222 0.115595
0.015480 -0.020276 0.785353 4 234 244 0.105779
0.012870 -0.020898 0.783725 0 221 255 0.103621
0.011732 -0.017904 0.785674 15 248 233 0.110603
0.010276 -0.021489 0.782110 0 221 255 0.103628
0.009135 -0.018542 0.784024 4 234 244 0.109279
0.006605 -0.019060 0.782326 4 234 244 0.107035
0.007710 -0.022032 0.780518 0 221 255 0.103160
0.007960 -0.015841 0.786055 15 248 233 0.111287
0.005422 -0.016403 0.784348 4 234 244 0.109019
0.004174 -0.014042 0.786503 4 234 244 0.105569
0.006650 -0.013603 0.788095 4 234 244 0.107566
0.010499 -0.015338 0.787606 26 255 222 0.114505
0.009157 -0.013135 0.789699 15 248 233 0.111228
0.013048 -0.014821 0.789134 36 255 211 0.119193
0.014311 -0.017352 0.787159 26 255 222 0.114256
0.011662 -0.012688 0.791288 15 248 233 0.110470
-0.001567 -0.009397 0.798207 0 0 204 0.019974
0.000746 -0.009226 0.799745 0 0 189 0.018701
0.002294 -0.010038 0.796934 0 0 250 0.033719
0.004677 -0.009795 0.798445 0 0 250 0.032340
0.003088 -0.009044 0.801298 0 0 189 0.017384
0.006255 -0.010641 0.795593 0 34 255 0.050611
0.007064 -0.009552 0.799940 0 0 250 0.031768
0.008658 -0.010345 0.797057 0 47 255 0.050832
0.011047 -0.010030 0.798492 0 47 255 0.051484
0.005463 -0.008823 0.802812 0 0 189 0.015928
0.009422 -0.009272 0.801410 0 0 250 0.031525
0.007787 -0.008653 0.804344 0 0 189 0.016054
0.010205 -0.011347 0.794265 0 141 255 0.079191
0.012603 -0.010987 0.795663 0 141 255 0.080881
0.007747 -0.011714 0.792588 0 141 255 0.080894
0.005272 -0.012122 0.790938 0 141 255 0.080774
0.003812 -0.010961 0.793879 0 60 255 0.055613
0.001411 -0.011262 0.792157 0 74 255 0.060949
0.002819 -0.012496 0.789285 0 141 255 0.080635
-0.000082 -0.010273 0.795155 0 0 255 0.037257
0.010130 -0.008427 0.805838 0 0 189 0.015692
0.011799 -0.009019 0.803048 0 0 250 0.031887
0.014191 -0.008761 0.804530 0 0 234 0.030225
0.012486 -0.008226 0.807354 0 0 174 0.015061
0.015892 -0.009403 0.801672 0 47 255 0.051550
0.016577 -0.008519 0.806030 0 0 234 0.029418
0.018306 -0.009090 0.803118 0 47 255 0.052185
0.020706 -0.008783 0.804565 0 47 255 0.052340
0.014845 -0.008064 0.808915 0 0 174 0.014219
0.018951 -0.008277 0.807536 0 0 234 0.028812
0.019984 -0.009919 0.800300 0 154 255 0.082869
0.022387 -0.009588 0.801715 0 154 255 0.084277
0.017529 -0.010270 0.798750 0 141 255 0.081910
0.015072 -0.010618 0.797201 0 141 255 0.082000
0.013462 -0.009708 0.800076 0 47 255 0.051673
-0.009535 -0.002580 0.820175 0 0 128 0.000918
-0.007175 -0.002486 0.821484 0 0 128 0.001023
-0.005819 -0.003854 0.818788 0 0 128 0.001559
-0.004812 -0.002365 0.822807 0 0 128 0.001147
-0.003462 -0.003770 0.820119 0 0 128 0.001817
-0.001065 -0.003678 0.821462 0 0 128 0.002105
-0.002423 -0.002224 0.824142 0 0 128 0.001320
-0.002079 -0.005056 0.817419 0 0 128 0.003492
0.000306 -0.004989 0.818743 0 0 143 0.004054
0.001745 -0.006048 0.815949 0 0 143 0.005045
-0.000589 -0.006136 0.814511 0 0 143 0.004282
-0.004382 -0.005143 0.815970 0 0 128 0.002893
-0.002913 -0.006218 0.813080 0 0 128 0.003527
-0.006656 -0.005230 0.814515 0 0 128 0.002355
-0.008096 -0.003959 0.817347 0 0 128 0.001318
-0.010342 -0.004047 0.815902 0 0 128 0.001070
-0.005201 -0.006271 0.811644 0 0 128 0.002715
-0.008893 -0.005290 0.813067 0 0 128 0.001791
-0.007438 -0.006309 0.810208 0 0 128 0.001985
-0.011775 -0.002708 0.818720 0 0 128 0.000867
-0.000135 -0.002052 0.825635 0 0 128 0.001477
0.002226 -0.001958 0.826994 0 0 128 0.001604
0.003524 -0.003390 0.824475 0 0 128 0.002549
0.004600 -0.001869 0.828340 0 0 128 0.001759
0.005886 -0.003324 0.825826 0 0 128 0.002957
0.007231 -0.004666 0.823250 0 0 143 0.006013
0.008692 -0.005833 0.820384 0 0 158 0.008208
0.004911 -0.004785 0.821737 0 0 143 0.005391
0.006354 -0.005896 0.818892 0 0 143 0.006934
0.002617 -0.004880 0.820243 0 0 143 0.004723
0.001219 -0.003530 0.822965 0 0 128 0.002376
0.004038 -0.005970 0.817444 0 0 143 0.005921
0.013198 -0.007925 0.812105 0 0 143 0.006520
0.010845 -0.008057 0.810512 0 0 143 0.006496
0.009270 -0.007662 0.813541 0 0 143 0.007032
0.008512 -0.008204 0.808951 0 0 143 0.006436
0.006954 -0.007765 0.811924 0 0 143 0.006182
0.004655 -0.007863 0.810321 0 0 143 0.005181
0.006194 -0.008346 0.807398 0 0 143 0.006522
0.005462 -0.007034 0.814829 0 0 143 0.007203
0.003164 -0.007122 0.813178 0 0 143 0.005862
0.007788 -0.006971 0.816277 0 0 158 0.008468
0.010116 -0.006898 0.817740 0 0 158 0.009838
0.011614 -0.007591 0.814984 0 0 158 0.008009
0.003821 -0.008499 0.806058 0 0 143 0.006023
0.001494 -0.008626 0.804506 0 0 143 0.006374
-0.000057 -0.008078 0.807578 0 0 143 0.004268
-0.000815 -0.008765 0.802940 0 0 143 0.006788
-0.002346 -0.008165 0.806011 0 0 128 0.003856
-0.004580 -0.008244 0.804410 0 0 128 0.003563
-0.003092 -0.008876 0.801344 0 0 143 0.007493
-0.003824 -0.007349 0.808969 0 0 128 0.003590
-0.006029 -0.007412 0.807373 0 0 128 0.002718
-0.001518 -0.007306 0.810382 0 0 143 0.004491
0.000830 -0.007215 0.811779 0 0 143 0.005161
0.002300 -0.007975 0.808955 0 0 143 0.004727
0.038236 -0.006602 0.818768 0 0 250 0.031272
0.039790 -0.006799 0.815711 0 87 255 0.062619
0.037060 -0.007002 0.814042 0 87 255 0.064028
0.041312 -0.007179 0.812675 0 194 255 0.096449
0.038577 -0.007446 0.811053 0 194 255 0.094705
0.040019 -0.008316 0.808231 80 255 168 0.133681
0.042761 -0.008026 0.809812 80 255 168 0.133543
0.035834 -0.007767 0.809462 0 194 255 0.094344
0.037279 -0.008674 0.806664 69 255 179 0.130527
0.034503 -0.009095 0.805114 47 255 201 0.124971
0.032941 -0.008155 0.807909 0 167 255 0.089131
0.034184 -0.007318 0.812468 0 74 255 0.061577
0.031293 -0.007632 0.810897 0 60 255 0.056886
0.032503 -0.007099 0.815539 0 0 250 0.031409
0.035369 -0.006844 0.817156 0 0 250 0.031314
0.029601 -0.007338 0.813920 0 0 234 0.029048
0.044140 -0.009804 0.807341 112 255 136 0.147058
0.045313 -0.011989 0.804992 123 255 125 0.150665
0.042736 -0.012401 0.803486 112 255 136 0.146195
0.046360 -0.014648 0.802933 90 255 157 0.137063
0.043800 -0.015046 0.801436 80 255 168 0.135607
0.041206 -0.015476 0.799967 80 255 168 0.133763
0.038451 -0.015901 0.798479 69 255 179 0.130210
0.039995 -0.012756 0.801972 101 255 147 0.141117
0.037238 -0.013203 0.800448 90 255 157 0.138497
0.038681 -0.010513 0.804210 101 255 147 0.142803
0.041421 -0.010133 0.805765 101 255 147 0.143612
0.035913 -0.010940 0.802674 90 255 157 0.139095
0.030971 -0.017275 0.794076 36 255 211 0.120754
0.029683 -0.014497 0.795986 69 255 179 0.131079
0.032297 -0.014071 0.797429 69 255 179 0.132633
0.028239 -0.012170 0.798109 80 255 168 0.134839
0.030860 -0.011758 0.799597 80 255 168 0.136535
0.029323 -0.009816 0.801976 47 255 201 0.124583
0.026693 -0.010227 0.800454 47 255 201 0.122594
0.033442 -0.011362 0.801095 90 255 157 0.137845
0.031937 -0.009428 0.803520 58 255 190 0.125553
0.034774 -0.013619 0.798924 80 255 168 0.136549
0.035987 -0.016337 0.796967 58 255 190 0.127425
0.033497 -0.016783 0.795501 58 255 190 0.126907
0.025105 -0.009186 0.803160 0 167 255 0.086703
0.023422 -0.008424 0.806062 0 60 255 0.057371
0.026099 -0.008135 0.807603 0 60 255 0.057079
0.021657 -0.007980 0.809082 0 0 234 0.030484
0.024350 -0.007740 0.810645 0 0 234 0.031084
0.027010 -0.007510 0.812215 0 0 234 0.030745
0.028728 -0.007840 0.809214 0 74 255 0.059596
0.030362 -0.008452 0.806310 0 181 255 0.090452
0.027735 -0.008817 0.804751 0 167 255 0.088459
0.007233 -0.029359 0.776699 0 74 255 0.061850
0.008216 -0.032982 0.776207 0 7 255 0.041421
0.005701 -0.033306 0.774637 0 20 255 0.043423
0.009185 -0.036565 0.775717 0 0 234 0.029492
0.006685 -0.036840 0.774218 0 0 234 0.029963
0.007683 -0.040221 0.773714 0 0 204 0.021842
0.010192 -0.040047 0.775200 0 0 204 0.021348
0.004180 -0.037063 0.772775 0 0 234 0.029461
0.005179 -0.040391 0.772310 0 0 204 0.021984
0.002670 -0.040534 0.771029 0 0 204 0.020489
0.001477 -0.037345 0.771368 0 0 234 0.027353
0.002981 -0.033653 0.773169 0 7 255 0.041068
0.000298 -0.033993 0.771719 0 7 255 0.039425
0.001782 -0.030245 0.773549 0 74 255 0.059560
0.004491 -0.029831 0.775110 0 74 255 0.059972
0.003201 -0.026392 0.775603 0 141 255 0.081392
-0.000897 -0.030628 0.772101 0 60 255 0.056380
0.000531 -0.026873 0.774032 0 141 255 0.079639
-0.002086 -0.027344 0.772517 0 127 255 0.075353
0.005922 -0.025802 0.777228 0 154 255 0.085157
0.011473 -0.043714 0.775450 0 0 174 0.013697
0.012444 -0.047422 0.775621 0 0 158 0.008821
0.010190 -0.047440 0.774465 0 0 158 0.008634
0.013357 -0.050901 0.775945 0 0 143 0.006760
0.011111 -0.050963 0.774697 0 0 143 0.006720
0.008867 -0.050938 0.773488 0 0 143 0.006453
0.006298 -0.050978 0.772151 0 0 143 0.006132
0.007654 -0.047533 0.773059 0 0 158 0.008211
0.005089 -0.047553 0.771825 0 0 143 0.007458
0.006418 -0.043965 0.772706 0 0 174 0.011967
0.008962 -0.043917 0.774018 0 0 174 0.013029
0.003901 -0.044048 0.771372 0 0 158 0.010928
-0.002034 -0.051242 0.767329 0 0 143 0.006513
0.000226 -0.051077 0.768714 0 0 143 0.006494
-0.001270 -0.047853 0.768321 0 0 143 0.007080
-0.003557 -0.048094 0.767058 0 0 143 0.007124
0.001013 -0.047676 0.769603 0 0 143 0.007449
-0.002734 -0.044632 0.767909 0 0 158 0.009021
-0.000445 -0.044383 0.769098 0 0 158 0.009788
-0.001816 -0.041072 0.768385 0 0 189 0.018610
-0.004964 -0.044900 0.766602 0 0 158 0.009071
-0.004053 -0.041387 0.767168 0 0 189 0.016193
-0.006283 -0.041736 0.765925 0 0 174 0.014480
0.001857 -0.044154 0.770299 0 0 158 0.010542
0.000405 -0.040810 0.769694 0 0 189 0.018648
0.003045 -0.047610 0.770739 0 0 143 0.007150
0.004256 -0.050992 0.771001 0 0 143 0.006321
0.002238 -0.051027 0.769834 0 0 143 0.006312
-0.008228 -0.038620 0.765798 0 0 204 0.021457
-0.005122 -0.038296 0.767408 0 0 204 0.023152
-0.007134 -0.035133 0.767395 0 0 250 0.032834
-0.010149 -0.035474 0.765646 0 0 234 0.029537
-0.004067 -0.034812 0.769040 0 0 255 0.036438
-0.009095 -0.031972 0.767242 0 20 255 0.046722
-0.006081 -0.031554 0.768983 0 34 255 0.048039
-0.008079 -0.028400 0.768951 0 101 255 0.067233
-0.012027 -0.032370 0.765361 0 20 255 0.045165
-0.011003 -0.028863 0.767067 0 101 255 0.066531
-0.013874 -0.029293 0.765070 0 101 255 0.069479
-0.003035 -0.031113 0.770658 0 47 255 0.054259
-0.005135 -0.027914 0.770699 0 114 255 0.071372
-0.001886 -0.034410 0.770342 0 0 255 0.038335
-0.000752 -0.037637 0.770038 0 0 219 0.026196
-0.002964 -0.037941 0.768775 0 0 219 0.024967
-0.013290 -0.036704 0.763219 0 0 234 0.028068
-0.011497 -0.039802 0.763586 0 0 189 0.016648
-0.009566 -0.042835 0.763655 0 0 174 0.012331
-0.012805 -0.043976 0.761204 0 0 158 0.011236
-0.014749 -0.041880 0.760772 0 0 174 0.014875
-0.014962 -0.038210 0.761758 0 0 204 0.023350
-0.016620 -0.039712 0.760203 0 0 189 0.019506
-0.016760 -0.036060 0.761021 0 0 250 0.033234
-0.015178 -0.034550 0.762619 0 0 255 0.037515
-0.016969 -0.032398 0.761888 0 47 255 0.054017
-0.018436 -0.037552 0.759495 0 0 234 0.030754
-0.018572 -0.033890 0.760259 0 34 255 0.049790
-0.020185 -0.035368 0.758657 0 20 255 0.044817
-0.015401 -0.030860 0.763527 0 74 255 0.060595
-0.006577 -0.048739 0.764923 0 0 143 0.006634
-0.005084 -0.051806 0.765186 0 0 143 0.006162
-0.008215 -0.052631 0.762764 0 0 143 0.005390
-0.009856 -0.049785 0.762365 0 0 143 0.005581
-0.009789 -0.046366 0.763161 0 0 143 0.007451
-0.012963 -0.054535 0.758608 0 0 128 0.003564
-0.013448 -0.051386 0.759264 0 0 143 0.004323
-0.015060 -0.048855 0.758581 0 0 143 0.005766
-0.015347 -0.045467 0.758929 0 0 158 0.009891
-0.017811 -0.046989 0.756566 0 0 158 0.011060
-0.012565 -0.047372 0.760894 0 0 143 0.006449
-0.010581 -0.053431 0.760783 0 0 143 0.004366
-0.019830 -0.045153 0.756036 0 0 174 0.012378
-0.020517 -0.042278 0.756659 0 0 189 0.017899
-0.022472 -0.040410 0.755902 0 0 219 0.024872
-0.022969 -0.037472 0.756237 0 7 255 0.039144
-0.025701 -0.039563 0.753560 0 7 255 0.040241
-0.017294 -0.043356 0.758490 0 0 174 0.013607
0.004877 -0.022616 0.779065 0 194 255 0.094776
0.002164 -0.023266 0.777319 0 167 255 0.088601
0.001063 -0.020307 0.779268 0 181 255 0.091754
-0.000483 -0.023855 0.775667 0 154 255 0.085751
-0.001550 -0.020941 0.777491 0 181 255 0.093615
-0.004090 -0.021557 0.775814 0 167 255 0.088243
-0.003043 -0.024386 0.774000 0 154 255 0.084745
-0.002703 -0.018226 0.779567 0 181 255 0.092099
-0.005231 -0.018854 0.777749 0 167 255 0.088237
-0.006403 -0.016288 0.779894 0 181 255 0.090794
-0.003832 -0.015784 0.781537 0 181 255 0.093459
-0.000050 -0.017653 0.781137 0 194 255 0.095015
-0.001240 -0.015239 0.783184 0 194 255 0.094449
0.002667 -0.017049 0.782745 0 221 255 0.102480
0.003807 -0.019664 0.780770 0 208 255 0.098840
0.001416 -0.014650 0.784830 0 208 255 0.099529
-0.005842 -0.024737 0.772991 0 127 255 0.074609
-0.008771 -0.025311 0.771088 0 101 255 0.069673
-0.009584 -0.022310 0.773495 0 114 255 0.070333
-0.011634 -0.025821 0.769123 0 114 255 0.071275
-0.012411 -0.022876 0.771426 0 101 255 0.069425
-0.015181 -0.023322 0.769341 0 114 255 0.072666
-0.014454 -0.026240 0.767080 0 127 255 0.075081
-0.013292 -0.020016 0.774039 0 101 255 0.067882
-0.016048 -0.020513 0.771820 0 114 255 0.071612
-0.016987 -0.017777 0.774550 0 87 255 0.066101
-0.014421 -0.017499 0.775904 0 101 255 0.068916
-0.010666 -0.019671 0.775275 0 114 255 0.072901
-0.011808 -0.017149 0.777243 0 127 255 0.075323
-0.007987 -0.019274 0.776501 0 141 255 0.079484
-0.006875 -0.021957 0.774622 0 127 255 0.076963
-0.009129 -0.016744 0.778564 0 154 255 0.082878
-0.021762 -0.011017 0.787084 0 0 189 0.017206
-0.019270 -0.010889 0.788398 0 0 189 0.017146
-0.017973 -0.012250 0.785268 0 0 234 0.029408
-0.015431 -0.012012 0.786523 0 0 250 0.031305
-0.016756 -0.010689 0.789656 0 0 189 0.018388
-0.014147 -0.013487 0.783451 0 20 255 0.045254
-0.012851 -0.011738 0.787765 0 0 250 0.033229
-0.011538 -0.013128 0.784648 0 34 255 0.050763
-0.008863 -0.012738 0.785807 0 60 255 0.055869
-0.014222 -0.010489 0.790937 0 0 189 0.019213
-0.010249 -0.011413 0.788988 0 0 255 0.036613
-0.011657 -0.010248 0.792214 0 0 204 0.019867
-0.010261 -0.014791 0.781648 0 87 255 0.065560
-0.007584 -0.014357 0.782770 0 114 255 0.073600
-0.012935 -0.015167 0.780237 0 87 255 0.063232
-0.015554 -0.015511 0.778813 0 60 255 0.057133
-0.016744 -0.013775 0.781959 0 20 255 0.044853
-0.019305 -0.014002 0.780456 0 7 255 0.041908
-0.018124 -0.015780 0.777354 0 60 255 0.054723
-0.020521 -0.012454 0.783727 0 0 234 0.029318
-0.009240 -0.010092 0.793673 0 0 204 0.020949
-0.007852 -0.011172 0.790805 0 0 250 0.034237
-0.005321 -0.010898 0.792218 0 0 250 0.034177
-0.006751 -0.009897 0.795137 0 0 204 0.020575
-0.003910 -0.012032 0.789366 0 47 255 0.052692
-0.002714 -0.010599 0.793666 0 0 255 0.036304
-0.001279 -0.011665 0.790750 0 60 255 0.055540
-0.004185 -0.009668 0.796664 0 0 204 0.020075
0.000091 -0.012968 0.787940 0 114 255 0.074160
-0.002539 -0.013461 0.786201 0 127 255 0.076376
-0.005080 -0.013935 0.784493 0 127 255 0.076215
-0.006427 -0.012411 0.787599 0 47 255 0.054218
-0.023171 -0.010086 0.790167 0 0 158 0.008215
-0.020713 -0.009999 0.791435 0 0 158 0.007871
-0.022135 -0.009072 0.794483 0 0 128 0.003334
-0.024619 -0.009157 0.793226 0 0 128 0.003479
-0.019660 -0.008992 0.795756 0 0 128 0.003589
-0.023564 -0.008103 0.797492 0 0 128 0.001356
-0.021067 -0.008016 0.798783 0 0 128 0.001343
-0.022470 -0.006863 0.801770 0 0 128 0.000644
-0.026043 -0.008137 0.796236 0 0 128 0.001505
-0.024972 -0.006952 0.800466 0 0 128 0.000675
-0.027495 -0.006994 0.799176 0 0 128 0.000821
-0.018566 -0.007889 0.800072 0 0 128 0.001272
-0.019963 -0.006749 0.803063 0 0 128 0.000703
-0.017451 -0.006606 0.804378 0 0 128 0.000781
-0.016047 -0.007771 0.801427 0 0 128 0.001512
-0.017157 -0.008874 0.797063 0 0 128 0.003310
-0.014625 -0.008760 0.798390 0 0 128 0.003820
-0.015694 -0.009727 0.794012 0 0 143 0.007795
-0.018205 -0.009865 0.792725 0 0 158 0.007870
-0.013161 -0.009545 0.795303 0 0 158 0.008665
-0.028996 -0.006045 0.802004 0 0 128 0.000452
-0.026473 -0.005962 0.803363 0 0 128 0.000411
-0.027987 -0.004940 0.806232 0 0 128 0.000347
-0.030525 -0.005030 0.804865 0 0 128 0.000347
-0.025487 -0.004809 0.807583 0 0 128 0.000383
-0.029529 -0.003834 0.809096 0 0 128 0.000310
-0.026994 -0.003695 0.810444 0 0 128 0.000322
-0.032088 -0.003931 0.807731 0 0 128 0.000363
-0.024469 -0.003496 0.811787 0 0 128 0.000373
-0.021909 -0.003309 0.813053 0 0 128 0.000464
-0.022963 -0.004674 0.808879 0 0 128 0.000443
-0.020426 -0.004505 0.810173 0 0 128 0.000498
-0.021460 -0.005763 0.805975 0 0 128 0.000539
-0.023972 -0.005875 0.804664 0 0 128 0.000449
-0.018931 -0.005616 0.807275 0 0 128 0.000620
-0.014321 -0.002895 0.817265 0 0 128 0.000715
-0.012896 -0.004203 0.814449 0 0 128 0.000947
-0.015428 -0.004345 0.812968 0 0 128 0.000768
-0.011461 -0.005410 0.811612 0 0 128 0.001478
-0.014006 -0.005502 0.810138 0 0 128 0.001158
-0.012556 -0.006514 0.807254 0 0 128 0.001279
-0.010004 -0.006419 0.808740 0 0 128 0.001624
-0.016467 -0.005568 0.808674 0 0 128 0.000843
-0.015028 -0.006584 0.805801 0 0 128 0.000976
-0.017956 -0.004435 0.811558 0 0 128 0.000627
-0.019428 -0.003211 0.814440 0 0 128 0.000502
-0.016904 -0.003059 0.815849 0 0 128 0.000592
-0.008551 -0.007536 0.805748 0 0 128 0.002302
-0.007130 -0.008421 0.802815 0 0 128 0.003577
-0.009641 -0.008552 0.801214 0 0 128 0.003718
-0.005688 -0.009093 0.799788 0 0 158 0.007845
-0.008219 -0.009279 0.798227 0 0 158 0.008304
-0.010688 -0.009416 0.796661 0 0 158 0.008962
-0.012156 -0.008674 0.799792 0 0 128 0.003595
-0.013595 -0.007737 0.802841 0 0 128 0.001744
-0.011111 -0.007654 0.804277 0 0 128 0.002054
-0.023314 -0.012513 0.782877 0 0 219 0.025394
-0.022099 -0.014105 0.779617 0 0 255 0.035883
-0.024904 -0.014109 0.778726 0 0 250 0.033688
-0.020921 -0.015869 0.776572 0 34 255 0.047096
-0.023728 -0.015874 0.775667 0 20 255 0.043106
-0.022628 -0.017820 0.772800 0 60 255 0.055525
-0.019799 -0.017838 0.773740 0 60 255 0.057185
-0.026632 -0.015829 0.774647 0 7 255 0.042563
-0.025529 -0.017756 0.771753 0 47 255 0.053728
-0.028566 -0.017633 0.770597 0 47 255 0.051229
-0.029474 -0.015922 0.773461 0 7 255 0.040440
-0.027599 -0.014238 0.777656 0 0 250 0.031908
-0.030438 -0.014322 0.776459 0 0 234 0.030488
-0.028615 -0.012798 0.780799 0 0 204 0.021611
-0.025936 -0.012682 0.781865 0 0 204 0.022471
-0.026963 -0.011386 0.785119 0 0 174 0.014193
-0.031403 -0.012861 0.779616 0 0 204 0.021559
-0.029634 -0.011482 0.784067 0 0 174 0.013648
-0.032403 -0.011529 0.782924 0 0 174 0.013752
-0.024340 -0.011221 0.786121 0 0 174 0.015389
-0.019445 -0.019682 0.771267 0 101 255 0.067845
-0.018601 -0.022421 0.768734 0 101 255 0.068821
-0.022056 -0.021467 0.768032 0 101 255 0.069568
-0.017868 -0.025314 0.766442 0 101 255 0.066627
-0.021268 -0.024276 0.765661 0 101 255 0.069288
-0.020594 -0.027204 0.763506 0 87 255 0.065582
-0.017222 -0.028275 0.764421 0 74 255 0.062288
-0.024768 -0.023217 0.764717 0 114 255 0.073739
-0.024063 -0.026055 0.762523 0 114 255 0.071947
-0.027627 -0.024910 0.761402 0 141 255 0.079774
-0.027794 -0.023010 0.763442 0 127 255 0.074330
-0.024963 -0.021351 0.766875 0 101 255 0.066955
-0.028013 -0.021163 0.765672 0 101 255 0.068369
-0.025241 -0.019509 0.769249 0 74 255 0.059497
-0.022313 -0.019629 0.770301 0 87 255 0.063950
-0.028278 -0.019373 0.768080 0 74 255 0.059450
-0.041211 -0.023329 0.758174 0 181 255 0.093579
-0.041292 -0.021755 0.760278 0 141 255 0.081800
-0.037859 -0.021845 0.761225 0 127 255 0.075720
-0.037970 -0.020345 0.763387 0 87 255 0.064977
-0.041440 -0.020268 0.762444 0 101 255 0.070255
-0.034587 -0.020477 0.764338 0 87 255 0.063145
-0.038069 -0.018890 0.765690 0 60 255 0.057450
-0.034734 -0.018968 0.766579 0 60 255 0.057639
-0.034860 -0.017536 0.768964 0 34 255 0.047952
-0.041569 -0.018841 0.764763 0 74 255 0.061059
-0.038211 -0.017452 0.768090 0 34 255 0.048666
-0.041732 -0.017388 0.767211 0 47 255 0.051826
-0.031503 -0.019068 0.767453 0 60 255 0.057204
-0.031658 -0.017589 0.769802 0 34 255 0.050174
-0.031267 -0.020816 0.765041 0 87 255 0.064202
-0.031006 -0.022616 0.762739 0 114 255 0.073013
-0.034396 -0.022211 0.762014 0 114 255 0.072327
-0.034204 -0.024019 0.759730 0 154 255 0.083872
-0.030840 -0.024439 0.760580 0 141 255 0.078905
-0.037646 -0.023638 0.758963 0 167 255 0.088914
-0.042504 -0.015976 0.769917 0 7 255 0.040773
-0.039225 -0.015762 0.771000 0 0 255 0.038810
-0.040024 -0.014424 0.773805 0 0 234 0.028434
-0.043279 -0.014650 0.772745 0 0 250 0.031266
-0.036872 -0.014224 0.774889 0 0 234 0.028459
-0.040801 -0.013171 0.776715 0 0 204 0.021745
-0.037612 -0.012998 0.777822 0 0 204 0.020421
-0.038320 -0.011848 0.780825 0 0 174 0.013422
-0.044091 -0.013354 0.775623 0 0 219 0.024037
-0.041519 -0.011980 0.779709 0 0 174 0.014672
-0.044849 -0.012127 0.778557 0 0 189 0.018473
-0.034567 -0.012813 0.778884 0 0 204 0.020402
-0.035286 -0.011728 0.781930 0 0 174 0.012830
-0.033568 -0.014279 0.775707 0 0 234 0.028311
-0.032597 -0.015883 0.772663 0 0 255 0.038256
-0.035861 -0.015825 0.771836 0 0 255 0.037648
-0.034575 -0.004121 0.806634 0 0 128 0.000401
-0.033004 -0.005222 0.803747 0 0 128 0.000388
-0.035540 -0.005358 0.802617 0 0 128 0.000450
-0.031467 -0.006237 0.800898 0 0 128 0.000439
-0.033985 -0.006382 0.799793 0 0 128 0.000481
-0.032450 -0.007321 0.797009 0 0 128 0.000738
-0.029954 -0.007183 0.798103 0 0 128 0.000713
-0.036552 -0.006466 0.798668 0 0 128 0.000626
-0.034996 -0.007411 0.795882 0 0 128 0.001072
-0.037660 -0.007467 0.794687 0 0 128 0.001577
-0.039152 -0.006563 0.797393 0 0 128 0.001068
-0.038060 -0.005507 0.801381 0 0 128 0.000606
-0.040643 -0.005610 0.800098 0 0 128 0.000910
-0.039558 -0.004479 0.804149 0 0 128 0.000667
-0.037030 -0.004323 0.805412 0 0 128 0.000472
-0.042168 -0.004592 0.802854 0 0 128 0.000974
-0.028654 -0.008228 0.795254 0 0 128 0.001452
-0.027203 -0.009276 0.792238 0 0 128 0.003572
-0.029809 -0.009363 0.791235 0 0 128 0.003565
-0.025761 -0.010251 0.789190 0 0 143 0.007779
-0.028367 -0.010394 0.788196 0 0 143 0.007365
-0.031033 -0.010440 0.787116 0 0 143 0.007238
-0.033681 -0.010551 0.785887 0 0 143 0.007032
-0.032337 -0.009502 0.790089 0 0 128 0.003483
-0.034985 -0.009567 0.788862 0 0 143 0.003958
-0.033653 -0.008492 0.793006 0 0 128 0.001731
-0.031130 -0.008388 0.794163 0 0 128 0.001522
-0.036301 -0.008554 0.791802 0 0 128 0.002216
-0.045938 -0.011159 0.781331 0 0 174 0.013359
-0.042814 -0.010904 0.782633 0 0 158 0.010469
-0.043914 -0.009972 0.785486 0 0 143 0.007205
-0.047027 -0.010191 0.784161 0 0 158 0.010078
-0.040898 -0.009789 0.786754 0 0 143 0.005368
-0.045047 -0.009011 0.788330 0 0 143 0.005269
-0.042037 -0.008837 0.789599 0 0 128 0.003584
-0.043168 -0.007859 0.792383 0 0 128 0.002733
-0.048118 -0.009213 0.787022 0 0 143 0.007770
-0.046162 -0.008035 0.791164 0 0 143 0.004183
-0.049222 -0.008202 0.789867 0 0 143 0.006353
-0.039179 -0.008646 0.790806 0 0 128 0.002777
-0.040316 -0.007676 0.793600 0 0 128 0.001888
-0.037862 -0.009693 0.787843 0 0 143 0.004321
-0.036575 -0.010717 0.784880 0 0 143 0.007329
-0.039636 -0.010800 0.783756 0 0 158 0.008579
-0.050549 -0.007347 0.792521 0 0 143 0.005229
-0.047626 -0.007110 0.793915 0 0 128 0.003432
-0.048949 -0.006223 0.796541 0 0 128 0.003022
-0.051868 -0.006447 0.795159 0 0 143 0.004546
-0.046126 -0.005985 0.797871 0 0 128 0.001962
-0.050288 -0.005270 0.799153 0 0 128 0.003032
-0.047500 -0.005036 0.800477 0 0 128 0.002016
-0.053158 -0.005506 0.797746 0 0 143 0.004352
-0.044826 -0.004794 0.801764 0 0 128 0.001340
-0.043331 -0.005810 0.799024 0 0 128 0.001312
-0.041828 -0.006766 0.796312 0 0 128 0.001368
-0.044655 -0.006943 0.795143 0 0 128 0.002162
-0.047885 -0.012557 0.777600 0 0 189 0.018933
-0.048925 -0.011640 0.780174 0 0 174 0.014616
-0.051951 -0.012085 0.779282 0 0 189 0.015947
-0.050932 -0.013013 0.776680 0 0 204 0.020669
-0.052989 -0.011142 0.781826 0 0 174 0.013670
-0.054995 -0.012574 0.778299 0 0 189 0.018975
-0.055959 -0.011630 0.780949 0 0 174 0.015006
-0.058953 -0.012141 0.779962 0 0 189 0.019007
-0.053931 -0.013555 0.775809 0 0 204 0.022597
-0.057953 -0.013122 0.777437 0 0 204 0.022222
-0.056939 -0.014113 0.774915 0 0 219 0.027036
-0.056962 -0.010644 0.783513 0 0 174 0.013110
-0.059953 -0.011161 0.782585 0 0 189 0.016159
-0.060950 -0.010158 0.785185 0 0 174 0.014056
-0.058014 -0.009584 0.786318 0 0 174 0.012060
-0.054055 -0.010122 0.784640 0 0 158 0.011170
-0.055101 -0.009080 0.787457 0 0 158 0.009671
-0.051083 -0.009643 0.785812 0 0 158 0.009217
-0.050022 -0.010641 0.782957 0 0 158 0.011313
-0.052119 -0.008619 0.788678 0 0 143 0.007800
-0.059829 -0.014968 0.774238 0 0 219 0.026364
-0.060764 -0.014027 0.776585 0 0 204 0.022635
-0.063629 -0.014916 0.775928 0 0 204 0.023413
-0.062679 -0.015889 0.773613 0 0 219 0.026941
-0.064561 -0.013951 0.778301 0 0 204 0.020418
-0.066466 -0.015864 0.775368 0 0 219 0.023524
-0.067391 -0.014867 0.777678 0 0 204 0.020599
-0.070240 -0.015846 0.777131 0 0 204 0.020705
-0.065489 -0.016856 0.773062 0 0 219 0.025283
-0.069216 -0.016845 0.774872 0 0 204 0.022536
-0.068264 -0.017870 0.772609 0 0 219 0.024772
-0.068391 -0.013883 0.780035 0 0 189 0.019181
-0.071193 -0.014815 0.779457 0 0 189 0.018896
-0.072148 -0.013807 0.781790 0 0 189 0.016877
-0.069426 -0.012813 0.782560 0 0 189 0.016815
-0.065601 -0.012928 0.780807 0 0 189 0.017773
-0.066645 -0.011894 0.783356 0 0 189 0.016621
-0.062806 -0.012023 0.781635 0 0 189 0.017102
-0.061772 -0.013029 0.779094 0 0 204 0.019589
-0.063805 -0.011009 0.784207 0 0 174 0.014883
-0.073047 -0.010215 0.789691 0 0 174 0.011850
-0.070298 -0.009249 0.790687 0 0 158 0.011431
-0.069036 -0.010178 0.788196 0 0 174 0.012575
-0.067487 -0.008357 0.791731 0 0 158 0.011260
-0.066253 -0.009269 0.789263 0 0 158 0.011425
-0.063452 -0.008420 0.790286 0 0 158 0.010926
-0.064627 -0.007514 0.792811 0 0 158 0.010178
-0.065046 -0.010161 0.786671 0 0 174 0.013207
-0.062191 -0.009299 0.787774 0 0 174 0.012521
-0.067845 -0.011030 0.785789 0 0 174 0.013823
-0.070670 -0.011962 0.784961 0 0 174 0.014731
-0.071870 -0.011079 0.787342 0 0 174 0.013290
-0.074597 -0.012039 0.786539 0 0 174 0.013434
-0.073386 -0.012914 0.784185 0 0 174 0.015311
-0.075731 -0.011117 0.788896 0 0 174 0.012570
-0.061712 -0.006973 0.793955 0 0 158 0.008322
-0.058814 -0.006448 0.795200 0 0 143 0.006623
-0.057546 -0.007381 0.792618 0 0 143 0.007105
-0.055979 -0.005948 0.796497 0 0 143 0.005323
-0.054677 -0.006896 0.793901 0 0 143 0.005625
-0.053364 -0.007790 0.791281 0 0 143 0.006431
-0.056309 -0.008238 0.790085 0 0 158 0.008230
-0.059257 -0.008748 0.788913 0 0 158 0.010006
-0.060484 -0.007880 0.791451 0 0 158 0.008984
-0.001426 -0.093219 0.700198 213 255 35 0.328344
0.001892 -0.093489 0.699350 230 255 18 0.366095
0.004012 -0.094944 0.697641 247 246 1 0.401523
0.007305 -0.095331 0.696892 255 231 0 0.426993
0.004990 -0.097720 0.695097 249 244 0 0.405064
0.001565 -0.097252 0.695883 232 255 16 0.368278
-0.000554 -0.095762 0.697540 220 255 28 0.347541
-0.004044 -0.095459 0.698245 196 255 52 0.295531
-0.006250 -0.094185 0.699993 188 255 60 0.277415
-0.008800 -0.096256 0.698292 175 255 73 0.253228
0.011840 -0.094674 0.696835 255 216 0 0.454153
0.015149 -0.095189 0.695808 255 185 0 0.511266
0.012895 -0.097668 0.693991 255 187 0 0.504252
0.009537 -0.097066 0.694972 255 211 0 0.463044
0.011165 -0.105193 0.689775 255 174 0 0.530047
0.008697 -0.103194 0.691385 255 207 0 0.472551
0.005234 -0.102606 0.692397 241 253 7 0.390167
0.002853 -0.100590 0.693955 228 255 20 0.363246
0.000740 -0.103373 0.692787 218 255 29 0.343372
0.007416 -0.099661 0.693590 255 222 0 0.441441
0.010791 -0.100277 0.692520 255 185 0 0.510312
-0.002803 -0.102796 0.693753 192 255 56 0.288275
-0.005157 -0.100971 0.695107 184 255 64 0.270326
-0.008708 -0.100547 0.695872 165 255 83 0.232349
-0.011110 -0.098864 0.697190 152 255 96 0.206354
-0.013425 -0.101439 0.696123 142 255 106 0.186277
-0.006384 -0.097942 0.696883 180 255 68 0.262954
-0.002937 -0.098303 0.696121 203 255 45 0.308598
-0.000585 -0.100097 0.694786 211 255 37 0.325726
0.010972 -0.111406 0.687764 255 196 0 0.490593
0.009503 -0.114236 0.687781 255 205 0 0.475308
0.008035 -0.117005 0.687686 255 225 0 0.438184
0.005016 -0.128024 0.689491 251 242 0 0.408931
0.000852 -0.127723 0.690491 232 255 16 0.368978
-0.002800 -0.126005 0.691202 196 255 52 0.296474
-0.006786 -0.125715 0.692099 173 255 75 0.249168
-0.010368 -0.123935 0.692733 144 255 104 0.189422
-0.011147 -0.126845 0.693204 154 255 94 0.208357
-0.006017 -0.122830 0.691610 173 255 75 0.248777
-0.009605 -0.121039 0.692228 148 255 100 0.196222
-0.002137 -0.123251 0.690655 194 255 54 0.292814
0.001758 -0.123685 0.689704 224 255 24 0.353947
0.005469 -0.125407 0.688983 255 238 0 0.414896
0.005988 -0.122743 0.688329 253 240 0 0.412270
-0.015091 -0.126427 0.693933 135 255 113 0.168579
-0.018518 -0.124428 0.694512 80 255 168 0.133998
-0.022440 -0.123933 0.695264 26 255 222 0.115132
-0.025860 -0.121794 0.695825 0 194 255 0.097001
-0.027044 -0.124882 0.696172 4 234 244 0.108801
-0.021415 -0.120836 0.694895 4 234 244 0.105620
-0.024780 -0.118752 0.695419 0 181 255 0.091637
-0.017606 -0.121410 0.694088 47 255 201 0.123021
-0.013826 -0.121964 0.693302 123 255 125 0.149984
-0.021637 -0.112546 0.695078 0 194 255 0.096444
-0.018005 -0.113177 0.694258 15 248 233 0.111712
-0.015040 -0.115304 0.693570 58 255 190 0.125958
-0.011355 -0.115911 0.692708 133 255 115 0.164408
-0.008283 -0.117995 0.692002 146 255 102 0.193094
-0.006942 -0.114873 0.691688 156 255 92 0.213023
-0.012647 -0.118965 0.692974 112 255 136 0.148075
-0.016463 -0.118383 0.693782 36 255 211 0.117502
-0.020209 -0.117804 0.694595 0 208 255 0.099882
-0.023192 -0.115650 0.695317 0 181 255 0.091603
-0.003199 -0.115428 0.690694 182 255 66 0.265669
0.000005 -0.117416 0.689878 201 255 47 0.305666
0.003748 -0.117955 0.688884 234 255 14 0.373391
0.007027 -0.119908 0.688030 255 231 0 0.428675
0.002693 -0.120841 0.689244 224 255 24 0.353811
-0.001207 -0.120395 0.690204 197 255 50 0.299315
-0.005099 -0.119964 0.691177 171 255 77 0.243127
-0.017019 -0.100968 0.696739 136 255 111 0.172381
-0.019331 -0.099322 0.697856 138 255 109 0.178701
-0.023066 -0.098952 0.698559 140 255 108 0.180283
-0.025491 -0.097409 0.699926 140 255 108 0.180216
-0.028030 -0.099628 0.699056 131 255 117 0.160578
-0.020447 -0.096551 0.699609 148 255 100 0.195873
-0.022957 -0.095082 0.701045 144 255 104 0.190259
-0.016897 -0.096905 0.698943 150 255 98 0.199891
-0.013387 -0.097203 0.698318 152 255 96 0.206117
-0.030951 -0.099136 0.699627 127 255 121 0.154703
-0.032436 -0.097651 0.700750 127 255 121 0.154682
-0.035264 -0.097342 0.701364 90 255 157 0.137632
-0.032646 -0.095334 0.702766 123 255 125 0.149924
-0.029891 -0.095540 0.701965 135 255 113 0.171709
-0.027111 -0.095920 0.701265 142 255 106 0.185435
-0.025839 -0.092826 0.704409 136 255 111 0.175653
-0.023033 -0.092986 0.703517 144 255 104 0.188070
-0.020195 -0.093183 0.702733 150 255 98 0.200558
-0.030119 -0.093621 0.704512 123 255 125 0.150591
-0.015174 -0.092274 0.702834 157 255 90 0.215881
-0.011800 -0.092583 0.702087 167 255 81 0.236645
-0.009618 -0.093934 0.700592 173 255 75 0.246463
-0.014348 -0.094570 0.700318 157 255 90 0.216910
-0.017929 -0.094314 0.701035 152 255 96 0.206094
-0.025289 -0.111890 0.695739 0 208 255 0.100227
-0.028062 -0.109757 0.696607 0 221 255 0.102225
-0.031774 -0.108983 0.697166 0 221 255 0.102819
-0.034372 -0.106995 0.697732 15 248 233 0.111947
-0.036305 -0.109539 0.697388 0 221 255 0.102221
-0.029804 -0.106336 0.697317 36 255 211 0.117353
-0.032442 -0.104375 0.697899 69 255 179 0.130582
-0.026047 -0.107084 0.696590 47 255 201 0.124697
-0.022396 -0.107732 0.695882 47 255 201 0.121547
-0.019729 -0.109731 0.695193 4 234 244 0.108937
-0.017799 -0.106835 0.695190 80 255 168 0.133347
-0.039163 -0.108846 0.697548 15 248 233 0.112448
-0.040974 -0.106961 0.698017 26 255 222 0.115040
-0.043840 -0.106287 0.698249 15 248 233 0.111650
-0.045784 -0.104389 0.698797 26 255 222 0.115763
-0.047831 -0.106837 0.698268 15 248 233 0.110344
-0.041874 -0.103884 0.698733 36 255 211 0.118192
-0.043811 -0.102040 0.699316 36 255 211 0.118671
-0.039085 -0.104483 0.698467 47 255 201 0.121132
-0.036298 -0.105085 0.698186 36 255 211 0.120786
-0.037589 -0.099368 0.700276 80 255 168 0.136330
-0.034858 -0.099866 0.699791 101 255 147 0.143902
-0.033095 -0.101492 0.698970 90 255 157 0.140026
-0.030225 -0.102055 0.698473 101 255 147 0.144103
-0.037021 -0.102122 0.699020 58 255 190 0.127536
-0.039820 -0.101549 0.699368 58 255 190 0.126394
-0.041527 -0.099942 0.700278 58 255 190 0.126963
-0.025410 -0.101381 0.697926 131 255 117 0.163595
-0.021719 -0.101901 0.697183 131 255 117 0.161236
-0.019200 -0.103700 0.696298 112 255 136 0.147671
-0.015626 -0.104193 0.695698 127 255 121 0.152543
-0.023907 -0.104447 0.696765 101 255 147 0.141643
-0.027672 -0.103842 0.697541 90 255 157 0.139211
-0.010952 -0.103274 0.695191 148 255 100 0.196768
-0.007389 -0.103774 0.694315 165 255 83 0.231290
-0.004882 -0.105702 0.693238 171 255 77 0.242557
-0.001272 -0.106139 0.692356 194 255 54 0.289515
-0.003327 -0.108993 0.691821 180 255 68 0.263213
-0.007012 -0.108502 0.692704 157 255 90 0.217054
-0.009528 -0.106562 0.693799 148 255 100 0.196077
-0.013140 -0.106055 0.694669 131 255 117 0.162680
0.003247 -0.105392 0.691638 241 253 7 0.388537
0.006733 -0.105976 0.690624 255 231 0 0.429511
0.009307 -0.108003 0.689354 255 211 0 0.464294
0.007415 -0.110799 0.688774 255 214 0 0.458865
0.004857 -0.108750 0.690059 243 251 5 0.392613
0.001244 -0.108157 0.691102 216 255 31 0.336476
0.005114 -0.115061 0.688759 241 253 7 0.389769
0.001435 -0.114510 0.689731 216 255 31 0.337100
-0.001441 -0.112548 0.690813 196 255 52 0.295873
-0.005131 -0.111986 0.691767 165 255 83 0.234318
0.003083 -0.111625 0.689818 224 255 24 0.352243
-0.009718 -0.112868 0.692643 136 255 111 0.172923
-0.013451 -0.112337 0.693496 69 255 179 0.131286
-0.016111 -0.110312 0.694352 47 255 201 0.121914
-0.011559 -0.109407 0.693576 131 255 117 0.163151
-0.072452 -0.096170 0.704414 0 221 255 0.104677
-0.075405 -0.097020 0.704829 0 221 255 0.101925
-0.075628 -0.099291 0.703965 0 221 255 0.105330
-0.078360 -0.097859 0.705160 0 221 255 0.103423
-0.078655 -0.100186 0.704337 15 248 233 0.110887
-0.081665 -0.101064 0.704577 36 255 211 0.118598
-0.078896 -0.102512 0.703561 15 248 233 0.110787
-0.081399 -0.098661 0.705371 15 248 233 0.111657
-0.084367 -0.099571 0.705600 80 255 168 0.133195
-0.080788 -0.096143 0.706169 26 255 222 0.113298
-0.077720 -0.095395 0.705971 0 208 255 0.101167
-0.074786 -0.094589 0.705619 0 221 255 0.103012
-0.077081 -0.093012 0.706895 0 194 255 0.095909
-0.081603 -0.103913 0.704285 26 255 222 0.115677
-0.081120 -0.106550 0.703950 15 248 233 0.110072
-0.084267 -0.105348 0.705006 47 255 201 0.121867
-0.083804 -0.107996 0.704708 36 255 211 0.118811
-0.086393 -0.109481 0.705477 69 255 179 0.129307
-0.083265 -0.110671 0.704491 36 255 211 0.119351
-0.086924 -0.106804 0.705724 80 255 168 0.134392
-0.089494 -0.108332 0.706451 127 255 121 0.152499
-0.087093 -0.103870 0.705861 90 255 157 0.139511
-0.084394 -0.102449 0.705259 47 255 201 0.124367
-0.095336 -0.105749 0.708744 148 255 100 0.199199
-0.094061 -0.103336 0.708541 140 255 108 0.183340
-0.091320 -0.101780 0.707801 131 255 117 0.161002
-0.089879 -0.099435 0.707650 127 255 121 0.153842
-0.086955 -0.097983 0.706960 80 255 168 0.136211
-0.089541 -0.096310 0.708212 123 255 125 0.152176
-0.087228 -0.101052 0.706371 90 255 157 0.138541
-0.089806 -0.105453 0.706754 123 255 125 0.150731
-0.092480 -0.107076 0.707633 136 255 111 0.174692
-0.087506 -0.094506 0.708663 58 255 190 0.126373
-0.084421 -0.093664 0.708344 0 221 255 0.105029
-0.082394 -0.092002 0.708794 0 208 255 0.101168
-0.079291 -0.091226 0.708439 0 181 255 0.091623
-0.081457 -0.089411 0.709924 0 181 255 0.093531
-0.080192 -0.093757 0.707273 0 221 255 0.101569
-0.083897 -0.097046 0.706603 36 255 211 0.117861
-0.079225 -0.088203 0.710774 0 114 255 0.073963
-0.076110 -0.087994 0.710821 0 74 255 0.060201
-0.073977 -0.086859 0.711646 0 34 255 0.048819
-0.070881 -0.086599 0.711571 0 20 255 0.045536
-0.072777 -0.084804 0.713280 0 7 255 0.041011
-0.072013 -0.088659 0.709922 0 60 255 0.056140
-0.068977 -0.088377 0.709809 0 60 255 0.055147
-0.072946 -0.090614 0.708332 0 114 255 0.071239
-0.076108 -0.090929 0.708418 0 127 255 0.075691
-0.070554 -0.084004 0.714352 0 0 250 0.032518
-0.067512 -0.084173 0.714522 0 0 219 0.027277
-0.065470 -0.083382 0.715592 0 0 219 0.023475
-0.063794 -0.085181 0.713720 0 0 234 0.030396
-0.064891 -0.086815 0.711817 0 0 255 0.037698
-0.067870 -0.086776 0.711784 0 7 255 0.040104
-0.060037 -0.088456 0.710480 0 7 255 0.041906
-0.060832 -0.089972 0.708720 0 47 255 0.052086
-0.062951 -0.088455 0.710328 0 20 255 0.043254
-0.063823 -0.090030 0.708538 0 60 255 0.056058
-0.066878 -0.090008 0.708361 0 74 255 0.062183
-0.064776 -0.091551 0.706895 0 114 255 0.071899
-0.065968 -0.088426 0.710091 0 34 255 0.048095
-0.061936 -0.086872 0.712076 0 0 255 0.035526
-0.067846 -0.091927 0.707031 0 114 255 0.072167
-0.068548 -0.093777 0.705622 0 154 255 0.084476
-0.070836 -0.092263 0.706992 0 127 255 0.075905
-0.071689 -0.094192 0.705690 0 167 255 0.087374
-0.074011 -0.092624 0.706969 0 167 255 0.086939
-0.069879 -0.090275 0.708354 0 87 255 0.065495
-0.050285 -0.096594 0.702797 0 194 255 0.097341
-0.049655 -0.098619 0.701267 4 234 244 0.106082
-0.052293 -0.098975 0.701085 4 234 244 0.108450
-0.053083 -0.096804 0.702556 0 194 255 0.097025
-0.056032 -0.097081 0.702351 0 208 255 0.098089
-0.044648 -0.098816 0.701045 26 255 222 0.115576
-0.047333 -0.100838 0.699948 26 255 222 0.116474
-0.050587 -0.104404 0.699094 15 248 233 0.111693
-0.053589 -0.101921 0.700072 4 234 244 0.108294
-0.053975 -0.104939 0.699043 15 248 233 0.110411
-0.050221 -0.101418 0.700055 15 248 233 0.110808
-0.057633 -0.103633 0.699696 4 234 244 0.105891
-0.056054 -0.100631 0.700766 0 208 255 0.098401
-0.059103 -0.101172 0.700739 0 221 255 0.103689
-0.062311 -0.101678 0.700699 15 248 233 0.110000
-0.069420 -0.095710 0.704495 0 181 255 0.093186
-0.065560 -0.093389 0.705623 0 141 255 0.081483
-0.061583 -0.093745 0.705009 0 141 255 0.078652
-0.062293 -0.095515 0.703842 0 167 255 0.088437
-0.065185 -0.095973 0.703924 0 181 255 0.093085
-0.065828 -0.097796 0.702862 0 181 255 0.092596
-0.068865 -0.098280 0.702894 4 234 244 0.106348
-0.061828 -0.091503 0.707179 0 101 255 0.068455
-0.058021 -0.089911 0.708895 0 34 255 0.050672
-0.055129 -0.091969 0.706870 0 74 255 0.059863
-0.057895 -0.092098 0.706659 0 74 255 0.061212
-0.058666 -0.093555 0.705151 0 114 255 0.071616
-0.052210 -0.093944 0.705103 0 127 255 0.075729
-0.054898 -0.094072 0.704816 0 127 255 0.077834
-0.058817 -0.097530 0.702384 0 194 255 0.095300
-0.061685 -0.098028 0.702395 0 181 255 0.092609
-0.064921 -0.100345 0.701561 0 221 255 0.103759
-0.068245 -0.072295 0.725070 0 0 204 0.020975
-0.065574 -0.071666 0.726065 0 0 204 0.022009
-0.062866 -0.072212 0.726184 0 0 204 0.020481
-0.060252 -0.071531 0.727102 0 0 204 0.022027
-0.057586 -0.072053 0.727156 0 0 204 0.023104
-0.057702 -0.069345 0.728540 0 0 204 0.023128
-0.060036 -0.074048 0.725542 0 0 204 0.022576
-0.057364 -0.074588 0.725526 0 0 219 0.023909
-0.062363 -0.074789 0.724536 0 0 204 0.019563
-0.064708 -0.075457 0.723456 0 0 189 0.019144
-0.067480 -0.074893 0.723294 0 0 189 0.019208
-0.066603 -0.077329 0.721350 0 0 189 0.016719
-0.055019 -0.069051 0.729620 0 0 204 0.022544
-0.052557 -0.069998 0.730013 0 0 204 0.023310
-0.049942 -0.069735 0.731009 0 0 219 0.025826
-0.050250 -0.072322 0.729772 0 0 234 0.028742
-0.052721 -0.072706 0.728728 0 0 219 0.027010
-0.055071 -0.073023 0.727552 0 0 219 0.024969
-0.052374 -0.076428 0.726435 0 0 250 0.033262
-0.054550 -0.076737 0.725236 0 0 234 0.029502
-0.056704 -0.076930 0.723926 0 0 219 0.023807
-0.050152 -0.074924 0.728319 0 0 250 0.033903
-0.058578 -0.078706 0.721950 0 0 234 0.027655
-0.060649 -0.079482 0.720912 0 0 219 0.024838
-0.063330 -0.078947 0.720688 0 0 204 0.022688
-0.065472 -0.079563 0.719570 0 0 204 0.021744
-0.061624 -0.077184 0.722738 0 0 189 0.018732
-0.059295 -0.076563 0.723818 0 0 204 0.021575
-0.067010 -0.081447 0.717554 0 0 204 0.021858
-0.069208 -0.082228 0.716497 0 0 219 0.023924
-0.072220 -0.081944 0.716412 0 0 234 0.028858
-0.074476 -0.082781 0.715345 0 7 255 0.042429
-0.075989 -0.080617 0.717315 0 7 255 0.042134
-0.073583 -0.079837 0.718318 0 0 250 0.034782
-0.070645 -0.080110 0.718450 0 0 234 0.030492
-0.068329 -0.079282 0.719451 0 0 204 0.022671
-0.075879 -0.084943 0.713525 0 20 255 0.043041
-0.078023 -0.086112 0.712671 0 47 255 0.052014
-0.081231 -0.086234 0.712800 0 127 255 0.075066
-0.083453 -0.087428 0.711967 0 154 255 0.084858
-0.085287 -0.085376 0.713967 0 154 255 0.083019
-0.082886 -0.084208 0.714855 0 74 255 0.061753
-0.079809 -0.084056 0.714696 0 60 255 0.057214
-0.077496 -0.082886 0.715550 0 34 255 0.047863
-0.089257 -0.081021 0.718775 0 154 255 0.082570
-0.086606 -0.079743 0.719534 0 87 255 0.065274
-0.083379 -0.079675 0.719255 0 34 255 0.049497
-0.080757 -0.078511 0.720038 0 7 255 0.040269
-0.077531 -0.078380 0.719629 0 0 250 0.034081
-0.078981 -0.075992 0.721775 0 0 255 0.038502
-0.079317 -0.080710 0.717768 0 7 255 0.039513
-0.081582 -0.081932 0.716945 0 20 255 0.045818
-0.084919 -0.082042 0.717312 0 74 255 0.059242
-0.087336 -0.083211 0.716353 0 154 255 0.082133
-0.076231 -0.075080 0.722613 0 0 250 0.031918
-0.073186 -0.075406 0.722543 0 0 219 0.026335
-0.070511 -0.074525 0.723393 0 0 219 0.027275
-0.069692 -0.076990 0.721502 0 0 219 0.023998
-0.072040 -0.077836 0.720533 0 0 219 0.024928
-0.075144 -0.077462 0.720575 0 0 234 0.029465
-0.032255 -0.069245 0.739871 0 0 219 0.023463
-0.036380 -0.066675 0.737339 0 0 219 0.023722
-0.033834 -0.066865 0.739062 0 0 204 0.021360
-0.029643 -0.069586 0.741347 0 0 204 0.023239
-0.041489 -0.066104 0.735585 0 0 204 0.020432
-0.043651 -0.064616 0.735004 0 0 204 0.022636
-0.046087 -0.064378 0.733940 0 0 219 0.024532
-0.038458 -0.065366 0.736978 0 0 204 0.022033
-0.043961 -0.058547 0.736628 0 0 255 0.035721
-0.041218 -0.059171 0.737743 0 0 234 0.029669
-0.039109 -0.060702 0.738175 0 0 219 0.025590
-0.036412 -0.061225 0.739096 0 0 219 0.026086
-0.034322 -0.062696 0.739365 0 0 219 0.026838
-0.044844 -0.060803 0.735497 0 0 234 0.030363
-0.031138 -0.062389 0.741875 0 0 204 0.019754
-0.029609 -0.064702 0.742545 0 0 174 0.014578
-0.027427 -0.066079 0.743493 0 0 174 0.013586
