ply
format ascii 1.0
comment VCGLIB generated
element vertex 987
property float x
property float y
property float z
property uchar red
property uchar green
property uchar blue
property float quality
end_header
0.200404 -0.127218 5.730670 180 255 67 0.103622
0.109282 -0.143716 5.677980 174 255 74 0.098777
0.090666 -0.147806 5.666310 171 255 77 0.096488
0.082161 -0.127264 5.680830 174 255 74 0.099526
0.072088 -0.151669 5.654750 171 255 77 0.095006
0.063680 -0.131309 5.668940 174 255 74 0.099554
0.045534 -0.134703 5.656720 174 255 74 0.099507
0.053649 -0.155228 5.643290 171 255 77 0.095348
0.054930 -0.112606 5.684020 174 255 74 0.098275
0.036867 -0.116324 5.671660 171 255 77 0.097526
0.027668 -0.099843 5.687550 167 255 80 0.092628
0.045357 -0.096916 5.699050 167 255 80 0.092783
0.073011 -0.109373 5.695210 177 255 71 0.100832
0.063221 -0.093800 5.710630 167 255 80 0.093450
0.091185 -0.105972 5.706270 177 255 71 0.102375
0.100508 -0.123644 5.691560 177 255 71 0.102310
0.081103 -0.090867 5.722100 167 255 80 0.093513
-0.013076 -0.065765 5.771320 3 233 245 0.015876
0.003530 -0.064486 5.782360 0 229 248 0.015368
0.014397 -0.070826 5.762480 48 255 200 0.028545
0.031371 -0.069108 5.773300 45 255 203 0.026695
0.020241 -0.063163 5.793460 0 217 255 0.013457
0.042530 -0.075678 5.753060 84 255 164 0.042374
0.048360 -0.067454 5.784070 42 255 206 0.025468
0.059650 -0.073676 5.763600 90 255 158 0.043982
0.076703 -0.071473 5.773910 87 255 161 0.042558
0.037148 -0.061627 5.804330 0 213 255 0.012802
0.065263 -0.065528 5.794630 38 255 209 0.025174
0.053811 -0.060419 5.815360 0 217 255 0.013101
0.070668 -0.081235 5.743620 129 255 119 0.066583
0.087828 -0.078757 5.753680 132 255 116 0.068498
0.053138 -0.083648 5.731520 132 255 116 0.067677
0.035444 -0.086397 5.719640 132 255 116 0.067961
0.025106 -0.077922 5.740730 93 255 155 0.046801
0.007854 -0.080003 5.728410 103 255 145 0.051321
0.017899 -0.088953 5.707720 142 255 106 0.073595
-0.002626 -0.072536 5.749770 55 255 193 0.030462
0.070634 -0.058890 5.826170 0 213 255 0.012574
0.082354 -0.063796 5.806480 35 255 213 0.024008
0.099356 -0.062087 5.817210 38 255 209 0.024844
0.087446 -0.057505 5.837120 0 209 255 0.012029
0.111289 -0.067313 5.797020 84 255 164 0.041629
0.116319 -0.060482 5.828090 32 255 216 0.022925
0.128458 -0.065273 5.807510 84 255 164 0.042184
0.145502 -0.063288 5.818060 84 255 164 0.041865
0.104229 -0.056300 5.848330 0 205 255 0.011388
0.133206 -0.058830 5.838980 29 255 219 0.022418
0.140344 -0.071706 5.787370 132 255 116 0.066970
0.157436 -0.069522 5.797670 132 255 116 0.068813
0.122864 -0.073987 5.776080 132 255 116 0.067324
0.105376 -0.076305 5.764840 135 255 113 0.069032
0.093965 -0.069316 5.785400 84 255 164 0.041927
-0.069003 -0.018383 5.926850 0 9 255 0.000591
-0.052071 -0.017714 5.936300 0 13 255 0.000645
-0.042512 -0.026763 5.917350 0 49 255 0.001147
-0.035097 -0.016905 5.945830 0 21 255 0.000730
-0.025554 -0.026158 5.926900 0 57 255 0.001365
-0.008407 -0.025489 5.936480 0 65 255 0.001533
-0.017992 -0.015962 5.955410 0 29 255 0.000831
-0.015813 -0.034566 5.907740 0 93 255 0.002456
0.001293 -0.034033 5.917210 0 101 255 0.002813
0.011444 -0.040933 5.897390 0 109 255 0.003175
-0.005282 -0.041636 5.887090 0 97 255 0.002687
-0.032336 -0.035229 5.897320 0 81 255 0.002011
-0.021897 -0.042314 5.876840 0 85 255 0.002224
-0.048705 -0.035873 5.886930 0 69 255 0.001642
-0.058906 -0.027527 5.906960 0 37 255 0.000956
-0.075098 -0.028130 5.896610 0 25 255 0.000780
-0.038335 -0.042786 5.866530 0 69 255 0.001690
-0.064869 -0.036334 5.876580 0 49 255 0.001212
-0.054504 -0.043162 5.856190 0 53 255 0.001249
-0.085235 -0.019195 5.916470 0 5 255 0.000549
-0.001546 -0.014853 5.966110 0 33 255 0.000902
0.015352 -0.014221 5.975790 0 41 255 0.001000
0.024503 -0.023478 5.957990 0 77 255 0.001896
0.032301 -0.013617 5.985440 0 45 255 0.001080
0.041422 -0.023006 5.967600 0 85 255 0.002209
0.050869 -0.031462 5.949380 0 125 255 0.004055
0.061124 -0.038930 5.929130 0 141 255 0.005050
0.034313 -0.032427 5.938610 0 117 255 0.003696
0.044482 -0.039579 5.918500 0 129 255 0.004309
0.017829 -0.033174 5.927950 0 109 255 0.003281
0.008007 -0.024477 5.947230 0 73 255 0.001752
0.027892 -0.040283 5.908060 0 121 255 0.003799
0.092761 -0.054428 5.870730 0 137 255 0.004723
0.075991 -0.055479 5.859350 0 137 255 0.004731
0.064952 -0.052073 5.880690 0 133 255 0.004481
0.059313 -0.056570 5.848100 0 137 255 0.004814
0.048436 -0.052904 5.869160 0 121 255 0.003886
0.031951 -0.053714 5.857580 0 113 255 0.003359
0.042702 -0.057615 5.836870 0 141 255 0.005013
0.037889 -0.047559 5.889610 0 133 255 0.004532
0.021459 -0.048284 5.877820 0 121 255 0.003726
0.054538 -0.046941 5.900010 0 145 255 0.005244
0.071193 -0.046268 5.910460 0 153 255 0.006062
0.081711 -0.051417 5.891020 0 141 255 0.004991
0.025737 -0.058723 5.827160 0 133 255 0.004606
0.009104 -0.059698 5.815990 0 141 255 0.005006
-0.001750 -0.055450 5.837790 0 101 255 0.002892
-0.007406 -0.060722 5.804790 0 145 255 0.005469
-0.018117 -0.056183 5.826500 0 97 255 0.002666
-0.034268 -0.056829 5.815070 0 101 255 0.002752
-0.023794 -0.061626 5.793450 0 157 255 0.006508
-0.028572 -0.050318 5.847500 0 89 255 0.002320
-0.044507 -0.050832 5.836040 0 73 255 0.001801
-0.012020 -0.049856 5.857690 0 101 255 0.002877
0.004747 -0.049058 5.867710 0 109 255 0.003217
0.015093 -0.054593 5.847700 0 105 255 0.003031
0.270608 -0.047584 5.920080 35 255 213 0.024078
0.281539 -0.050541 5.898900 93 255 155 0.045910
0.262071 -0.051851 5.886860 93 255 155 0.045939
0.292406 -0.054615 5.877570 135 255 113 0.069205
0.272950 -0.056180 5.865760 135 255 113 0.070070
0.283524 -0.062887 5.845360 180 255 67 0.104241
0.303025 -0.061259 5.856940 177 255 71 0.102196
0.253423 -0.058129 5.854130 135 255 113 0.070480
0.263967 -0.065065 5.833920 180 255 67 0.103773
0.244174 -0.067624 5.822580 177 255 71 0.100667
0.232824 -0.060456 5.842780 135 255 113 0.068981
0.241604 -0.053791 5.875440 90 255 158 0.044679
0.221000 -0.055697 5.863950 87 255 161 0.042959
0.229729 -0.050830 5.896830 32 255 216 0.023011
0.250140 -0.049193 5.908540 32 255 216 0.023351
0.209095 -0.052370 5.885110 29 255 219 0.022232
0.313286 -0.074080 5.838750 193 255 55 0.117362
0.322038 -0.089461 5.821270 200 255 48 0.121796
0.303633 -0.091894 5.810200 196 255 51 0.119242
0.330058 -0.107665 5.805260 196 255 51 0.118970
0.311679 -0.110131 5.794350 196 255 51 0.118342
0.293117 -0.112801 5.783650 190 255 58 0.114084
0.273400 -0.115431 5.772820 190 255 58 0.112790
0.284049 -0.093972 5.799110 196 255 51 0.119874
0.264323 -0.096721 5.787990 193 255 55 0.115651
0.274291 -0.078275 5.815920 190 255 58 0.114582
0.293836 -0.076014 5.827280 190 255 58 0.114250
0.254513 -0.080862 5.804700 190 255 58 0.113807
0.219610 -0.124290 5.740760 184 255 64 0.107429
0.210040 -0.104985 5.755390 190 255 58 0.114102
0.228848 -0.102268 5.765940 193 255 55 0.115629
0.199490 -0.088628 5.771370 187 255 61 0.111776
0.218295 -0.085978 5.782200 187 255 61 0.111725
0.207143 -0.072128 5.799750 177 255 71 0.100716
0.188306 -0.074756 5.788640 174 255 74 0.099848
0.236831 -0.083495 5.793200 190 255 58 0.112331
0.225787 -0.069719 5.811020 177 255 71 0.102798
0.246672 -0.099363 5.776840 193 255 55 0.117430
0.255722 -0.118207 5.761800 190 255 58 0.112521
0.237818 -0.121111 5.751130 190 255 58 0.112015
0.176923 -0.066913 5.808200 135 255 113 0.070849
0.164923 -0.060915 5.828940 87 255 161 0.042745
0.184049 -0.058963 5.840070 90 255 158 0.044034
0.152553 -0.056765 5.850170 35 255 213 0.023599
0.171725 -0.055097 5.861460 32 255 216 0.023124
0.190699 -0.053567 5.872810 35 255 213 0.023705
0.202739 -0.056989 5.851740 87 255 161 0.043392
0.214432 -0.062287 5.831160 138 255 109 0.071915
0.195702 -0.064554 5.819800 135 255 113 0.070482
0.050500 -0.206298 5.614510 119 255 129 0.059653
0.057644 -0.231790 5.610290 84 255 164 0.042037
0.039422 -0.234280 5.598930 84 255 164 0.041952
0.064647 -0.256929 5.606320 51 255 196 0.029178
0.046436 -0.259197 5.595280 51 255 196 0.029568
0.053520 -0.283200 5.591160 32 255 216 0.022814
0.071763 -0.281595 5.602170 29 255 219 0.022352
0.028244 -0.261210 5.584570 51 255 196 0.029119
0.035333 -0.284900 5.580720 29 255 219 0.022198
0.017108 -0.286380 5.571060 22 255 225 0.020614
0.008571 -0.263615 5.574080 45 255 203 0.027267
0.019640 -0.237106 5.588040 80 255 167 0.040399
0.000086 -0.239955 5.577170 77 255 171 0.038554
0.010946 -0.213123 5.591390 113 255 135 0.057018
0.030599 -0.209859 5.602860 116 255 132 0.057962
0.021303 -0.185731 5.607180 145 255 103 0.076938
-0.008530 -0.216199 5.580580 109 255 138 0.053818
0.001837 -0.189406 5.595530 145 255 103 0.075817
-0.017204 -0.192952 5.584290 138 255 109 0.071494
0.041015 -0.181439 5.619060 155 255 93 0.082687
0.080793 -0.307573 5.603600 0 221 255 0.014196
0.087641 -0.334046 5.604120 0 185 255 0.009274
0.071387 -0.334620 5.595450 0 185 255 0.008941
0.094228 -0.359143 5.605510 0 169 255 0.007296
0.078028 -0.359899 5.596250 0 161 255 0.006871
0.061866 -0.360135 5.587170 0 161 255 0.006530
0.043424 -0.360893 5.576980 0 153 255 0.006155
0.053092 -0.335729 5.584850 0 177 255 0.008384
0.034557 -0.336540 5.575480 0 173 255 0.007755
0.044195 -0.310442 5.583120 0 213 255 0.012672
0.062612 -0.309418 5.592910 0 221 255 0.013620
0.025941 -0.311455 5.572920 0 209 255 0.012213
-0.016695 -0.364547 5.540530 0 145 255 0.005435
-0.000388 -0.362929 5.550950 0 149 255 0.005745
-0.011294 -0.340022 5.548620 0 165 255 0.006918
-0.027759 -0.342099 5.538890 0 161 255 0.006531
0.005246 -0.338228 5.558460 0 169 255 0.007484
-0.021981 -0.317006 5.546000 0 189 255 0.009699
-0.005482 -0.314846 5.555410 0 197 255 0.010386
-0.015457 -0.291154 5.550850 19 253 229 0.019386
-0.038073 -0.319303 5.535910 0 189 255 0.009694
-0.031689 -0.293789 5.541300 9 241 238 0.017489
-0.047762 -0.296643 5.531730 3 233 245 0.015785
0.011168 -0.312649 5.564810 0 201 255 0.011026
0.000696 -0.288868 5.560910 22 255 225 0.020170
0.019764 -0.337292 5.567110 0 169 255 0.007334
0.028646 -0.361417 5.568360 0 157 255 0.006196
0.014112 -0.362089 5.559580 0 153 255 0.005924
-0.062029 -0.274543 5.531390 25 255 222 0.021555
-0.039450 -0.271706 5.543820 35 255 213 0.024481
-0.054149 -0.249301 5.544250 61 255 187 0.032285
-0.076158 -0.252182 5.530830 55 255 193 0.030189
-0.031737 -0.246401 5.556920 71 255 177 0.036333
-0.068557 -0.226853 5.543720 93 255 155 0.046499
-0.046466 -0.223379 5.557000 100 255 148 0.048634
-0.061207 -0.201029 5.557320 125 255 122 0.064273
-0.090067 -0.230048 5.529500 87 255 161 0.043767
-0.082699 -0.204695 5.543020 125 255 122 0.063328
-0.103788 -0.207963 5.528010 129 255 119 0.065746
-0.024166 -0.219884 5.569730 106 255 142 0.052192
-0.039547 -0.197226 5.570680 132 255 116 0.067549
-0.015831 -0.243273 5.566750 77 255 171 0.038867
-0.007650 -0.266194 5.563980 42 255 206 0.026251
-0.023743 -0.268831 5.554260 42 255 206 0.025537
-0.099059 -0.261390 5.512260 48 255 200 0.028159
-0.085683 -0.283507 5.514160 13 245 235 0.018070
-0.071403 -0.305041 5.514010 0 221 255 0.013639
-0.094755 -0.313509 5.495430 0 217 255 0.013342
-0.109050 -0.298638 5.492530 9 241 238 0.017234
-0.111060 -0.272453 5.500950 38 255 209 0.025177
-0.122935 -0.283394 5.488940 29 255 219 0.021819
-0.124462 -0.257080 5.495940 67 255 180 0.035206
-0.113013 -0.246079 5.508380 74 255 174 0.037570
-0.126387 -0.230685 5.503530 106 255 142 0.053288
-0.136558 -0.268033 5.484350 58 255 190 0.031745
-0.138044 -0.241663 5.491180 100 255 148 0.050080
-0.149685 -0.252434 5.478880 93 255 155 0.046418
-0.115031 -0.219415 5.516150 119 255 129 0.059489
-0.049533 -0.347071 5.522730 0 153 255 0.006142
-0.038650 -0.369002 5.524410 0 141 255 0.005168
-0.061248 -0.375280 5.506300 0 133 255 0.004496
-0.073126 -0.354909 5.503470 0 141 255 0.005002
-0.072793 -0.330370 5.509710 0 177 255 0.008123
-0.095901 -0.389820 5.475410 0 121 255 0.003706
-0.099275 -0.366918 5.480430 0 133 255 0.004496
-0.111113 -0.348782 5.475540 0 169 255 0.007255
-0.113217 -0.324506 5.478520 0 213 255 0.012768
-0.131283 -0.335624 5.461050 0 225 251 0.014457
-0.092872 -0.337871 5.492770 0 169 255 0.007482
-0.078405 -0.381411 5.491580 0 121 255 0.003761
-0.146055 -0.322799 5.457540 3 233 245 0.015545
-0.151236 -0.302316 5.462600 25 255 222 0.021097
-0.165666 -0.289149 5.457510 45 255 203 0.027252
-0.169708 -0.268065 5.460810 87 255 161 0.043559
-0.189338 -0.283633 5.441270 87 255 161 0.042504
-0.127590 -0.309623 5.475610 6 237 242 0.016418
0.033275 -0.159339 5.632820 158 255 90 0.086570
0.013687 -0.163942 5.620160 155 255 93 0.083329
0.005610 -0.143297 5.634630 155 255 93 0.083168
-0.005496 -0.168213 5.608010 151 255 96 0.081480
-0.013336 -0.147742 5.621650 158 255 90 0.086213
-0.031840 -0.152160 5.609270 151 255 96 0.081745
-0.024221 -0.172110 5.595630 148 255 100 0.079872
-0.021740 -0.128769 5.637040 158 255 90 0.085700
-0.040129 -0.133093 5.623690 151 255 96 0.081473
-0.048691 -0.115148 5.639420 151 255 96 0.081569
-0.030031 -0.111692 5.651420 158 255 90 0.085738
-0.002512 -0.124809 5.648440 158 255 90 0.086376
-0.011224 -0.107955 5.663450 161 255 87 0.087802
0.017090 -0.120646 5.660050 164 255 84 0.090976
0.025428 -0.138867 5.645510 164 255 84 0.091153
0.007993 -0.103951 5.675400 161 255 87 0.088607
-0.044707 -0.174707 5.588040 135 255 113 0.069007
-0.066249 -0.178987 5.573690 129 255 119 0.065106
-0.072139 -0.157645 5.591820 129 255 119 0.065856
-0.087348 -0.182870 5.558850 129 255 119 0.065240
-0.092963 -0.161744 5.576360 125 255 122 0.064423
-0.113490 -0.165115 5.560730 135 255 113 0.069017
-0.108183 -0.186039 5.543540 135 255 113 0.070238
-0.099301 -0.141449 5.595910 122 255 126 0.061972
-0.119671 -0.145002 5.579350 125 255 122 0.064165
-0.126436 -0.125643 5.599610 122 255 126 0.060937
-0.107423 -0.123639 5.609840 125 255 122 0.063893
-0.079971 -0.138922 5.605210 132 255 116 0.067531
-0.088189 -0.121161 5.619840 132 255 116 0.068336
-0.060305 -0.136091 5.614420 142 255 106 0.075170
-0.052206 -0.155048 5.600360 138 255 109 0.072660
-0.068604 -0.118306 5.629600 142 255 106 0.073881
-0.160505 -0.077812 5.690180 0 221 255 0.014008
-0.142103 -0.076912 5.699790 0 221 255 0.013771
-0.132869 -0.086783 5.677540 38 255 209 0.024623
-0.114194 -0.085102 5.686800 42 255 206 0.026129
-0.123590 -0.075497 5.709080 3 233 245 0.015561
-0.105003 -0.095580 5.664820 77 255 171 0.038769
-0.095312 -0.083143 5.695930 48 255 200 0.028488
-0.085957 -0.093121 5.673650 84 255 164 0.042205
-0.066460 -0.090386 5.682200 100 255 148 0.048781
-0.105010 -0.074002 5.718510 6 237 242 0.016766
-0.076259 -0.080818 5.704950 61 255 187 0.032051
-0.086223 -0.072215 5.727870 13 245 235 0.018102
-0.076883 -0.104760 5.652010 116 255 132 0.058587
-0.057307 -0.101739 5.660290 129 255 119 0.065054
-0.096380 -0.107395 5.641640 113 255 135 0.055659
-0.115562 -0.109768 5.631120 103 255 145 0.051577
-0.124074 -0.097582 5.653850 77 255 171 0.038458
-0.142911 -0.099199 5.642820 74 255 174 0.037171
-0.134513 -0.111653 5.620260 96 255 151 0.047719
-0.151635 -0.088165 5.666240 35 255 213 0.024011
-0.068503 -0.070974 5.738530 9 241 238 0.016991
-0.058708 -0.079043 5.718240 51 255 196 0.029282
-0.040326 -0.077045 5.728540 51 255 196 0.029014
-0.050428 -0.069495 5.749250 6 237 242 0.016864
-0.030397 -0.085391 5.708170 93 255 155 0.045710
-0.021564 -0.074888 5.739050 55 255 193 0.029729
-0.011409 -0.082818 5.718210 96 255 151 0.048265
-0.031888 -0.067755 5.760270 3 233 245 0.015994
-0.001626 -0.092175 5.697950 132 255 116 0.067514
-0.020601 -0.095562 5.685340 129 255 119 0.065289
-0.039056 -0.098853 5.672880 129 255 119 0.064753
-0.048636 -0.088067 5.695270 93 255 155 0.046215
-0.170554 -0.071022 5.712020 0 165 255 0.007082
-0.152360 -0.070304 5.721300 0 165 255 0.007005
-0.162514 -0.063531 5.742910 0 105 255 0.002955
-0.180824 -0.064242 5.733680 0 109 255 0.003138
-0.144250 -0.062835 5.752320 0 101 255 0.002841
-0.172719 -0.056533 5.764370 0 49 255 0.001171
-0.154363 -0.055826 5.773850 0 45 255 0.001092
-0.164355 -0.047773 5.795090 0 0 255 0.000508
-0.190990 -0.056940 5.755050 0 57 255 0.001341
-0.182787 -0.048475 5.785530 0 5 255 0.000568
-0.201273 -0.048865 5.776040 0 21 255 0.000738
-0.135931 -0.054795 5.783300 0 41 255 0.001012
-0.145958 -0.046850 5.804570 0 1 255 0.000532
-0.127445 -0.045716 5.814190 0 9 255 0.000593
-0.117412 -0.053820 5.793250 0 49 255 0.001200
-0.125819 -0.061870 5.761930 0 93 255 0.002549
-0.107213 -0.060869 5.771680 0 113 255 0.003352
-0.115440 -0.068228 5.740350 0 161 255 0.006802
-0.133892 -0.069325 5.730840 0 161 255 0.006757
-0.096857 -0.066779 5.749830 0 169 255 0.007301
-0.211927 -0.042276 5.796090 0 0 246 0.000387
-0.193407 -0.041659 5.806050 0 0 233 0.000331
-0.204090 -0.034575 5.826240 0 0 205 0.000287
-0.222726 -0.035208 5.816250 0 0 223 0.000311
-0.185659 -0.033641 5.836160 0 0 223 0.000311
-0.214931 -0.026850 5.846390 0 0 128 0.000265
-0.196350 -0.025874 5.856290 0 0 178 0.000268
-0.233674 -0.027522 5.836410 0 0 228 0.000321
-0.177826 -0.024552 5.866080 0 0 205 0.000288
-0.159081 -0.023256 5.875430 0 0 233 0.000333
-0.167222 -0.032668 5.845710 0 0 237 0.000349
-0.148596 -0.031460 5.855200 0 0 246 0.000375
-0.156608 -0.040133 5.825220 0 0 251 0.000403
-0.175026 -0.040989 5.815600 0 0 237 0.000352
-0.138018 -0.039019 5.834740 0 0 255 0.000455
-0.103685 -0.020508 5.905970 0 0 255 0.000471
-0.093599 -0.029292 5.886110 0 21 255 0.000723
-0.111967 -0.030300 5.875480 0 9 255 0.000613
-0.083435 -0.037336 5.866050 0 45 255 0.001070
-0.101885 -0.038085 5.855440 0 29 255 0.000850
-0.091580 -0.044850 5.835000 0 29 255 0.000859
-0.073089 -0.044068 5.845650 0 41 255 0.001053
-0.119934 -0.038601 5.844900 0 9 255 0.000611
-0.109643 -0.045432 5.824540 0 17 255 0.000677
-0.130453 -0.030986 5.865260 0 0 255 0.000476
-0.140891 -0.022609 5.885520 0 0 237 0.000355
-0.122444 -0.021618 5.895730 0 0 255 0.000414
-0.062784 -0.051825 5.824440 0 65 255 0.001605
-0.052682 -0.058173 5.803680 0 105 255 0.002920
-0.070872 -0.059185 5.792160 0 109 255 0.003119
-0.042459 -0.063261 5.782260 0 161 255 0.006802
-0.060776 -0.064662 5.771020 0 169 255 0.007303
-0.078737 -0.065762 5.759770 0 173 255 0.007865
-0.089184 -0.060173 5.781890 0 105 255 0.002993
-0.099449 -0.053454 5.803520 0 57 255 0.001319
-0.081315 -0.052746 5.813890 0 61 255 0.001489
-0.172205 -0.088647 5.659830 25 255 222 0.021161
-0.163522 -0.099858 5.636440 58 255 190 0.031468
-0.184248 -0.099949 5.629710 51 255 196 0.029380
-0.155085 -0.112319 5.614290 84 255 164 0.041909
-0.175841 -0.112401 5.607570 77 255 171 0.038402
-0.167956 -0.126127 5.586640 100 255 148 0.049948
-0.147147 -0.126153 5.593510 106 255 142 0.051906
-0.197162 -0.112101 5.600060 74 255 174 0.037828
-0.189251 -0.125772 5.578960 93 255 155 0.046129
-0.211282 -0.125029 5.570660 93 255 155 0.046952
-0.217779 -0.112867 5.591490 71 255 177 0.035707
-0.203988 -0.100913 5.621810 45 255 203 0.027323
-0.224590 -0.101563 5.613120 42 255 206 0.026462
-0.211156 -0.090718 5.644410 16 249 232 0.018524
-0.191471 -0.089850 5.652290 19 253 229 0.019387
-0.198741 -0.080538 5.675520 0 209 255 0.012150
-0.231438 -0.091233 5.635800 16 249 232 0.019008
-0.218352 -0.081285 5.667680 0 209 255 0.011888
-0.238539 -0.081735 5.659360 0 205 255 0.011851
-0.179462 -0.079280 5.682960 0 217 255 0.013577
-0.144747 -0.139218 5.575350 125 255 122 0.063617
-0.138659 -0.158855 5.556320 125 255 122 0.063663
-0.164047 -0.152200 5.551270 125 255 122 0.063991
-0.133320 -0.179552 5.539070 125 255 122 0.063935
-0.158347 -0.172404 5.533430 125 255 122 0.064046
-0.153296 -0.193402 5.517030 122 255 126 0.061790
-0.128479 -0.200890 5.523430 119 255 129 0.059196
-0.183903 -0.164988 5.526880 132 255 116 0.068045
-0.178638 -0.185508 5.510230 132 255 116 0.067280
-0.204546 -0.177620 5.502620 142 255 106 0.073163
-0.205804 -0.163763 5.517880 129 255 119 0.065906
-0.185282 -0.151526 5.543020 122 255 126 0.061238
-0.207364 -0.150394 5.534430 122 255 126 0.061700
-0.187197 -0.138321 5.560590 106 255 142 0.053493
-0.165779 -0.139020 5.568230 116 255 132 0.058806
-0.209274 -0.137486 5.552200 109 255 138 0.054897
-0.300898 -0.167246 5.481280 155 255 93 0.082311
-0.301518 -0.155736 5.496660 138 255 109 0.072955
-0.277402 -0.156212 5.503090 132 255 116 0.067829
-0.278189 -0.145138 5.518960 116 255 132 0.057738
-0.302468 -0.144788 5.512480 122 255 126 0.061960
-0.254355 -0.145837 5.525450 113 255 135 0.056341
-0.278970 -0.134448 5.535750 103 255 145 0.050811
-0.255368 -0.134904 5.541880 100 255 148 0.048916
-0.256417 -0.124574 5.559260 87 255 161 0.043394
-0.303367 -0.134278 5.529400 109 255 138 0.054846
-0.279972 -0.124139 5.553180 87 255 161 0.042659
-0.304540 -0.123832 5.547120 93 255 155 0.045847
-0.232403 -0.135477 5.547950 103 255 145 0.051363
-0.233507 -0.124846 5.565100 87 255 161 0.043588
-0.230747 -0.148083 5.530140 116 255 132 0.057657
-0.228897 -0.161229 5.513130 125 255 122 0.064355
-0.252969 -0.158603 5.508350 125 255 122 0.064465
-0.251479 -0.171858 5.491580 142 255 106 0.073858
-0.227592 -0.174630 5.497150 138 255 109 0.071710
-0.275843 -0.169384 5.486470 148 255 100 0.078923
-0.309983 -0.113702 5.566690 71 255 177 0.036323
-0.287073 -0.112112 5.574270 64 255 184 0.034124
-0.292575 -0.102613 5.594460 38 255 209 0.025332
-0.315249 -0.104291 5.587040 48 255 200 0.027668
-0.270540 -0.101120 5.602040 38 255 209 0.024858
-0.297970 -0.093751 5.615270 13 245 235 0.018382
-0.275703 -0.092399 5.623000 9 241 238 0.017672
-0.280785 -0.084223 5.644430 0 205 255 0.011411
-0.320903 -0.095145 5.607580 25 255 222 0.021378
-0.303137 -0.085271 5.636550 0 217 255 0.013163
-0.326147 -0.086382 5.628560 6 237 242 0.016244
-0.254114 -0.090988 5.630510 9 241 238 0.017630
-0.259204 -0.083238 5.652250 0 201 255 0.011283
-0.247056 -0.101398 5.607780 38 255 209 0.025238
-0.240182 -0.112698 5.585860 64 255 184 0.034322
-0.263394 -0.112423 5.580130 61 255 187 0.033072
-0.251898 -0.028920 5.828280 0 0 242 0.000369
-0.240863 -0.036633 5.808060 0 0 237 0.000354
-0.259374 -0.037681 5.799760 0 0 255 0.000460
-0.229997 -0.043716 5.788010 0 0 251 0.000394
-0.248422 -0.044862 5.779840 0 0 255 0.000441
-0.237561 -0.051453 5.759970 0 21 255 0.000703
-0.219277 -0.050321 5.768110 0 13 255 0.000651
-0.267167 -0.045569 5.771520 0 17 255 0.000658
-0.256201 -0.052213 5.751650 0 37 255 0.000972
-0.275573 -0.052747 5.742900 0 65 255 0.001545
-0.286051 -0.046401 5.762140 0 45 255 0.001092
-0.277757 -0.038836 5.790650 0 9 255 0.000612
-0.296478 -0.039661 5.781290 0 41 255 0.001009
-0.288224 -0.031596 5.810070 0 13 255 0.000629
-0.269833 -0.030404 5.819320 0 0 255 0.000482
-0.307099 -0.032480 5.800610 0 41 255 0.001021
-0.210080 -0.057680 5.747730 0 53 255 0.001265
-0.199773 -0.065159 5.726330 0 105 255 0.002932
-0.218949 -0.065901 5.718860 0 105 255 0.002984
-0.189545 -0.072246 5.704740 0 157 255 0.006374
-0.208747 -0.073318 5.697280 0 157 255 0.006243
-0.228293 -0.073786 5.689320 0 157 255 0.006199
-0.247594 -0.074701 5.680390 0 157 255 0.006392
-0.237521 -0.067039 5.710460 0 109 255 0.003134
-0.256790 -0.067657 5.701520 0 117 255 0.003677
-0.246803 -0.059844 5.731200 0 69 255 0.001624
-0.228283 -0.058977 5.739680 0 53 255 0.001280
-0.266070 -0.060432 5.722390 0 85 255 0.002126
-0.333916 -0.079511 5.648270 0 205 255 0.011579
-0.312206 -0.077613 5.657370 0 185 255 0.009125
-0.319981 -0.070986 5.677570 0 157 255 0.006354
-0.341553 -0.072631 5.668350 0 181 255 0.008667
-0.298955 -0.069496 5.686550 0 137 255 0.004698
-0.327901 -0.064182 5.697680 0 133 255 0.004586
-0.306966 -0.062767 5.706610 0 109 255 0.003216
-0.314854 -0.055837 5.726400 0 97 255 0.002555
-0.349258 -0.065712 5.688590 0 161 255 0.006700
-0.335765 -0.057259 5.717750 0 117 255 0.003658
-0.357040 -0.058565 5.708610 0 149 255 0.005631
-0.286654 -0.061247 5.715210 0 93 255 0.002515
-0.294678 -0.054392 5.735020 0 73 255 0.001831
-0.277411 -0.068692 5.694190 0 125 255 0.003953
-0.268347 -0.075993 5.673160 0 161 255 0.006559
-0.290013 -0.076748 5.665280 0 169 255 0.007421
-0.366480 -0.052497 5.727400 0 129 255 0.004414
-0.346085 -0.050707 5.737240 0 105 255 0.002961
-0.355434 -0.044395 5.755810 0 97 255 0.002664
-0.375786 -0.046064 5.746080 0 121 255 0.003905
-0.335665 -0.042596 5.765210 0 77 255 0.001846
-0.364890 -0.037600 5.774220 0 97 255 0.002617
-0.345278 -0.035834 5.783580 0 77 255 0.001959
-0.385010 -0.039324 5.764380 0 121 255 0.003797
-0.326224 -0.034024 5.792720 0 61 255 0.001430
-0.315794 -0.041230 5.773460 0 53 255 0.001274
-0.305276 -0.047989 5.754290 0 57 255 0.001397
-0.325326 -0.049392 5.745920 0 77 255 0.001955
-0.347172 -0.089542 5.621810 6 237 242 0.016607
-0.354478 -0.083023 5.640190 0 213 255 0.012714
-0.375494 -0.086261 5.633850 0 217 255 0.013358
-0.368326 -0.092862 5.615260 9 241 238 0.017396
-0.382739 -0.079508 5.652090 0 205 255 0.011319
-0.396551 -0.089676 5.626980 6 237 242 0.016260
-0.403450 -0.082977 5.645830 0 213 255 0.012672
-0.424335 -0.086511 5.638870 3 233 245 0.015548
-0.389202 -0.096697 5.609100 16 249 232 0.018875
-0.417190 -0.093519 5.620760 16 249 232 0.018719
-0.410149 -0.100608 5.602710 32 255 216 0.022639
-0.410540 -0.075983 5.664090 0 201 255 0.010899
-0.431378 -0.079549 5.657500 0 217 255 0.013133
-0.438461 -0.072387 5.676010 0 205 255 0.011815
-0.418147 -0.068443 5.683910 0 189 255 0.009620
-0.390356 -0.072276 5.672020 0 189 255 0.009334
-0.397823 -0.064891 5.691900 0 177 255 0.008149
-0.369802 -0.068856 5.680150 0 173 255 0.007689
-0.362277 -0.075945 5.659960 0 189 255 0.009590
-0.377228 -0.061626 5.700300 0 161 255 0.006788
-0.430460 -0.106604 5.597800 29 255 219 0.022547
-0.437036 -0.099878 5.614660 19 253 229 0.019305
-0.457265 -0.106061 5.609900 19 253 229 0.019797
-0.450559 -0.113007 5.593230 29 255 219 0.022541
-0.463800 -0.099183 5.626890 9 241 238 0.017124
-0.477238 -0.112621 5.605670 19 253 229 0.019873
-0.483834 -0.105524 5.622290 9 241 238 0.017596
-0.503892 -0.112275 5.618110 13 245 235 0.018098
-0.470436 -0.119723 5.589070 29 255 219 0.022133
-0.496791 -0.119465 5.601780 22 255 225 0.020450
-0.490219 -0.126819 5.585460 29 255 219 0.022355
-0.490699 -0.098491 5.639100 3 233 245 0.015897
-0.510536 -0.104903 5.634780 6 237 242 0.016942
-0.517243 -0.097709 5.651430 0 229 248 0.015474
-0.497920 -0.090871 5.657050 0 225 251 0.014627
-0.471056 -0.091860 5.644810 0 229 248 0.014940
-0.478297 -0.084470 5.662910 0 221 255 0.014169
-0.451378 -0.085561 5.650820 0 225 251 0.014273
-0.444120 -0.092738 5.632650 3 233 245 0.015963
-0.458406 -0.078300 5.669130 0 213 255 0.012423
-0.523473 -0.072110 5.707730 0 193 255 0.010244
-0.504128 -0.065439 5.714890 0 193 255 0.009870
-0.495257 -0.072153 5.697240 0 201 255 0.011019
-0.484516 -0.059271 5.722340 0 185 255 0.008974
-0.475753 -0.065870 5.704800 0 189 255 0.009692
-0.456185 -0.059932 5.712060 0 185 255 0.009096
-0.464625 -0.053418 5.729950 0 181 255 0.008714
-0.467161 -0.072265 5.686510 0 197 255 0.010666
-0.447253 -0.066264 5.694280 0 197 255 0.010564
-0.486833 -0.078295 5.680180 0 205 255 0.011800
-0.506610 -0.084741 5.674090 0 217 255 0.013018
-0.515113 -0.078384 5.690990 0 201 255 0.011081
-0.534394 -0.084979 5.685110 0 209 255 0.012081
-0.525885 -0.091346 5.668300 0 221 255 0.013945
-0.542565 -0.078380 5.701830 0 205 255 0.011477
-0.444341 -0.049682 5.738030 0 165 255 0.007001
-0.424332 -0.046039 5.746680 0 149 255 0.005672
-0.415291 -0.052742 5.728370 0 153 255 0.006045
-0.404642 -0.042512 5.755650 0 133 255 0.004530
-0.395335 -0.049307 5.737260 0 137 255 0.004777
-0.385998 -0.055722 5.718680 0 149 255 0.005756
-0.406474 -0.058909 5.710390 0 165 255 0.006953
-0.426898 -0.062473 5.702250 0 177 255 0.008303
-0.435650 -0.056240 5.720230 0 169 255 0.007295
-0.016228 -0.675904 5.059900 255 160 0 0.300409
0.007838 -0.678030 5.053750 255 141 0 0.330545
0.023337 -0.688533 5.041250 255 123 0 0.366120
0.047239 -0.691595 5.035730 255 108 0 0.395860
0.030352 -0.708180 5.022470 255 123 0 0.366454
0.005563 -0.704582 5.028260 255 138 0 0.340553
-0.009863 -0.693917 5.040430 255 149 0 0.321000
-0.035127 -0.691402 5.045730 255 175 0 0.276018
-0.051194 -0.682093 5.058620 255 190 0 0.255384
-0.069584 -0.696620 5.046010 255 201 0 0.237206
0.080202 -0.687306 5.035450 255 101 0 0.416007
0.104193 -0.691024 5.028300 255 78 0 0.463312
0.087650 -0.708206 5.015070 255 78 0 0.469007
0.063413 -0.703922 5.021920 255 93 0 0.430619
0.074043 -0.761297 4.984600 255 71 0 0.487432
0.056591 -0.747043 4.995850 255 90 0 0.438024
0.031639 -0.742537 5.002860 255 119 0 0.375455
0.014685 -0.728260 5.014030 255 134 0 0.347240
-0.000812 -0.747755 5.005420 255 149 0 0.321830
0.047756 -0.722051 5.011670 255 104 0 0.405837
0.072136 -0.726502 5.004240 255 82 0 0.461315
-0.026435 -0.743367 5.012120 255 175 0 0.274970
-0.043374 -0.730273 5.022020 255 186 0 0.255912
-0.069007 -0.727014 5.027680 255 212 0 0.220614
-0.086301 -0.715028 5.037610 255 230 0 0.195855
-0.103134 -0.733063 5.029510 248 245 0 0.178701
-0.052146 -0.708691 5.035490 255 193 0 0.247961
-0.027227 -0.711555 5.029830 255 167 0 0.287198
-0.010201 -0.724464 5.019960 255 160 0 0.299271
0.071377 -0.805708 4.970510 255 78 0 0.467883
0.060195 -0.825873 4.970600 255 90 0 0.436531
0.048935 -0.845685 4.970080 255 108 0 0.403299
0.025518 -0.925577 4.983730 255 116 0 0.383598
-0.003696 -0.923070 4.990390 255 134 0 0.350928
-0.029509 -0.910198 4.994940 255 171 0 0.284449
-0.057908 -0.907738 5.001130 255 204 0 0.233900
-0.083383 -0.894575 5.005340 251 241 0 0.183948
-0.089219 -0.915669 5.008940 255 230 0 0.197261
-0.052064 -0.886807 4.997200 255 201 0 0.234804
-0.077478 -0.873592 5.001270 251 241 0 0.184776
-0.024428 -0.890107 4.990710 255 171 0 0.282635
0.003178 -0.893502 4.984260 255 145 0 0.328615
0.029131 -0.906398 4.979780 255 116 0 0.386447
0.033254 -0.887005 4.974860 255 116 0 0.387126
-0.117359 -0.912380 5.013970 235 255 13 0.163547
-0.141706 -0.897804 5.017710 206 255 42 0.128831
-0.169723 -0.894140 5.022900 190 255 58 0.112048
-0.193947 -0.878889 5.026440 171 255 77 0.095013
-0.202394 -0.901022 5.029420 184 255 64 0.107664
-0.162064 -0.871936 5.019660 180 255 67 0.105674
-0.186064 -0.856962 5.023070 167 255 80 0.093711
-0.134842 -0.876084 5.014130 203 255 45 0.125649
-0.107814 -0.880170 5.008830 222 255 25 0.148729
-0.163016 -0.812433 5.020500 174 255 74 0.099957
-0.136890 -0.816870 5.014730 193 255 55 0.115499
-0.115725 -0.832173 5.010090 206 255 42 0.129445
-0.089354 -0.836503 5.004200 232 255 16 0.159114
-0.067592 -0.851678 4.999510 255 238 0 0.188942
-0.057616 -0.829282 4.997190 255 223 0 0.206096
-0.099015 -0.858499 5.006150 222 255 25 0.148965
-0.126274 -0.854297 5.011710 196 255 51 0.118309
-0.153181 -0.850157 5.017260 171 255 77 0.096157
-0.174447 -0.834722 5.022190 167 255 80 0.092410
-0.030939 -0.833412 4.990370 255 186 0 0.257665
-0.008437 -0.847964 4.985050 255 160 0 0.297957
0.018186 -0.852134 4.978280 255 130 0 0.357734
0.041178 -0.866472 4.972580 255 104 0 0.405316
0.010196 -0.872854 4.980880 255 138 0 0.340377
-0.017478 -0.869425 4.987400 255 167 0 0.288388
-0.045162 -0.866038 4.993990 255 201 0 0.235290
-0.128982 -0.729679 5.034210 235 255 13 0.161922
-0.145636 -0.717967 5.042770 238 255 9 0.167165
-0.172459 -0.715511 5.048320 235 255 13 0.161155
-0.189915 -0.704708 5.058760 232 255 16 0.160198
-0.208411 -0.720666 5.051950 216 255 32 0.141521
-0.153522 -0.698367 5.056230 245 249 3 0.176472
-0.171517 -0.688068 5.066990 238 255 9 0.167094
-0.128011 -0.700868 5.051080 248 245 0 0.180360
-0.102718 -0.703111 5.046260 255 238 0 0.189646
-0.229499 -0.717302 5.056380 209 255 38 0.132906
-0.240189 -0.706720 5.065280 206 255 42 0.129956
-0.260698 -0.704340 5.070120 190 255 58 0.114421
-0.241611 -0.689924 5.080190 200 255 48 0.121641
-0.221646 -0.691577 5.074150 219 255 29 0.143359
-0.201585 -0.694213 5.068790 232 255 16 0.158700
-0.192043 -0.671873 5.091610 222 255 25 0.147504
-0.171911 -0.673136 5.085120 232 255 16 0.158117
-0.151452 -0.674616 5.079260 245 249 3 0.174512
-0.223130 -0.677463 5.092470 200 255 48 0.121630
-0.115249 -0.668233 5.079690 255 238 0 0.186248
-0.091059 -0.670511 5.074290 255 216 0 0.216058
-0.075462 -0.680079 5.063150 255 208 0 0.224329
-0.109566 -0.684512 5.061290 255 227 0 0.199508
-0.135232 -0.682577 5.066690 248 245 0 0.178026
-0.189252 -0.807811 5.025220 177 255 71 0.101365
-0.209084 -0.792811 5.031450 174 255 74 0.097725
-0.235728 -0.787501 5.035910 177 255 71 0.102168
-0.254369 -0.773303 5.040740 180 255 67 0.105639
-0.268370 -0.791503 5.037970 171 255 77 0.097592
-0.221464 -0.768559 5.037540 187 255 61 0.110456
-0.240512 -0.754615 5.042640 196 255 51 0.120309
-0.194469 -0.773479 5.031750 193 255 55 0.116564
-0.168120 -0.777874 5.026710 196 255 51 0.118411
-0.149049 -0.792209 5.021570 184 255 64 0.107753
-0.134919 -0.771516 5.021900 209 255 38 0.131629
-0.289116 -0.786465 5.039740 177 255 71 0.100420
-0.302359 -0.772883 5.043810 180 255 67 0.104071
-0.323190 -0.767948 5.046010 180 255 67 0.104570
-0.337171 -0.754288 5.050700 174 255 74 0.098425
-0.352001 -0.771810 5.046270 174 255 74 0.098312
-0.308891 -0.750788 5.049940 174 255 74 0.099767
-0.322876 -0.737497 5.054870 180 255 67 0.104065
-0.288574 -0.755171 5.047460 184 255 64 0.107660
-0.268311 -0.759599 5.044780 184 255 64 0.106128
-0.277572 -0.718822 5.061940 187 255 61 0.111178
-0.257777 -0.722442 5.057940 196 255 51 0.119376
-0.245132 -0.734120 5.051280 196 255 51 0.120291
-0.224437 -0.738057 5.047270 203 255 45 0.127101
-0.273602 -0.738440 5.052040 184 255 64 0.107946
-0.293930 -0.734200 5.054980 184 255 64 0.108100
-0.306257 -0.722618 5.062280 177 255 71 0.102201
-0.189549 -0.732843 5.043120 225 255 22 0.149266
-0.162932 -0.736269 5.037400 225 255 22 0.151385
-0.144875 -0.749077 5.030490 216 255 32 0.141580
-0.119129 -0.752628 5.025890 222 255 25 0.146718
-0.178898 -0.754489 5.033810 213 255 35 0.134885
-0.206062 -0.750524 5.039680 203 255 45 0.126172
-0.085322 -0.746265 5.022320 255 234 0 0.191416
-0.059697 -0.750076 5.015970 255 208 0 0.225884
-0.041716 -0.763877 5.008180 255 204 0 0.233377
-0.015724 -0.767318 5.002160 255 175 0 0.277134
-0.030935 -0.787394 4.998160 255 186 0 0.257902
-0.057368 -0.783695 5.004200 255 219 0 0.211645
-0.075305 -0.769835 5.012040 255 234 0 0.190618
-0.101289 -0.765943 5.018260 235 255 13 0.161161
0.016957 -0.762228 4.997180 255 127 0 0.360891
0.041979 -0.766600 4.990220 255 101 0 0.413558
0.060175 -0.781333 4.981430 255 90 0 0.438751
0.045966 -0.801083 4.977370 255 101 0 0.413240
0.027932 -0.786257 4.986290 255 123 0 0.372511
0.002102 -0.781867 4.993310 255 153 0 0.316269
0.028503 -0.831411 4.977330 255 130 0 0.355285
0.002245 -0.827153 4.983960 255 149 0 0.319844
-0.017958 -0.812816 4.991210 255 167 0 0.287959
-0.044282 -0.808652 4.997780 255 204 0 0.230062
0.014684 -0.806582 4.984380 255 141 0 0.336546
-0.077282 -0.814842 5.003750 245 249 3 0.172935
-0.103962 -0.810927 5.009600 209 255 38 0.133920
-0.122998 -0.796345 5.015620 200 255 48 0.124348
-0.090141 -0.790010 5.010170 235 255 13 0.164280
-0.520261 -0.695586 5.088770 171 255 77 0.095184
-0.540503 -0.701841 5.091160 164 255 84 0.092091
-0.542220 -0.718274 5.084860 164 255 84 0.092135
-0.560719 -0.707989 5.093030 171 255 77 0.097375
-0.563062 -0.724900 5.087000 171 255 77 0.095021
-0.583866 -0.731396 5.088410 187 255 61 0.109461
-0.564993 -0.741759 5.081350 180 255 67 0.105518
-0.581728 -0.714050 5.094140 180 255 67 0.103327
-0.602328 -0.720763 5.095500 193 255 55 0.117431
-0.577183 -0.695796 5.099950 167 255 80 0.094429
-0.556156 -0.690182 5.099030 164 255 84 0.091754
-0.536024 -0.684223 5.097000 164 255 84 0.090981
-0.551410 -0.672844 5.105690 161 255 87 0.087979
-0.583667 -0.752022 5.086270 180 255 67 0.105459
-0.580601 -0.771052 5.083940 177 255 71 0.102498
-0.602158 -0.762569 5.091270 190 255 58 0.112814
-0.599030 -0.781802 5.089200 187 255 61 0.110618
-0.617079 -0.792692 5.094660 200 255 48 0.121957
-0.595439 -0.801098 5.087760 187 255 61 0.110029
-0.620510 -0.773389 5.096280 196 255 51 0.120106
-0.638425 -0.784667 5.101540 213 255 35 0.136415
-0.621472 -0.752072 5.097320 203 255 45 0.125176
-0.602625 -0.741586 5.093070 190 255 58 0.114169
-0.679437 -0.766541 5.118090 248 245 0 0.179689
-0.670051 -0.748883 5.116520 235 255 13 0.163616
-0.650765 -0.737337 5.111160 219 255 29 0.142795
-0.640423 -0.720200 5.110030 213 255 35 0.136711
-0.620097 -0.709444 5.105020 203 255 45 0.126450
-0.637987 -0.697532 5.114000 216 255 32 0.141454
-0.622105 -0.731736 5.100930 200 255 48 0.123731
-0.640486 -0.763779 5.103700 213 255 35 0.136094
-0.659245 -0.775830 5.109950 229 255 19 0.154167
-0.623638 -0.684252 5.117310 193 255 55 0.118013
-0.602314 -0.678000 5.115290 174 255 74 0.099039
-0.588119 -0.665777 5.118640 164 255 84 0.091914
-0.566491 -0.659986 5.116400 158 255 90 0.085336
-0.581314 -0.646904 5.126820 148 255 100 0.078315
-0.572963 -0.678458 5.107970 164 255 84 0.092180
-0.598758 -0.702491 5.102770 180 255 67 0.105268
-0.565810 -0.638013 5.133120 129 255 119 0.065823
-0.544173 -0.636346 5.133900 109 255 138 0.055187
-0.529520 -0.627995 5.140070 93 255 155 0.045883
-0.508197 -0.626041 5.139940 80 255 167 0.040026
-0.521004 -0.613030 5.151760 74 255 174 0.037692
-0.516337 -0.641071 5.128190 103 255 145 0.050668
-0.495404 -0.638927 5.127810 96 255 151 0.046982
-0.522821 -0.655324 5.116710 125 255 122 0.064140
-0.544501 -0.657688 5.116740 135 255 113 0.070815
-0.505806 -0.607042 5.159730 51 255 196 0.028659
-0.484866 -0.608035 5.161300 32 255 216 0.023511
-0.470669 -0.602050 5.168990 22 255 225 0.020425
-0.459447 -0.615098 5.156100 38 255 209 0.024966
-0.467160 -0.627287 5.142640 58 255 190 0.031527
-0.487649 -0.627147 5.141940 67 255 180 0.034539
-0.434080 -0.638976 5.134040 64 255 184 0.033398
-0.440128 -0.650212 5.121720 84 255 164 0.041108
-0.454231 -0.639132 5.132530 67 255 180 0.034993
-0.460571 -0.650716 5.119990 96 255 151 0.047173
-0.481341 -0.650807 5.118070 106 255 142 0.052434
-0.467331 -0.661905 5.108190 119 255 129 0.060756
-0.474771 -0.639183 5.130430 80 255 167 0.039754
-0.446889 -0.627342 5.144840 48 255 200 0.027693
-0.488159 -0.664744 5.108430 119 255 129 0.059284
-0.493308 -0.678187 5.098280 138 255 109 0.072245
-0.508661 -0.667235 5.107610 129 255 119 0.066653
-0.514693 -0.681268 5.098150 148 255 100 0.079555
-0.530319 -0.669971 5.106800 145 255 103 0.077072
-0.501841 -0.652791 5.117440 116 255 132 0.057251
-0.368331 -0.698217 5.081240 145 255 103 0.075777
-0.364284 -0.712831 5.070060 158 255 90 0.085325
-0.382848 -0.715416 5.068490 161 255 87 0.087804
-0.388070 -0.699733 5.079230 142 255 106 0.075044
-0.408553 -0.701820 5.077410 148 255 100 0.078032
-0.328627 -0.714379 5.068300 164 255 84 0.090055
-0.348092 -0.728836 5.060040 171 255 77 0.096136
-0.371552 -0.754292 5.053010 161 255 87 0.089674
-0.392479 -0.736469 5.060510 167 255 80 0.092559
-0.395487 -0.758108 5.052640 167 255 80 0.093781
-0.368619 -0.732882 5.060660 167 255 80 0.092514
-0.420654 -0.748736 5.057320 167 255 80 0.092965
-0.409491 -0.727238 5.065640 158 255 90 0.085378
-0.430593 -0.731143 5.064970 161 255 87 0.087381
-0.452478 -0.734979 5.064170 167 255 80 0.092442
-0.499488 -0.692219 5.090070 155 255 93 0.083891
-0.473034 -0.675261 5.099060 135 255 113 0.069196
-0.446084 -0.677786 5.095590 125 255 122 0.063214
-0.451151 -0.690643 5.087050 138 255 109 0.072836
-0.470945 -0.694015 5.086940 138 255 109 0.070999
-0.475644 -0.707177 5.079160 148 255 100 0.079859
-0.496309 -0.710728 5.078700 161 255 87 0.088620
-0.447165 -0.661516 5.110800 103 255 145 0.051581
-0.420688 -0.649656 5.123490 80 255 167 0.040319
-0.401161 -0.664679 5.109730 87 255 161 0.043322
-0.420240 -0.665723 5.107920 90 255 158 0.045225
-0.425873 -0.676366 5.097110 113 255 135 0.056777
-0.381209 -0.678929 5.097540 113 255 135 0.055972
-0.400025 -0.680052 5.095280 116 255 132 0.058265
-0.427767 -0.705142 5.077160 148 255 100 0.078553
-0.447634 -0.708724 5.076750 145 255 103 0.075840
-0.470048 -0.725540 5.069890 161 255 87 0.089319
-0.488762 -0.522887 5.237050 9 241 238 0.017134
-0.470427 -0.518127 5.244270 9 241 238 0.017015
-0.451701 -0.521667 5.244810 6 237 242 0.016407
-0.433676 -0.516294 5.251150 9 241 238 0.016982
-0.415218 -0.519355 5.251030 13 245 235 0.017934
-0.416001 -0.500448 5.261660 16 249 232 0.018977
-0.432231 -0.534032 5.239460 6 237 242 0.016631
-0.413593 -0.537279 5.238820 13 245 235 0.017809
-0.448408 -0.539695 5.232450 0 229 248 0.014991
-0.464587 -0.544889 5.224750 0 225 251 0.014517
-0.483729 -0.541197 5.223860 0 225 251 0.014679
-0.477852 -0.558530 5.209700 0 213 255 0.012422
-0.397606 -0.497766 5.269140 16 249 232 0.018732
-0.380382 -0.503891 5.271320 19 253 229 0.019945
-0.362260 -0.501332 5.278090 22 255 225 0.020853
-0.364173 -0.519383 5.268470 32 255 216 0.022679
-0.381262 -0.522795 5.261300 25 255 222 0.021702
-0.397647 -0.525692 5.253260 19 253 229 0.019522
-0.378938 -0.548706 5.244210 38 255 209 0.025284
-0.394128 -0.551571 5.235970 25 255 222 0.021548
-0.409213 -0.553742 5.227080 9 241 238 0.017486
-0.363226 -0.537452 5.257320 42 255 206 0.025657
-0.422455 -0.566892 5.213340 0 225 251 0.014539
-0.436951 -0.572871 5.206140 0 213 255 0.012843
-0.455402 -0.569609 5.204760 0 201 255 0.011210
-0.470189 -0.574378 5.196890 0 201 255 0.010979
-0.443436 -0.556667 5.219180 0 217 255 0.013346
-0.427353 -0.551668 5.226620 3 233 245 0.015714
-0.481125 -0.588103 5.182650 13 245 235 0.017826
-0.496277 -0.594037 5.175070 22 255 225 0.020382
-0.516843 -0.592188 5.174180 38 255 209 0.025061
-0.532438 -0.598392 5.166260 61 255 187 0.032624
-0.542813 -0.582837 5.180200 61 255 187 0.032174
-0.526036 -0.577076 5.187690 38 255 209 0.024567
-0.505845 -0.578858 5.188860 22 255 225 0.020373
-0.489801 -0.572751 5.196080 16 249 232 0.018541
-0.542468 -0.614168 5.153160 77 255 171 0.039535
-0.557390 -0.622665 5.146910 100 255 148 0.049561
-0.579528 -0.623723 5.147450 109 255 138 0.055163
-0.595028 -0.632544 5.141270 138 255 109 0.073097
-0.607696 -0.617669 5.155470 145 255 103 0.077398
-0.590972 -0.609040 5.162020 116 255 132 0.057370
-0.569591 -0.607829 5.161170 93 255 155 0.045481
-0.553476 -0.599330 5.167440 90 255 158 0.044416
-0.635991 -0.585876 5.190090 142 255 106 0.075232
-0.617181 -0.576494 5.195630 119 255 129 0.059830
-0.594363 -0.575969 5.193770 90 255 158 0.044415
-0.575857 -0.567580 5.199650 67 255 180 0.034779
-0.553544 -0.566643 5.196960 55 255 193 0.029860
-0.563401 -0.549429 5.212540 67 255 180 0.034726
-0.565987 -0.583591 5.183250 71 255 177 0.036314
-0.581892 -0.592472 5.177190 84 255 164 0.042113
-0.605214 -0.593249 5.179610 113 255 135 0.055975
-0.622208 -0.601838 5.172600 142 255 106 0.075249
-0.544241 -0.542951 5.218900 45 255 203 0.027305
-0.523200 -0.545246 5.218500 32 255 216 0.023248
-0.504627 -0.538861 5.224700 25 255 222 0.021664
-0.499061 -0.556361 5.210850 0 221 255 0.013676
-0.515224 -0.562613 5.203680 25 255 222 0.021410
-0.536846 -0.560039 5.203950 42 255 206 0.025939
-0.237838 -0.495920 5.341510 32 255 216 0.022881
-0.267260 -0.477875 5.323670 32 255 216 0.023281
-0.249285 -0.479263 5.336290 22 255 225 0.020715
-0.219174 -0.498528 5.352340 25 255 222 0.021524
-0.303371 -0.474433 5.311560 22 255 225 0.020168
-0.318407 -0.464480 5.308000 25 255 222 0.021182
-0.335474 -0.463117 5.300480 32 255 216 0.023008
-0.282059 -0.468901 5.321540 29 255 219 0.022114
-0.320195 -0.421881 5.321190 58 255 190 0.031688
-0.301133 -0.425812 5.328650 45 255 203 0.026472
-0.286355 -0.436378 5.331330 32 255 216 0.023413
-0.267455 -0.439739 5.337620 35 255 213 0.024428
-0.252755 -0.449853 5.339180 38 255 209 0.025188
-0.326642 -0.437875 5.312590 48 255 200 0.027697
-0.229904 -0.447687 5.357120 16 249 232 0.018920
-0.218951 -0.464063 5.361530 0 225 251 0.014868
-0.203270 -0.473897 5.368350 0 225 251 0.014345
-0.184469 -0.303952 5.440070 45 255 203 0.026587
-0.169996 -0.317046 5.445880 13 245 235 0.018328
-0.164037 -0.336471 5.442830 0 221 255 0.013852
-0.148831 -0.348799 5.446220 0 213 255 0.012838
-0.166151 -0.362408 5.430840 0 217 255 0.013119
-0.182815 -0.353052 5.426830 0 213 255 0.012757
-0.188835 -0.333601 5.429520 3 233 245 0.015838
-0.204900 -0.323353 5.423880 25 255 222 0.021421
-0.210548 -0.303462 5.425720 58 255 190 0.031457
-0.231675 -0.323336 5.409790 35 255 213 0.024242
-0.127810 -0.357874 5.460350 0 173 255 0.007907
-0.115857 -0.376056 5.465120 0 137 255 0.004833
-0.110965 -0.397165 5.461720 0 125 255 0.004002
-0.097789 -0.414300 5.464550 0 117 255 0.003627
-0.112296 -0.421421 5.449910 0 137 255 0.004921
-0.126807 -0.407619 5.447200 0 129 255 0.004275
-0.131970 -0.386410 5.450700 0 141 255 0.005111
-0.145043 -0.371114 5.445530 0 169 255 0.007248
-0.154182 -0.427290 5.420250 0 153 255 0.005905
-0.161235 -0.408388 5.422540 0 161 255 0.006695
-0.176089 -0.395463 5.416150 0 185 255 0.008911
-0.182163 -0.375990 5.416250 0 221 255 0.013735
-0.198381 -0.389711 5.401320 0 221 255 0.014081
-0.160342 -0.382079 5.431290 0 173 255 0.008025
-0.147143 -0.397255 5.436630 0 145 255 0.005436
-0.139945 -0.416113 5.434440 0 141 255 0.005152
-0.125330 -0.430030 5.437170 0 149 255 0.005757
-0.216238 -0.383367 5.397220 0 209 255 0.011942
-0.224763 -0.366756 5.399680 0 217 255 0.013319
-0.242808 -0.359865 5.394420 0 221 255 0.013756
-0.251228 -0.342864 5.395570 16 249 232 0.018917
-0.270509 -0.362909 5.381070 3 233 245 0.015870
-0.223449 -0.340268 5.408700 13 245 235 0.018284
-0.207192 -0.350096 5.414180 0 229 248 0.015083
-0.198844 -0.366752 5.411930 0 217 255 0.013366
-0.281245 -0.179250 5.473170 155 255 93 0.083091
-0.256836 -0.181680 5.479040 148 255 100 0.079388
-0.262198 -0.191546 5.466300 155 255 93 0.083739
-0.233072 -0.184421 5.484850 148 255 100 0.077773
-0.238498 -0.194481 5.472560 151 255 96 0.080176
-0.215422 -0.197498 5.478620 148 255 100 0.078982
-0.209970 -0.187468 5.490250 145 255 103 0.076435
-0.243971 -0.204804 5.460350 158 255 90 0.085047
-0.220867 -0.207922 5.466850 151 255 96 0.081672
-0.226443 -0.218406 5.455330 155 255 93 0.083291
-0.271677 -0.212373 5.444210 161 255 87 0.087952
-0.290420 -0.199502 5.450050 161 255 87 0.089313
-0.309793 -0.187108 5.457040 164 255 84 0.090733
-0.319206 -0.207668 5.435200 174 255 74 0.098202
-0.189974 -0.195780 5.495670 129 255 119 0.065537
-0.164361 -0.203986 5.503380 119 255 129 0.060766
-0.176119 -0.214620 5.489560 116 255 132 0.058723
-0.139458 -0.211823 5.509840 116 255 132 0.057900
-0.151162 -0.222876 5.497450 106 255 142 0.053295
-0.162877 -0.233630 5.484690 103 255 145 0.050660
-0.168532 -0.244132 5.474050 100 255 148 0.048581
-0.181561 -0.225034 5.479170 113 255 135 0.056921
-0.187165 -0.235511 5.468110 116 255 132 0.057876
-0.200786 -0.216287 5.472850 132 255 116 0.067943
-0.195385 -0.205999 5.484340 132 255 116 0.067657
-0.206421 -0.226856 5.461910 135 255 113 0.069739
-0.207933 -0.276818 5.436150 90 255 158 0.045125
-0.217191 -0.260420 5.439710 103 255 145 0.050651
-0.236025 -0.253130 5.432890 122 255 126 0.060981
-0.246074 -0.236951 5.436310 145 255 103 0.076213
-0.265258 -0.255611 5.416960 142 255 106 0.074127
-0.188463 -0.259468 5.454950 96 255 151 0.047112
-0.286949 -0.253625 5.412490 142 255 106 0.073609
-0.300230 -0.241371 5.416590 148 255 100 0.079880
-0.322624 -0.239852 5.412430 155 255 93 0.082472
-0.336463 -0.228256 5.417580 164 255 84 0.090954
-0.353667 -0.249438 5.400730 158 255 90 0.084959
-0.305046 -0.219188 5.429530 167 255 80 0.092803
-0.258506 -0.224355 5.439510 155 255 93 0.083697
-0.359489 -0.482011 5.287240 22 255 225 0.020296
-0.378212 -0.485409 5.281030 16 249 232 0.019199
-0.395498 -0.479143 5.279560 19 253 229 0.019386
-0.414048 -0.481599 5.272150 25 255 222 0.021322
-0.411627 -0.462458 5.282020 35 255 213 0.024250
-0.391883 -0.461293 5.288510 29 255 219 0.022131
-0.374492 -0.467957 5.290340 22 255 225 0.020157
-0.352837 -0.457300 5.299540 29 255 219 0.021805
-0.435672 -0.496366 5.262990 16 249 232 0.018633
-0.453754 -0.502404 5.257060 13 245 235 0.018195
-0.473846 -0.497335 5.257600 16 249 232 0.019133
-0.492003 -0.502645 5.250630 25 255 222 0.020927
-0.494339 -0.482340 5.263120 38 255 209 0.025095
-0.473843 -0.477896 5.268710 29 255 219 0.022117
-0.454076 -0.481893 5.268170 29 255 219 0.021985
-0.433488 -0.477264 5.272960 25 255 222 0.021635
-0.492002 -0.440150 5.288920 71 255 177 0.035690
-0.469897 -0.436493 5.292730 61 255 187 0.032596
-0.449798 -0.441541 5.291010 51 255 196 0.028835
-0.427550 -0.437670 5.294400 48 255 200 0.028449
-0.407394 -0.443347 5.292230 48 255 200 0.028119
