ply
format ascii 1.0
comment VCGLIB generated
element vertex 1015
property float x
property float y
property float z
property uchar red
property uchar green
property uchar blue
property float quality
end_header
0.041155 -0.122430 0.871066 0 181 255 0.092002
0.043205 -0.122698 0.872380 0 154 255 0.085856
0.038218 -0.118676 0.886143 0 208 255 0.101149
0.036429 -0.117754 0.889309 0 208 255 0.099918
0.034524 -0.116795 0.888060 69 255 179 0.131007
0.034540 -0.117236 0.892619 0 181 255 0.090388
0.032687 -0.116062 0.891297 58 255 190 0.127241
0.030762 -0.115240 0.889995 127 255 121 0.152665
0.032585 -0.115960 0.886730 131 255 117 0.160382
0.034308 -0.117138 0.883585 101 255 147 0.143031
0.036272 -0.117785 0.884851 47 255 201 0.124143
0.073572 -0.052246 0.805094 0 0 189 0.016042
0.076513 -0.051951 0.806160 0 0 189 0.017452
0.075695 -0.056353 0.805698 0 0 189 0.018581
0.079434 -0.051670 0.807290 0 0 189 0.017686
0.078610 -0.056128 0.806778 0 0 204 0.019576
0.081571 -0.055868 0.807877 0 0 204 0.020030
0.082259 -0.051561 0.808558 0 0 189 0.016584
0.077953 -0.060419 0.806212 0 0 204 0.021768
0.080883 -0.060205 0.807233 0 0 219 0.024392
0.080304 -0.064385 0.806711 0 0 234 0.028042
0.077563 -0.064548 0.805868 0 0 219 0.025229
0.075252 -0.060571 0.805334 0 0 189 0.019470
0.074874 -0.064678 0.805096 0 0 204 0.023137
0.072657 -0.060702 0.804424 0 0 189 0.018175
0.073068 -0.056562 0.804765 0 0 189 0.017377
0.070512 -0.056672 0.803768 0 0 189 0.016429
0.072247 -0.064791 0.804272 0 0 204 0.021462
0.070060 -0.060860 0.803555 0 0 189 0.016323
0.069710 -0.064871 0.803441 0 0 189 0.018618
0.071013 -0.052332 0.804056 0 0 174 0.015605
0.084883 -0.051607 0.809725 0 0 189 0.016309
0.087698 -0.051570 0.811047 0 0 174 0.013880
0.086901 -0.055942 0.810124 0 0 189 0.018866
0.090471 -0.051566 0.812264 0 0 174 0.013654
0.089755 -0.055875 0.811374 0 0 189 0.017554
0.088961 -0.060154 0.810385 0 0 219 0.025048
0.088432 -0.064192 0.809534 0 0 250 0.033889
0.086330 -0.060058 0.809296 0 0 219 0.025424
0.085794 -0.064156 0.808505 0 0 250 0.033416
0.083648 -0.060097 0.808244 0 0 219 0.025199
0.084346 -0.055854 0.808893 0 0 204 0.021437
0.082998 -0.064248 0.807650 0 0 234 0.029691
0.085574 -0.077180 0.809311 0 0 255 0.035425
0.082392 -0.081034 0.808860 0 0 255 0.037174
0.083762 -0.073071 0.808627 0 0 234 0.029138
0.080534 -0.077099 0.808253 0 0 234 0.027347
0.078731 -0.072971 0.807323 0 0 219 0.024450
0.077425 -0.080722 0.807929 0 0 250 0.032249
0.081912 -0.068808 0.807831 0 0 219 0.025752
0.084673 -0.068677 0.808620 0 0 234 0.028618
0.087450 -0.068592 0.809373 0 0 250 0.031995
0.086489 -0.072950 0.809317 0 0 250 0.034002
0.075459 -0.076995 0.807149 0 0 219 0.024411
0.072566 -0.080334 0.806929 0 0 219 0.026972
0.073419 -0.073054 0.806138 0 0 189 0.018862
0.070649 -0.076702 0.805929 0 0 204 0.021227
0.068702 -0.072894 0.804716 0 0 189 0.017567
0.067778 -0.079908 0.805683 0 0 219 0.023660
0.071531 -0.069032 0.804837 0 0 189 0.018467
0.074092 -0.068964 0.805627 0 0 189 0.019080
0.076768 -0.068915 0.806245 0 0 204 0.022728
0.076053 -0.073033 0.806711 0 0 204 0.021989
0.069321 -0.083479 0.807403 0 0 234 0.028435
0.070842 -0.086933 0.808875 0 0 250 0.033762
0.074161 -0.083935 0.808472 0 0 234 0.029023
0.075727 -0.087460 0.809823 0 0 255 0.035330
0.072364 -0.090377 0.810028 0 7 255 0.039391
0.073893 -0.093844 0.810864 0 47 255 0.054440
0.069341 -0.093201 0.809688 0 47 255 0.052897
0.067798 -0.089812 0.808721 0 7 255 0.040594
0.066267 -0.086403 0.807531 0 0 250 0.031388
0.064900 -0.092636 0.808242 0 47 255 0.051702
0.078929 -0.084508 0.809361 0 0 250 0.033074
0.080408 -0.088228 0.810616 0 7 255 0.039168
0.083825 -0.084942 0.810133 0 7 255 0.042619
0.079560 -0.091558 0.811130 0 34 255 0.049637
0.078576 -0.094788 0.811453 0 101 255 0.066964
0.074429 -0.103539 0.814707 0 167 255 0.086490
0.075797 -0.100616 0.813698 0 114 255 0.071810
0.071421 -0.099431 0.813025 0 74 255 0.061363
0.070141 -0.102377 0.814040 0 114 255 0.073422
0.074926 -0.097165 0.812322 0 87 255 0.064786
0.079538 -0.098259 0.812809 0 127 255 0.077592
0.065978 -0.101622 0.813190 0 114 255 0.072278
0.067010 -0.098654 0.812117 0 87 255 0.062874
0.062849 -0.098066 0.810760 0 87 255 0.063768
0.061833 -0.100950 0.812117 0 101 255 0.069022
0.065983 -0.095644 0.810227 0 60 255 0.057458
0.070427 -0.096254 0.811526 0 60 255 0.057406
0.086892 -0.140482 0.925385 0 0 219 0.026540
0.088778 -0.139646 0.926968 0 0 204 0.020082
0.088257 -0.141533 0.922905 0 0 234 0.028690
0.090094 -0.140686 0.924483 0 0 204 0.021011
0.091440 -0.141707 0.922008 0 0 204 0.022846
0.089567 -0.142541 0.920393 0 0 234 0.030499
0.091970 -0.140047 0.926107 0 0 189 0.017451
0.093296 -0.141057 0.923642 0 0 189 0.017807
0.095219 -0.140597 0.925322 0 0 174 0.015326
0.093141 -0.139114 0.928923 0 0 174 0.015581
0.089888 -0.138522 0.929708 0 0 189 0.017211
0.092352 -0.144538 0.915745 0 0 255 0.037625
0.093771 -0.143253 0.918920 0 0 219 0.026007
0.094038 -0.145730 0.912651 0 20 255 0.043443
0.095410 -0.144465 0.915845 0 0 234 0.029926
0.097114 -0.145623 0.912743 0 0 255 0.035298
0.095724 -0.146858 0.909542 0 34 255 0.050580
0.096888 -0.143403 0.919053 0 0 219 0.023524
0.098562 -0.144573 0.915961 0 0 234 0.027468
0.100020 -0.143721 0.919155 0 0 204 0.023051
0.097633 -0.142189 0.922278 0 0 189 0.017980
0.107783 -0.137383 0.928041 0 0 158 0.011195
0.104263 -0.138093 0.927183 0 0 158 0.011296
0.105782 -0.136372 0.929863 0 0 174 0.014028
0.101106 -0.138801 0.926479 0 0 158 0.011621
0.102350 -0.137046 0.929007 0 0 174 0.013937
0.099202 -0.137754 0.928296 0 0 174 0.014248
0.103794 -0.135327 0.931642 0 0 189 0.018250
0.098128 -0.139629 0.925879 0 0 174 0.011840
0.100585 -0.141196 0.922830 0 0 174 0.012068
0.103564 -0.140327 0.923388 0 0 158 0.010215
0.100329 -0.135815 0.931711 0 0 189 0.018271
0.102256 -0.134414 0.933785 0 0 204 0.020976
0.097108 -0.136305 0.931874 0 0 189 0.017143
0.098839 -0.134859 0.933839 0 0 204 0.021411
0.095082 -0.137636 0.930360 0 0 174 0.015091
0.110151 -0.135003 0.929554 0 0 189 0.017315
0.107309 -0.133604 0.931874 0 0 219 0.024738
0.105017 -0.132264 0.934499 0 0 250 0.031829
0.107230 -0.139380 0.924593 0 0 158 0.009649
0.106858 -0.141380 0.921250 0 0 158 0.010831
0.103322 -0.142480 0.920153 0 0 174 0.014144
0.103091 -0.144703 0.916917 0 0 219 0.026493
0.106570 -0.143447 0.917969 0 0 189 0.016619
0.106289 -0.145578 0.914685 0 0 234 0.030280
0.109262 -0.142044 0.919692 0 0 174 0.012381
0.109750 -0.140067 0.923121 0 0 158 0.010033
0.110391 -0.138109 0.926650 0 0 158 0.009601
0.112932 -0.138814 0.925167 0 0 158 0.009934
0.101073 -0.145046 0.914786 0 0 234 0.027551
0.099656 -0.145983 0.911594 0 0 250 0.033870
0.102220 -0.146331 0.910432 0 0 250 0.034061
0.098227 -0.147098 0.908386 0 20 255 0.045407
0.100768 -0.147339 0.907226 0 7 255 0.041837
0.099275 -0.148585 0.904034 0 74 255 0.061395
0.096767 -0.148434 0.905186 0 101 255 0.067334
0.103294 -0.147584 0.906048 0 7 255 0.041772
0.101784 -0.148728 0.902861 0 60 255 0.056065
0.104264 -0.148896 0.901674 0 60 255 0.055337
0.105325 -0.147015 0.908166 0 0 255 0.036612
0.104186 -0.145868 0.912531 0 0 234 0.030247
0.111758 -0.149091 0.898739 0 60 255 0.055664
0.112082 -0.148198 0.901926 0 20 255 0.044237
0.110787 -0.147337 0.905914 0 0 255 0.036557
0.111029 -0.146682 0.909152 0 0 255 0.036160
0.109627 -0.145972 0.913218 0 0 250 0.033348
0.112909 -0.146327 0.911648 0 0 250 0.035092
0.107745 -0.146414 0.910672 0 0 250 0.033793
0.106689 -0.147944 0.904178 0 7 255 0.041432
0.107997 -0.148965 0.900222 0 47 255 0.052820
0.114074 -0.144606 0.914317 0 0 219 0.026185
0.114087 -0.142750 0.917699 0 0 189 0.017973
0.115445 -0.141148 0.920543 0 0 174 0.014070
0.112788 -0.140716 0.921690 0 0 158 0.011668
0.109420 -0.143998 0.916431 0 0 204 0.019717
0.124964 -0.146039 0.908683 0 34 255 0.048163
0.123416 -0.146422 0.905721 0 20 255 0.045090
0.124576 -0.146620 0.902539 0 34 255 0.048474
0.124336 -0.147062 0.899444 0 47 255 0.051029
0.125400 -0.147436 0.896338 0 47 255 0.053554
0.122847 -0.147863 0.896552 0 47 255 0.054027
0.127100 -0.146682 0.899297 0 60 255 0.055316
0.128154 -0.146997 0.896178 0 60 255 0.057897
0.127272 -0.146331 0.902222 0 47 255 0.053697
0.127426 -0.146090 0.905194 0 47 255 0.053010
0.129679 -0.146455 0.899012 0 74 255 0.059003
0.130797 -0.146685 0.896118 0 74 255 0.059929
0.129278 -0.140236 0.872456 0 7 255 0.042102
0.126959 -0.142214 0.875935 0 7 255 0.042609
0.125849 -0.143793 0.879400 0 20 255 0.044773
0.123427 -0.145700 0.882928 0 34 255 0.048919
0.125999 -0.145128 0.882822 0 34 255 0.049967
0.123244 -0.144470 0.879457 0 20 255 0.043104
0.120785 -0.146318 0.882955 0 47 255 0.050807
0.124273 -0.142882 0.875821 0 7 255 0.040688
0.125235 -0.141293 0.872212 0 7 255 0.041001
0.125307 -0.145615 0.886249 0 20 255 0.046048
0.123323 -0.146439 0.889889 0 7 255 0.042680
0.122444 -0.147160 0.893310 0 34 255 0.047686
0.120268 -0.148222 0.896905 0 47 255 0.052153
0.119946 -0.147592 0.893657 0 20 255 0.046122
0.117730 -0.148645 0.897231 0 47 255 0.054109
0.120759 -0.146900 0.890110 0 7 255 0.041683
0.121434 -0.146374 0.886518 0 20 255 0.044346
0.112577 -0.148321 0.894994 0 7 255 0.041937
0.114928 -0.147573 0.891081 0 0 255 0.036954
0.115522 -0.147163 0.887297 0 0 255 0.037998
0.117667 -0.146731 0.883326 0 34 255 0.048614
0.114540 -0.147228 0.883669 0 20 255 0.046076
0.118641 -0.146789 0.886918 0 7 255 0.042237
0.117993 -0.147274 0.890541 0 7 255 0.039875
0.117176 -0.147910 0.894100 0 20 255 0.044377
0.114753 -0.148842 0.898022 0 47 255 0.053653
0.115631 -0.145772 0.879793 0 0 255 0.037617
0.118235 -0.144083 0.875993 0 0 250 0.035058
0.119195 -0.142608 0.872161 0 0 255 0.036109
0.122313 -0.141972 0.872251 0 7 255 0.039228
0.121370 -0.143487 0.875886 0 7 255 0.039225
0.120352 -0.144999 0.879515 0 7 255 0.042031
0.121810 -0.147380 0.899838 0 34 255 0.048594
0.121965 -0.146883 0.902871 0 20 255 0.046035
0.120926 -0.146554 0.906256 0 7 255 0.042126
0.121070 -0.146226 0.909400 0 7 255 0.042603
0.118550 -0.146368 0.909917 0 7 255 0.040301
0.118282 -0.146778 0.906641 0 7 255 0.041524
0.119403 -0.147116 0.903309 0 20 255 0.043403
0.119136 -0.147715 0.900144 0 34 255 0.047652
0.123531 -0.144634 0.911901 0 0 255 0.038060
0.120679 -0.143267 0.915435 0 0 234 0.027866
0.120858 -0.144768 0.912404 0 0 255 0.036455
0.118343 -0.141414 0.919576 0 0 189 0.018448
0.116876 -0.142992 0.916696 0 0 204 0.021596
0.116966 -0.144674 0.913490 0 0 234 0.029577
0.115687 -0.146339 0.910783 0 0 255 0.038492
0.114202 -0.146784 0.907992 0 0 255 0.036914
0.113857 -0.147366 0.904729 0 7 255 0.039605
0.115124 -0.147999 0.901186 0 20 255 0.044099
0.116690 -0.147297 0.903883 0 7 255 0.041687
0.106945 -0.145154 0.873466 0 20 255 0.046360
0.106696 -0.145618 0.877502 0 0 250 0.033024
0.109525 -0.144419 0.873252 0 0 255 0.035799
0.109712 -0.145254 0.877297 0 0 234 0.029753
0.106785 -0.146392 0.881575 0 0 234 0.028776
0.107113 -0.147638 0.885596 0 0 255 0.036823
0.105250 -0.147534 0.885890 0 0 250 0.033510
0.105067 -0.146501 0.881853 0 0 234 0.029289
0.103510 -0.147560 0.886195 0 0 250 0.033975
0.103492 -0.146753 0.882160 0 0 250 0.034120
0.105262 -0.145968 0.877818 0 0 255 0.037222
0.101860 -0.147737 0.886546 0 0 255 0.038473
0.112727 -0.143839 0.872669 0 0 250 0.034873
0.113298 -0.144753 0.876331 0 0 250 0.032282
0.115988 -0.143226 0.872276 0 0 255 0.036246
0.112118 -0.146033 0.880491 0 0 250 0.032328
0.110806 -0.147358 0.884642 0 0 255 0.037957
0.108855 -0.148283 0.896246 0 0 255 0.037338
0.109609 -0.147822 0.892256 0 0 250 0.032041
0.105882 -0.147838 0.893654 0 0 234 0.030979
0.105124 -0.148272 0.897666 0 0 255 0.038343
0.108374 -0.147578 0.888943 0 0 234 0.030202
0.112083 -0.147420 0.887948 0 0 250 0.033562
0.103243 -0.147978 0.898001 0 0 250 0.033839
0.100751 -0.147888 0.899160 0 0 255 0.036718
0.102173 -0.147424 0.894292 0 0 219 0.025832
0.098270 -0.147843 0.900332 0 7 255 0.040610
0.099748 -0.147420 0.895476 0 0 234 0.027492
0.101100 -0.147387 0.890589 0 0 234 0.027395
0.102811 -0.147344 0.890239 0 0 219 0.025398
0.104621 -0.147434 0.889917 0 0 219 0.026058
0.104020 -0.147602 0.893977 0 0 219 0.027046
0.134206 -0.145374 0.892760 0 74 255 0.061078
0.134857 -0.144490 0.889550 0 60 255 0.058405
0.136830 -0.143652 0.886378 0 74 255 0.060410
0.138853 -0.142762 0.883258 0 87 255 0.064876
0.136172 -0.143010 0.883184 0 60 255 0.055777
0.137318 -0.141266 0.879938 0 47 255 0.053026
0.139837 -0.139549 0.876817 0 60 255 0.054770
0.140950 -0.137869 0.873630 0 47 255 0.053316
0.143799 -0.137696 0.873808 0 74 255 0.061774
0.140002 -0.141117 0.880020 0 60 255 0.058478
0.124963 -0.146752 0.893132 0 34 255 0.047837
0.125757 -0.145972 0.889709 0 20 255 0.045560
0.127684 -0.145066 0.886245 0 34 255 0.047136
0.128364 -0.144495 0.882822 0 47 255 0.051597
0.130941 -0.143907 0.882901 0 47 255 0.051587
0.130227 -0.144539 0.886155 0 34 255 0.050760
0.128226 -0.145499 0.889557 0 20 255 0.046824
0.127487 -0.146305 0.892885 0 34 255 0.048959
0.128320 -0.143206 0.879476 0 20 255 0.045305
0.129444 -0.141549 0.876037 0 7 255 0.042902
0.131719 -0.139586 0.872772 0 7 255 0.039891
0.134355 -0.138934 0.873001 0 20 255 0.043775
0.131851 -0.140897 0.876195 0 20 255 0.043121
0.130773 -0.142527 0.879527 0 20 255 0.046825
0.138273 -0.138273 0.873490 0 34 255 0.048743
0.137150 -0.139866 0.876678 0 34 255 0.047786
0.134702 -0.141779 0.879826 0 47 255 0.050942
0.133498 -0.143444 0.883042 0 60 255 0.054718
0.134486 -0.140349 0.876423 0 20 255 0.045819
0.134187 -0.143941 0.886400 0 60 255 0.055788
0.132229 -0.144913 0.889641 0 47 255 0.054256
0.131544 -0.145742 0.892861 0 47 255 0.054310
-0.064191 -0.081701 0.717613 0 0 204 0.022109
-0.062082 -0.081113 0.718762 0 0 204 0.022529
-0.059398 -0.081478 0.719152 0 0 219 0.025165
-0.057358 -0.080822 0.720345 0 0 234 0.027575
-0.054789 -0.081145 0.720719 0 0 234 0.030965
-0.056011 -0.079096 0.722227 0 0 219 0.024005
-0.056040 -0.082740 0.718670 0 0 234 0.028107
-0.053417 -0.082983 0.718914 0 0 250 0.032406
-0.057121 -0.084206 0.716498 0 0 219 0.026261
-0.059876 -0.083958 0.716198 0 0 219 0.024486
-0.062600 -0.083601 0.715827 0 0 219 0.025362
-0.060954 -0.085300 0.714004 0 0 234 0.029443
-0.053871 -0.078944 0.723506 0 0 234 0.029181
-0.051398 -0.079628 0.724065 0 0 255 0.035759
-0.049300 -0.079397 0.725339 0 7 255 0.041792
-0.046825 -0.079980 0.725672 0 20 255 0.046241
-0.047848 -0.082126 0.722851 0 7 255 0.039640
-0.052209 -0.081836 0.721158 0 0 234 0.028680
-0.043688 -0.084842 0.721197 0 20 255 0.044264
-0.046074 -0.084486 0.720762 0 0 255 0.038995
-0.046956 -0.085565 0.718535 0 0 250 0.033625
-0.049377 -0.085118 0.717960 0 0 234 0.028010
-0.050264 -0.086034 0.715683 0 0 234 0.027732
-0.049103 -0.083295 0.720938 0 0 250 0.034992
-0.045439 -0.082594 0.723422 0 20 255 0.045592
-0.052858 -0.086000 0.715373 0 0 234 0.029654
-0.053598 -0.087243 0.713105 0 0 255 0.035580
-0.056311 -0.087113 0.712782 0 0 250 0.033858
-0.059095 -0.086897 0.712405 0 0 255 0.035433
-0.057165 -0.088368 0.710694 0 20 255 0.044769
-0.058238 -0.085570 0.714504 0 0 234 0.027666
-0.009886 -0.092246 0.748647 167 255 81 0.236425
-0.007931 -0.094892 0.750237 175 255 73 0.250768
-0.006397 -0.098048 0.751670 197 255 50 0.298555
-0.004943 -0.101368 0.753665 205 255 43 0.315001
-0.004171 -0.105290 0.755351 207 255 41 0.317373
-0.008862 -0.096134 0.748791 186 255 62 0.275576
-0.010777 -0.093737 0.747179 176 255 71 0.255757
-0.004049 -0.108836 0.758225 201 255 47 0.306603
-0.004862 -0.112766 0.759522 203 255 45 0.311295
-0.005751 -0.116842 0.761179 194 255 54 0.292719
-0.006904 -0.120847 0.761952 184 255 64 0.272892
-0.005022 -0.109170 0.756378 207 255 41 0.316528
-0.007759 -0.120178 0.759209 199 255 48 0.303369
-0.006804 -0.116498 0.758059 207 255 41 0.318908
-0.005893 -0.112830 0.756925 207 255 41 0.317561
-0.004957 -0.105820 0.753477 213 255 35 0.331508
-0.006100 -0.102599 0.751089 216 255 31 0.338160
-0.007447 -0.099416 0.749551 209 255 39 0.323529
-0.005423 -0.109449 0.753974 216 255 31 0.338040
-0.007039 -0.119633 0.757046 207 255 41 0.320116
-0.005592 -0.112844 0.754523 211 255 37 0.327048
-0.005989 -0.116171 0.755552 211 255 37 0.324422
-0.004642 -0.106278 0.750602 226 255 22 0.358302
-0.011482 -0.096505 0.743235 194 255 54 0.292183
-0.009507 -0.098339 0.745241 203 255 45 0.311164
-0.007700 -0.100544 0.747347 215 255 33 0.335447
-0.006000 -0.103193 0.748900 220 255 28 0.345629
-0.011448 -0.095360 0.745265 190 255 58 0.281722
-0.008682 -0.124811 0.764002 165 255 83 0.232927
-0.011069 -0.128131 0.763981 146 255 102 0.193388
-0.013333 -0.131550 0.764835 112 255 136 0.144832
-0.015666 -0.134602 0.764809 4 234 244 0.106362
-0.009598 -0.123963 0.761684 175 255 73 0.253728
-0.018488 -0.137765 0.766804 0 127 255 0.077087
-0.021436 -0.139452 0.766204 0 87 255 0.062536
-0.024330 -0.141635 0.766614 0 60 255 0.056058
-0.027176 -0.143111 0.766028 0 47 255 0.051360
-0.024465 -0.140238 0.763742 0 60 255 0.057013
-0.021675 -0.138184 0.763614 0 127 255 0.075804
-0.018693 -0.136412 0.764208 0 194 255 0.095126
-0.026770 -0.140879 0.761253 0 47 255 0.052325
-0.024236 -0.138829 0.761219 0 101 255 0.068652
-0.021520 -0.136817 0.761143 0 181 255 0.091620
-0.018771 -0.135033 0.761747 36 255 211 0.117405
-0.016019 -0.133054 0.762223 112 255 136 0.145107
-0.013999 -0.129443 0.760724 148 255 100 0.197077
-0.011817 -0.126670 0.760749 163 255 85 0.230246
-0.024792 -0.138262 0.756695 0 141 255 0.081279
-0.022447 -0.136206 0.756938 15 248 233 0.111131
-0.020084 -0.134642 0.757628 69 255 179 0.130904
-0.017554 -0.132630 0.757847 131 255 117 0.161672
-0.015072 -0.130939 0.758564 142 255 106 0.185676
-0.023579 -0.137508 0.758921 0 167 255 0.089168
-0.026072 -0.139435 0.758870 0 101 255 0.066706
-0.012650 -0.127787 0.757511 167 255 81 0.237194
-0.010791 -0.125253 0.757552 186 255 62 0.273614
-0.008888 -0.122371 0.757162 199 255 48 0.304565
-0.009671 -0.123157 0.759350 190 255 58 0.282973
-0.044629 -0.146071 0.748650 0 0 189 0.016414
-0.042332 -0.145139 0.749857 0 0 189 0.016901
-0.040438 -0.144512 0.751647 0 0 204 0.020435
-0.037993 -0.143900 0.752834 0 0 219 0.024338
-0.035949 -0.143602 0.754644 0 0 234 0.027816
-0.039528 -0.144713 0.755002 0 0 204 0.021550
-0.042204 -0.145312 0.753899 0 0 189 0.019081
-0.044156 -0.145842 0.752070 0 0 189 0.016480
-0.046716 -0.146782 0.751029 0 0 189 0.017895
-0.032702 -0.141702 0.754073 0 20 255 0.043017
-0.030494 -0.140879 0.755521 0 47 255 0.052071
-0.027944 -0.139577 0.756367 0 87 255 0.064793
-0.034277 -0.142954 0.756727 0 0 250 0.033150
-0.029760 -0.141947 0.760729 0 20 255 0.043663
-0.032381 -0.142658 0.759472 0 0 255 0.036851
-0.037455 -0.144862 0.757590 0 0 219 0.026411
-0.035440 -0.144081 0.759625 0 0 234 0.029022
-0.041008 -0.145849 0.758124 0 0 204 0.022303
-0.043401 -0.146162 0.756317 0 0 204 0.020029
-0.046291 -0.146766 0.755359 0 0 204 0.019567
-0.048553 -0.147359 0.753520 0 0 204 0.021095
-0.033073 -0.143695 0.761812 0 0 250 0.035110
-0.030215 -0.143310 0.763610 0 0 255 0.038835
-0.036097 -0.145034 0.762058 0 0 250 0.031589
-0.038983 -0.146453 0.762267 0 0 255 0.035806
-0.038354 -0.145586 0.759879 0 0 234 0.028144
-0.033499 -0.145207 0.765588 0 7 255 0.042155
-0.030292 -0.144751 0.766833 0 34 255 0.049783
-0.036586 -0.146664 0.766358 0 34 255 0.050710
-0.039711 -0.147938 0.767118 0 74 255 0.060774
-0.039366 -0.147246 0.764706 0 34 255 0.047394
-0.052825 -0.148367 0.764308 0 0 234 0.030716
-0.049328 -0.148034 0.763808 0 0 250 0.031491
-0.052090 -0.148298 0.761691 0 0 234 0.029422
-0.045832 -0.147669 0.763311 0 0 250 0.033519
-0.048555 -0.147815 0.761142 0 0 234 0.029629
-0.045106 -0.147251 0.760620 0 0 234 0.028633
-0.051261 -0.148139 0.758963 0 0 234 0.027852
-0.042361 -0.147128 0.762795 0 0 250 0.034933
-0.042811 -0.147693 0.765208 0 7 255 0.042055
-0.046294 -0.148045 0.765682 0 7 255 0.039221
-0.047525 -0.147318 0.758062 0 0 204 0.022870
-0.050042 -0.147815 0.756175 0 0 219 0.024572
-0.047691 -0.141898 0.715251 0 127 255 0.074578
-0.047568 -0.143291 0.718695 0 87 255 0.065750
-0.047526 -0.144765 0.722126 0 87 255 0.065462
-0.044776 -0.144023 0.719382 0 127 255 0.075689
-0.050432 -0.144012 0.721518 0 47 255 0.054641
-0.053730 -0.143058 0.720646 0 20 255 0.046005
-0.050605 -0.142445 0.717899 0 60 255 0.056881
-0.053904 -0.141472 0.717061 0 47 255 0.052479
-0.042661 -0.145059 0.722126 0 114 255 0.072668
-0.044868 -0.145558 0.725159 0 74 255 0.058813
-0.042063 -0.145778 0.725744 0 74 255 0.059810
-0.039282 -0.145963 0.726395 0 87 255 0.066275
-0.044309 -0.146311 0.728802 0 47 255 0.053251
-0.047346 -0.146077 0.728092 0 34 255 0.049653
-0.050016 -0.145246 0.725079 0 47 255 0.052157
-0.051295 -0.147188 0.732644 0 34 255 0.047295
-0.052883 -0.146133 0.728797 0 20 255 0.046647
-0.054520 -0.144955 0.724975 0 34 255 0.048721
-0.056036 -0.145700 0.727890 0 20 255 0.044978
-0.049925 -0.146428 0.729598 0 34 255 0.049815
-0.058983 -0.144116 0.724714 0 7 255 0.040338
-0.056850 -0.143148 0.721998 0 7 255 0.040272
-0.059929 -0.142118 0.720986 0 0 255 0.038507
-0.063047 -0.141111 0.719889 0 7 255 0.039650
-0.057833 -0.141245 0.718250 0 20 255 0.044233
-0.030927 -0.081866 0.735905 36 255 211 0.117788
-0.033039 -0.082146 0.734381 26 255 222 0.116049
-0.034939 -0.082319 0.732684 4 234 244 0.107079
-0.030978 -0.084075 0.734021 69 255 179 0.129997
-0.032941 -0.084279 0.732326 47 255 201 0.123952
-0.036765 -0.082274 0.730854 0 194 255 0.095967
-0.038546 -0.082134 0.728916 0 141 255 0.078708
-0.039036 -0.079577 0.731046 0 101 255 0.069867
-0.037206 -0.079698 0.733001 0 167 255 0.087102
-0.034123 -0.085026 0.729767 15 248 233 0.111553
-0.030475 -0.086331 0.731416 80 255 168 0.133263
-0.032026 -0.086417 0.729503 36 255 211 0.117761
-0.035656 -0.084981 0.727930 0 208 255 0.099868
-0.037079 -0.084803 0.725937 0 141 255 0.080559
-0.043037 -0.083623 0.723996 0 60 255 0.056710
-0.042289 -0.082161 0.726690 0 101 255 0.066433
-0.039548 -0.083707 0.726410 0 141 255 0.078451
-0.040356 -0.084902 0.723568 0 74 255 0.061556
-0.044802 -0.080290 0.727001 0 60 255 0.055674
-0.043052 -0.079506 0.728924 0 74 255 0.061051
-0.041267 -0.078635 0.730714 0 87 255 0.063692
-0.012968 -0.090383 0.746837 157 255 90 0.218319
-0.016001 -0.088745 0.745331 154 255 94 0.207452
-0.018759 -0.087070 0.743842 148 255 100 0.197202
-0.021350 -0.085333 0.742416 133 255 115 0.165701
-0.020521 -0.083222 0.743832 101 255 147 0.142982
-0.017950 -0.084955 0.745273 123 255 125 0.148846
-0.013844 -0.092088 0.745371 176 255 71 0.257047
-0.016817 -0.090736 0.743746 167 255 81 0.236757
-0.019644 -0.089298 0.742273 167 255 81 0.235718
-0.021990 -0.087838 0.740503 152 255 96 0.204795
-0.028844 -0.082984 0.737751 90 255 157 0.138887
-0.026542 -0.083859 0.739373 131 255 117 0.161222
-0.030367 -0.078937 0.737855 0 181 255 0.090549
-0.028261 -0.080077 0.739589 4 234 244 0.106981
-0.024016 -0.084655 0.740910 133 255 115 0.167602
-0.029540 -0.075705 0.739668 0 74 255 0.060718
-0.025669 -0.080455 0.741663 26 255 222 0.116910
-0.027415 -0.077156 0.741383 0 154 255 0.085431
-0.023060 -0.081504 0.743040 47 255 201 0.121621
-0.035052 -0.079413 0.734794 0 181 255 0.089852
-0.038930 -0.076357 0.733189 0 47 255 0.054014
-0.036762 -0.076203 0.735042 0 74 255 0.058619
-0.034421 -0.076177 0.736693 0 87 255 0.066074
-0.032557 -0.078149 0.737011 0 154 255 0.084003
-0.043524 -0.076175 0.731242 0 47 255 0.052356
-0.045558 -0.077206 0.729243 0 34 255 0.049147
-0.047716 -0.075775 0.728686 0 0 255 0.038720
-0.045682 -0.074766 0.730702 0 7 255 0.041809
-0.047819 -0.073231 0.730061 0 0 250 0.033467
-0.041057 -0.075175 0.732865 0 34 255 0.049201
-0.047079 -0.067977 0.732497 0 0 219 0.024897
-0.044627 -0.068366 0.733674 0 0 219 0.023728
-0.042465 -0.069838 0.734210 0 0 219 0.026897
-0.039997 -0.070012 0.735148 0 0 234 0.028014
-0.037886 -0.071388 0.735444 0 0 250 0.032178
-0.042998 -0.072453 0.733105 0 0 250 0.034686
-0.045141 -0.070911 0.732620 0 0 234 0.029439
-0.047491 -0.070680 0.731412 0 0 234 0.028360
-0.035182 -0.070158 0.737806 0 0 219 0.026819
-0.033472 -0.072539 0.738462 0 0 255 0.039007
-0.031393 -0.073678 0.739507 0 20 255 0.046745
-0.014426 -0.093693 0.743641 188 255 60 0.279273
-0.017400 -0.092416 0.741936 182 255 66 0.267540
-0.020072 -0.091183 0.740177 173 255 75 0.249149
-0.022342 -0.089706 0.738720 161 255 87 0.226239
-0.017321 -0.093740 0.739869 182 255 66 0.266832
-0.014459 -0.094955 0.741498 184 255 64 0.272263
-0.028615 -0.087885 0.732904 136 255 111 0.173069
-0.026768 -0.088830 0.734971 154 255 94 0.210743
-0.024647 -0.089269 0.736888 163 255 85 0.228126
-0.029047 -0.085838 0.735341 136 255 111 0.173257
-0.026936 -0.086678 0.737239 146 255 102 0.193742
-0.024568 -0.087294 0.738955 148 255 100 0.198571
-0.026803 -0.089671 0.725339 0 221 255 0.105011
-0.028046 -0.089657 0.721168 0 127 255 0.076122
-0.025924 -0.090146 0.721980 0 154 255 0.083919
-0.023665 -0.090417 0.722711 0 154 255 0.085908
-0.029244 -0.089475 0.716987 0 101 255 0.069360
-0.030324 -0.089055 0.720560 0 114 255 0.071499
-0.032494 -0.088213 0.719893 0 87 255 0.063933
-0.022071 -0.090178 0.719621 0 141 255 0.078243
-0.020270 -0.089601 0.716442 0 181 255 0.090855
-0.019002 -0.089970 0.720365 0 141 255 0.079398
-0.023253 -0.089731 0.715806 0 167 255 0.088931
-0.026272 -0.089572 0.715246 0 141 255 0.081694
-0.028753 -0.091283 0.708658 47 255 201 0.122664
-0.030328 -0.090620 0.711512 0 194 255 0.097053
-0.031958 -0.090023 0.714524 0 101 255 0.068259
-0.033137 -0.090543 0.711044 0 167 255 0.087860
-0.027472 -0.090361 0.711878 0 208 255 0.097810
-0.024577 -0.090035 0.712318 15 248 233 0.112064
-0.035464 -0.089953 0.712675 0 114 255 0.070586
-0.035741 -0.089148 0.715397 0 60 255 0.057694
-0.037975 -0.088872 0.714969 0 60 255 0.055822
-0.032187 -0.089102 0.717073 0 87 255 0.064612
-0.014191 -0.088982 0.718693 0 194 255 0.096748
-0.011149 -0.088413 0.717862 26 255 222 0.115392
-0.014249 -0.088754 0.714498 69 255 179 0.129938
-0.011339 -0.088509 0.713832 123 255 125 0.151532
-0.008500 -0.088471 0.713249 136 255 111 0.172694
-0.008265 -0.088327 0.717200 80 255 168 0.134707
-0.005227 -0.088135 0.716674 131 255 117 0.162466
-0.011579 -0.088696 0.709866 150 255 98 0.199791
-0.014463 -0.088687 0.710464 140 255 108 0.182484
-0.017297 -0.088764 0.711286 129 255 119 0.159685
-0.017269 -0.089090 0.715341 15 248 233 0.112395
-0.020272 -0.089186 0.712354 58 255 190 0.127802
-0.001721 -0.088097 0.715889 148 255 100 0.198589
0.000257 -0.088254 0.713474 184 255 64 0.271137
0.003608 -0.088367 0.712849 203 255 45 0.310894
0.000534 -0.088748 0.709487 211 255 37 0.327302
-0.002932 -0.088589 0.710075 188 255 60 0.277488
-0.006522 -0.088595 0.710784 161 255 87 0.222764
-0.007005 -0.091674 0.702571 190 255 58 0.282805
-0.008963 -0.090875 0.704438 176 255 71 0.256116
-0.012509 -0.090747 0.705137 163 255 85 0.227725
-0.014592 -0.090079 0.707181 144 255 104 0.191384
-0.017438 -0.091210 0.704689 152 255 96 0.205611
-0.009468 -0.089365 0.707756 165 255 83 0.232088
-0.005990 -0.089470 0.707039 182 255 66 0.268716
-0.002588 -0.089669 0.706415 201 255 47 0.307353
-0.020259 -0.091022 0.705457 144 255 104 0.190946
-0.023193 -0.091058 0.706447 135 255 113 0.169929
-0.020128 -0.089943 0.708763 133 255 115 0.165300
-0.026023 -0.091153 0.707518 123 255 125 0.148916
-0.017313 -0.089894 0.707875 144 255 104 0.187657
-0.038006 -0.088066 0.717789 0 47 255 0.051233
-0.038084 -0.087153 0.720613 0 60 255 0.055767
-0.040194 -0.087588 0.717235 0 34 255 0.047421
-0.035812 -0.087450 0.720967 0 74 255 0.059325
-0.040713 -0.086121 0.720847 0 34 255 0.050253
-0.037597 -0.086045 0.723302 0 87 255 0.066252
-0.032759 -0.087021 0.726907 0 208 255 0.100075
-0.029259 -0.088102 0.728683 47 255 201 0.124205
-0.033561 -0.087346 0.724219 0 141 255 0.080750
-0.029866 -0.088637 0.726095 4 234 244 0.105896
-0.038981 -0.090645 0.710860 0 114 255 0.072576
-0.038708 -0.091989 0.708264 0 167 255 0.087841
-0.040892 -0.092044 0.707610 0 154 255 0.084644
-0.041249 -0.090724 0.710316 0 101 255 0.067185
-0.043542 -0.090722 0.709740 0 87 255 0.062777
-0.034313 -0.092066 0.707932 0 221 255 0.104170
-0.031554 -0.091737 0.708307 26 255 222 0.116418
-0.032834 -0.093449 0.705486 80 255 168 0.133625
-0.035649 -0.093708 0.705006 47 255 201 0.123695
-0.039251 -0.097851 0.701375 69 255 179 0.129291
-0.040958 -0.095986 0.703113 15 248 233 0.112999
-0.042739 -0.094152 0.705068 0 181 255 0.093326
-0.043939 -0.096319 0.702734 15 248 233 0.109970
-0.039786 -0.093774 0.705370 4 234 244 0.107846
-0.038126 -0.095541 0.703354 47 255 201 0.123005
-0.046549 -0.095306 0.703790 0 208 255 0.098900
-0.047026 -0.093494 0.705856 0 141 255 0.080508
-0.049569 -0.093608 0.705283 0 141 255 0.080213
-0.043111 -0.092351 0.707228 0 154 255 0.084373
-0.050202 -0.087937 0.712804 0 0 250 0.033718
-0.047773 -0.088033 0.713404 0 0 255 0.037342
-0.050976 -0.089192 0.710812 0 7 255 0.042424
-0.053576 -0.089166 0.710380 0 7 255 0.041463
-0.054345 -0.090463 0.708504 0 47 255 0.051716
-0.043925 -0.086434 0.718316 0 7 255 0.039957
-0.043936 -0.087936 0.715351 0 0 255 0.038848
-0.040141 -0.088896 0.714368 0 47 255 0.052106
-0.043827 -0.089351 0.712532 0 20 255 0.046705
-0.045888 -0.090845 0.709215 0 87 255 0.063687
-0.048326 -0.091028 0.708685 0 74 255 0.059570
-0.050808 -0.091042 0.708177 0 74 255 0.060424
0.017040 -0.097429 0.731312 169 255 79 0.239650
0.018249 -0.100327 0.733371 167 255 81 0.236700
0.015374 -0.099818 0.734298 154 255 94 0.207559
0.014196 -0.097138 0.732234 152 255 96 0.205977
0.016573 -0.102791 0.736296 154 255 94 0.208816
0.012368 -0.099353 0.734988 140 255 108 0.183536
0.013680 -0.102221 0.737002 144 255 104 0.189619
0.010881 -0.101906 0.737871 140 255 108 0.180551
0.011008 -0.096751 0.732921 138 255 109 0.179040
0.009423 -0.099138 0.735753 133 255 115 0.167171
0.007943 -0.096617 0.733630 129 255 119 0.158157
0.014917 -0.105253 0.738994 150 255 98 0.200314
0.012172 -0.104869 0.739910 150 255 98 0.199900
0.013312 -0.107972 0.741847 152 255 96 0.204053
0.015783 -0.108284 0.740943 154 255 94 0.210578
0.017397 -0.105706 0.738172 159 255 88 0.220748
0.018119 -0.108730 0.740002 161 255 87 0.226041
0.019815 -0.106100 0.737167 173 255 75 0.246566
0.019065 -0.103195 0.735291 167 255 81 0.235563
0.020504 -0.109046 0.738995 178 255 69 0.258318
0.005128 -0.099121 0.737187 135 255 113 0.171385
0.003323 -0.096720 0.735062 123 255 125 0.152072
0.006867 -0.101749 0.739269 142 255 106 0.183597
0.002392 -0.101629 0.740715 154 255 94 0.209446
0.000553 -0.099132 0.738634 146 255 102 0.192843
-0.001444 -0.096882 0.736585 135 255 113 0.170501
0.006235 -0.104529 0.741977 150 255 98 0.202086
0.005334 -0.107349 0.744624 163 255 85 0.226886
0.009324 -0.107614 0.743230 150 255 98 0.203085
0.005959 -0.120163 0.749930 165 255 83 0.231880
0.008048 -0.117212 0.748009 159 255 88 0.222620
0.009766 -0.120684 0.748600 159 255 88 0.221617
0.009934 -0.114126 0.746033 152 255 96 0.204308
0.011856 -0.117624 0.746699 152 255 96 0.206530
0.013794 -0.114535 0.744692 150 255 98 0.202878
0.013631 -0.121086 0.747242 167 255 81 0.237115
0.011735 -0.111094 0.743995 146 255 102 0.191783
0.007707 -0.110643 0.745342 154 255 94 0.208308
0.005914 -0.113659 0.747369 165 255 83 0.230831
0.016312 -0.118156 0.744960 171 255 77 0.242336
0.018453 -0.121459 0.744844 194 255 54 0.289399
0.018613 -0.115152 0.742534 169 255 79 0.239606
0.018422 -0.111961 0.741328 163 255 85 0.228347
0.016100 -0.111549 0.742369 154 255 94 0.208694
0.016297 -0.114855 0.743673 157 255 90 0.215159
-0.017220 -0.090643 0.722297 0 141 255 0.081315
-0.017130 -0.091684 0.725001 0 194 255 0.096897
-0.020576 -0.091181 0.723860 0 181 255 0.091462
-0.020463 -0.092108 0.726520 47 255 201 0.123807
-0.016903 -0.092442 0.727700 47 255 201 0.124542
-0.016461 -0.093002 0.730285 129 255 119 0.156821
-0.013187 -0.092271 0.728937 47 255 201 0.122304
-0.013573 -0.091548 0.726360 0 208 255 0.098640
-0.013771 -0.090676 0.723640 0 154 255 0.084200
-0.010073 -0.091738 0.727736 0 221 255 0.102526
-0.023667 -0.091233 0.725890 36 255 211 0.119832
-0.023441 -0.091740 0.728917 131 255 117 0.160410
-0.020717 -0.092668 0.730073 136 255 111 0.175165
-0.019356 -0.092963 0.732366 152 255 96 0.203472
-0.008924 -0.097346 0.739986 178 255 69 0.259531
-0.010994 -0.096130 0.737616 167 255 81 0.234839
-0.012997 -0.094996 0.735202 154 255 94 0.210875
-0.006460 -0.097169 0.738577 157 255 90 0.216387
-0.014836 -0.094022 0.732775 142 255 106 0.184506
-0.007521 -0.095787 0.735977 144 255 104 0.188329
-0.008526 -0.094408 0.733249 129 255 119 0.158338
-0.003743 -0.095365 0.734323 127 255 121 0.153744
-0.009374 -0.093068 0.730486 69 255 179 0.130915
0.006831 -0.088913 0.716727 194 255 54 0.291222
0.003386 -0.088741 0.717304 165 255 83 0.230979
0.005083 -0.089385 0.719480 163 255 85 0.229295
-0.000088 -0.088673 0.718000 144 255 104 0.189713
0.001567 -0.089276 0.720114 138 255 109 0.177984
-0.002116 -0.089354 0.720863 69 255 179 0.131540
-0.003692 -0.088769 0.718812 80 255 168 0.136551
0.003279 -0.089971 0.722242 131 255 117 0.162558
-0.000464 -0.089962 0.722937 58 255 190 0.128297
0.001284 -0.090608 0.725000 58 255 190 0.125578
0.008292 -0.090609 0.723511 156 255 92 0.212175
0.009982 -0.090084 0.720779 180 255 68 0.265597
-0.009632 -0.089303 0.720081 0 181 255 0.093431
-0.007832 -0.089887 0.722137 0 167 255 0.088276
-0.012540 -0.089570 0.720750 0 181 255 0.091515
-0.010832 -0.090257 0.722901 0 141 255 0.081458
-0.008985 -0.090842 0.725009 0 167 255 0.087618
-0.004438 -0.091017 0.726198 0 194 255 0.093801
0.001408 -0.095152 0.732912 80 255 168 0.133908
-0.000591 -0.093872 0.730774 36 255 211 0.118225
0.004510 -0.093388 0.729275 69 255 179 0.131192
0.006222 -0.094968 0.731451 112 255 136 0.145407
0.000228 -0.092244 0.727849 4 234 244 0.108425
-0.005282 -0.092531 0.729243 4 234 244 0.107895
0.009547 -0.095240 0.730855 133 255 115 0.167093
0.012795 -0.095444 0.730169 150 255 98 0.199329
0.011383 -0.093919 0.728058 144 255 104 0.189572
0.015698 -0.095644 0.729322 163 255 85 0.229622
0.014319 -0.094053 0.727177 163 255 85 0.228536
0.013049 -0.092515 0.725080 169 255 79 0.240144
0.009813 -0.092204 0.725790 146 255 102 0.193822
0.006402 -0.091999 0.726441 129 255 119 0.159239
0.008017 -0.093599 0.728728 127 255 121 0.155170
-0.025620 -0.090642 0.727797 90 255 157 0.137187
-0.025433 -0.090815 0.731390 144 255 104 0.188256
-0.022873 -0.091944 0.732409 150 255 98 0.200858
-0.021231 -0.092308 0.734698 157 255 90 0.217534
-0.027504 -0.089500 0.730346 127 255 121 0.155021
-0.024150 -0.090870 0.734719 157 255 90 0.216357
-0.019202 -0.093343 0.736858 176 255 71 0.254239
-0.015388 -0.094892 0.737060 175 255 73 0.252843
-0.017535 -0.094032 0.734745 163 255 85 0.228209
-0.003081 -0.099203 0.740050 161 255 87 0.225706
-0.001066 -0.101565 0.742121 169 255 79 0.241162
0.000658 -0.104279 0.744109 180 255 68 0.265297
0.000873 -0.107034 0.746491 188 255 60 0.280351
-0.003559 -0.101596 0.743213 186 255 62 0.274402
-0.006132 -0.099227 0.741559 178 255 69 0.258714
-0.002387 -0.104183 0.745567 201 255 47 0.306312
-0.001554 -0.107048 0.747841 207 255 41 0.316732
-0.002178 -0.119917 0.753283 199 255 48 0.301048
-0.000958 -0.116573 0.751724 201 255 47 0.306059
-0.000115 -0.113308 0.750027 199 255 48 0.302131
0.001168 -0.119846 0.751883 184 255 64 0.271954
0.000478 -0.110083 0.748302 196 255 52 0.296307
0.002458 -0.116629 0.750114 184 255 64 0.271902
0.004556 -0.110333 0.746501 173 255 75 0.246864
0.002455 -0.113406 0.748828 182 255 66 0.266128
-0.006075 -0.101301 0.744919 207 255 41 0.316723
-0.003661 -0.112970 0.752336 224 255 24 0.353348
-0.004855 -0.119640 0.754890 207 255 41 0.317026
-0.003807 -0.109711 0.751137 230 255 18 0.363608
-0.003640 -0.116377 0.753259 215 255 33 0.333419
0.013266 -0.137343 0.742313 211 255 37 0.326915
0.011866 -0.135555 0.744157 186 255 62 0.275610
0.015952 -0.133637 0.743656 211 255 37 0.326982
0.014624 -0.131808 0.745463 196 255 52 0.294552
0.010372 -0.133739 0.746005 171 255 77 0.243704
0.008988 -0.131771 0.747847 163 255 85 0.229282
0.005332 -0.135675 0.746511 150 255 98 0.201884
0.006842 -0.137588 0.744732 163 255 85 0.227719
0.008442 -0.139387 0.742903 186 255 62 0.273799
0.001619 -0.139368 0.745005 150 255 98 0.200862
0.018324 -0.129194 0.744103 211 255 37 0.324409
0.016815 -0.126627 0.745113 188 255 60 0.281194
0.019984 -0.124214 0.743851 203 255 45 0.311753
0.015200 -0.124000 0.746251 173 255 75 0.247897
0.012573 -0.123879 0.747512 165 255 83 0.231622
0.014095 -0.126632 0.746429 171 255 77 0.245062
0.011377 -0.126524 0.747661 159 255 88 0.221661
0.004572 -0.123015 0.750377 163 255 85 0.227941
0.005316 -0.125977 0.749956 159 255 88 0.222504
0.003792 -0.128681 0.750170 154 255 94 0.210122
0.004473 -0.131463 0.749585 152 255 96 0.206708
-0.000238 -0.131140 0.751193 157 255 90 0.216992
0.008181 -0.129008 0.748514 156 255 92 0.212393
0.008681 -0.123374 0.748892 156 255 92 0.212198
-0.002746 -0.133010 0.750535 146 255 102 0.195135
-0.005242 -0.134703 0.749857 142 255 106 0.185723
0.000509 -0.135271 0.748110 142 255 106 0.185853
-0.001856 -0.137041 0.747391 136 255 111 0.175722
-0.004253 -0.138705 0.746642 131 255 117 0.162789
-0.007902 -0.136176 0.749181 129 255 119 0.158193
-0.010548 -0.137596 0.748539 90 255 157 0.136922
-0.008574 -0.134078 0.750899 135 255 113 0.171465
-0.005884 -0.132568 0.751532 146 255 102 0.193218
-0.003273 -0.130855 0.752171 159 255 88 0.221638
-0.006509 -0.130386 0.753142 157 255 90 0.216571
-0.009315 -0.132004 0.752564 142 255 106 0.187149
-0.012073 -0.133547 0.752011 133 255 115 0.166630
-0.011436 -0.135507 0.750266 127 255 121 0.154537
-0.014048 -0.137023 0.749650 58 255 190 0.127448
-0.014646 -0.135170 0.751404 112 255 136 0.146960
-0.017044 -0.136761 0.750776 47 255 201 0.123633
0.001893 -0.125742 0.751173 165 255 83 0.232931
-0.000493 -0.122739 0.752391 182 255 66 0.265981
-0.002491 -0.125429 0.752780 175 255 73 0.251610
-0.001307 -0.128352 0.752004 161 255 87 0.224908
-0.004554 -0.127982 0.753023 169 255 79 0.241157
-0.004324 -0.122653 0.753826 190 255 58 0.284664
-0.006420 -0.125202 0.754116 184 255 64 0.269691
-0.008300 -0.127721 0.754382 173 255 75 0.246766
-0.010236 -0.130096 0.754518 157 255 90 0.216378
-0.012970 -0.131807 0.754032 142 255 106 0.185601
-0.015604 -0.133421 0.753468 131 255 117 0.163152
-0.018055 -0.135099 0.753012 90 255 157 0.139227
-0.020405 -0.136800 0.752520 26 255 222 0.113734
-0.013307 -0.130197 0.756461 148 255 100 0.198144
-0.009038 -0.124941 0.755638 192 255 56 0.287948
-0.007020 -0.122328 0.755282 201 255 47 0.307406
-0.022921 -0.137327 0.754533 0 221 255 0.102971
-0.020609 -0.135444 0.754882 58 255 190 0.128777
-0.018489 -0.133752 0.755722 127 255 121 0.155166
-0.015519 -0.131911 0.755686 138 255 109 0.177419
-0.037728 -0.144376 0.743348 0 0 204 0.022425
-0.040068 -0.145306 0.740065 0 0 204 0.022446
-0.042378 -0.146321 0.736843 0 0 250 0.031769
-0.042899 -0.146098 0.739496 0 0 219 0.024156
-0.039561 -0.145507 0.737364 0 0 234 0.028515
-0.036978 -0.144804 0.738213 0 0 219 0.026466
-0.037380 -0.144546 0.740770 0 0 204 0.023172
-0.034767 -0.143865 0.741580 0 0 219 0.026016
-0.046219 -0.146885 0.736822 0 0 250 0.032756
-0.045332 -0.146633 0.733959 0 0 255 0.039051
-0.048258 -0.146922 0.733285 0 7 255 0.041260
-0.043052 -0.146245 0.732557 0 7 255 0.039341
-0.038119 -0.145864 0.730159 0 34 255 0.048522
-0.036990 -0.145723 0.733897 0 7 255 0.039924
-0.035174 -0.145704 0.730916 0 34 255 0.049023
-0.039942 -0.145961 0.733191 0 7 255 0.039768
-0.041122 -0.146098 0.729447 0 47 255 0.052215
-0.032314 -0.145070 0.733890 0 7 255 0.041101
-0.033832 -0.144580 0.736671 0 0 250 0.031497
-0.030815 -0.144029 0.737526 0 0 250 0.033781
-0.027732 -0.143570 0.738356 0 7 255 0.039505
-0.032269 -0.143673 0.740292 0 0 234 0.030827
-0.033881 -0.142471 0.752029 0 0 250 0.034741
-0.030862 -0.140962 0.752268 0 47 255 0.051110
-0.028437 -0.139920 0.753164 0 87 255 0.064944
-0.026055 -0.138613 0.754133 0 141 255 0.080244
-0.038431 -0.143680 0.749581 0 0 219 0.024456
-0.039924 -0.144495 0.747775 0 0 204 0.019658
-0.042196 -0.145438 0.746541 0 0 189 0.018376
-0.035575 -0.142864 0.750164 0 0 234 0.031157
-0.035828 -0.143433 0.744623 0 0 219 0.027011
-0.033827 -0.142625 0.745909 0 0 250 0.032670
-0.033365 -0.142121 0.748377 0 0 255 0.037229
-0.031222 -0.141509 0.749656 0 20 255 0.045935
-0.036249 -0.143094 0.747658 0 0 234 0.028361
-0.027573 -0.140021 0.749523 0 87 255 0.065775
-0.025255 -0.138969 0.750489 0 127 255 0.077675
-0.022908 -0.137842 0.751526 0 194 255 0.095413
-0.053067 -0.147966 0.755224 0 0 204 0.022550
-0.056477 -0.148196 0.755148 0 0 219 0.023715
-0.054294 -0.148162 0.757986 0 0 219 0.024940
-0.059908 -0.148405 0.755062 0 0 219 0.027291
-0.063409 -0.148564 0.755047 0 0 250 0.032256
-0.061548 -0.148816 0.752043 0 0 255 0.037204
-0.058044 -0.148517 0.752087 0 0 234 0.030064
-0.055346 -0.148096 0.760732 0 0 204 0.023260
-0.058618 -0.147971 0.759788 0 0 204 0.019844
-0.059493 -0.147801 0.762418 0 0 189 0.018850
-0.056185 -0.147967 0.763347 0 0 204 0.021812
-0.062339 -0.147815 0.760171 0 0 189 0.018471
-0.066089 -0.147640 0.760524 0 0 189 0.018488
-0.064796 -0.148129 0.757832 0 0 219 0.024622
-0.061016 -0.148232 0.757407 0 0 204 0.023350
-0.078283 -0.146339 0.755942 0 0 234 0.030486
-0.074633 -0.146810 0.755643 0 0 219 0.026256
-0.076469 -0.147029 0.753158 0 7 255 0.039690
-0.070925 -0.147415 0.755388 0 0 219 0.025989
-0.072767 -0.147566 0.752875 0 0 255 0.035963
-0.069003 -0.148111 0.752591 0 0 255 0.036558
-0.074562 -0.147741 0.750273 0 34 255 0.050528
-0.067190 -0.148006 0.755209 0 0 234 0.027369
-0.068521 -0.147519 0.757967 0 0 204 0.021182
-0.072288 -0.146860 0.758183 0 0 189 0.019327
-0.071149 -0.148056 0.750415 0 20 255 0.044531
-0.072870 -0.148083 0.748135 0 60 255 0.056672
-0.069490 -0.148396 0.748295 0 47 255 0.051344
-0.066879 -0.148521 0.749515 0 20 255 0.044359
-0.071190 -0.148377 0.745974 0 87 255 0.062808
-0.064308 -0.148623 0.750770 0 7 255 0.039781
-0.001192 -0.145284 0.733152 138 255 109 0.179346
-0.002801 -0.144761 0.735518 131 255 117 0.160596
0.002500 -0.144216 0.735947 161 255 87 0.225997
0.000851 -0.143721 0.738306 150 255 98 0.201575
-0.004660 -0.144130 0.737889 112 255 136 0.146335
-0.006534 -0.143313 0.740227 101 255 147 0.143949
-0.010965 -0.144070 0.737425 0 221 255 0.103355
-0.008795 -0.145009 0.735062 47 255 201 0.121929
-0.006953 -0.145693 0.732702 69 255 179 0.131156
-0.015304 -0.144895 0.734748 0 167 255 0.087520
0.006488 -0.142647 0.738439 184 255 64 0.271325
0.004910 -0.141624 0.740679 165 255 83 0.231727
0.009912 -0.140395 0.740627 205 255 43 0.314669
0.003258 -0.140578 0.742848 154 255 94 0.209958
-0.002580 -0.141387 0.742586 131 255 117 0.161832
-0.000820 -0.142639 0.740463 138 255 109 0.178098
-0.012409 -0.139636 0.745244 15 248 233 0.109779
-0.015635 -0.139134 0.746148 0 221 255 0.101786
-0.008646 -0.140452 0.744292 69 255 179 0.129460
-0.013805 -0.141922 0.742057 0 167 255 0.089515
-0.017149 -0.141324 0.743039 0 127 255 0.077196
-0.020201 -0.140915 0.743935 0 114 255 0.071598
-0.010095 -0.142686 0.741081 26 255 222 0.117113
-0.021348 -0.142388 0.740244 0 60 255 0.057505
-0.024186 -0.142074 0.741129 0 34 255 0.049381
-0.018131 -0.142815 0.739332 0 87 255 0.066239
-0.022282 -0.143991 0.736621 0 47 255 0.053484
-0.025097 -0.143775 0.737489 0 34 255 0.047186
-0.018981 -0.144394 0.735730 0 101 255 0.069387
-0.014621 -0.143422 0.738388 0 154 255 0.082398
-0.027128 -0.141949 0.742395 0 20 255 0.046325
-0.023354 -0.140776 0.745208 0 74 255 0.061475
-0.026232 -0.140740 0.746504 0 74 255 0.059485
-0.028264 -0.141361 0.745147 0 34 255 0.049258
-0.030165 -0.142100 0.743748 0 7 255 0.039281
-0.028984 -0.142748 0.741018 0 0 255 0.037627
-0.018821 -0.138675 0.747373 0 194 255 0.096001
-0.019529 -0.137704 0.749735 0 221 255 0.102788
-0.021879 -0.138691 0.748622 0 167 255 0.086976
-0.021170 -0.139642 0.746269 0 127 255 0.076599
-0.024135 -0.139687 0.747541 0 114 255 0.073689
-0.030876 -0.141660 0.746702 0 20 255 0.045091
-0.032864 -0.142967 0.742921 0 0 234 0.030822
-0.015358 -0.146030 0.721100 0 221 255 0.102504
-0.017809 -0.146130 0.723719 0 194 255 0.097139
-0.012018 -0.146248 0.724110 0 221 255 0.102492
-0.014381 -0.146316 0.726647 0 221 255 0.101719
-0.020498 -0.146033 0.726320 0 154 255 0.085242
-0.023024 -0.145852 0.728895 0 127 255 0.074920
-0.026098 -0.145881 0.725916 0 127 255 0.078032
-0.023910 -0.145945 0.723388 0 181 255 0.091275
-0.021400 -0.145983 0.720773 4 234 244 0.106367
-0.029050 -0.145934 0.722952 0 181 255 0.092786
-0.008551 -0.146206 0.727141 36 255 211 0.120152
-0.010449 -0.146018 0.729639 4 234 244 0.108278
-0.004962 -0.145934 0.730185 101 255 147 0.143086
-0.012753 -0.145603 0.732216 0 221 255 0.102800
-0.019323 -0.145301 0.731835 0 114 255 0.071934
-0.016719 -0.145917 0.729245 0 181 255 0.093490
-0.028228 -0.144624 0.734518 0 20 255 0.044698
-0.025538 -0.144754 0.733650 0 47 255 0.052910
-0.028775 -0.145632 0.730727 0 74 255 0.060463
-0.031327 -0.145569 0.731571 0 60 255 0.055638
-0.024343 -0.145333 0.731297 0 74 255 0.061433
-0.034021 -0.145801 0.728516 0 74 255 0.061316
-0.031521 -0.145781 0.727712 0 87 255 0.065210
-0.034245 -0.145978 0.724654 0 127 255 0.077580
-0.036764 -0.145957 0.725501 0 114 255 0.072423
-0.030315 -0.145878 0.725337 0 127 255 0.077238
-0.027486 -0.145810 0.728339 0 114 255 0.071728
-0.046808 -0.146609 0.747561 0 0 189 0.017717
-0.049014 -0.147203 0.746467 0 0 204 0.020863
-0.046889 -0.146782 0.744908 0 0 204 0.020216
-0.049057 -0.147368 0.743811 0 0 219 0.024967
-0.051335 -0.147964 0.742722 0 0 234 0.030981
-0.051243 -0.147707 0.745367 0 0 219 0.024839
-0.053509 -0.148334 0.744250 0 0 250 0.034887
-0.049103 -0.147573 0.741162 0 0 234 0.030962
-0.056276 -0.148337 0.740814 0 7 255 0.042082
-0.059190 -0.148241 0.737460 0 47 255 0.054552
-0.059596 -0.148497 0.740348 0 47 255 0.051209
-0.055855 -0.148081 0.737880 0 20 255 0.045360
-0.052824 -0.147847 0.738457 0 0 255 0.038823
-0.049056 -0.147235 0.736157 0 0 255 0.037021
-0.046862 -0.147152 0.739712 0 0 234 0.029717
-0.052097 -0.147535 0.735565 0 7 255 0.041498
-0.055311 -0.147793 0.735035 0 34 255 0.050618
-0.043013 -0.145928 0.742027 0 0 204 0.021272
-0.040370 -0.145164 0.742666 0 0 204 0.020928
-0.059589 -0.148694 0.743258 0 34 255 0.047846
-0.056524 -0.148522 0.743752 0 7 255 0.039727
-0.056512 -0.148691 0.746677 0 0 255 0.038328
-0.059758 -0.148810 0.746198 0 20 255 0.043927
-0.062043 -0.148805 0.744910 0 34 255 0.049958
-0.061915 -0.148662 0.741976 0 47 255 0.053516
-0.064182 -0.148597 0.740692 0 74 255 0.061362
-0.064373 -0.148764 0.743638 0 60 255 0.056941
-0.066674 -0.148686 0.742336 0 87 255 0.066175
-0.048949 -0.147228 0.749893 0 0 189 0.019306
-0.051494 -0.147672 0.748839 0 0 204 0.022030
-0.053972 -0.148183 0.747747 0 0 234 0.027493
-0.054437 -0.148121 0.752246 0 0 219 0.024537
-0.059191 -0.148892 0.749277 0 0 255 0.038763
-0.051073 -0.147664 0.752438 0 0 204 0.022301
-0.062372 -0.148841 0.748871 0 7 255 0.042408
-0.064921 -0.148742 0.747567 0 34 255 0.047623
-0.067483 -0.148636 0.746303 0 60 255 0.055159
-0.068944 -0.148579 0.744153 0 87 255 0.064399
-0.076227 -0.146118 0.759085 0 0 189 0.018561
-0.074102 -0.145947 0.762215 0 0 158 0.011577
-0.070142 -0.146734 0.761373 0 0 174 0.012947
-0.067953 -0.146689 0.764578 0 0 158 0.010056
-0.071955 -0.145839 0.765341 0 0 143 0.007694
-0.069728 -0.145873 0.768505 0 0 143 0.006056
-0.076363 -0.144797 0.765927 0 0 143 0.006935
-0.078448 -0.144987 0.762871 0 0 158 0.011263
-0.080547 -0.145182 0.759796 0 0 189 0.019497
-0.082740 -0.144252 0.763512 0 0 174 0.014373
-0.063461 -0.147436 0.763469 0 0 174 0.014283
-0.060849 -0.147339 0.766437 0 0 174 0.013806
-0.057508 -0.147653 0.767373 0 0 189 0.018372
-0.054154 -0.148162 0.768336 0 0 234 0.027361
-0.055510 -0.147717 0.772347 0 0 204 0.021167
-0.059108 -0.146979 0.771372 0 0 158 0.011503
-0.062648 -0.146472 0.770418 0 0 158 0.008044
-0.065316 -0.146448 0.767474 0 0 143 0.007780
-0.061738 -0.145675 0.779267 0 0 143 0.004535
-0.065385 -0.145172 0.778198 0 0 128 0.003729
-0.064422 -0.145664 0.775616 0 0 143 0.004412
-0.069009 -0.144801 0.777113 0 0 128 0.003663
-0.068012 -0.145183 0.774556 0 0 128 0.003872
-0.071603 -0.144938 0.773537 0 0 143 0.003957
-0.072558 -0.144632 0.776101 0 0 143 0.003931
-0.067045 -0.145680 0.772045 0 0 143 0.004640
-0.070663 -0.145378 0.771044 0 0 143 0.004562
-0.063525 -0.146012 0.773039 0 0 143 0.005472
-0.059984 -0.146500 0.774002 0 0 158 0.008036
