ply
format ascii 1.0
comment VCGLIB generated
element vertex 1031
property float x
property float y
property float z
property uchar red
property uchar green
property uchar blue
property float quality
end_header
-0.024692 0.000709 0.812478 0 0 128 0.002104
-0.023246 -0.000200 0.809796 0 0 128 0.002174
-0.024962 0.002672 0.819246 0 0 128 0.003148
-0.027582 0.002634 0.817824 0 0 128 0.003316
-0.022347 0.002697 0.820631 0 0 128 0.003245
-0.019723 0.002737 0.822013 0 0 128 0.003427
-0.018271 0.001799 0.819386 0 0 128 0.002487
-0.025945 -0.000399 0.808397 0 0 128 0.001913
-0.027350 0.000520 0.811045 0 0 128 0.001826
-0.030046 0.000346 0.809650 0 0 128 0.001765
-0.028638 -0.000578 0.806993 0 0 128 0.001854
-0.031455 0.001304 0.812288 0 0 128 0.002122
-0.032755 0.000183 0.808236 0 0 128 0.001884
-0.034162 0.001148 0.810883 0 0 128 0.002213
-0.036881 0.001003 0.809461 0 0 128 0.002565
-0.031341 -0.000741 0.805589 0 0 128 0.002019
-0.035469 0.000039 0.806821 0 0 128 0.002261
-0.034054 -0.000887 0.804171 0 0 128 0.002458
-0.035567 0.002137 0.813507 0 0 128 0.002976
-0.038282 0.001997 0.812083 0 0 128 0.003359
-0.032903 0.002286 0.814954 0 0 128 0.002876
-0.030245 0.002451 0.816390 0 0 128 0.002947
-0.028798 0.001472 0.813724 0 0 128 0.002172
-0.048795 0.006015 0.824284 0 0 158 0.009123
-0.050914 0.006679 0.827017 0 0 158 0.011202
-0.053440 0.006404 0.825433 0 0 158 0.010083
-0.051319 0.005733 0.822699 0 0 158 0.008615
-0.055546 0.007051 0.828158 0 0 174 0.012622
-0.055982 0.006143 0.823823 0 0 158 0.010256
-0.058092 0.006807 0.826543 0 0 174 0.012621
-0.060664 0.006589 0.824904 0 0 174 0.013244
-0.053857 0.005454 0.821095 0 0 158 0.008795
-0.058550 0.005914 0.822192 0 0 158 0.010916
-0.056418 0.005192 0.819470 0 0 158 0.009687
-0.060184 0.007438 0.829256 0 0 189 0.016149
-0.062757 0.007212 0.827621 0 0 189 0.016869
-0.064841 0.007799 0.830331 0 0 204 0.020552
-0.062257 0.007949 0.832267 0 0 204 0.020015
-0.057625 0.007614 0.831175 0 0 189 0.015635
-0.059701 0.008122 0.834191 0 0 204 0.020149
-0.055106 0.007800 0.833077 0 0 189 0.016713
-0.053015 0.007255 0.830058 0 0 174 0.012781
-0.057169 0.008302 0.836084 0 0 204 0.021673
-0.058841 0.004727 0.817916 0 0 158 0.009119
-0.060855 0.005437 0.820200 0 0 158 0.011240
-0.063303 0.004970 0.818632 0 0 158 0.011226
-0.061292 0.004260 0.816341 0 0 158 0.009353
-0.065298 0.005649 0.820915 0 0 174 0.014075
-0.065773 0.004483 0.817043 0 0 174 0.012224
-0.067768 0.005150 0.819326 0 0 174 0.014980
-0.070253 0.004642 0.817731 0 0 189 0.016347
-0.063758 0.003781 0.814763 0 0 158 0.010263
-0.068258 0.003974 0.815439 0 0 174 0.013411
-0.066244 0.003295 0.813157 0 0 174 0.011729
-0.069750 0.005800 0.821613 0 0 189 0.017758
-0.072237 0.005281 0.820024 0 0 189 0.019171
-0.074219 0.005910 0.822305 0 0 204 0.023413
-0.071848 0.006418 0.824331 0 0 204 0.021152
-0.067403 0.006300 0.823629 0 0 189 0.016605
-0.069494 0.006893 0.826343 0 0 204 0.019939
-0.065072 0.006758 0.825634 0 0 189 0.015740
-0.062974 0.006126 0.822916 0 0 174 0.013376
-0.067167 0.007359 0.828345 0 0 204 0.020535
-0.082754 0.007061 0.829698 0 20 255 0.043573
-0.080526 0.007582 0.832037 0 7 255 0.040989
-0.078252 0.007325 0.829863 0 0 250 0.033526
-0.076042 0.007811 0.832207 0 0 250 0.032671
-0.078312 0.008066 0.834368 0 7 255 0.040773
-0.073761 0.007527 0.830047 0 0 234 0.027723
-0.073848 0.008263 0.834541 0 0 250 0.033993
-0.071582 0.007995 0.832368 0 0 234 0.027985
-0.069411 0.008429 0.834687 0 0 234 0.030012
-0.076119 0.008520 0.836682 0 7 255 0.042600
-0.071693 0.008708 0.836841 0 0 255 0.037050
-0.073935 0.008937 0.838997 0 20 255 0.043915
-0.069294 0.007685 0.830191 0 0 219 0.023548
-0.067135 0.008130 0.832512 0 0 219 0.024529
-0.071638 0.007230 0.828196 0 0 219 0.023941
-0.073996 0.006744 0.826183 0 0 219 0.024886
-0.076132 0.007058 0.828030 0 0 234 0.027923
-0.078517 0.006548 0.826012 0 0 234 0.031178
-0.076369 0.006234 0.824168 0 0 219 0.027011
-0.080635 0.006819 0.827861 0 0 255 0.036281
-0.071443 0.008829 0.842043 0 7 255 0.041160
-0.069085 0.008837 0.838780 0 0 255 0.035831
-0.066630 0.008758 0.841819 0 0 250 0.034601
-0.068981 0.008746 0.845062 0 7 255 0.041976
-0.064252 0.008720 0.838547 0 0 234 0.029609
-0.064216 0.008725 0.844828 0 0 255 0.036698
-0.061839 0.008684 0.841564 0 0 234 0.030980
-0.066562 0.008695 0.848072 0 20 255 0.044921
-0.059444 0.008608 0.838273 0 0 219 0.026951
-0.061976 0.008423 0.836366 0 0 219 0.023915
-0.064542 0.008276 0.834453 0 0 219 0.024675
-0.066814 0.008564 0.836626 0 0 234 0.028402
-0.036606 -0.001217 0.802934 0 0 128 0.002075
-0.037987 -0.000312 0.805454 0 0 128 0.001985
-0.040554 -0.000622 0.804200 0 0 128 0.001902
-0.039175 -0.001529 0.801681 0 0 128 0.002007
-0.041930 0.000321 0.806708 0 0 128 0.002170
-0.043140 -0.000914 0.802929 0 0 128 0.002140
-0.044518 0.000025 0.805435 0 0 128 0.002363
-0.047119 -0.000246 0.804149 0 0 128 0.002892
-0.041761 -0.001823 0.800413 0 0 128 0.002236
-0.045744 -0.001190 0.801642 0 0 128 0.002695
-0.044369 -0.002099 0.799131 0 0 128 0.002867
-0.045883 0.001000 0.807935 0 0 128 0.002973
-0.048486 0.000723 0.806641 0 0 128 0.003476
-0.049850 0.001722 0.809135 0 0 143 0.004531
-0.047287 0.002020 0.810553 0 0 143 0.003940
-0.043336 0.001311 0.809334 0 0 128 0.002719
-0.044740 0.002334 0.811957 0 0 128 0.003789
-0.040805 0.001642 0.810720 0 0 128 0.002842
-0.039397 0.000652 0.808095 0 0 128 0.002228
-0.042212 0.002657 0.813332 0 0 143 0.003980
-0.046854 -0.002553 0.798000 0 0 128 0.002737
-0.048196 -0.001676 0.800365 0 0 128 0.002705
-0.050694 -0.002111 0.799220 0 0 128 0.002926
-0.049354 -0.002996 0.796860 0 0 128 0.002959
-0.052038 -0.001200 0.801567 0 0 128 0.003157
-0.053216 -0.002552 0.798058 0 0 128 0.003327
-0.054556 -0.001640 0.800409 0 0 128 0.003496
-0.057108 -0.002072 0.799227 0 0 143 0.004355
-0.051879 -0.003438 0.795699 0 0 128 0.003430
-0.055769 -0.002980 0.796879 0 0 143 0.004096
-0.054425 -0.003868 0.794527 0 0 143 0.004156
-0.055900 -0.000699 0.802749 0 0 143 0.004071
-0.058451 -0.001129 0.801563 0 0 143 0.004989
-0.059795 -0.000163 0.803910 0 0 143 0.005956
-0.057272 0.000302 0.805229 0 0 143 0.004910
-0.053409 -0.000226 0.804058 0 0 128 0.003608
-0.054775 0.000767 0.806549 0 0 143 0.004400
-0.050934 0.000239 0.805363 0 0 128 0.003295
-0.049565 -0.000733 0.802872 0 0 128 0.002851
-0.052301 0.001238 0.807850 0 0 143 0.004209
-0.062116 0.002894 0.812196 0 0 158 0.008249
-0.059652 0.003369 0.813776 0 0 143 0.007273
-0.057999 0.002482 0.811201 0 0 143 0.006141
-0.057209 0.003847 0.815341 0 0 143 0.007132
-0.055563 0.002968 0.812764 0 0 143 0.005817
-0.053137 0.003442 0.814311 0 0 143 0.005747
-0.054786 0.004326 0.816891 0 0 143 0.007592
-0.053911 0.002082 0.810183 0 0 143 0.004952
-0.051496 0.002576 0.811725 0 0 143 0.004861
-0.056393 0.001619 0.808875 0 0 143 0.005201
-0.058888 0.001145 0.807555 0 0 143 0.005483
-0.060500 0.002007 0.809878 0 0 143 0.006602
-0.063029 0.001549 0.808545 0 0 158 0.007828
-0.061412 0.000682 0.806225 0 0 143 0.006627
-0.064646 0.002420 0.810850 0 0 158 0.009407
-0.052210 0.004607 0.818325 0 0 143 0.007117
-0.049669 0.004881 0.819923 0 0 143 0.006610
-0.048019 0.004030 0.817138 0 0 143 0.005552
-0.047148 0.005180 0.821509 0 0 143 0.007067
-0.045502 0.004336 0.818723 0 0 143 0.005593
-0.043852 0.003493 0.815929 0 0 143 0.004642
-0.046380 0.003167 0.814548 0 0 143 0.004316
-0.048927 0.002867 0.813147 0 0 143 0.004372
-0.050567 0.003722 0.815738 0 0 143 0.005266
-0.067050 0.001773 0.809728 0 0 158 0.009312
-0.065441 0.000903 0.807416 0 0 143 0.007523
-0.067842 0.000239 0.806299 0 0 143 0.007549
-0.063821 0.000043 0.805099 0 0 143 0.006501
-0.066227 -0.000618 0.803982 0 0 143 0.006426
-0.064601 -0.001453 0.801675 0 0 143 0.006028
-0.062195 -0.000804 0.802787 0 0 143 0.005708
-0.068632 -0.001295 0.802872 0 0 143 0.006957
-0.067014 -0.002120 0.800558 0 0 143 0.006462
-0.069431 -0.002810 0.799437 0 0 143 0.007700
-0.070965 -0.002030 0.801596 0 0 158 0.008184
-0.070171 -0.000495 0.805016 0 0 158 0.008112
-0.072515 -0.001222 0.803736 0 0 158 0.009419
-0.071713 0.000322 0.807162 0 0 158 0.009844
-0.069381 0.001050 0.808438 0 0 158 0.009036
-0.070907 0.001876 0.810582 0 0 158 0.011265
-0.074046 -0.000432 0.805880 0 0 158 0.011043
-0.073236 0.001119 0.809293 0 0 174 0.011732
-0.075571 0.000362 0.808018 0 0 174 0.013924
-0.068582 0.002601 0.811864 0 0 174 0.011742
-0.060878 -0.001742 0.800553 0 0 143 0.004889
-0.059544 -0.002688 0.798206 0 0 143 0.004283
-0.061967 -0.003309 0.797187 0 0 143 0.004768
-0.058196 -0.003601 0.795865 0 0 143 0.004255
-0.060633 -0.004223 0.794838 0 0 143 0.004703
-0.059295 -0.005108 0.792485 0 0 143 0.004940
-0.056861 -0.004483 0.793506 0 0 143 0.004368
-0.063070 -0.004856 0.793816 0 0 143 0.005191
-0.061731 -0.005747 0.791463 0 0 143 0.005325
-0.064180 -0.006392 0.790442 0 0 143 0.006290
-0.065487 -0.005532 0.792706 0 0 143 0.006040
-0.064380 -0.003971 0.796070 0 0 143 0.005199
-0.066802 -0.004647 0.794954 0 0 143 0.006267
-0.065697 -0.003057 0.798312 0 0 143 0.005594
-0.063288 -0.002391 0.799433 0 0 143 0.005119
-0.068122 -0.003734 0.797199 0 0 143 0.006671
-0.073884 -0.010052 0.786900 0 0 158 0.007948
-0.075138 -0.009228 0.789044 0 0 158 0.007892
-0.072776 -0.008256 0.790025 0 0 143 0.006926
-0.074026 -0.007414 0.792178 0 0 143 0.007149
-0.076379 -0.008398 0.791207 0 0 143 0.007741
-0.071651 -0.006454 0.793166 0 0 143 0.006279
-0.075276 -0.006567 0.794327 0 0 143 0.007333
-0.072916 -0.005590 0.795311 0 0 143 0.006861
-0.074180 -0.004710 0.797455 0 0 143 0.007529
-0.077629 -0.007549 0.793352 0 0 158 0.008412
-0.076534 -0.005698 0.796461 0 0 158 0.008182
-0.078882 -0.006691 0.795492 0 0 158 0.008869
-0.070547 -0.004636 0.796295 0 0 143 0.006792
-0.071807 -0.003754 0.798444 0 0 143 0.007378
-0.069227 -0.005542 0.794057 0 0 143 0.006110
-0.067916 -0.006428 0.791805 0 0 143 0.006086
-0.070350 -0.007332 0.790908 0 0 143 0.006570
-0.069044 -0.008193 0.788653 0 0 143 0.006584
-0.066606 -0.007288 0.789551 0 0 143 0.006156
-0.071473 -0.009109 0.787762 0 0 143 0.007146
-0.080316 -0.005995 0.797507 0 0 158 0.009446
-0.078063 -0.004945 0.798622 0 0 158 0.008545
-0.079497 -0.004226 0.800635 0 0 158 0.009582
-0.081743 -0.005290 0.799522 0 0 158 0.010197
-0.077233 -0.003180 0.801757 0 0 158 0.008821
-0.080925 -0.003511 0.802643 0 0 158 0.010725
-0.078672 -0.002442 0.803761 0 0 158 0.010776
-0.080100 -0.001725 0.805762 0 0 174 0.012209
-0.083167 -0.004588 0.801534 0 0 158 0.011157
-0.082353 -0.002801 0.804645 0 0 174 0.012107
-0.084590 -0.003887 0.803540 0 0 174 0.012666
-0.076410 -0.001402 0.804888 0 0 158 0.010491
-0.077838 -0.000672 0.806884 0 0 174 0.012660
-0.074873 -0.002197 0.802746 0 0 158 0.008965
-0.073344 -0.002977 0.800593 0 0 158 0.008048
-0.075707 -0.003952 0.799601 0 0 158 0.008354
-0.126232 -0.007028 0.917624 175 255 73 0.250241
-0.127458 -0.007859 0.914517 156 255 92 0.211969
-0.124992 -0.006214 0.920685 190 255 58 0.283107
-0.128200 -0.007167 0.920311 182 255 66 0.269529
-0.129438 -0.007957 0.917205 167 255 81 0.237233
-0.130671 -0.008775 0.914106 150 255 98 0.200751
-0.125389 -0.005879 0.923572 205 255 43 0.315164
-0.125762 -0.005588 0.926446 220 255 28 0.344112
-0.122659 -0.004630 0.926547 226 255 22 0.355789
-0.122266 -0.004900 0.923662 209 255 39 0.321385
-0.132297 -0.009608 0.917152 156 255 92 0.211536
-0.133576 -0.010418 0.913974 142 255 106 0.183630
-0.131020 -0.008801 0.920335 175 255 73 0.253625
-0.133920 -0.010405 0.920156 163 255 85 0.226721
-0.135192 -0.011199 0.916981 150 255 98 0.199632
-0.136478 -0.012011 0.913803 131 255 117 0.161453
-0.131200 -0.008826 0.923425 188 255 60 0.278692
-0.131375 -0.008853 0.926500 209 255 39 0.321022
-0.128556 -0.007237 0.926497 215 255 33 0.335428
-0.128388 -0.007215 0.923419 203 255 45 0.310178
-0.126301 -0.005641 0.932743 253 240 0 0.412163
-0.126030 -0.005607 0.929612 234 255 14 0.373186
-0.128828 -0.007253 0.929642 228 255 20 0.359487
-0.129088 -0.007254 0.932764 247 246 1 0.398929
-0.120000 -0.003299 0.929648 236 255 12 0.377939
-0.123115 -0.004260 0.929576 236 255 12 0.377310
-0.139696 -0.025824 0.941553 232 255 16 0.370139
-0.140706 -0.025393 0.938029 211 255 37 0.327300
-0.138886 -0.023054 0.940852 239 255 8 0.384108
-0.141723 -0.024943 0.934494 184 255 64 0.272902
-0.139907 -0.022622 0.937313 209 255 39 0.324035
-0.140947 -0.022159 0.933749 186 255 62 0.274115
-0.138096 -0.020277 0.940152 253 240 0 0.411981
-0.142763 -0.024469 0.930929 159 255 88 0.221559
-0.143798 -0.024000 0.927361 142 255 106 0.184512
-0.144793 -0.026989 0.928034 138 255 109 0.176892
-0.143762 -0.027466 0.931584 156 255 92 0.213862
-0.142738 -0.027926 0.935131 178 255 69 0.259021
-0.145800 -0.029975 0.928706 140 255 108 0.182238
-0.138697 -0.019763 0.936774 230 255 18 0.363557
-0.136690 -0.017530 0.939685 255 229 0 0.430829
-0.139302 -0.019232 0.933368 201 255 47 0.306598
-0.137307 -0.017015 0.936281 230 255 18 0.364920
-0.137921 -0.016484 0.932859 207 255 41 0.318962
-0.139913 -0.018708 0.929962 178 255 69 0.260262
-0.140530 -0.018158 0.926538 161 255 87 0.224182
-0.142148 -0.021104 0.926945 144 255 104 0.190299
-0.141549 -0.021629 0.930352 163 255 85 0.227105
-0.146161 -0.021194 0.913849 0 221 255 0.102426
-0.145556 -0.021898 0.917246 26 255 222 0.116029
-0.147977 -0.024190 0.914237 0 194 255 0.097069
-0.144963 -0.022595 0.920644 58 255 190 0.127179
-0.147378 -0.024875 0.917617 0 221 255 0.102956
-0.146794 -0.025593 0.921008 47 255 201 0.124684
-0.149814 -0.027168 0.914623 0 181 255 0.093026
-0.144372 -0.023315 0.924025 123 255 125 0.150871
-0.142737 -0.020389 0.923579 133 255 115 0.164860
-0.143340 -0.019694 0.920178 101 255 147 0.143001
-0.148796 -0.027869 0.918157 0 221 255 0.104655
-0.150986 -0.030285 0.915247 0 181 255 0.090242
-0.147782 -0.028578 0.921689 47 255 201 0.122345
-0.149968 -0.031012 0.918777 0 208 255 0.101027
-0.148964 -0.031706 0.922295 58 255 190 0.128840
-0.152163 -0.033440 0.915865 0 208 255 0.098365
-0.146789 -0.029264 0.925199 123 255 125 0.150511
-0.145782 -0.026291 0.924532 101 255 147 0.142234
-0.136343 -0.011857 0.910853 123 255 125 0.149871
-0.136209 -0.011748 0.907856 90 255 157 0.139357
-0.133443 -0.010263 0.910994 133 255 115 0.164097
-0.133294 -0.010138 0.907977 123 255 125 0.151501
-0.136061 -0.011665 0.904825 47 255 201 0.123930
-0.135910 -0.011614 0.901758 36 255 211 0.119069
-0.139015 -0.013303 0.901378 0 221 255 0.104032
-0.139150 -0.013317 0.904469 36 255 211 0.117710
-0.139281 -0.013379 0.907481 58 255 190 0.125349
-0.142099 -0.014908 0.900978 0 167 255 0.088430
-0.130314 -0.008921 0.911391 140 255 108 0.182771
-0.129948 -0.009101 0.908648 133 255 115 0.166466
-0.127106 -0.007980 0.911787 144 255 104 0.189217
-0.129588 -0.009312 0.905878 101 255 147 0.141110
-0.130878 -0.010098 0.902765 47 255 201 0.121857
-0.132928 -0.010367 0.905219 80 255 168 0.135107
-0.135439 -0.012040 0.894799 0 154 255 0.084461
-0.134436 -0.011497 0.897397 0 208 255 0.099491
-0.137946 -0.012629 0.896515 0 167 255 0.089596
-0.136941 -0.012152 0.899115 4 234 244 0.108290
-0.133510 -0.011061 0.899924 26 255 222 0.113803
-0.140499 -0.013882 0.893825 0 101 255 0.068946
-0.141044 -0.014198 0.896218 0 141 255 0.081235
-0.143814 -0.015506 0.893344 0 74 255 0.062068
-0.144368 -0.015834 0.895685 0 114 255 0.071944
-0.141575 -0.014551 0.898591 0 167 255 0.088226
-0.146510 -0.020597 0.910608 0 181 255 0.090121
-0.143897 -0.018685 0.913748 15 248 233 0.112400
-0.146870 -0.019986 0.907363 0 167 255 0.089185
-0.144251 -0.018069 0.910501 4 234 244 0.106064
-0.144614 -0.017452 0.907245 0 221 255 0.103543
-0.141663 -0.016158 0.913631 69 255 179 0.132245
-0.147231 -0.019425 0.904039 0 154 255 0.082683
-0.147580 -0.018853 0.900728 0 141 255 0.080713
-0.149948 -0.021226 0.900872 0 127 255 0.077470
-0.149596 -0.021835 0.904120 0 141 255 0.081508
-0.149236 -0.022401 0.907422 0 167 255 0.088659
-0.152348 -0.023571 0.901023 0 127 255 0.075965
-0.141774 -0.015792 0.910538 36 255 211 0.121020
-0.139062 -0.014108 0.913716 123 255 125 0.148812
-0.141895 -0.015451 0.907432 4 234 244 0.107527
-0.139177 -0.013743 0.910619 90 255 157 0.139786
-0.141995 -0.015151 0.904234 0 221 255 0.104743
-0.144834 -0.016912 0.900853 0 141 255 0.081575
-0.144735 -0.017195 0.904049 0 181 255 0.092654
-0.146874 -0.017213 0.893080 0 60 255 0.056634
-0.149571 -0.018594 0.890329 0 34 255 0.047310
-0.147124 -0.017784 0.895626 0 74 255 0.060490
-0.149830 -0.019116 0.892885 0 60 255 0.056408
-0.150073 -0.019674 0.895413 0 87 255 0.062678
-0.152554 -0.020419 0.890137 0 47 255 0.050885
-0.147358 -0.018306 0.898186 0 114 255 0.071052
-0.144604 -0.016373 0.898273 0 127 255 0.075352
-0.152520 -0.021224 0.892880 0 47 255 0.054360
-0.155117 -0.022671 0.890239 0 60 255 0.057905
-0.152468 -0.021987 0.895611 0 87 255 0.063877
-0.155064 -0.023467 0.892981 0 87 255 0.063380
-0.155020 -0.024238 0.895706 0 114 255 0.070442
-0.157698 -0.024896 0.890324 0 87 255 0.064777
-0.152406 -0.022771 0.898322 0 114 255 0.073918
-0.150015 -0.020430 0.898149 0 101 255 0.069341
-0.137722 -0.013316 0.916930 136 255 111 0.175255
-0.136397 -0.012529 0.920122 152 255 96 0.203365
-0.139001 -0.014617 0.920009 142 255 106 0.186370
-0.140322 -0.015372 0.916830 131 255 117 0.161996
-0.136373 -0.012819 0.923260 163 255 85 0.228040
-0.136346 -0.013092 0.926383 182 255 66 0.267080
-0.133859 -0.010988 0.926454 194 255 54 0.291141
-0.133886 -0.010695 0.923316 176 255 71 0.255984
-0.142490 -0.017923 0.916934 90 255 157 0.139877
-0.141098 -0.017184 0.920111 131 255 117 0.163142
-0.140805 -0.017675 0.923331 144 255 104 0.189482
-0.138430 -0.015651 0.926460 171 255 77 0.245725
-0.138717 -0.015149 0.923239 154 255 94 0.210061
-0.135564 -0.014387 0.936023 245 249 3 0.396033
-0.135822 -0.013971 0.932802 218 255 29 0.340210
-0.133658 -0.011918 0.935894 255 233 0 0.422340
-0.133922 -0.011470 0.932672 234 255 14 0.371430
-0.136080 -0.013525 0.929598 197 255 50 0.297118
-0.138174 -0.016063 0.929663 190 255 58 0.284007
-0.131447 -0.009390 0.932762 243 251 5 0.393048
-0.131411 -0.009130 0.929623 226 255 22 0.356714
-0.133898 -0.011245 0.929557 213 255 35 0.331574
-0.163231 -0.024649 0.868252 0 141 255 0.080399
-0.164733 -0.026467 0.866936 0 141 255 0.080107
-0.163029 -0.024532 0.865769 0 141 255 0.079400
-0.166239 -0.028289 0.865614 0 154 255 0.084736
-0.164545 -0.026324 0.864449 0 154 255 0.082429
-0.166084 -0.028152 0.863109 0 167 255 0.087435
-0.162804 -0.024403 0.863296 0 154 255 0.082358
-0.167792 -0.030115 0.864283 0 181 255 0.092954
-0.169320 -0.031979 0.862940 4 234 244 0.106100
-0.169321 -0.031823 0.865541 0 221 255 0.102985
-0.167779 -0.029972 0.866881 0 181 255 0.092157
-0.166291 -0.028110 0.868190 0 167 255 0.087149
-0.169320 -0.031656 0.868134 0 221 255 0.103656
-0.164244 -0.026426 0.861855 0 141 255 0.082020
-0.162230 -0.024403 0.860647 0 141 255 0.079495
-0.165698 -0.028440 0.860396 0 154 255 0.083533
-0.163666 -0.026410 0.859191 0 141 255 0.079731
-0.165145 -0.028406 0.857720 0 167 255 0.086440
-0.161643 -0.024369 0.857984 0 114 255 0.071895
-0.167134 -0.030483 0.858948 0 181 255 0.091413
-0.168611 -0.032535 0.857468 4 234 244 0.105696
-0.168968 -0.032273 0.860214 0 221 255 0.104039
-0.167546 -0.030191 0.861658 0 181 255 0.093637
-0.173810 -0.042789 0.858460 15 248 233 0.112113
-0.172731 -0.040044 0.859577 15 248 233 0.110731
-0.173916 -0.042153 0.861261 4 234 244 0.106959
-0.171602 -0.037338 0.860701 0 221 255 0.103458
-0.172804 -0.039422 0.862383 0 221 255 0.104152
-0.171706 -0.036709 0.863491 0 221 255 0.102599
-0.173991 -0.041503 0.864051 4 234 244 0.108029
-0.170478 -0.034653 0.861816 0 208 255 0.100650
-0.170125 -0.034938 0.859081 0 221 255 0.101725
-0.171290 -0.037598 0.857939 4 234 244 0.107076
-0.172849 -0.039009 0.865071 0 221 255 0.103889
-0.173767 -0.040970 0.866764 0 208 255 0.100724
-0.171720 -0.036526 0.866078 0 208 255 0.099768
-0.172652 -0.038469 0.867767 0 221 255 0.101723
-0.171469 -0.036006 0.868807 0 208 255 0.098405
-0.173536 -0.040423 0.869470 0 208 255 0.099702
-0.170493 -0.034086 0.867121 0 208 255 0.098242
-0.170527 -0.034257 0.864519 0 208 255 0.100781
-0.160007 -0.022973 0.859636 0 74 255 0.058961
-0.158407 -0.021540 0.861253 0 47 255 0.051489
-0.160630 -0.022958 0.862260 0 101 255 0.069454
-0.159000 -0.021540 0.863890 0 47 255 0.054215
-0.156820 -0.020114 0.862865 0 20 255 0.046484
-0.155251 -0.018713 0.864464 0 20 255 0.044380
-0.154557 -0.018494 0.861896 0 20 255 0.044594
-0.156113 -0.019912 0.860297 0 34 255 0.046905
-0.157693 -0.021324 0.858688 0 47 255 0.051985
-0.153835 -0.018253 0.859340 0 20 255 0.045458
-0.161078 -0.023098 0.864812 0 101 255 0.068410
-0.159322 -0.021826 0.866335 0 60 255 0.058557
-0.161280 -0.023257 0.867290 0 101 255 0.067092
-0.159551 -0.021944 0.868806 0 74 255 0.058608
-0.157609 -0.020552 0.867833 0 20 255 0.044641
-0.155931 -0.019263 0.869321 0 7 255 0.041686
-0.155582 -0.018993 0.866896 0 7 255 0.042649
-0.157272 -0.020279 0.865407 0 20 255 0.045744
-0.149661 -0.015785 0.868124 0 0 219 0.024211
-0.151432 -0.016722 0.866521 0 0 234 0.028534
-0.153783 -0.018091 0.868527 0 0 250 0.033403
-0.152007 -0.017168 0.870132 0 0 234 0.027728
-0.148865 -0.015296 0.864485 0 0 219 0.025758
-0.150503 -0.016299 0.862785 0 0 234 0.029122
-0.148046 -0.014939 0.862077 0 0 219 0.026880
-0.149678 -0.015930 0.860378 0 0 250 0.032030
-0.152164 -0.017271 0.861073 0 0 255 0.036452
-0.152876 -0.017526 0.863629 0 0 250 0.034977
-0.152109 -0.018530 0.880298 0 0 234 0.028432
-0.155478 -0.020560 0.880860 0 7 255 0.041279
-0.154132 -0.019401 0.878765 0 0 250 0.034417
-0.153471 -0.019676 0.882397 0 0 255 0.035894
-0.157528 -0.021575 0.878255 0 20 255 0.043796
-0.158373 -0.022845 0.880732 0 34 255 0.047236
-0.160357 -0.024018 0.879215 0 47 255 0.054574
-0.162373 -0.025190 0.877686 0 114 255 0.073001
-0.161190 -0.025271 0.881679 0 74 255 0.061558
-0.159350 -0.024168 0.883083 0 60 255 0.055862
-0.156463 -0.021855 0.883215 0 20 255 0.045078
-0.156375 -0.022819 0.886819 0 34 255 0.048663
-0.153787 -0.020590 0.886728 0 20 255 0.045620
-0.159235 -0.025124 0.886690 0 74 255 0.061228
-0.150525 -0.018686 0.887151 0 0 255 0.037897
-0.161415 -0.023526 0.870834 0 87 255 0.066185
-0.159658 -0.022313 0.872245 0 34 255 0.049901
-0.163156 -0.024877 0.871738 0 127 255 0.076401
-0.157926 -0.021094 0.873646 0 20 255 0.045094
-0.156138 -0.019715 0.872740 0 7 255 0.040091
-0.161291 -0.023802 0.874306 0 87 255 0.065280
-0.159478 -0.022653 0.875699 0 34 255 0.047848
-0.156070 -0.020109 0.876168 0 7 255 0.040422
-0.150595 -0.017350 0.878253 0 0 219 0.024948
-0.152444 -0.018203 0.876818 0 0 219 0.027197
-0.150522 -0.016806 0.874994 0 0 219 0.024654
-0.154298 -0.018832 0.874265 0 0 250 0.033888
-0.150199 -0.016284 0.871629 0 0 219 0.023667
-0.152326 -0.017675 0.873506 0 0 219 0.025999
-0.139382 -0.012016 0.851995 0 0 219 0.025698
-0.138114 -0.011129 0.853992 0 0 219 0.023568
-0.141164 -0.012430 0.854313 0 0 219 0.024343
-0.136851 -0.010225 0.855969 0 0 219 0.023796
-0.139894 -0.011542 0.856311 0 0 204 0.023044
-0.138627 -0.010623 0.858285 0 0 219 0.025363
-0.142936 -0.012785 0.856642 0 0 219 0.025951
-0.135610 -0.009275 0.857943 0 0 219 0.026966
-0.134371 -0.008325 0.859887 0 0 234 0.031229
-0.132523 -0.007660 0.858024 0 0 250 0.031882
-0.133751 -0.008620 0.856062 0 0 234 0.027913
-0.134985 -0.009563 0.854101 0 0 219 0.024987
-0.130665 -0.006949 0.856178 0 0 250 0.033349
-0.141529 -0.012019 0.858478 0 0 219 0.023900
-0.144269 -0.013189 0.858997 0 0 219 0.026857
-0.140132 -0.011199 0.860308 0 0 219 0.023683
-0.142866 -0.012401 0.860846 0 0 219 0.023577
-0.136617 -0.009210 0.862883 0 0 234 0.029463
-0.137995 -0.010088 0.861098 0 0 219 0.025572
-0.129422 -0.007038 0.864891 0 0 250 0.033199
-0.131593 -0.007732 0.863785 0 0 234 0.028565
-0.129986 -0.006971 0.862124 0 0 250 0.031718
-0.132976 -0.008040 0.861841 0 0 234 0.028974
-0.126893 -0.005915 0.862329 0 0 250 0.033571
-0.128129 -0.006278 0.860278 0 0 250 0.033435
-0.125010 -0.005040 0.860852 0 0 255 0.036933
-0.126249 -0.005393 0.858790 0 0 255 0.036860
-0.129379 -0.006642 0.858234 0 0 250 0.031272
-0.131248 -0.007331 0.860073 0 0 234 0.029839
-0.146994 -0.014673 0.859559 0 0 219 0.026845
-0.148427 -0.015803 0.857727 0 0 234 0.028778
-0.145679 -0.014327 0.857190 0 0 219 0.025904
-0.147109 -0.015431 0.855366 0 0 234 0.027745
-0.149891 -0.016893 0.855888 0 0 250 0.032656
-0.151352 -0.018000 0.854025 0 7 255 0.039206
-0.152608 -0.018153 0.856678 0 7 255 0.041652
-0.151132 -0.017042 0.858528 0 0 250 0.035109
-0.144209 -0.014140 0.854580 0 0 219 0.024764
-0.145497 -0.015477 0.852506 0 0 219 0.023712
-0.142432 -0.013774 0.852242 0 0 219 0.024544
-0.143728 -0.015076 0.850151 0 0 219 0.023779
-0.146808 -0.016788 0.850397 0 0 219 0.026111
-0.148159 -0.018040 0.848281 0 0 234 0.031105
-0.149762 -0.018036 0.851153 0 0 250 0.034090
-0.148414 -0.016765 0.853267 0 0 234 0.029258
-0.156504 -0.025508 0.845826 0 47 255 0.051858
-0.155224 -0.023605 0.847881 0 20 255 0.046861
-0.158034 -0.025025 0.849018 0 74 255 0.060066
-0.153903 -0.021748 0.849952 0 0 255 0.036452
-0.156661 -0.023191 0.851106 0 20 255 0.046673
-0.155335 -0.021311 0.853177 0 20 255 0.043736
-0.159434 -0.024605 0.852262 0 74 255 0.060247
-0.152608 -0.019882 0.852002 0 0 255 0.036174
-0.151021 -0.019916 0.849125 0 0 234 0.031082
-0.152286 -0.021800 0.847086 0 0 255 0.038895
-0.158010 -0.023014 0.854052 0 47 255 0.051695
-0.160567 -0.024487 0.855113 0 87 255 0.065283
-0.156583 -0.021458 0.855842 0 20 255 0.046424
-0.159118 -0.022917 0.856906 0 60 255 0.056883
-0.155199 -0.019873 0.857602 0 20 255 0.044178
-0.153974 -0.019727 0.854929 0 7 255 0.040931
-0.107667 -0.006866 0.873076 0 0 255 0.037227
-0.108472 -0.005246 0.870794 0 7 255 0.040293
-0.105032 -0.005792 0.872226 0 0 255 0.036798
-0.109277 -0.003616 0.868530 0 20 255 0.045912
-0.110120 -0.001930 0.866265 0 74 255 0.060962
-0.104688 -0.003882 0.869680 0 7 255 0.040719
-0.102084 -0.004908 0.871606 0 0 255 0.036138
-0.105384 -0.002238 0.867422 0 34 255 0.049754
-0.106107 -0.000573 0.865157 0 87 255 0.063707
-0.113894 -0.000416 0.857323 0 74 255 0.061002
-0.112920 -0.000795 0.859570 0 47 255 0.053385
-0.116001 -0.001199 0.858256 0 60 255 0.056895
-0.111981 -0.001155 0.861809 0 60 255 0.054801
-0.115045 -0.001566 0.860503 0 47 255 0.051470
-0.114103 -0.001932 0.862736 0 47 255 0.052999
-0.118100 -0.002012 0.859185 0 47 255 0.054538
-0.111038 -0.001537 0.864046 0 60 255 0.055599
-0.108027 -0.000518 0.863215 0 74 255 0.059913
-0.117939 -0.002856 0.861918 0 34 255 0.048650
-0.116863 -0.003262 0.864067 0 20 255 0.046788
-0.087937 0.005253 0.856579 0 60 255 0.055251
-0.089316 0.005858 0.854231 0 74 255 0.059147
-0.086582 0.004673 0.858939 0 47 255 0.053882
-0.090859 0.003351 0.859312 0 20 255 0.044952
-0.092238 0.003957 0.856966 0 34 255 0.047925
-0.093619 0.004543 0.854606 0 34 255 0.050434
-0.087379 0.003466 0.861495 0 47 255 0.052088
-0.088189 0.002244 0.864005 0 47 255 0.050959
-0.084426 0.002967 0.863976 0 47 255 0.054044
-0.083600 0.004151 0.861433 0 47 255 0.054239
-0.095931 0.002917 0.857223 0 20 255 0.043470
-0.097572 0.003178 0.854995 0 7 255 0.041662
-0.094322 0.002652 0.859445 0 20 255 0.045142
-0.098246 0.001294 0.859827 0 0 255 0.038817
-0.099871 0.001551 0.857615 0 0 255 0.036666
-0.101513 0.001781 0.855379 0 0 255 0.037475
-0.094683 0.001703 0.861847 0 20 255 0.046022
-0.095053 0.000766 0.864232 0 34 255 0.048116
-0.091619 0.001495 0.864122 0 34 255 0.049695
-0.091240 0.002451 0.861730 0 20 255 0.046053
-0.089463 -0.002906 0.870930 0 0 250 0.034072
-0.087107 -0.004234 0.873410 0 0 250 0.034460
-0.089026 -0.001213 0.868637 0 0 255 0.037151
-0.086653 -0.002582 0.871102 0 0 250 0.034079
-0.086205 -0.000903 0.868792 0 0 255 0.035846
-0.084316 -0.003882 0.873607 0 0 250 0.034746
-0.088602 0.000510 0.866330 0 7 255 0.041551
-0.092028 -0.000246 0.866425 0 7 255 0.040381
-0.092447 -0.001961 0.868718 0 0 250 0.034668
-0.083388 -0.002030 0.871206 0 0 255 0.036485
-0.081213 -0.003669 0.873930 0 0 250 0.034303
-0.082467 -0.000168 0.868789 0 0 255 0.037395
-0.080288 -0.001822 0.871504 0 0 255 0.035618
-0.081573 0.001775 0.866374 0 20 255 0.044284
-0.085316 0.001016 0.866382 0 20 255 0.043565
-0.082761 0.007558 0.833031 0 20 255 0.046712
-0.086843 0.006835 0.831730 0 47 255 0.051245
-0.082772 0.008033 0.836347 0 47 255 0.052096
-0.086839 0.007313 0.835055 0 60 255 0.055088
-0.086830 0.007751 0.838362 0 74 255 0.060580
-0.090911 0.006556 0.833758 0 74 255 0.061651
-0.082768 0.008434 0.839646 0 74 255 0.061015
-0.082782 0.008816 0.842923 0 114 255 0.073300
-0.080576 0.008877 0.841944 0 87 255 0.065692
-0.080557 0.008484 0.838666 0 47 255 0.052607
-0.078370 0.008922 0.840963 0 74 255 0.058601
-0.078345 0.008516 0.837684 0 34 255 0.047077
-0.080549 0.008054 0.835353 0 20 255 0.045204
-0.076160 0.008939 0.839975 0 47 255 0.051747
-0.091111 0.006786 0.836442 0 74 255 0.060720
-0.095121 0.005486 0.834816 0 74 255 0.058724
-0.091290 0.006960 0.839118 0 87 255 0.063048
-0.095303 0.005693 0.837483 0 74 255 0.058699
-0.095476 0.005867 0.840140 0 60 255 0.058415
-0.099305 0.004351 0.835859 0 60 255 0.057697
-0.091475 0.007127 0.841777 0 87 255 0.064569
-0.091656 0.007250 0.844415 0 101 255 0.070253
-0.087228 0.008055 0.843676 0 101 255 0.070237
-0.087040 0.007943 0.841035 0 87 255 0.065614
-0.084438 0.007574 0.851123 0 101 255 0.067510
-0.083882 0.008008 0.848413 0 101 255 0.067189
-0.079943 0.008062 0.850776 0 87 255 0.063593
-0.079375 0.008497 0.848061 0 87 255 0.063482
-0.083331 0.008437 0.845690 0 101 255 0.069057
-0.087755 0.007638 0.846414 0 101 255 0.067839
-0.088282 0.007204 0.849137 0 87 255 0.066095
-0.075525 0.008397 0.849639 0 60 255 0.058358
-0.072540 0.008503 0.849129 0 47 255 0.051307
-0.075001 0.008612 0.846120 0 47 255 0.051996
-0.069556 0.008618 0.848616 0 34 255 0.048696
-0.071986 0.008671 0.845595 0 20 255 0.044788
-0.074470 0.008788 0.842567 0 34 255 0.047823
-0.076679 0.008773 0.843551 0 47 255 0.053289
-0.078872 0.008727 0.844526 0 74 255 0.059659
-0.077189 0.008566 0.847089 0 60 255 0.057689
-0.123040 -0.004173 0.859340 0 0 255 0.039039
-0.124190 -0.004608 0.857219 0 0 255 0.037585
-0.120186 -0.002867 0.857627 0 20 255 0.045300
-0.125345 -0.005009 0.855084 0 0 255 0.036351
-0.126517 -0.005381 0.852949 0 0 255 0.036519
-0.128601 -0.006187 0.854547 0 0 250 0.034935
-0.127419 -0.005794 0.856678 0 0 250 0.033907
-0.118002 -0.002036 0.856437 0 20 255 0.044393
-0.120013 -0.002863 0.854622 0 7 255 0.041887
-0.117922 -0.002055 0.853681 0 20 255 0.044156
-0.115896 -0.001247 0.855504 0 34 255 0.047237
-0.120989 -0.003303 0.852339 0 0 255 0.038052
-0.121988 -0.003714 0.850055 0 0 255 0.037382
-0.124250 -0.004559 0.851499 0 0 255 0.035792
-0.123265 -0.004142 0.853788 0 0 255 0.037628
-0.130338 -0.009796 0.843255 0 0 189 0.019430
-0.129348 -0.008710 0.845677 0 0 204 0.020964
-0.132747 -0.010494 0.845307 0 0 204 0.019989
-0.128375 -0.007640 0.848109 0 0 219 0.024039
-0.131749 -0.009441 0.847741 0 0 204 0.021689
-0.130785 -0.008325 0.850155 0 0 219 0.026071
-0.135150 -0.011156 0.847363 0 0 204 0.020811
-0.127437 -0.006509 0.850525 0 0 234 0.029177
-0.125168 -0.005704 0.849069 0 0 234 0.028314
-0.126103 -0.006847 0.846650 0 0 219 0.023835
-0.134003 -0.010155 0.849577 0 0 204 0.021003
-0.137281 -0.011608 0.849668 0 0 204 0.022876
-0.132888 -0.009106 0.851796 0 0 204 0.023329
-0.136124 -0.010582 0.851892 0 0 219 0.023638
-0.131771 -0.008043 0.853985 0 0 234 0.027646
-0.129691 -0.007273 0.852356 0 0 234 0.030174
-0.101584 0.003323 0.836224 0 34 255 0.049302
-0.099658 0.004256 0.838320 0 47 255 0.051078
-0.101921 0.003225 0.838673 0 20 255 0.043394
-0.103838 0.002276 0.836583 0 7 255 0.042228
-0.100003 0.004138 0.840763 0 34 255 0.047684
-0.104181 0.002190 0.839026 0 0 255 0.038414
-0.102254 0.003093 0.841103 0 7 255 0.039953
-0.104507 0.002056 0.841444 0 0 255 0.035291
-0.106087 0.001231 0.836946 0 0 255 0.036661
-0.106423 0.001153 0.839379 0 0 250 0.033460
-0.108329 0.000202 0.837314 0 0 250 0.033705
-0.100340 0.003985 0.843193 0 20 255 0.045289
-0.102605 0.002973 0.843529 0 7 255 0.039520
-0.100687 0.003821 0.845605 0 20 255 0.044748
-0.098452 0.004714 0.845315 0 47 255 0.050900
-0.098095 0.004867 0.842888 0 47 255 0.051298
-0.096208 0.005589 0.845019 0 60 255 0.056510
-0.095844 0.005739 0.842583 0 60 255 0.056212
-0.097751 0.005030 0.840460 0 47 255 0.052423
-0.093934 0.006417 0.844713 0 74 255 0.061702
-0.110495 -0.000917 0.837658 0 0 234 0.029640
-0.110695 -0.000887 0.840032 0 0 219 0.025791
-0.112672 -0.002004 0.838011 0 0 219 0.026915
-0.108723 0.000219 0.842057 0 0 234 0.029302
-0.112845 -0.002003 0.840364 0 0 219 0.023636
-0.110875 -0.000903 0.842385 0 0 219 0.025546
-0.114835 -0.003111 0.838358 0 0 204 0.023393
-0.117000 -0.004192 0.838706 0 0 204 0.021613
-0.109127 0.000172 0.846763 0 0 250 0.031989
-0.106833 0.001137 0.844118 0 0 250 0.032850
-0.104938 0.002030 0.846187 0 0 255 0.037373
-0.101308 0.002323 0.852960 0 0 255 0.037011
-0.101102 0.002834 0.850517 0 0 255 0.038355
-0.097358 0.003722 0.852565 0 7 255 0.041962
-0.097129 0.004211 0.850115 0 7 255 0.042706
-0.100897 0.003341 0.848070 0 7 255 0.039327
-0.105113 0.001523 0.848634 0 0 250 0.032795
-0.105299 0.001006 0.851072 0 0 234 0.031021
-0.093119 0.005216 0.852076 0 47 255 0.053792
-0.092624 0.005888 0.849534 0 60 255 0.054689
-0.088791 0.006513 0.851683 0 74 255 0.060014
-0.092137 0.006568 0.846980 0 74 255 0.061246
-0.094406 0.005755 0.847285 0 47 255 0.053092
-0.096657 0.004900 0.847576 0 34 255 0.048293
-0.094881 0.005052 0.849816 0 34 255 0.049091
-0.101613 -0.016164 0.794843 0 0 143 0.007082
-0.099595 -0.014559 0.795896 0 0 143 0.007212
-0.096287 -0.013498 0.795109 0 0 143 0.007127
-0.094263 -0.011881 0.796175 0 0 158 0.007964
-0.090936 -0.010838 0.795409 0 0 158 0.008984
-0.093520 -0.009680 0.799087 0 0 158 0.009845
-0.091683 -0.013020 0.792492 0 0 143 0.007683
-0.088337 -0.012000 0.791718 0 0 158 0.008718
-0.093829 -0.014514 0.791647 0 0 143 0.007113
-0.095967 -0.016003 0.790800 0 0 143 0.007268
-0.099276 -0.017045 0.791593 0 0 143 0.007197
-0.096927 -0.017941 0.788342 0 0 143 0.007518
-0.091308 -0.008235 0.800186 0 0 158 0.009934
-0.089906 -0.008887 0.798166 0 0 158 0.009413
-0.087675 -0.007450 0.799278 0 0 158 0.009403
-0.089085 -0.006782 0.801296 0 0 158 0.010288
-0.086265 -0.008132 0.797250 0 0 158 0.008792
-0.085432 -0.006016 0.800400 0 0 158 0.010342
-0.084015 -0.006709 0.798385 0 0 158 0.009529
-0.086848 -0.005329 0.802413 0 0 158 0.011641
-0.082588 -0.007391 0.796372 0 0 158 0.008716
-0.083649 -0.009334 0.793587 0 0 158 0.008032
-0.087304 -0.010075 0.794485 0 0 158 0.008579
-0.076379 -0.011284 0.786123 0 0 143 0.007640
-0.080009 -0.011769 0.787323 0 0 143 0.007474
-0.082465 -0.013021 0.786560 0 0 143 0.007799
-0.086053 -0.013516 0.787784 0 0 158 0.008309
-0.083749 -0.015031 0.783845 0 0 158 0.008489
-0.084765 -0.011494 0.790502 0 0 158 0.007884
-0.082406 -0.010173 0.791438 0 0 143 0.007645
-0.080031 -0.008858 0.792389 0 0 158 0.007953
-0.078780 -0.009696 0.790245 0 0 143 0.007554
-0.086030 -0.016404 0.783241 0 0 143 0.007476
-0.089335 -0.017126 0.784354 0 0 143 0.007183
-0.091597 -0.018503 0.783746 0 0 143 0.007197
-0.094881 -0.019227 0.784874 0 0 143 0.007506
-0.092827 -0.020537 0.781423 0 0 158 0.007840
-0.093653 -0.017205 0.787214 0 0 143 0.007163
-0.091507 -0.015721 0.788048 0 0 143 0.006905
-0.089351 -0.014238 0.788896 0 0 143 0.007493
-0.086204 -0.003435 0.805330 0 0 174 0.014328
-0.084163 -0.002249 0.806649 0 0 174 0.014014
-0.085772 -0.001797 0.808435 0 0 174 0.015534
-0.087816 -0.002993 0.807122 0 0 174 0.015588
-0.083725 -0.000606 0.809760 0 0 189 0.016122
-0.087388 -0.001346 0.810226 0 0 189 0.017471
-0.085346 -0.000149 0.811546 0 0 189 0.018092
-0.086943 0.000302 0.813343 0 0 204 0.020507
-0.089414 -0.002559 0.808919 0 0 189 0.017293
-0.088985 -0.000911 0.812020 0 0 204 0.019812
-0.091010 -0.002133 0.810719 0 0 189 0.018920
-0.083283 0.001031 0.812876 0 0 204 0.019559
-0.084887 0.001492 0.814669 0 0 204 0.021997
-0.082820 0.002658 0.816013 0 0 219 0.024499
-0.081022 0.002099 0.814000 0 0 204 0.020557
-0.081476 0.000473 0.810877 0 0 189 0.016429
-0.079208 0.001535 0.812006 0 0 189 0.018023
-0.079657 -0.000092 0.808883 0 0 174 0.014712
-0.081916 -0.001162 0.807757 0 0 174 0.014114
-0.077394 0.000951 0.810009 0 0 189 0.015656
-0.090924 -0.000730 0.813639 0 0 204 0.021356
-0.094504 -0.002013 0.813560 0 0 204 0.020880
-0.090825 0.000674 0.816574 0 0 219 0.024985
-0.094410 -0.000623 0.816482 0 0 219 0.023880
-0.094291 0.000756 0.819404 0 0 234 0.028104
-0.097956 -0.001958 0.816402 0 0 219 0.024049
-0.090710 0.002055 0.819506 0 0 234 0.030174
-0.090572 0.003406 0.822439 0 0 255 0.037745
-0.088658 0.003248 0.820833 0 0 250 0.033449
-0.088784 0.001882 0.817890 0 0 219 0.027028
-0.086727 0.003072 0.819221 0 0 234 0.029431
-0.086844 0.001695 0.816280 0 0 219 0.023727
-0.088888 0.000495 0.814958 0 0 204 0.022237
-0.084782 0.002873 0.817616 0 0 219 0.026448
-0.082779 0.006022 0.826304 0 0 250 0.034643
-0.080657 0.005755 0.824452 0 0 234 0.029344
-0.082805 0.004944 0.822880 0 0 234 0.028976
-0.078521 0.005455 0.822589 0 0 219 0.025221
-0.080666 0.004650 0.821019 0 0 219 0.025221
-0.078511 0.004333 0.819160 0 0 204 0.021979
-0.076364 0.005130 0.820731 0 0 204 0.022499
-0.082812 0.003816 0.819444 0 0 219 0.025858
-0.080676 0.003498 0.817562 0 0 204 0.022759
-0.084772 0.004021 0.821041 0 0 234 0.028602
-0.086707 0.004205 0.822644 0 0 250 0.032518
-0.084741 0.005130 0.824464 0 0 250 0.032893
-0.086661 0.005293 0.826061 0 0 255 0.037597
-0.088617 0.004372 0.824254 0 0 255 0.036804
-0.084709 0.006195 0.827875 0 7 255 0.040474
-0.074566 0.004568 0.818738 0 0 189 0.017999
-0.072577 0.003919 0.816438 0 0 174 0.014781
-0.074905 0.003189 0.815156 0 0 174 0.015187
-0.070582 0.003264 0.814148 0 0 174 0.013005
-0.072911 0.002541 0.812867 0 0 174 0.012929
-0.075244 0.001775 0.811579 0 0 174 0.013612
-0.077058 0.002369 0.813577 0 0 189 0.015644
-0.078864 0.002950 0.815583 0 0 189 0.019249
-0.076712 0.003775 0.817159 0 0 189 0.018340
-0.098060 -0.000874 0.818890 0 0 219 0.027278
-0.101631 -0.002838 0.818189 0 0 204 0.022909
-0.098144 0.000185 0.821361 0 0 250 0.031436
-0.101723 -0.001784 0.820646 0 0 219 0.026245
-0.101815 -0.000720 0.823122 0 0 234 0.031015
-0.105284 -0.003722 0.819972 0 0 219 0.023560
-0.098226 0.001229 0.823837 0 0 255 0.037094
-0.098294 0.002263 0.826319 0 20 255 0.044530
-0.094459 0.002869 0.824387 0 7 255 0.040451
-0.094380 0.001830 0.821899 0 0 250 0.033409
-0.107561 -0.003926 0.822677 0 0 204 0.022127
-0.109225 -0.005593 0.821094 0 0 189 0.017599
-0.105879 -0.002258 0.824279 0 0 234 0.027695
-0.109805 -0.004133 0.825360 0 0 204 0.021183
-0.111484 -0.005777 0.823773 0 0 189 0.017909
-0.113164 -0.007405 0.822181 0 0 189 0.015742
-0.108111 -0.002495 0.826958 0 0 219 0.026862
-0.106432 -0.000838 0.828570 0 0 250 0.034037
-0.104127 -0.000778 0.825860 0 0 250 0.032059
-0.102388 0.000717 0.827442 0 0 255 0.038455
-0.099060 0.003864 0.833489 0 47 255 0.052740
-0.098810 0.003356 0.831108 0 34 255 0.048595
-0.094881 0.005008 0.832432 0 47 255 0.054492
-0.094620 0.004476 0.830028 0 34 255 0.050389
-0.098560 0.002826 0.828720 0 20 255 0.046640
-0.102642 0.001267 0.829823 0 7 255 0.040022
-0.102875 0.001787 0.832197 0 7 255 0.041347
-0.090845 0.005826 0.830940 0 47 255 0.053267
-0.090762 0.005054 0.828118 0 20 255 0.045788
-0.092613 0.003971 0.826240 0 7 255 0.041855
-0.132509 -0.011957 0.841565 0 0 174 0.014874
-0.135958 -0.014221 0.841244 0 0 174 0.013905
-0.138171 -0.016303 0.839541 0 0 174 0.013231
-0.141701 -0.018420 0.839218 0 0 189 0.015733
-0.139166 -0.018239 0.836484 0 0 174 0.012122
-0.140683 -0.016495 0.842286 0 0 189 0.016263
-0.144198 -0.018606 0.841950 0 0 234 0.027513
-0.138403 -0.014665 0.843640 0 0 174 0.015251
-0.136175 -0.012734 0.844989 0 0 189 0.017000
-0.141411 -0.021081 0.834790 0 0 189 0.016157
-0.142519 -0.020643 0.836971 0 0 189 0.018086
-0.144787 -0.023449 0.835252 0 0 189 0.017233
-0.143648 -0.023913 0.833089 0 0 174 0.014909
-0.145921 -0.022969 0.837427 0 0 189 0.019113
-0.147079 -0.026242 0.833525 0 0 189 0.017809
-0.148219 -0.025750 0.835682 0 0 204 0.020280
-0.150545 -0.028522 0.833933 0 0 219 0.024129
-0.145929 -0.026749 0.831350 0 0 189 0.015748
-0.149372 -0.029069 0.831766 0 0 204 0.020841
-0.148146 -0.029636 0.829640 0 0 189 0.017222
-0.149347 -0.025264 0.837860 0 0 204 0.023200
-0.151700 -0.028005 0.836102 0 0 234 0.027795
-0.152822 -0.027514 0.838261 0 0 250 0.031743
-0.148482 -0.023061 0.840132 0 0 219 0.025652
-0.145067 -0.020765 0.839695 0 0 204 0.022617
-0.153406 -0.023839 0.844872 0 0 255 0.038611
-0.150324 -0.022125 0.843905 0 0 250 0.032150
-0.149239 -0.020078 0.846109 0 0 219 0.027206
-0.146190 -0.018344 0.845110 0 0 219 0.024591
-0.147256 -0.020385 0.842935 0 0 234 0.028585
-0.151599 -0.024785 0.841082 0 0 234 0.031087
-0.154703 -0.026514 0.842024 0 7 255 0.041017
-0.144872 -0.016420 0.848044 0 0 204 0.023209
-0.141616 -0.014724 0.847807 0 0 204 0.020502
-0.140504 -0.013359 0.849904 0 0 204 0.022430
-0.138370 -0.012968 0.847578 0 0 204 0.020337
-0.142903 -0.016658 0.844885 0 0 204 0.019718
-0.115354 -0.008762 0.822594 0 0 174 0.012211
-0.117530 -0.010121 0.822992 0 0 158 0.009646
-0.114318 -0.006574 0.826153 0 0 174 0.015313
-0.116486 -0.007953 0.826550 0 0 174 0.012037
-0.118666 -0.009311 0.826928 0 0 158 0.009921
-0.119718 -0.011459 0.823390 0 0 158 0.007869
-0.121908 -0.012778 0.823777 0 0 143 0.006522
-0.115427 -0.005793 0.830099 0 0 189 0.017474
-0.113173 -0.004584 0.829720 0 0 204 0.019662
-0.110922 -0.003350 0.829341 0 0 219 0.023874
-0.124098 -0.014276 0.824137 0 0 143 0.005163
-0.126306 -0.015736 0.824493 0 0 143 0.004482
-0.123173 -0.011909 0.827653 0 0 143 0.007792
-0.125363 -0.013400 0.828002 0 0 143 0.005741
-0.127567 -0.014869 0.828346 0 0 143 0.005171
-0.128522 -0.017177 0.824852 0 0 128 0.003821
-0.130741 -0.018617 0.825187 0 0 128 0.003656
-0.124394 -0.011103 0.831506 0 0 158 0.008944
-0.122142 -0.009803 0.831165 0 0 158 0.009933
-0.119905 -0.008473 0.830819 0 0 158 0.011407
-0.120912 -0.010628 0.827298 0 0 158 0.008559
-0.117663 -0.007144 0.830467 0 0 174 0.014127
-0.116234 -0.004954 0.834418 0 0 189 0.019437
-0.114048 -0.003894 0.834052 0 0 204 0.020541
-0.111873 -0.002799 0.833691 0 0 219 0.023591
-0.118458 -0.006320 0.834763 0 0 174 0.015163
-0.120665 -0.007692 0.835092 0 0 174 0.012446
-0.107387 -0.000289 0.832953 0 0 250 0.033242
-0.105152 0.000761 0.832570 0 0 255 0.036824
-0.109160 -0.001805 0.831143 0 0 234 0.027700
-0.102325 -0.014089 0.798962 0 0 143 0.006874
-0.104216 -0.015801 0.797706 0 0 143 0.006866
-0.100432 -0.012363 0.800211 0 0 143 0.007639
-0.103029 -0.011987 0.803052 0 0 143 0.007767
-0.104916 -0.013719 0.801803 0 0 143 0.007279
-0.106802 -0.015437 0.800552 0 0 143 0.007362
-0.099845 -0.010429 0.802882 0 0 158 0.009170
-0.099251 -0.008476 0.805557 0 0 158 0.011291
-0.096403 -0.009064 0.802319 0 0 158 0.010585
-0.096980 -0.011012 0.799643 0 0 158 0.008423
-0.107930 -0.013969 0.804239 0 0 143 0.007182
-0.109692 -0.015760 0.802838 0 0 143 0.007046
-0.106177 -0.012145 0.805624 0 0 158 0.008048
-0.109049 -0.012476 0.807897 0 0 158 0.008107
-0.110804 -0.014286 0.806512 0 0 143 0.007438
-0.112575 -0.016083 0.805117 0 0 143 0.007223
-0.105865 -0.010476 0.808147 0 0 158 0.009747
-0.105551 -0.008793 0.810664 0 0 174 0.012048
-0.102419 -0.008625 0.808111 0 0 158 0.011240
-0.102727 -0.010316 0.805590 0 0 158 0.008995
-0.098300 -0.003589 0.813695 0 0 189 0.018580
-0.098626 -0.005227 0.810994 0 0 174 0.015044
-0.094833 -0.003662 0.810845 0 0 189 0.016489
-0.095165 -0.005314 0.808121 0 0 174 0.013578
-0.098949 -0.006861 0.808275 0 0 174 0.012715
-0.102099 -0.007016 0.810819 0 0 174 0.012875
-0.101771 -0.005395 0.813518 0 0 174 0.015482
-0.091655 -0.004047 0.807801 0 0 174 0.014638
-0.090059 -0.004467 0.806002 0 0 174 0.013246
-0.092287 -0.005946 0.804895 0 0 174 0.011731
-0.088457 -0.004893 0.804206 0 0 174 0.012277
-0.090693 -0.006358 0.803096 0 0 158 0.011053
-0.092908 -0.007828 0.801996 0 0 158 0.010597
-0.095788 -0.007207 0.805220 0 0 158 0.011354
-0.114137 -0.015403 0.808084 0 0 143 0.007073
-0.115785 -0.017240 0.806633 0 0 143 0.006739
-0.112497 -0.013542 0.809525 0 0 158 0.008262
-0.115705 -0.014702 0.811024 0 0 143 0.007778
-0.117349 -0.016549 0.809579 0 0 143 0.007120
-0.119003 -0.018386 0.808124 0 0 143 0.006737
-0.112468 -0.012259 0.811719 0 0 158 0.009475
-0.112425 -0.010977 0.813911 0 0 158 0.011111
-0.108995 -0.009897 0.812296 0 0 158 0.010777
-0.109024 -0.011185 0.810095 0 0 158 0.009334
-0.120910 -0.018352 0.810704 0 0 143 0.006074
-0.122391 -0.020166 0.809271 0 0 143 0.005421
-0.119426 -0.016542 0.812133 0 0 143 0.006884
-0.122808 -0.018309 0.813261 0 0 143 0.005759
-0.124293 -0.020119 0.811829 0 0 143 0.005147
-0.125786 -0.021924 0.810393 0 0 143 0.005082
-0.121318 -0.016506 0.814686 0 0 143 0.006493
-0.119841 -0.014685 0.816108 0 0 158 0.007930
-0.117772 -0.014701 0.813571 0 0 143 0.007465
-0.116130 -0.012845 0.815018 0 0 158 0.008940
-0.111017 -0.007392 0.819572 0 0 174 0.014546
-0.112806 -0.009186 0.818058 0 0 174 0.012627
-0.108858 -0.007396 0.816932 0 0 174 0.014463
-0.107075 -0.005565 0.818451 0 0 189 0.018021
-0.110643 -0.009201 0.815419 0 0 174 0.012110
-0.114466 -0.011027 0.816542 0 0 158 0.010181
-0.116501 -0.011073 0.819140 0 0 158 0.010050
-0.118166 -0.012886 0.817621 0 0 158 0.008628
-0.103537 -0.004557 0.816755 0 0 189 0.018679
-0.105433 -0.006263 0.815322 0 0 189 0.015865
-0.105497 -0.007535 0.813001 0 0 174 0.013500
-0.126282 -0.123144 0.803937 0 0 128 0.003624
-0.123551 -0.123838 0.805734 0 0 128 0.002751
-0.125421 -0.122616 0.808622 0 0 128 0.002809
-0.122704 -0.123336 0.810381 0 0 128 0.002451
-0.120839 -0.124579 0.807514 0 0 128 0.002533
-0.124586 -0.122141 0.813255 0 0 128 0.002481
-0.119999 -0.124084 0.812138 0 0 143 0.006388
-0.121878 -0.122873 0.814995 0 0 143 0.006355
-0.119188 -0.123660 0.816737 0 0 143 0.006157
-0.118139 -0.125334 0.809274 0 0 143 0.006413
-0.117309 -0.124862 0.813885 0 0 143 0.006174
-0.115463 -0.126140 0.811031 0 0 143 0.006130
-0.123783 -0.121710 0.817843 0 0 128 0.002355
-0.121089 -0.122488 0.819577 0 0 143 0.006143
-0.123011 -0.121367 0.822412 0 0 128 0.002395
-0.125537 -0.120676 0.820384 0 0 128 0.002623
-0.126316 -0.121046 0.815808 0 0 128 0.002697
-0.128067 -0.119997 0.818360 0 0 128 0.003121
-0.128862 -0.120417 0.813773 0 0 128 0.003330
-0.127134 -0.121515 0.811208 0 0 128 0.002928
-0.129705 -0.120948 0.809138 0 0 143 0.004144
-0.130618 -0.119371 0.816329 0 0 143 0.004035
-0.131434 -0.119850 0.811718 0 0 143 0.004834
-0.133188 -0.118774 0.814304 0 0 143 0.005915
-0.127979 -0.122014 0.806543 0 0 128 0.003646
-0.112431 -0.126796 0.812928 0 0 143 0.006068
-0.114397 -0.125446 0.816057 0 0 143 0.006152
-0.111384 -0.126129 0.817948 0 0 143 0.006116
-0.109427 -0.127493 0.814823 0 0 143 0.006041
-0.113380 -0.124842 0.821069 0 0 143 0.005953
-0.108399 -0.126849 0.819841 0 0 143 0.006208
-0.110393 -0.125564 0.822959 0 0 143 0.005952
-0.106439 -0.128190 0.816714 0 0 143 0.006086
-0.112418 -0.124362 0.826076 0 0 143 0.005612
-0.114343 -0.123267 0.828911 0 0 143 0.005460
-0.115286 -0.123700 0.823907 0 0 143 0.005711
-0.117210 -0.122584 0.826737 0 0 143 0.005526
-0.118177 -0.123073 0.821740 0 0 143 0.005911
-0.116271 -0.124221 0.818900 0 0 143 0.006011
-0.120105 -0.121958 0.824573 0 0 143 0.005809
-0.123560 -0.118872 0.839908 0 0 158 0.010349
-0.121268 -0.120035 0.837324 0 0 143 0.007424
-0.124132 -0.119280 0.834949 0 0 143 0.005990
-0.126434 -0.118111 0.837530 0 0 158 0.008949
-0.121830 -0.120405 0.832346 0 0 128 0.003764
-0.127014 -0.118555 0.832579 0 0 143 0.006124
-0.124704 -0.119693 0.829984 0 0 128 0.003636
-0.127594 -0.119014 0.827619 0 0 143 0.004452
-0.129316 -0.117368 0.835154 0 0 158 0.009267
-0.129894 -0.117828 0.830204 0 0 143 0.006922
-0.132199 -0.116638 0.832783 0 0 158 0.010032
-0.122401 -0.120847 0.827384 0 0 143 0.006486
-0.125290 -0.120180 0.825018 0 0 128 0.002944
-0.119510 -0.121475 0.829547 0 0 143 0.006066
-0.116641 -0.122177 0.831727 0 0 143 0.006108
-0.118947 -0.121087 0.834525 0 0 158 0.007918
-0.134590 -0.115813 0.830531 0 0 158 0.010114
-0.132404 -0.117064 0.828174 0 0 143 0.007582
-0.134820 -0.116303 0.825936 0 0 158 0.008551
-0.137006 -0.115033 0.828284 0 0 158 0.011343
-0.132637 -0.117571 0.823574 0 0 143 0.006414
