ply
format ascii 1.0
comment VCGLIB generated
element vertex 997
property float x
property float y
property float z
property uchar red
property uchar green
property uchar blue
property float quality
end_header
0.273425 -0.716166 7.003320 0 141 255 0.926184
0.280098 -0.720459 7.011090 0 193 255 0.909309
0.268731 -0.682707 7.023500 0 141 255 0.926196
0.285676 -0.724620 7.017530 16 249 232 0.890645
0.275008 -0.687046 7.029780 0 181 255 0.912805
0.281309 -0.691607 7.035570 0 221 255 0.899951
0.290998 -0.728741 7.023290 51 255 196 0.875727
0.263665 -0.649342 7.041760 0 169 255 0.917555
0.270626 -0.653884 7.047240 0 193 255 0.909155
0.259099 -0.616597 7.058960 0 217 255 0.901981
0.252259 -0.613649 7.054460 0 221 255 0.900853
0.257275 -0.646390 7.036200 0 153 255 0.921597
0.244956 -0.610574 7.049160 0 213 255 0.902822
0.249986 -0.643289 7.030030 0 137 255 0.927179
0.262235 -0.679872 7.016670 0 121 255 0.931813
0.237085 -0.607345 7.043350 0 213 255 0.902301
0.301202 -0.727590 7.035040 42 255 206 0.878822
0.291959 -0.690384 7.046370 0 197 255 0.907754
0.306685 -0.726917 7.040710 42 255 206 0.880104
0.298099 -0.690032 7.052220 0 197 255 0.908120
0.304840 -0.689709 7.058710 0 205 255 0.905689
0.312762 -0.726372 7.046460 38 255 209 0.880246
0.289073 -0.653104 7.063350 0 161 255 0.919483
0.296228 -0.652948 7.070020 0 169 255 0.916501
0.287380 -0.616438 7.081570 0 185 255 0.912070
0.272811 -0.616618 7.069690 0 189 255 0.911204
0.269302 -0.497108 7.095930 0 101 255 0.938240
0.263240 -0.536409 7.082820 0 97 255 0.938506
0.249874 -0.495741 7.085160 0 185 255 0.912399
0.246188 -0.535838 7.073330 0 153 255 0.922058
0.259983 -0.576460 7.070360 0 113 255 0.933943
0.276276 -0.576768 7.082010 0 93 255 0.939632
0.281701 -0.537316 7.095310 0 77 255 0.944520
0.230791 -0.492176 7.075150 42 255 206 0.879632
0.228874 -0.529023 7.063250 0 185 255 0.911429
0.236511 -0.569641 7.056400 0 157 255 0.921383
0.244578 -0.572970 7.061060 0 153 255 0.921981
0.237372 -0.532527 7.068630 0 177 255 0.914585
0.325322 -0.718509 7.061020 0 225 251 0.898588
0.333038 -0.753237 7.050240 106 255 142 0.848952
0.317478 -0.683849 7.071190 0 169 255 0.916549
0.330978 -0.674970 7.088500 0 189 255 0.911244
0.338084 -0.709454 7.078530 13 245 235 0.891863
0.344865 -0.744201 7.067980 100 255 148 0.852267
0.316277 -0.644761 7.089200 0 141 255 0.926244
0.315963 -0.606367 7.107160 0 181 255 0.912866
0.301563 -0.611280 7.093970 0 173 255 0.915816
0.351381 -0.699149 7.092980 0 205 255 0.905175
0.358078 -0.731787 7.084850 67 255 180 0.867866
0.344843 -0.666959 7.101320 0 161 255 0.919349
0.358134 -0.654947 7.116660 0 173 255 0.916083
0.364288 -0.686877 7.109110 0 225 251 0.899308
0.370586 -0.719645 7.101340 61 255 187 0.870223
0.344916 -0.629118 7.116220 0 141 255 0.925401
0.345216 -0.591672 7.130780 0 189 255 0.911050
0.330568 -0.598838 7.118370 0 177 255 0.915077
0.330440 -0.636606 7.103500 0 145 255 0.924320
0.337820 -0.493273 7.137220 0 61 255 0.949349
0.330719 -0.530351 7.127120 0 45 255 0.953485
0.321723 -0.494820 7.127770 0 69 255 0.946779
0.314598 -0.532519 7.117600 0 57 255 0.950425
0.323020 -0.568125 7.116980 0 81 255 0.943515
0.338164 -0.561265 7.128310 0 97 255 0.938577
0.345787 -0.524180 7.138240 0 65 255 0.947836
0.304987 -0.497535 7.116940 0 69 255 0.947392
0.298106 -0.536513 7.105030 0 49 255 0.952913
0.287545 -0.497694 7.106590 0 65 255 0.947841
0.291904 -0.576313 7.092980 0 81 255 0.943474
0.307867 -0.571566 7.105840 0 77 255 0.944901
0.379051 -0.677778 7.120760 0 173 255 0.915529
0.384930 -0.708964 7.114340 25 255 222 0.887110
0.373455 -0.647285 7.127320 0 129 255 0.929135
0.387259 -0.637000 7.139030 0 133 255 0.928150
0.392776 -0.667579 7.133020 0 165 255 0.918038
0.397957 -0.698830 7.127060 13 245 235 0.892102
0.375172 -0.611857 7.139490 0 129 255 0.929640
0.377384 -0.577500 7.151890 0 161 255 0.920095
0.361675 -0.584417 7.141110 0 161 255 0.919961
0.359836 -0.619355 7.129070 0 137 255 0.927087
0.406872 -0.659730 7.143080 0 129 255 0.928996
0.411851 -0.689864 7.137240 0 201 255 0.906897
0.402693 -0.630210 7.149300 0 113 255 0.934303
0.417176 -0.621472 7.159840 0 133 255 0.928128
0.421242 -0.651113 7.153910 0 141 255 0.925577
0.425117 -0.681207 7.147770 0 185 255 0.911718
0.406080 -0.596759 7.160660 0 133 255 0.928338
0.410718 -0.564061 7.172500 0 153 255 0.921999
0.394436 -0.570655 7.162040 0 141 255 0.925229
0.390635 -0.603474 7.150570 0 125 255 0.930481
0.409270 -0.477616 7.176640 0 85 255 0.941949
0.397586 -0.510652 7.167770 0 81 255 0.944144
0.390879 -0.481303 7.166940 0 69 255 0.946969
0.379883 -0.514547 7.158030 0 69 255 0.947165
0.387062 -0.544059 7.159400 0 85 255 0.942463
0.404369 -0.537319 7.169600 0 105 255 0.936318
0.415771 -0.504043 7.178250 0 89 255 0.941171
0.372530 -0.486212 7.156850 0 73 255 0.945946
0.362780 -0.521033 7.147690 0 61 255 0.949304
0.354822 -0.488869 7.147560 0 65 255 0.948049
0.354058 -0.556189 7.139180 0 97 255 0.939589
0.370633 -0.549330 7.149370 0 93 255 0.940563
0.435370 -0.644255 7.163760 0 129 255 0.929569
0.439340 -0.673617 7.158090 0 177 255 0.914858
0.432408 -0.615464 7.170180 0 137 255 0.927398
0.447611 -0.607610 7.180420 0 157 255 0.921178
0.449966 -0.636372 7.174410 0 165 255 0.918920
0.453462 -0.665926 7.168840 0 197 255 0.908543
0.436879 -0.583206 7.180910 0 145 255 0.924380
0.442602 -0.551606 7.192000 0 161 255 0.919420
0.426075 -0.557889 7.181450 0 161 255 0.919652
0.421203 -0.589331 7.170630 0 121 255 0.931871
0.464976 -0.629950 7.186240 0 197 255 0.908262
0.467220 -0.658808 7.180170 0 221 255 0.900163
0.462521 -0.601632 7.191980 0 193 255 0.909985
0.468029 -0.570114 7.203250 0 201 255 0.906971
0.466127 -0.542522 7.208270 0 201 255 0.906376
0.452709 -0.576203 7.191710 0 157 255 0.920682
0.465206 -0.489639 7.208620 0 161 255 0.920139
0.460960 -0.463246 7.206630 0 161 255 0.919486
0.449981 -0.493762 7.198090 0 117 255 0.932781
0.453161 -0.520505 7.200040 0 165 255 0.918442
0.444203 -0.468374 7.196640 0 125 255 0.930108
0.432606 -0.499982 7.188290 0 109 255 0.935760
0.427215 -0.472518 7.186530 0 85 255 0.942410
0.421078 -0.532003 7.179900 0 113 255 0.934813
0.437359 -0.525735 7.189450 0 129 255 0.929209
0.100565 -0.445857 6.962800 161 255 87 0.820935
0.088847 -0.414850 6.955960 219 255 29 0.786464
0.090622 -0.472572 6.940690 48 255 200 0.876948
0.079540 -0.441048 6.934120 80 255 167 0.862327
0.069043 -0.466860 6.913070 45 255 203 0.878438
0.068783 -0.410613 6.927410 142 255 106 0.830909
0.079569 -0.499316 6.919260 29 255 219 0.885171
0.069257 -0.526353 6.898700 48 255 200 0.875933
0.080885 -0.531752 6.911450 25 255 222 0.887080
0.091217 -0.504210 6.933300 16 249 232 0.890855
0.093056 -0.536997 6.925370 19 253 229 0.889143
0.103391 -0.509052 6.947590 25 255 222 0.886967
0.102049 -0.476668 6.955520 80 255 167 0.861929
0.105345 -0.542333 6.938930 42 255 206 0.880097
0.058536 -0.436330 6.907140 61 255 187 0.871243
0.049132 -0.408293 6.900020 96 255 151 0.854580
0.047378 -0.462376 6.887950 80 255 167 0.861198
0.038807 -0.433872 6.880160 96 255 151 0.853925
0.027225 -0.458962 6.862850 145 255 103 0.829019
0.029904 -0.406286 6.873060 93 255 155 0.855725
0.036031 -0.488251 6.869190 129 255 119 0.837891
0.025221 -0.514736 6.851580 151 255 96 0.826133
0.046852 -0.520407 6.874740 109 255 138 0.847561
0.057597 -0.493264 6.894020 67 255 180 0.867502
0.051584 -0.602309 6.826490 138 255 109 0.832435
0.064374 -0.605302 6.835630 109 255 138 0.847842
0.057239 -0.575922 6.848450 116 255 132 0.845219
0.077151 -0.608308 6.845530 58 255 190 0.872867
0.069853 -0.579331 6.859300 58 255 190 0.872359
0.082211 -0.583116 6.870680 0 221 255 0.899911
0.090060 -0.611674 6.856160 13 245 235 0.891775
0.062826 -0.550724 6.873180 67 255 180 0.868196
0.075378 -0.554605 6.885070 3 233 245 0.896148
0.040580 -0.544627 6.850520 138 255 109 0.833593
0.034712 -0.570264 6.828380 177 255 71 0.811481
0.102682 -0.617198 6.868210 0 177 255 0.914598
0.116642 -0.624163 6.880560 0 117 255 0.933595
0.106778 -0.594257 6.896100 0 117 255 0.932785
0.131598 -0.631193 6.893090 0 61 255 0.949687
0.121314 -0.600907 6.909210 0 69 255 0.947364
0.112391 -0.570730 6.924600 0 149 255 0.923720
0.099428 -0.565581 6.910680 0 173 255 0.915406
0.087168 -0.560284 6.897600 0 201 255 0.907055
0.094319 -0.588501 6.883360 0 181 255 0.913178
0.166902 -0.235826 6.950140 190 255 58 0.804880
0.140103 -0.257907 6.945650 255 238 0 0.763410
0.141917 -0.237520 6.926520 196 255 51 0.800422
0.116383 -0.259393 6.920510 213 255 35 0.791196
0.114735 -0.279581 6.939780 255 208 0 0.746407
0.091960 -0.304230 6.930270 255 230 0 0.759817
0.112117 -0.303964 6.957730 255 130 0 0.692202
0.136199 -0.280292 6.964890 255 149 0 0.706152
0.116800 -0.235851 6.903660 216 255 32 0.789134
0.092287 -0.257771 6.897290 209 255 38 0.793023
0.089542 -0.233981 6.881940 255 234 0 0.760867
0.067293 -0.258035 6.872870 190 255 58 0.805155
0.071293 -0.281478 6.887230 174 255 74 0.813007
0.052746 -0.306695 6.875390 125 255 122 0.839308
0.072052 -0.305533 6.902890 203 255 45 0.796771
0.092803 -0.280902 6.913140 219 255 29 0.787074
0.046727 -0.381000 6.885500 77 255 171 0.862666
0.061671 -0.354806 6.900600 113 255 135 0.846745
0.065460 -0.382400 6.913290 77 255 171 0.862659
0.080640 -0.356124 6.928190 142 255 106 0.831294
0.076506 -0.329589 6.916050 167 255 80 0.816806
0.058108 -0.331301 6.886930 106 255 142 0.849234
0.043772 -0.356778 6.871740 93 255 155 0.855616
0.084862 -0.383404 6.942360 187 255 61 0.806416
0.099445 -0.355823 6.958920 255 193 0 0.736519
0.104385 -0.386801 6.971620 255 223 0 0.754264
0.115946 -0.329008 6.972650 255 127 0 0.688335
0.095451 -0.329343 6.944340 255 227 0 0.756901
0.017639 -0.431360 6.857560 138 255 109 0.833582
0.009047 -0.406029 6.851080 122 255 126 0.840888
0.005220 -0.456866 6.842310 171 255 77 0.815171
-0.003286 -0.431080 6.836460 155 255 93 0.825102
-0.016036 -0.456163 6.823210 180 255 67 0.809226
-0.012056 -0.406218 6.831190 142 255 106 0.831706
-0.007001 -0.482863 6.828500 190 255 58 0.805055
-0.019017 -0.510605 6.817100 174 255 74 0.814242
0.003140 -0.512382 6.832960 177 255 71 0.812050
0.014766 -0.485257 6.847260 171 255 77 0.815176
-0.025614 -0.431154 6.819980 164 255 84 0.819293
-0.035222 -0.407007 6.815930 113 255 135 0.846497
-0.039080 -0.457141 6.810940 151 255 96 0.826144
-0.048948 -0.431895 6.806920 125 255 122 0.840196
-0.062800 -0.458354 6.800450 100 255 148 0.852898
-0.060473 -0.407322 6.803900 74 255 174 0.864441
-0.052145 -0.483966 6.803430 125 255 122 0.839329
-0.065656 -0.513057 6.797990 87 255 161 0.859020
-0.041646 -0.511850 6.806710 148 255 100 0.827707
-0.029055 -0.482996 6.813280 184 255 64 0.807816
-0.056643 -0.636708 6.776760 77 255 171 0.863244
-0.046801 -0.603079 6.785400 90 255 158 0.857616
-0.032082 -0.633946 6.782930 93 255 155 0.856283
-0.036732 -0.570010 6.793590 132 255 116 0.836827
-0.021878 -0.600323 6.791440 135 255 113 0.834015
-0.012002 -0.567606 6.800960 196 255 51 0.801600
-0.007204 -0.630960 6.789390 122 255 126 0.840653
-0.027434 -0.538767 6.803750 164 255 84 0.818616
-0.050929 -0.540795 6.795630 119 255 129 0.843081
-0.060789 -0.572385 6.786730 80 255 167 0.861888
0.002690 -0.598763 6.800250 167 255 80 0.817507
0.018848 -0.630947 6.798530 122 255 126 0.840886
0.011081 -0.568612 6.813840 193 255 55 0.802406
0.027545 -0.599425 6.811370 180 255 67 0.810487
0.018129 -0.540513 6.830790 180 255 67 0.809303
-0.004195 -0.538596 6.814970 200 255 48 0.798594
-0.815431 -0.784391 6.379470 0 0 173 0.988745
-0.836527 -0.787376 6.361670 0 0 155 0.992905
-0.822559 -0.798648 6.346220 0 0 155 0.992894
-0.843968 -0.802884 6.329540 0 0 164 0.991211
-0.857912 -0.791337 6.344460 0 0 151 0.993978
-0.829865 -0.815139 6.314900 0 0 196 0.984027
-0.865618 -0.807544 6.313500 0 0 187 0.985710
-0.851294 -0.820215 6.299500 0 0 246 0.971996
-0.873263 -0.825769 6.284200 0 57 255 0.950880
-0.879554 -0.795575 6.327950 0 0 164 0.990982
-0.886895 -0.812836 6.297900 0 0 242 0.973051
-0.901158 -0.800446 6.311870 0 0 205 0.981783
-0.837247 -0.832753 6.285540 0 61 255 0.949349
-0.858750 -0.838115 6.270230 0 149 255 0.922819
-0.844189 -0.851237 6.256570 55 255 193 0.874099
-0.822806 -0.847822 6.270740 0 217 255 0.901002
-0.815975 -0.829536 6.300110 0 25 255 0.959985
-0.801671 -0.844189 6.285080 0 153 255 0.922001
-0.794578 -0.826516 6.314830 0 0 255 0.966872
-0.808581 -0.812245 6.330080 0 0 192 0.985262
-0.787183 -0.809743 6.345740 0 0 192 0.985224
-0.780578 -0.840975 6.299610 0 113 255 0.934108
-0.773479 -0.823771 6.330100 0 0 251 0.970924
-0.759515 -0.838443 6.314750 0 89 255 0.941875
-0.801592 -0.796616 6.362200 0 0 160 0.991713
-0.924765 -0.799412 6.295690 0 0 210 0.980627
-0.911290 -0.812033 6.281900 0 0 255 0.970168
-0.935817 -0.811800 6.266440 0 21 255 0.960297
-0.948740 -0.799180 6.279710 0 0 237 0.974997
-0.922166 -0.824733 6.252860 0 117 255 0.933621
-0.959979 -0.811842 6.251030 0 81 255 0.943674
-0.946764 -0.824698 6.238000 0 181 255 0.912872
-0.970728 -0.824233 6.223010 25 255 222 0.886615
-0.973117 -0.799086 6.263910 0 17 255 0.961603
-0.984405 -0.811634 6.236130 0 165 255 0.918386
-0.997567 -0.799228 6.248910 0 105 255 0.937079
-0.932549 -0.837329 6.224220 55 255 193 0.873275
-0.956978 -0.836848 6.209320 116 255 132 0.845254
-0.941936 -0.849406 6.195370 200 255 48 0.798756
-0.917322 -0.850552 6.210560 158 255 90 0.822564
-0.907155 -0.837665 6.239360 0 217 255 0.901046
-0.892233 -0.850830 6.225730 106 255 142 0.849508
-0.882636 -0.837788 6.254660 0 169 255 0.917008
-0.897312 -0.825005 6.268320 0 73 255 0.946422
-0.867965 -0.850954 6.241040 77 255 171 0.863855
-0.864779 -0.879554 6.126150 135 255 113 0.835032
-0.841512 -0.882268 6.140830 148 255 100 0.827474
-0.861382 -0.878991 6.159570 242 253 6 0.772266
-0.837863 -0.880730 6.174310 245 249 3 0.771410
-0.818987 -0.884871 6.155460 184 255 64 0.808077
-0.856413 -0.873448 6.192460 245 249 3 0.770705
-0.815108 -0.882269 6.188670 255 234 0 0.761699
-0.833139 -0.874448 6.207050 245 249 3 0.771267
-0.810069 -0.875042 6.221800 235 255 13 0.776349
-0.796809 -0.886414 6.169810 203 255 45 0.797635
-0.792613 -0.883391 6.203360 255 223 0 0.754970
-0.775027 -0.888469 6.184700 235 255 13 0.777089
-0.850508 -0.863611 6.224820 164 255 84 0.819815
-0.827344 -0.864057 6.239530 158 255 90 0.822344
-0.874609 -0.863139 6.209500 193 255 55 0.802225
-0.899344 -0.862266 6.194170 222 255 26 0.785037
-0.880635 -0.872167 6.177200 255 227 0 0.757060
-0.904962 -0.870118 6.161760 255 219 0 0.753695
-0.924054 -0.860716 6.178750 245 249 3 0.770426
-0.885210 -0.876320 6.144120 229 255 19 0.781336
-0.755329 -0.887446 6.197270 209 255 38 0.792298
-0.772599 -0.880538 6.217820 222 255 26 0.785742
-0.752678 -0.879308 6.230660 193 255 55 0.801972
-0.736252 -0.886910 6.210370 203 255 45 0.797420
-0.769026 -0.868488 6.250640 125 255 122 0.840387
-0.733046 -0.878620 6.244310 193 255 55 0.802962
-0.748820 -0.867209 6.263780 100 255 148 0.852454
-0.729069 -0.866953 6.277630 113 255 135 0.846077
-0.717235 -0.886670 6.224460 200 255 48 0.798584
-0.713456 -0.878876 6.258560 209 255 38 0.792965
-0.697827 -0.886766 6.238450 216 255 32 0.788846
-0.764457 -0.853800 6.282720 0 209 255 0.903727
-0.744230 -0.852863 6.296250 0 209 255 0.904817
-0.785226 -0.856903 6.267880 22 255 226 0.888148
-0.806152 -0.860655 6.253650 96 255 151 0.854649
-0.789313 -0.871428 6.235980 171 255 77 0.816192
-0.591494 -0.877782 6.318350 196 255 51 0.800861
-0.588616 -0.885439 6.284820 145 255 103 0.830372
-0.614701 -0.879938 6.301270 187 255 61 0.805710
-0.585329 -0.889565 6.250230 25 255 222 0.886383
-0.611882 -0.887834 6.267410 158 255 90 0.822719
-0.608124 -0.891274 6.232600 32 255 216 0.884392
-0.638029 -0.882684 6.284090 213 255 35 0.790320
-0.581540 -0.889818 6.214630 0 61 255 0.949017
-0.577367 -0.888796 6.179120 0 0 255 0.967202
-0.556790 -0.889973 6.193270 0 1 255 0.965892
-0.560764 -0.890357 6.228880 0 89 255 0.941033
-0.564319 -0.889895 6.264670 45 255 203 0.878583
-0.536146 -0.890323 6.207310 0 5 255 0.965137
-0.653219 -0.883204 6.272370 196 255 51 0.801191
-0.637319 -0.888409 6.248970 148 255 100 0.828370
-0.652141 -0.888626 6.237580 125 255 122 0.840267
-0.667990 -0.884229 6.260900 203 255 45 0.797069
-0.635859 -0.889928 6.213380 0 225 251 0.899236
-0.666480 -0.888979 6.226240 116 255 132 0.845250
-0.649928 -0.889372 6.202160 0 193 255 0.909711
-0.664598 -0.889380 6.191050 0 181 255 0.912675
-0.682883 -0.885371 6.249540 203 255 45 0.796009
-0.681417 -0.890195 6.215030 129 255 119 0.837992
-0.633802 -0.887534 6.177520 0 25 255 0.959360
-0.648055 -0.887243 6.166470 0 17 255 0.961302
-0.631365 -0.884246 6.141400 0 41 255 0.955119
-0.604485 -0.886545 6.159970 0 13 255 0.963202
-0.606354 -0.888890 6.196250 0 49 255 0.952399
-0.573919 -0.898258 6.039620 255 178 0 0.726416
-0.573694 -0.888654 6.071360 255 178 0 0.726294
-0.546804 -0.898529 6.054850 255 186 0 0.732612
-0.574199 -0.884597 6.105670 196 255 51 0.800634
-0.546833 -0.889338 6.086890 255 208 0 0.746071
-0.547630 -0.886805 6.122450 100 255 148 0.852839
-0.519851 -0.899880 6.070350 255 227 0 0.756748
-0.575811 -0.885550 6.142030 0 157 255 0.920239
-0.602705 -0.883516 6.123270 42 255 206 0.879597
-0.601219 -0.884396 6.087790 222 255 26 0.786029
-0.522798 -0.890405 6.102000 216 255 32 0.788457
-0.499040 -0.900492 6.082410 209 255 38 0.792362
-0.526829 -0.886574 6.136130 84 255 164 0.859587
-0.502336 -0.890995 6.114640 193 255 55 0.803539
-0.506530 -0.887554 6.148980 55 255 193 0.873152
-0.478454 -0.901551 6.094770 184 255 64 0.808825
-0.531144 -0.887097 6.171690 0 109 255 0.935818
-0.551915 -0.886932 6.157670 0 121 255 0.931398
-0.727918 -0.899718 5.956600 200 255 48 0.799018
-0.706955 -0.898178 5.967480 255 238 0 0.764437
-0.719191 -0.885216 5.988780 255 171 0 0.721019
-0.698671 -0.885239 5.999600 255 153 0 0.709297
-0.686388 -0.897071 5.978140 255 182 0 0.729907
-0.712729 -0.877749 6.021860 255 186 0 0.731838
-0.678513 -0.885269 6.010250 255 127 0 0.689339
-0.692408 -0.878791 6.032870 255 186 0 0.731034
-0.672615 -0.880317 6.044040 255 204 0 0.743534
-0.666184 -0.896671 5.988800 255 156 0 0.711720
-0.658791 -0.886397 6.021280 255 130 0 0.691854
-0.646040 -0.897175 5.999900 255 160 0 0.714288
-0.707686 -0.876355 6.056490 187 255 61 0.806322
-0.687782 -0.878722 6.068150 145 255 103 0.828759
-0.703520 -0.879602 6.093350 0 221 255 0.900114
-0.723259 -0.877015 6.079940 22 255 226 0.887944
-0.727521 -0.874688 6.043950 213 255 35 0.791007
-0.743303 -0.875111 6.067040 48 255 200 0.876586
-0.747493 -0.873419 6.031620 206 255 42 0.795874
-0.732719 -0.877347 6.009730 255 201 0 0.740814
-0.753233 -0.877375 5.997550 255 238 0 0.763166
-0.763449 -0.872966 6.054380 55 255 193 0.874030
-0.768048 -0.872436 6.019390 180 255 67 0.809826
-0.784308 -0.871822 6.041900 38 255 209 0.880419
-0.739729 -0.886400 5.976640 255 227 0 0.757525
-0.628291 -0.896798 6.009500 255 153 0 0.708720
-0.641241 -0.885716 6.031750 255 119 0 0.680759
-0.623070 -0.886128 6.041530 255 123 0 0.685681
-0.610262 -0.896587 6.019160 255 153 0 0.708472
-0.637304 -0.881046 6.066160 255 204 0 0.742707
-0.605356 -0.887526 6.052160 255 149 0 0.706205
-0.619414 -0.882411 6.076710 255 230 0 0.760189
-0.592124 -0.896942 6.029250 255 153 0 0.708164
-0.634223 -0.881261 6.103050 93 255 155 0.856347
-0.649774 -0.882825 6.129000 0 61 255 0.949619
-0.652212 -0.879634 6.090990 122 255 126 0.841328
-0.667780 -0.881644 6.116920 0 153 255 0.921464
-0.669899 -0.879126 6.079480 138 255 109 0.833633
-0.655061 -0.880080 6.054730 255 190 0 0.733710
-0.685678 -0.880123 6.104830 0 177 255 0.914799
-0.700338 -0.888986 6.202350 93 255 155 0.854946
-0.719072 -0.887771 6.188410 67 255 180 0.867457
-0.701836 -0.886302 6.166130 0 117 255 0.933294
-0.737745 -0.887576 6.174960 51 255 196 0.875121
-0.720346 -0.885308 6.152470 0 89 255 0.941284
-0.738759 -0.885742 6.139760 0 85 255 0.942301
-0.756709 -0.887797 6.162200 51 255 196 0.875726
-0.702974 -0.882536 6.129350 0 17 255 0.961963
-0.720850 -0.882645 6.116890 0 13 255 0.963272
-0.684783 -0.883659 6.141260 0 1 255 0.966010
-0.666589 -0.885056 6.153710 0 5 255 0.964770
-0.683379 -0.887569 6.178420 0 133 255 0.928506
-0.778031 -0.886099 6.148740 25 255 222 0.886674
-0.799416 -0.883620 6.134100 0 213 255 0.902980
-0.779912 -0.880690 6.112910 0 33 255 0.957492
-0.821317 -0.881686 6.119940 0 189 255 0.911167
-0.801212 -0.878166 6.098650 0 17 255 0.962247
-0.823150 -0.876155 6.084070 0 5 255 0.964536
-0.844065 -0.879131 6.105220 0 165 255 0.918842
-0.781832 -0.875022 6.077050 0 45 255 0.953394
-0.803156 -0.872857 6.062700 0 57 255 0.950473
-0.761151 -0.877835 6.090300 0 33 255 0.957434
-0.740972 -0.879976 6.103320 0 25 255 0.959838
-0.759172 -0.883385 6.126230 0 53 255 0.951710
-0.617191 -0.327788 6.831160 128 0 0 0.225005
-0.618953 -0.334713 6.817350 137 0 0 0.311202
-0.610940 -0.312884 6.803320 137 0 0 0.320047
-0.611314 -0.319537 6.790140 155 0 0 0.393427
-0.618657 -0.341279 6.803490 151 0 0 0.382611
-0.604729 -0.296093 6.776350 133 0 0 0.292391
-0.611845 -0.325856 6.776610 178 0 0 0.457866
-0.605407 -0.302367 6.763690 146 0 0 0.360994
-0.605675 -0.308239 6.749910 151 0 0 0.388426
-0.619282 -0.347631 6.790310 169 0 0 0.432833
-0.612952 -0.331796 6.763680 196 0 0 0.498013
-0.620785 -0.354711 6.777800 183 0 0 0.471829
-0.600625 -0.278199 6.750690 128 0 0 0.174960
-0.601076 -0.282648 6.736740 137 0 0 0.305643
-0.598979 -0.257218 6.725920 128 0 0 0.164049
-0.598250 -0.253722 6.740890 128 0 0 0.071322
-0.600308 -0.273534 6.765910 128 0 0 0.135569
-0.597244 -0.250342 6.756720 128 0 0 0.000000
-0.600158 -0.269876 6.781240 128 0 0 0.127323
-0.605158 -0.292397 6.791820 137 0 0 0.316350
-0.604443 -0.287723 6.806750 133 0 0 0.288727
-0.597009 -0.246960 6.773130 128 0 0 0.000000
-0.599748 -0.265707 6.796830 128 0 0 0.186382
-0.610854 -0.308761 6.818630 133 0 0 0.271326
-0.621835 -0.359879 6.765080 201 0 0 0.500563
-0.613704 -0.335608 6.749970 205 0 0 0.512500
-0.614791 -0.340252 6.737390 210 0 0 0.520104
-0.623401 -0.365681 6.752700 214 0 0 0.527152
-0.605127 -0.315078 6.724390 160 0 0 0.419667
-0.609971 -0.346770 6.728390 178 0 0 0.461974
-0.602295 -0.319377 6.715200 155 0 0 0.400273
-0.602386 -0.323965 6.705690 160 0 0 0.414364
-0.620888 -0.373042 6.741630 192 0 0 0.485606
-0.608722 -0.351924 6.718810 169 0 0 0.435578
-0.617520 -0.379760 6.731760 160 0 0 0.420025
-0.599097 -0.291697 6.701980 137 0 0 0.308889
-0.600400 -0.295098 6.692320 146 0 0 0.361159
-0.601727 -0.267386 6.680260 137 0 0 0.315831
-0.599200 -0.265806 6.691210 133 0 0 0.262255
-0.599558 -0.289411 6.712550 133 0 0 0.296921
-0.598579 -0.263909 6.701710 128 0 0 0.232299
-0.601735 -0.286677 6.724180 137 0 0 0.311959
-0.606939 -0.310890 6.735800 183 0 0 0.466072
-0.599585 -0.261256 6.713060 128 0 0 0.232332
-0.652694 -0.158573 6.656790 201 0 0 0.504914
-0.646666 -0.155093 6.671780 146 0 0 0.371984
-0.634972 -0.181800 6.668680 151 0 0 0.383714
-0.629086 -0.179770 6.683060 128 0 0 0.213220
-0.640355 -0.151802 6.687250 128 0 0 0.245038
-0.618415 -0.207533 6.683430 133 0 0 0.297017
-0.623905 -0.176629 6.698580 128 0 0 0.104121
-0.615086 -0.204675 6.698040 128 0 0 0.157701
-0.610525 -0.202029 6.714340 128 0 0 0.041249
-0.634510 -0.148087 6.702840 128 0 0 0.153316
-0.619099 -0.173636 6.714460 128 0 0 0.000000
-0.629032 -0.145020 6.717450 128 0 0 0.119264
-0.606766 -0.233150 6.702930 128 0 0 0.242717
-0.603972 -0.230464 6.718150 128 0 0 0.114414
-0.607271 -0.234835 6.690470 133 0 0 0.254054
-0.608998 -0.237324 6.678850 133 0 0 0.286707
-0.620727 -0.209590 6.670300 142 0 0 0.337057
-0.624233 -0.211909 6.657990 146 0 0 0.361076
-0.611507 -0.239340 6.667650 137 0 0 0.320103
-0.638577 -0.185511 6.654260 164 0 0 0.423126
-0.625345 -0.142135 6.733570 128 0 0 0.032974
-0.616052 -0.168656 6.730200 128 0 0 0.000000
-0.613638 -0.167135 6.746540 128 0 0 0.000000
-0.621815 -0.140187 6.749850 128 0 0 0.014850
-0.606551 -0.194401 6.746860 128 0 0 0.000000
-0.604480 -0.192053 6.763190 128 0 0 0.000000
-0.600024 -0.218563 6.765990 128 0 0 0.000000
-0.600833 -0.222363 6.749710 128 0 0 0.000000
-0.601956 -0.226376 6.734370 128 0 0 0.000000
-0.608249 -0.197373 6.730580 128 0 0 0.000000
-0.702170 -0.391540 6.895840 128 0 0 0.245285
-0.697776 -0.382888 6.910670 128 0 0 0.195792
-0.704525 -0.374640 6.932740 128 0 0 0.163551
-0.728048 -0.375139 6.945220 128 0 0 0.201396
-0.734475 -0.383970 6.928680 128 0 0 0.245274
-0.728130 -0.392588 6.906670 137 0 0 0.301679
-0.753498 -0.392885 6.918690 133 0 0 0.289888
-0.774667 -0.366387 6.966200 128 0 0 0.211364
-0.782873 -0.375109 6.948720 133 0 0 0.259906
-0.778870 -0.386977 6.927130 137 0 0 0.320379
-0.803576 -0.381145 6.936280 137 0 0 0.300110
-0.758558 -0.381398 6.939390 133 0 0 0.262938
-0.751502 -0.372685 6.955860 128 0 0 0.216890
-0.805216 -0.366196 6.958200 133 0 0 0.285240
-0.796410 -0.357053 6.975830 128 0 0 0.202637
-0.816801 -0.344986 6.984800 128 0 0 0.196237
-0.826994 -0.354791 6.964990 137 0 0 0.303664
-0.825860 -0.369487 6.943710 146 0 0 0.371888
-0.847870 -0.359324 6.949360 151 0 0 0.376817
-0.853424 -0.317128 6.997760 128 0 0 0.229372
-0.865544 -0.328474 6.975250 142 0 0 0.347263
-0.867336 -0.345786 6.952440 155 0 0 0.399423
-0.886827 -0.333183 6.955410 146 0 0 0.367057
-0.846598 -0.342299 6.971600 133 0 0 0.290907
-0.835849 -0.331677 6.991960 133 0 0 0.258665
-0.899319 -0.344032 6.933210 173 0 0 0.446972
-0.900709 -0.359976 6.913140 205 0 0 0.507697
-0.912625 -0.370310 6.892570 255 53 0 0.617509
-0.913424 -0.386070 6.874020 255 112 0 0.675323
-0.935493 -0.375818 6.872030 255 86 0 0.652291
-0.890380 -0.381415 6.894950 255 38 0 0.599820
-0.891080 -0.397375 6.875290 255 108 0 0.671388
-0.879515 -0.371691 6.913150 228 0 0 0.543636
-0.868373 -0.362056 6.932090 183 0 0 0.465399
-0.947482 -0.387378 6.851530 255 141 0 0.700145
-0.947258 -0.403963 6.832960 255 175 0 0.722921
-0.958684 -0.416030 6.810990 255 160 0 0.712863
-0.957747 -0.433489 6.790200 255 186 0 0.732429
-0.981907 -0.427796 6.780520 255 145 0 0.703420
-0.934782 -0.424642 6.817160 255 204 0 0.742776
-0.933733 -0.441630 6.797250 255 178 0 0.727204
-0.924053 -0.413112 6.836750 255 201 0 0.742325
-0.913148 -0.401918 6.856380 255 156 0 0.710622
-0.879718 -0.452825 6.805180 248 245 0 0.768921
-0.869820 -0.442759 6.822500 255 216 0 0.750088
-0.873045 -0.429011 6.839810 255 216 0 0.751041
-0.863050 -0.419098 6.857190 255 175 0 0.723779
-0.865983 -0.405437 6.874390 255 123 0 0.684621
-0.840474 -0.415205 6.872490 255 67 0 0.632851
-0.888767 -0.411502 6.857520 255 156 0 0.710014
-0.899340 -0.421308 6.839390 255 201 0 0.741110
-0.910068 -0.431832 6.820790 255 208 0 0.747167
-0.906995 -0.446137 6.802060 255 223 0 0.754990
-0.831066 -0.405881 6.889070 242 8 0 0.560889
-0.833385 -0.392502 6.907300 201 0 0 0.499710
-0.824159 -0.384040 6.923050 160 0 0 0.408537
-0.846685 -0.373816 6.929060 173 0 0 0.451316
-0.857031 -0.382475 6.911250 223 0 0 0.539162
-0.867637 -0.391754 6.893170 255 53 0 0.617285
-0.624440 -0.332225 6.854010 128 0 0 0.172126
-0.643790 -0.354328 6.873160 128 0 0 0.173734
-0.636596 -0.351530 6.850040 128 0 0 0.241778
-0.655694 -0.372573 6.867930 128 0 0 0.227052
-0.682157 -0.370614 6.917810 128 0 0 0.150491
-0.674908 -0.374569 6.895790 128 0 0 0.204310
-0.679057 -0.383243 6.880580 128 0 0 0.244996
-0.799191 -0.392498 6.916880 146 0 0 0.363833
-0.808509 -0.400588 6.901570 183 0 0 0.469224
-0.804142 -0.412147 6.882770 214 0 0 0.528092
-0.813343 -0.419938 6.868420 255 41 0 0.605540
-0.785292 -0.426131 6.862760 228 0 0 0.545594
-0.776687 -0.418250 6.875640 173 0 0 0.452311
-0.781643 -0.406882 6.894050 164 0 0 0.425950
-0.773912 -0.398894 6.907700 142 0 0 0.339981
-0.845534 -0.435084 6.840140 255 171 0 0.720145
-0.840841 -0.446293 6.822820 255 201 0 0.741213
-0.850881 -0.455145 6.806290 242 253 6 0.772395
-0.820966 -0.459082 6.805990 255 197 0 0.739268
-0.812225 -0.449675 6.822350 255 167 0 0.719855
-0.817381 -0.438741 6.838710 255 160 0 0.713942
-0.808172 -0.430894 6.852030 255 78 0 0.645907
-0.757399 -0.457651 6.795000 255 101 0 0.666673
-0.749543 -0.449614 6.807560 255 45 0 0.609675
-0.741365 -0.442048 6.818930 251 16 0 0.572252
-0.771842 -0.442665 6.827550 255 60 0 0.624811
-0.764174 -0.434403 6.839770 251 16 0 0.573193
-0.756227 -0.426407 6.852170 223 0 0 0.540616
-0.733760 -0.433813 6.831360 187 0 0 0.481134
-0.726676 -0.425560 6.843560 178 0 0 0.457754
-0.781180 -0.450314 6.814200 255 130 0 0.690108
-0.790421 -0.457896 6.801060 255 186 0 0.732380
-0.719706 -0.417344 6.855710 151 0 0 0.388025
-0.726796 -0.409425 6.874360 146 0 0 0.359925
-0.734083 -0.401299 6.893100 142 0 0 0.329811
-0.707658 -0.400428 6.881680 137 0 0 0.297306
-0.754646 -0.410002 6.884430 155 0 0 0.406396
-0.748292 -0.418250 6.865460 169 0 0 0.443669
-0.699946 -0.404364 6.861540 142 0 0 0.335860
-0.691854 -0.408290 6.841450 151 0 0 0.385350
-0.698077 -0.416329 6.829680 187 0 0 0.478921
-0.669454 -0.405784 6.816660 169 0 0 0.432817
-0.665883 -0.397090 6.829640 142 0 0 0.334294
-0.674177 -0.394485 6.848400 137 0 0 0.309937
-0.670487 -0.386535 6.861540 128 0 0 0.247220
-0.708470 -0.432347 6.805440 255 19 0 0.576383
-0.715357 -0.440889 6.793330 255 49 0 0.616094
-0.722927 -0.449239 6.781360 255 119 0 0.682986
-0.687024 -0.438802 6.768600 255 53 0 0.618888
-0.682370 -0.429562 6.780690 255 34 0 0.596292
-0.677991 -0.421342 6.792560 246 12 0 0.566146
-0.688394 -0.419115 6.810870 210 0 0 0.518529
-0.649305 -0.395136 6.773150 255 41 0 0.607036
-0.647004 -0.388671 6.785560 228 0 0 0.543002
-0.645306 -0.382250 6.798150 187 0 0 0.476851
-0.652054 -0.403588 6.761070 255 38 0 0.601693
-0.653398 -0.413399 6.749620 255 30 0 0.592511
-0.640002 -0.365877 6.822990 151 0 0 0.375367
-0.638596 -0.358764 6.836640 133 0 0 0.297051
-0.642417 -0.373871 6.810590 160 0 0 0.407753
-0.669617 -0.137053 6.663370 255 71 0 0.638678
-0.662020 -0.134170 6.678370 233 1 0 0.552785
-0.678236 -0.112727 6.686340 219 0 0 0.534058
-0.686437 -0.116460 6.671220 255 49 0 0.613897
-0.670919 -0.109239 6.701570 183 0 0 0.466069
-0.695106 -0.092699 6.696510 223 0 0 0.537668
-0.687195 -0.088427 6.711730 169 0 0 0.443915
-0.702901 -0.069420 6.721600 155 0 0 0.401602
-0.703484 -0.096603 6.680270 251 16 0 0.570980
-0.711657 -0.074132 6.706160 178 0 0 0.465004
-0.720446 -0.079021 6.690090 223 0 0 0.537523
-0.679470 -0.085168 6.726760 160 0 0 0.418158
-0.695009 -0.065184 6.738160 142 0 0 0.332647
-0.687278 -0.061288 6.754540 133 0 0 0.292662
-0.673088 -0.080650 6.742670 151 0 0 0.379001
-0.664726 -0.105606 6.716840 155 0 0 0.402578
-0.658528 -0.101620 6.732020 146 0 0 0.363624
-0.649655 -0.126643 6.708680 160 0 0 0.412985
-0.655448 -0.130377 6.693610 196 0 0 0.492740
-0.643617 -0.122871 6.723300 151 0 0 0.375467
-0.744001 -0.055370 6.719600 183 0 0 0.473420
-0.753800 -0.061085 6.699850 196 0 0 0.495251
-0.734016 -0.049767 6.737810 155 0 0 0.401213
-0.764427 -0.033266 6.749020 137 0 0 0.306190
-0.774601 -0.038905 6.729880 146 0 0 0.369051
-0.784434 -0.045737 6.709280 160 0 0 0.414524
-0.739704 -0.035627 6.762400 137 0 0 0.328635
-0.744550 -0.021429 6.789470 133 0 0 0.252463
-0.716558 -0.039888 6.772490 133 0 0 0.279311
-0.694812 -0.045969 6.782920 128 0 0 0.225225
-0.722473 -0.024860 6.802840 128 0 0 0.167250
-0.648013 -0.096230 6.765620 133 0 0 0.262352
-0.638644 -0.120225 6.740000 146 0 0 0.364554
-0.652931 -0.098466 6.749000 137 0 0 0.313304
-0.666910 -0.077519 6.759750 137 0 0 0.306576
-0.802632 -0.034359 6.736350 146 0 0 0.364775
-0.813920 -0.041209 6.715100 173 0 0 0.447411
-0.791627 -0.028229 6.757510 137 0 0 0.321392
-0.819821 -0.022618 6.763390 133 0 0 0.283478
-0.831209 -0.029631 6.739500 133 0 0 0.261708
-0.842001 -0.037438 6.717500 146 0 0 0.367617
-0.794569 -0.018644 6.782900 128 0 0 0.243330
-0.796592 -0.008858 6.810540 128 0 0 0.139703
-0.770637 -0.014922 6.800620 128 0 0 0.207184
-0.767846 -0.024063 6.773980 133 0 0 0.271232
-0.856157 -0.034991 6.742970 137 0 0 0.299847
-0.867165 -0.042384 6.718330 151 0 0 0.376720
-0.844335 -0.027062 6.767320 133 0 0 0.293487
-0.868999 -0.030579 6.767900 128 0 0 0.247381
-0.880534 -0.039001 6.742770 137 0 0 0.305679
-0.891803 -0.046914 6.716810 160 0 0 0.410480
-0.844323 -0.021420 6.793280 128 0 0 0.199571
-0.843796 -0.015413 6.821180 128 0 0 0.149781
-0.820666 -0.012591 6.816190 128 0 0 0.151370
-0.820658 -0.017665 6.788720 128 0 0 0.213914
-0.795902 -0.002717 6.842550 128 0 0 0.083502
-0.819011 -0.005216 6.849100 128 0 0 0.027313
-0.747552 -0.011630 6.819470 128 0 0 0.139382
-0.772920 -0.004360 6.832300 128 0 0 0.077304
0.369127 0.033801 6.564340 132 255 116 0.836597
0.386280 0.035430 6.546410 80 255 167 0.861912
0.362559 0.039536 6.535800 142 255 106 0.832041
0.404111 0.036705 6.528020 32 255 216 0.883479
0.380423 0.040704 6.517190 84 255 164 0.860224
0.398449 0.041226 6.498230 55 255 193 0.873037
0.422364 0.037498 6.509420 22 255 226 0.888052
0.356762 0.043837 6.506550 113 255 135 0.846464
0.374837 0.044253 6.487560 71 255 177 0.866138
0.351152 0.046230 6.476330 64 255 184 0.868994
0.334661 0.045533 6.496100 113 255 135 0.845811
0.340657 0.042031 6.525610 158 255 90 0.823444
0.318666 0.043559 6.514820 158 255 90 0.822760
0.325343 0.039512 6.543340 193 255 55 0.802756
0.347139 0.037076 6.554090 171 255 77 0.815023
0.331990 0.033587 6.571160 177 255 71 0.812711
0.303397 0.040930 6.532340 184 255 64 0.807529
0.310405 0.035400 6.560080 184 255 64 0.808502
0.288668 0.036351 6.548730 184 255 64 0.808943
0.353768 0.030671 6.581960 142 255 106 0.830826
0.437469 0.036250 6.490830 0 217 255 0.901014
0.454113 0.034301 6.473110 0 213 255 0.903203
0.428224 0.037946 6.460300 0 209 255 0.903655
0.470930 0.032125 6.455580 0 197 255 0.908400
0.444564 0.035842 6.442120 0 205 255 0.905181
0.460939 0.032953 6.423680 0 205 255 0.905763
0.488060 0.028707 6.437730 0 185 255 0.912100
0.420094 0.038551 6.429140 0 209 255 0.904407
0.436279 0.036132 6.410400 0 217 255 0.901657
0.411816 0.038486 6.396940 0 201 255 0.906140
0.396649 0.040197 6.416760 0 185 255 0.911359
0.404911 0.040271 6.448640 0 209 255 0.904698
0.381193 0.041845 6.436680 0 189 255 0.911234
0.389783 0.042165 6.468120 19 253 229 0.889791
0.413146 0.039505 6.479190 9 241 238 0.893614
0.366074 0.044146 6.456700 13 245 235 0.892043
0.312905 0.042546 6.343350 0 61 255 0.948928
0.298498 0.043894 6.364580 0 57 255 0.950510
0.322815 0.044015 6.377630 0 97 255 0.938787
0.308596 0.045735 6.398850 0 125 255 0.931243
0.284333 0.045590 6.385790 0 89 255 0.941805
0.332548 0.045373 6.411370 0 161 255 0.920149
0.294723 0.048038 6.420040 0 185 255 0.912109
0.318497 0.047604 6.432630 0 221 255 0.900029
0.304781 0.049629 6.453240 61 255 187 0.870716
0.270511 0.047931 6.406840 0 149 255 0.923084
0.280995 0.050197 6.440690 42 255 206 0.879247
0.256827 0.050095 6.427370 16 249 232 0.890265
0.341865 0.046386 6.444580 6 237 242 0.894387
0.328226 0.048333 6.465200 64 255 184 0.869305
0.357189 0.044027 6.424300 0 185 255 0.911491
0.372460 0.041926 6.404280 0 157 255 0.921307
0.347948 0.043376 6.391150 0 137 255 0.926955
0.363542 0.041601 6.370910 0 141 255 0.925323
0.387966 0.040371 6.384140 0 181 255 0.913397
0.338473 0.042347 6.357230 0 105 255 0.937022
0.242570 0.048207 6.447230 58 255 190 0.872901
0.264796 0.048727 6.460010 84 255 164 0.859959
0.251013 0.046157 6.479150 109 255 138 0.847067
0.228952 0.045450 6.466230 74 255 174 0.865171
0.272765 0.046276 6.491250 138 255 109 0.833044
0.237798 0.041755 6.496990 103 255 145 0.850786
0.259292 0.042312 6.509150 142 255 106 0.831403
0.246427 0.035973 6.525750 109 255 138 0.847615
0.215970 0.040491 6.483900 61 255 187 0.870891
0.225092 0.034702 6.513450 51 255 196 0.874786
0.203106 0.032846 6.500590 0 225 251 0.898338
0.280670 0.042330 6.520730 174 255 74 0.814543
0.267661 0.036457 6.537320 148 255 100 0.826986
0.295930 0.045218 6.503380 145 255 103 0.828951
0.311834 0.047398 6.484800 116 255 132 0.844465
0.288426 0.048468 6.472730 100 255 148 0.852366
-0.074354 -0.432741 6.798180 51 255 196 0.874645
-0.086453 -0.407342 6.795400 35 255 213 0.881690
-0.087896 -0.460464 6.793850 29 255 219 0.884730
-0.099941 -0.433574 6.790700 0 229 248 0.896948
-0.113242 -0.461709 6.786400 0 213 255 0.903111
-0.112534 -0.407379 6.787960 13 245 235 0.892744
-0.101310 -0.488927 6.789720 25 255 222 0.886944
-0.114776 -0.520051 6.787710 19 253 229 0.889102
-0.089570 -0.516618 6.792950 55 255 193 0.874000
-0.076179 -0.486200 6.795630 55 255 193 0.873927
-0.125588 -0.434979 6.784230 0 209 255 0.903706
-0.138329 -0.407981 6.781000 3 233 245 0.896344
-0.138083 -0.464205 6.780370 0 185 255 0.911490
-0.150423 -0.436513 6.776510 0 173 255 0.916327
-0.162463 -0.465990 6.772250 0 141 255 0.925879
-0.163381 -0.408697 6.771830 0 197 255 0.908702
-0.150777 -0.494774 6.778220 0 201 255 0.906938
-0.163651 -0.527636 6.777160 35 255 213 0.881617
-0.139239 -0.524237 6.783010 16 249 232 0.890742
-0.126090 -0.491761 6.784150 0 221 255 0.900846
-0.153301 -0.658630 6.760300 255 167 0 0.720001
-0.144072 -0.623056 6.767300 138 255 109 0.833292
-0.128795 -0.653441 6.764290 206 255 42 0.794179
-0.134615 -0.587877 6.774170 35 255 213 0.882645
-0.119449 -0.617060 6.771130 67 255 180 0.867420
-0.109732 -0.581416 6.777450 6 237 242 0.894553
-0.104677 -0.646420 6.767230 113 255 135 0.846689
-0.124607 -0.553140 6.780900 0 225 251 0.899481
-0.148690 -0.557574 6.776160 22 255 226 0.888028
-0.158477 -0.592068 6.769010 84 255 164 0.860025
-0.095587 -0.611387 6.775220 42 255 206 0.880128
-0.080475 -0.641430 6.771690 77 255 171 0.862988
-0.085551 -0.577050 6.782480 25 255 222 0.886746
-0.071013 -0.606760 6.779650 35 255 213 0.881630
-0.075684 -0.543996 6.789740 48 255 200 0.877143
-0.099909 -0.547981 6.785190 9 241 238 0.893897
0.122908 0.041478 6.249020 0 0 251 0.971574
0.111700 0.042804 6.269510 0 0 255 0.968975
0.132933 0.042907 6.279720 0 0 255 0.967059
0.121539 0.044691 6.299940 0 37 255 0.956464
0.100314 0.044498 6.289550 0 29 255 0.958553
0.143119 0.044846 6.310840 0 45 255 0.954501
0.110182 0.046876 6.320130 0 105 255 0.936782
0.131741 0.046818 6.331210 0 109 255 0.935828
0.120739 0.048846 6.351320 0 181 255 0.912855
0.089131 0.046620 6.309590 0 85 255 0.942562
0.099150 0.048589 6.340090 0 165 255 0.918729
0.077961 0.047948 6.329280 0 145 255 0.925168
0.153398 0.046825 6.342550 0 113 255 0.934250
0.142298 0.048871 6.363060 0 193 255 0.909341
0.164082 0.048939 6.375290 0 213 255 0.902346
0.176065 0.046886 6.354920 0 121 255 0.932220
0.165652 0.044832 6.322330 0 45 255 0.953609
0.188493 0.044880 6.334430 0 49 255 0.952761
0.178292 0.043163 6.301840 0 1 255 0.965664
0.155561 0.042940 6.290660 0 0 255 0.967645
0.168277 0.041979 6.270160 0 0 255 0.968910
0.201520 0.043076 6.313270 0 1 255 0.966042
0.191367 0.042046 6.281010 0 0 255 0.968630
0.214617 0.042022 6.292010 0 1 255 0.966248
0.145347 0.041860 6.259500 0 0 255 0.969974
0.065998 0.044227 6.349580 0 125 255 0.930252
0.086372 0.045312 6.359800 0 157 255 0.920413
0.074370 0.039896 6.379980 0 117 255 0.933419
0.053668 0.038704 6.369880 0 89 255 0.941386
0.095292 0.041022 6.390560 0 145 255 0.924998
0.062319 0.033000 6.400090 0 61 255 0.949419
0.083413 0.034188 6.410670 0 93 255 0.940486
0.071518 0.025564 6.430440 0 21 255 0.960789
0.041521 0.031771 6.390070 0 33 255 0.957406
0.050388 0.024834 6.420300 0 1 255 0.966107
0.029130 0.023978 6.410680 0 0 255 0.970715
0.104900 0.035146 6.421350 0 117 255 0.933549
0.092909 0.026578 6.441050 0 41 255 0.955038
0.114688 0.027588 6.451780 0 65 255 0.948383
0.127412 0.036148 6.433300 0 141 255 0.925484
0.117635 0.041967 6.402280 0 173 255 0.915502
0.139915 0.042773 6.414400 0 205 255 0.905658
0.130026 0.046451 6.382980 0 189 255 0.910623
0.108107 0.045974 6.371070 0 177 255 0.914658
0.151973 0.046918 6.395320 0 217 255 0.901529
0.193222 0.040282 6.470950 42 255 206 0.880014
0.206241 0.045656 6.453330 67 255 180 0.868330
0.183226 0.045212 6.439890 38 255 209 0.880487
0.219700 0.048725 6.434580 55 255 193 0.874274
0.196530 0.048616 6.421470 45 255 203 0.877585
0.210696 0.050224 6.401760 6 237 242 0.894715
0.233943 0.050278 6.414800 16 249 232 0.890963
0.173477 0.048069 6.408140 22 255 226 0.887298
0.187352 0.049676 6.388510 0 225 251 0.898271
0.161553 0.044164 6.427030 13 245 235 0.892507
0.149458 0.037831 6.445560 0 197 255 0.908672
0.171452 0.039226 6.458080 3 233 245 0.895699
0.159325 0.030834 6.476190 0 153 255 0.922648
0.137147 0.029139 6.463710 0 101 255 0.938197
0.181507 0.032044 6.488520 0 193 255 0.909557
0.246222 0.048358 6.393810 0 145 255 0.924526
0.260064 0.045987 6.372900 0 73 255 0.945576
0.235324 0.045873 6.359650 0 61 255 0.949677
0.274023 0.044126 6.351660 0 33 255 0.956985
0.249460 0.044076 6.338710 0 21 255 0.960204
0.263794 0.043035 6.317390 0 25 255 0.959252
0.288537 0.043074 6.330400 0 49 255 0.952533
0.224909 0.043685 6.325580 0 13 255 0.962615
0.239340 0.042700 6.304560 0 9 255 0.964231
0.211842 0.045516 6.346990 0 53 255 0.951566
0.199230 0.047840 6.368120 0 137 255 0.927077
0.222886 0.048196 6.380960 0 137 255 0.927519
0.188974 0.019521 6.516950 0 57 255 0.950323
0.209374 0.021640 6.529060 0 125 255 0.931014
0.195215 0.006730 6.544720 0 0 251 0.970981
0.174503 0.004185 6.533010 0 0 214 0.979454
0.215318 0.009001 6.556310 0 21 255 0.960199
0.180401 -0.008398 6.561240 0 0 196 0.983559
0.200722 -0.006468 6.572170 0 0 201 0.982959
0.185274 -0.020469 6.590100 0 0 196 0.984415
0.159348 -0.010529 6.550320 0 0 214 0.979790
0.164416 -0.021680 6.580040 0 0 210 0.980888
0.143161 -0.022984 6.569810 0 0 233 0.975386
0.220646 -0.004277 6.583260 0 0 223 0.977370
0.205825 -0.019255 6.600470 0 0 183 0.986996
0.225928 -0.018124 6.611220 0 0 183 0.987280
0.242141 -0.002238 6.594900 0 0 255 0.969028
0.236669 0.011572 6.568310 0 97 255 0.938930
0.257712 0.012743 6.579980 0 145 255 0.924214
0.252196 0.025019 6.553110 32 255 216 0.884029
0.231017 0.023553 6.541280 0 197 255 0.907830
0.273141 0.025589 6.564510 71 255 177 0.866325
0.125607 -0.034258 6.592760 0 0 214 0.980262
0.145260 -0.034793 6.602130 0 0 214 0.979345
0.127110 -0.043877 6.625720 0 0 173 0.988747
0.107195 -0.043123 6.616580 0 0 169 0.989743
0.147001 -0.045150 6.634760 0 0 178 0.987509
0.108785 -0.054298 6.648750 0 0 183 0.986645
0.128430 -0.055934 6.658290 0 0 178 0.987682
0.110135 -0.066903 6.681330 0 0 242 0.973654
0.089006 -0.052944 6.639560 0 0 192 0.985389
0.090649 -0.064879 6.671420 0 0 255 0.969135
0.071433 -0.062932 6.661410 0 13 255 0.963250
0.147762 -0.057399 6.668060 0 0 178 0.987500
0.129860 -0.069073 6.690840 0 0 223 0.977851
0.149864 -0.070390 6.699810 0 0 210 0.980471
0.169300 -0.059683 6.677150 0 0 183 0.986597
0.168061 -0.046402 6.644270 0 0 183 0.986481
0.188830 -0.048622 6.653070 0 0 201 0.983276
0.187318 -0.035669 6.620690 0 0 210 0.980382
0.166467 -0.035652 6.611090 0 0 223 0.977662
0.207735 -0.035380 6.630740 0 0 196 0.983654
0.225806 -0.063839 6.706590 0 0 210 0.981032
0.246413 -0.050887 6.684020 0 0 205 0.981804
0.225943 -0.050850 6.673560 0 0 201 0.982777
0.266680 -0.034088 6.663400 0 0 183 0.987008
0.246547 -0.034469 6.652330 0 0 178 0.988201
0.265894 -0.014886 6.634350 0 0 219 0.978403
0.285640 -0.014567 6.646020 0 0 251 0.971114
0.226182 -0.035332 6.641320 0 0 183 0.986507
0.246250 -0.016370 6.622770 0 0 192 0.984661
0.207510 -0.050204 6.663180 0 0 205 0.982126
0.188704 -0.060959 6.686770 0 0 187 0.986063
0.207242 -0.062796 6.696960 0 0 196 0.983525
0.188720 -0.073544 6.719830 0 0 210 0.980350
0.169405 -0.071418 6.709960 0 0 210 0.981173
0.207937 -0.075314 6.729020 0 0 219 0.979224
0.301248 0.000303 6.630040 0 113 255 0.934263
0.318512 0.012768 6.614640 19 253 229 0.888642
0.296953 0.014001 6.603090 16 249 232 0.891329
0.335981 0.022862 6.598620 100 255 148 0.852514
0.314420 0.024974 6.587450 113 255 135 0.845739
0.292833 0.025849 6.575970 103 255 145 0.850594
0.277393 0.013694 6.591600 0 201 255 0.906781
0.262065 -0.000721 6.606820 0 41 255 0.954775
0.281761 0.000431 6.618520 0 89 255 0.940969
0.501406 0.022918 6.419830 0 113 255 0.933817
0.515403 0.016068 6.402380 0 49 255 0.952387
0.487017 0.021296 6.386830 0 81 255 0.943988
0.529443 0.008086 6.385030 0 0 255 0.970035
0.500578 0.013473 6.368780 0 5 255 0.964790
0.513804 0.004816 6.351170 0 0 219 0.978424
0.543275 -0.000544 6.367880 0 0 223 0.977753
0.474862 0.018804 6.354400 0 53 255 0.951195
0.487885 0.010311 6.336440 0 0 255 0.970819
0.463127 0.014953 6.322030 0 21 255 0.960153
0.450557 0.022306 6.340250 0 85 255 0.942911
0.461772 0.025652 6.373040 0 117 255 0.932626
0.437676 0.028850 6.358980 0 141 255 0.925388
0.449021 0.031191 6.391630 0 169 255 0.917415
0.473942 0.027662 6.405150 0 149 255 0.923795
0.424812 0.034082 6.377850 0 177 255 0.915023
0.554053 -0.010922 6.350520 0 13 255 0.963115
0.564907 -0.020697 6.333030 0 145 255 0.924374
0.534353 -0.015539 6.316560 0 49 255 0.952859
0.576017 -0.029269 6.315610 51 255 196 0.875677
0.545191 -0.025112 6.299050 0 197 255 0.908331
0.556002 -0.033024 6.281590 87 255 161 0.858904
0.586873 -0.036259 6.298070 148 255 100 0.827796
0.519099 -0.019636 6.285020 0 105 255 0.936098
0.529763 -0.028202 6.267780 6 237 242 0.894313
0.504567 -0.023582 6.254570 0 149 255 0.923154
0.494194 -0.015039 6.271260 0 25 255 0.960045
0.508596 -0.010413 6.301950 0 0 255 0.968092
0.483895 -0.005402 6.287960 0 0 223 0.977539
0.498205 -0.000059 6.318920 0 0 210 0.980970
0.524076 -0.005658 6.333770 0 0 233 0.975201
0.473580 0.004862 6.304910 0 0 219 0.978923
0.403701 -0.008629 6.200850 0 0 246 0.972739
0.394121 0.000231 6.216860 0 0 214 0.979845
0.419487 -0.002329 6.230940 0 0 214 0.979661
0.409844 0.006938 6.246960 0 0 237 0.975020
0.384440 0.009667 6.232740 0 0 251 0.971903
0.434870 0.003508 6.260820 0 0 219 0.979287
0.399824 0.016089 6.263120 0 29 255 0.958192
0.424916 0.012879 6.277140 0 1 255 0.965567
0.414753 0.022040 6.294070 0 89 255 0.941803
0.374488 0.018684 6.248890 0 45 255 0.954282
0.389679 0.024628 6.279840 0 101 255 0.937764
0.364174 0.026785 6.265560 0 117 255 0.933246
0.449321 0.009364 6.291280 0 0 246 0.972644
0.439184 0.018875 6.308270 0 57 255 0.950322
0.459674 -0.000625 6.274500 0 0 210 0.980536
0.469860 -0.010334 6.258170 0 0 251 0.971343
0.445101 -0.006386 6.244680 0 0 228 0.976717
0.455330 -0.014952 6.228460 0 25 255 0.959990
0.480046 -0.018979 6.241680 0 81 255 0.943615
0.429655 -0.011532 6.214730 0 0 255 0.967179
0.351767 0.031860 6.284060 0 117 255 0.933459
0.376824 0.030511 6.297930 0 125 255 0.931187
0.364144 0.035090 6.317370 0 117 255 0.932827
0.339045 0.035860 6.303380 0 97 255 0.939334
0.389090 0.033672 6.331150 0 145 255 0.924185
0.351224 0.038865 6.337230 0 109 255 0.935417
0.376362 0.037994 6.350910 0 141 255 0.925434
0.325693 0.039184 6.323450 0 65 255 0.948224
0.400615 0.036481 6.364430 0 173 255 0.915923
0.413795 0.031492 6.345110 0 153 255 0.922688
0.426560 0.025774 6.326400 0 109 255 0.934993
0.402119 0.028371 6.312130 0 117 255 0.932582
0.019845 -0.813645 6.634540 242 253 6 0.772803
0.019215 -0.796972 6.663120 242 253 6 0.772686
0.044642 -0.810107 6.644360 255 223 0 0.756110
0.020219 -0.778213 6.688600 209 255 38 0.793712
0.045150 -0.793240 6.671460 238 255 9 0.775703
0.046961 -0.773947 6.696380 203 255 45 0.796785
0.070148 -0.808410 6.653750 255 230 0 0.758968
0.022527 -0.757471 6.712430 187 255 61 0.807265
0.024815 -0.736084 6.736450 155 255 93 0.824322
-0.001778 -0.739876 6.728950 167 255 80 0.816627
-0.003945 -0.761546 6.705490 203 255 45 0.796699
-0.005527 -0.781957 6.681390 219 255 29 0.787917
