ply
format ascii 1.0
comment Seamless Cloth Simulation with High Geometric Fidelity 
comment Mon Apr 29 12:37:03 2019
element vertex 991
property float x
property float y
property float z
property float quality
property uchar red
property uchar green
property uchar blue
end_header
-0.491158 -1.05903 5.52538 0.980493 255 0 255 
-0.520481 -1.05267 5.53077 0.986794 255 0 255 
-0.504125 -1.05291 5.55351 0.98973 255 0 255 
-0.552639 -1.045 5.535 0.986385 255 0 255 
-0.567866 -1.04651 5.51313 0.97827 255 0 255 
-0.583118 -1.0481 5.49112 0.958316 255 0 255 
-0.599034 -1.04122 5.51777 0.969823 255 0 255 
-0.458182 -1.06479 5.51737 0.967878 255 0 255 
-0.439101 -1.06416 5.53884 0.967148 255 0 255 
-0.414586 -1.06666 5.54559 0.953717 255 0 255 
-0.39009 -1.07058 5.55253 0.924079 255 0 255 
-0.399943 -1.06714 5.58142 0.944159 255 0 255 
-0.426293 -1.06152 5.57434 0.973006 255 0 255 
-0.452214 -1.05763 5.56741 0.983584 255 0 255 
-0.471828 -1.05735 5.54619 0.985742 255 0 255 
-0.445413 -1.05165 5.63109 0.991381 255 0 255 
-0.472097 -1.04787 5.62328 0.990254 255 0 255 
-0.465079 -1.05156 5.60475 0.990557 255 0 255 
-0.498667 -1.04506 5.61539 0.988554 255 0 255 
-0.491411 -1.04789 5.59703 0.99016 255 0 255 
-0.517724 -1.04598 5.58964 0.989717 255 0 255 
-0.524615 -1.04375 5.60803 0.988691 255 0 255 
-0.484369 -1.05157 5.57902 0.99102 255 0 255 
-0.51088 -1.04925 5.57178 0.990538 255 0 255 
-0.458619 -1.05416 5.58625 0.988634 255 0 255 
-0.432669 -1.0579 5.59325 0.982637 255 0 255 
-0.439128 -1.05413 5.61181 0.989488 255 0 255 
-0.413087 -1.05849 5.6191 0.979056 255 0 255 
-0.406524 -1.06281 5.60031 0.961863 255 0 255 
-0.419549 -1.0554 5.6383 0.988066 255 0 255 
-0.548779 -1.04001 5.59802 0.985549 255 0 255 
-0.574088 -1.03632 5.58756 0.982597 255 0 255 
-0.566164 -1.03918 5.57066 0.983817 255 0 255 
-0.598625 -1.03377 5.57724 0.981127 255 0 255 
-0.590677 -1.03624 5.56057 0.980791 255 0 255 
-0.614983 -1.03422 5.55087 0.975241 255 0 255 
-0.62277 -1.03164 5.5673 0.978337 255 0 255 
-0.582658 -1.03982 5.54406 0.981039 255 0 255 
-0.607108 -1.03733 5.53442 0.973278 255 0 255 
-0.559112 -1.04182 5.55301 0.985305 255 0 255 
-0.535115 -1.04488 5.56207 0.988108 255 0 255 
-0.542041 -1.04204 5.57982 0.986713 255 0 255 
-0.0441686 -0.638609 5.43752 0.622178 255 0 255 
-0.0667075 -0.621156 5.4248 0.670025 255 0 255 
-0.089393 -0.60559 5.41339 0.749769 255 0 255 
-0.0542955 -0.650271 5.42603 0.530513 255 0 255 
-0.0777163 -0.634424 5.41235 0.612498 255 0 255 
-0.111014 -0.590764 5.40324 0.773938 255 0 255 
-0.131826 -0.576327 5.39323 0.810086 255 0 255 
-0.119761 -0.55953 5.40585 0.891237 255 0 255 
-0.0995788 -0.575392 5.41557 0.862077 255 0 255 
-0.10312 -0.624789 5.39844 0.635042 255 0 255 
-0.2025 -0.525937 5.35618 0.928361 255 0 255 
-0.18662 -0.538632 5.36895 0.895225 255 0 255 
-0.172174 -0.556705 5.37573 0.831926 255 0 255 
-0.191833 -0.506133 5.36685 0.9668 255 0 255 
-0.153098 -0.567015 5.38489 0.806139 255 0 255 
-0.175933 -0.520455 5.38078 0.958751 255 0 255 
-0.157469 -0.532861 5.3915 0.937 255 0 255 
-0.178982 -0.488451 5.37884 0.970911 255 0 255 
-0.162557 -0.502838 5.39234 0.984619 255 0 255 
-0.137775 -0.543723 5.4013 0.925364 255 0 255 
-0.145903 -0.903038 6.2465 0.887918 255 0 255 
-0.142685 -0.918858 6.21676 0.933942 255 0 255 
-0.168205 -0.90393 6.23466 0.884637 255 0 255 
-0.165377 -0.920409 6.20484 0.934312 255 0 255 
-0.139977 -0.93855 6.18817 0.962191 255 0 255 
-0.137358 -0.958894 6.15994 0.94516 255 0 255 
-0.114806 -0.955859 6.17265 0.947064 255 0 255 
-0.117546 -0.935542 6.2007 0.960057 255 0 255 
-0.12075 -0.9168 6.22959 0.932211 255 0 255 
-0.0924288 -0.95317 6.18497 0.960655 255 0 255 
-0.190643 -0.905717 6.22193 0.8862 255 0 255 
-0.187932 -0.923128 6.19188 0.937022 255 0 255 
-0.213425 -0.907251 6.20964 0.888388 255 0 255 
-0.210804 -0.924976 6.17972 0.939297 255 0 255 
-0.185507 -0.943323 6.16302 0.964522 255 0 255 
-0.183295 -0.964705 6.13413 0.93867 255 0 255 
-0.160197 -0.96229 6.14722 0.940164 255 0 255 
-0.162795 -0.940308 6.17581 0.964129 255 0 255 
-0.122314 -1.01153 6.03318 0.84341 255 0 255 
-0.126226 -1.00199 6.0655 0.855768 255 0 255 
-0.0991222 -1.00946 6.04684 0.83812 255 0 255 
-0.13 -0.989858 6.098 0.884089 255 0 255 
-0.10303 -0.999616 6.07958 0.850027 255 0 255 
-0.106899 -0.986898 6.1121 0.885947 255 0 255 
-0.0756709 -1.00706 6.06077 0.830681 255 0 255 
-0.13357 -0.975871 6.12953 0.902663 255 0 255 
-0.15688 -0.977815 6.1164 0.903902 255 0 255 
-0.153347 -0.992069 6.08478 0.883804 255 0 255 
-0.0798083 -0.997183 6.09325 0.847446 255 0 255 
-0.0527239 -1.00494 6.07488 0.818994 255 0 255 
-0.0838869 -0.985394 6.12515 0.87568 255 0 255 
-0.0569378 -0.994826 6.1073 0.835091 255 0 255 
-0.0614981 -0.982888 6.13891 0.866093 255 0 255 
-0.0298573 -1.00241 6.08852 0.801692 255 0 255 
-0.0880972 -0.970635 6.15573 0.920928 255 0 255 
-0.110645 -0.973109 6.14303 0.921919 255 0 255 
-0.236624 -0.909254 6.19694 0.889698 255 0 255 
-0.234545 -0.92737 6.16637 0.941753 255 0 255 
-0.260409 -0.910636 6.18421 0.891582 255 0 255 
-0.258436 -0.92951 6.15404 0.943798 255 0 255 
-0.232649 -0.948152 6.13698 0.963358 255 0 255 
-0.230977 -0.967308 6.10681 0.942957 255 0 255 
-0.20714 -0.965719 6.12046 0.94236 255 0 255 
-0.208851 -0.945232 6.1502 0.964621 255 0 255 
-0.283789 -0.912718 6.17163 0.895371 255 0 255 
-0.28122 -0.931402 6.14121 0.946028 255 0 255 
-0.306968 -0.914152 6.15934 0.898583 255 0 255 
-0.304511 -0.932295 6.12889 0.941088 255 0 255 
-0.279097 -0.95083 6.11126 0.962377 255 0 255 
-0.277187 -0.969799 6.08111 0.943719 255 0 255 
-0.254148 -0.968349 6.09384 0.9441 255 0 255 
-0.256175 -0.949151 6.12405 0.963921 255 0 255 
-0.215856 -1.01913 5.98116 0.862511 255 0 255 
-0.220011 -1.00983 6.01264 0.861214 255 0 255 
-0.192977 -1.01714 5.99346 0.861676 255 0 255 
-0.223989 -0.997292 6.04407 0.890092 255 0 255 
-0.197317 -1.00748 6.02535 0.867101 255 0 255 
-0.201248 -0.995201 6.05727 0.892527 255 0 255 
-0.170222 -1.01573 6.00603 0.856246 255 0 255 
-0.227659 -0.982746 6.07542 0.91093 255 0 255 
-0.250895 -0.984317 6.06277 0.912014 255 0 255 
-0.247305 -0.998443 6.03191 0.893582 255 0 255 
-0.173895 -1.00611 6.03801 0.865537 255 0 255 
-0.146428 -1.01366 6.01939 0.852418 255 0 255 
-0.177286 -0.994084 6.07031 0.887014 255 0 255 
-0.149952 -1.00375 6.05187 0.86185 255 0 255 
-0.180264 -0.980148 6.10256 0.903651 255 0 255 
-0.204364 -0.981285 6.08892 0.908207 255 0 255 
-0.328584 -0.915547 6.1474 0.897589 255 0 255 
-0.324697 -0.933523 6.11739 0.940584 255 0 255 
-0.348904 -0.915649 6.1361 0.889072 255 0 255 
-0.345186 -0.933742 6.10637 0.93715 255 0 255 
-0.321039 -0.9521 6.08783 0.960988 255 0 255 
-0.317574 -0.970519 6.05844 0.948115 255 0 255 
-0.297307 -0.970348 6.06982 0.946024 255 0 255 
-0.300968 -0.951218 6.09924 0.961313 255 0 255 
-0.368345 -0.917025 6.12543 0.884278 255 0 255 
-0.363755 -0.934393 6.09582 0.932668 255 0 255 
-0.386894 -0.917514 6.11524 0.885594 255 0 255 
-0.382299 -0.934145 6.08569 0.929312 255 0 255 
-0.359038 -0.953174 6.06714 0.958984 255 0 255 
-0.354447 -0.972555 6.03901 0.946354 255 0 255 
-0.335889 -0.971428 6.04872 0.947943 255 0 255 
-0.340468 -0.952238 6.07706 0.960071 255 0 255 
-0.292271 -1.0234 5.94118 0.886892 255 0 255 
-0.298993 -1.01413 5.97123 0.877096 255 0 255 
-0.273829 -1.02261 5.95069 0.880113 255 0 255 
-0.305381 -1.00118 6.00038 0.902654 255 0 255 
-0.280686 -1.01287 5.98078 0.876126 255 0 255 
-0.287434 -1.00004 6.01008 0.901213 255 0 255 
-0.255501 -1.02155 5.96014 0.873051 255 0 255 
-0.311575 -0.986682 6.02929 0.933812 255 0 255 
-0.33013 -0.987016 6.01959 0.937962 255 0 255 
-0.323991 -1.00233 5.99115 0.900869 255 0 255 
-0.261607 -1.0121 5.99037 0.866784 255 0 255 
-0.23581 -1.02018 5.97049 0.867785 255 0 255 
-0.267046 -0.999987 6.02084 0.890537 255 0 255 
-0.241661 -1.01076 6.00127 0.865857 255 0 255 
-0.272373 -0.985512 6.05082 0.91189 255 0 255 
-0.292607 -0.985546 6.03965 0.917875 255 0 255 
-0.359686 -1.07245 5.54224 0.892997 255 0 255 
-0.339206 -1.07263 5.56091 0.864792 255 0 255 
-0.311779 -1.07239 5.55269 0.84093 255 0 255 
-0.289894 -1.07533 5.57193 0.773181 255 0 255 
-0.317638 -1.07461 5.58041 0.820175 255 0 255 
-0.295607 -1.07722 5.59945 0.764039 255 0 255 
-0.348386 -1.07057 5.59018 0.890198 255 0 255 
-0.369021 -1.07012 5.5714 0.917089 255 0 255 
-0.26262 -1.06865 5.55792 0.798615 255 0 255 
-0.239687 -1.06149 5.5597 0.821598 255 0 255 
-0.216187 -1.05508 5.56089 0.816639 255 0 255 
-0.192474 -1.05378 5.57436 0.773721 255 0 255 
-0.215953 -1.06483 5.58505 0.720827 255 0 255 
-0.191429 -1.06412 5.598 0.673691 255 0 255 
-0.2417 -1.0694 5.58532 0.747593 255 0 255 
-0.267161 -1.07351 5.586 0.754222 255 0 255 
-0.202831 -1.06774 5.67478 0.687815 255 0 255 
-0.232721 -1.06633 5.67524 0.782164 255 0 255 
-0.225494 -1.07181 5.65637 0.689653 255 0 255 
-0.255279 -1.06996 5.65647 0.786831 255 0 255 
-0.262762 -1.06415 5.67519 0.863349 255 0 255 
-0.248786 -1.07392 5.63739 0.718446 255 0 255 
-0.284875 -1.06799 5.65633 0.856639 255 0 255 
-0.278524 -1.07261 5.63746 0.793297 255 0 255 
-0.307892 -1.07084 5.63724 0.852792 255 0 255 
-0.292048 -1.0626 5.67503 0.909964 255 0 255 
-0.314454 -1.06666 5.65618 0.904492 255 0 255 
-0.321327 -1.06193 5.67501 0.943029 255 0 255 
-0.272374 -1.0759 5.61811 0.736439 255 0 255 
-0.301538 -1.07454 5.61848 0.803212 255 0 255 
-0.245958 -1.07405 5.61839 0.69897 255 0 255 
-0.219608 -1.0708 5.61815 0.678824 255 0 255 
-0.222136 -1.07184 5.63724 0.676133 255 0 255 
-0.195599 -1.06937 5.6367 0.60552 255 0 255 
-0.192943 -1.06752 5.61737 0.618504 255 0 255 
-0.198664 -1.06959 5.65591 0.644421 255 0 255 
-0.347733 -1.05883 5.67061 0.968135 255 0 255 
-0.340937 -1.06412 5.65109 0.93503 255 0 255 
-0.367443 -1.06024 5.64673 0.964694 255 0 255 
-0.374192 -1.05566 5.66593 0.980779 255 0 255 
-0.361015 -1.06492 5.62766 0.942715 255 0 255 
-0.393815 -1.05698 5.64249 0.981541 255 0 255 
-0.387203 -1.0615 5.62347 0.966275 255 0 255 
-0.40031 -1.05397 5.66172 0.987389 255 0 255 
-0.380453 -1.06629 5.60465 0.944501 255 0 255 
-0.354286 -1.06838 5.60903 0.91706 255 0 255 
-0.327902 -1.07131 5.61356 0.869186 255 0 255 
-0.334233 -1.06776 5.63226 0.910371 255 0 255 
0.0836354 -0.591604 5.57988 0.958405 255 0 255 
0.0733149 -0.567097 5.5755 0.962021 255 0 255 
0.0734681 -0.543395 5.58168 0.957986 255 0 255 
0.0637123 -0.519494 5.57635 0.960524 255 0 255 
0.0669194 -0.494696 5.57885 0.96556 255 0 255 
0.042734 -0.494166 5.56097 0.968948 255 0 255 
0.0868419 -0.520244 5.59479 0.956201 255 0 255 
0.090962 -0.495309 5.59595 0.965343 255 0 255 
0.0947996 -0.543028 5.59971 0.953902 255 0 255 
0.103158 -0.565455 5.60425 0.953525 255 0 255 
0.101982 -0.589414 5.59899 0.957191 255 0 255 
0.120429 -0.587308 5.6171 0.953798 255 0 255 
0.0304759 -0.471113 5.55846 0.967141 255 0 255 
0.0440502 -0.471852 5.56839 0.965633 255 0 255 
0.032802 -0.447258 5.56454 0.968296 255 0 255 
0.0189672 -0.446972 5.55516 0.967678 255 0 255 
0.047001 -0.447693 5.57367 0.968812 255 0 255 
0.0226385 -0.422066 5.55988 0.975747 255 0 255 
0.0367577 -0.422407 5.56893 0.977285 255 0 255 
0.027474 -0.395607 5.56341 0.985152 255 0 255 
0.00823153 -0.421924 5.55101 0.974029 255 0 255 
0.0130653 -0.395573 5.5545 0.984613 255 0 255 
-0.00152664 -0.395873 5.54618 0.983335 255 0 255 
0.051062 -0.422693 5.57778 0.977317 255 0 255 
0.0419442 -0.395746 5.57206 0.986353 255 0 255 
0.0562932 -0.39619 5.58096 0.986102 255 0 255 
0.0727901 -0.44722 5.58941 0.973994 255 0 255 
0.0690367 -0.471876 5.58497 0.967819 255 0 255 
0.120661 -0.397311 5.61682 0.985401 255 0 255 
0.125384 -0.423738 5.62189 0.983162 255 0 255 
0.117027 -0.448629 5.61777 0.97344 255 0 255 
0.123466 -0.472907 5.62019 0.969787 255 0 255 
0.117391 -0.495772 5.61348 0.964517 255 0 255 
0.14346 -0.496059 5.63038 0.965163 255 0 255 
0.0965393 -0.472908 5.60346 0.967125 255 0 255 
0.0878652 -0.44811 5.5997 0.973452 255 0 255 
0.0795521 -0.42263 5.5955 0.98045 255 0 255 
0.0954612 -0.423301 5.60493 0.98072 255 0 255 
0.0885961 -0.396862 5.59904 0.986166 255 0 255 
0.0724417 -0.396606 5.5899 0.986393 255 0 255 
0.104395 -0.397161 5.60823 0.986193 255 0 255 
0.147786 -0.519351 5.63588 0.958445 255 0 255 
0.140824 -0.54179 5.63481 0.95103 255 0 255 
0.145899 -0.562545 5.63939 0.946771 255 0 255 
0.140581 -0.585123 5.63508 0.948486 255 0 255 
0.161032 -0.582822 5.65198 0.947086 255 0 255 
0.124212 -0.564885 5.6231 0.948154 255 0 255 
0.11762 -0.542435 5.61707 0.951847 255 0 255 
0.110682 -0.5195 5.61133 0.958551 255 0 255 
0.0230664 -0.598362 5.51264 0.918592 255 0 255 
0.0100878 -0.572869 5.50778 0.960681 255 0 255 
0.00404681 -0.548318 5.51278 0.977107 255 0 255 
-0.00893936 -0.524339 5.50947 0.983342 255 0 255 
-0.0130744 -0.498643 5.51311 0.984124 255 0 255 
-0.0292393 -0.50166 5.49815 0.988022 255 0 255 
0.00637107 -0.521743 5.52503 0.979105 255 0 255 
0.00289222 -0.496153 5.52763 0.979629 255 0 255 
0.0190431 -0.5459 5.52822 0.976142 255 0 255 
0.0317429 -0.570322 5.5315 0.96788 255 0 255 
0.0370098 -0.596519 5.52802 0.946765 255 0 255 
0.0505788 -0.59482 5.54368 0.956345 255 0 255 
-0.0430156 -0.479947 5.49649 0.988157 255 0 255 
-0.048073 -0.455439 5.50207 0.981822 255 0 255 
-0.0603393 -0.433322 5.49829 0.982785 255 0 255 
-0.0623601 -0.40774 5.50011 0.988345 255 0 255 
-0.0790179 -0.413006 5.48535 0.990725 255 0 255 
-0.0436957 -0.428427 5.51392 0.976041 255 0 255 
-0.0454177 -0.402254 5.51436 0.985874 255 0 255 
-0.031651 -0.451884 5.51701 0.974932 255 0 255 
-0.0188084 -0.475032 5.51929 0.97762 255 0 255 
-0.00238394 -0.448725 5.54103 0.965276 255 0 255 
0.0101718 -0.472274 5.54289 0.970423 255 0 255 
0.0226152 -0.495264 5.54476 0.974002 255 0 255 
-0.0245169 -0.425216 5.528 0.97422 255 0 255 
-0.0237571 -0.398709 5.53084 0.983728 255 0 255 
0.042865 -0.51948 5.55907 0.965847 255 0 255 
0.0537434 -0.543639 5.56316 0.966058 255 0 255 
0.0562028 -0.568419 5.55841 0.966568 255 0 255 
0.0676833 -0.593361 5.56209 0.958012 255 0 255 
0.0354528 -0.544629 5.54547 0.972732 255 0 255 
0.0236276 -0.520285 5.54098 0.974564 255 0 255 
-0.0779425 -0.591619 5.42631 0.812193 255 0 255 
-0.105889 -0.544431 5.41922 0.944814 255 0 255 
-0.0849925 -0.560917 5.42972 0.921876 255 0 255 
-0.0642921 -0.578058 5.43939 0.860088 255 0 255 
-0.0508001 -0.603254 5.4414 0.791923 255 0 255 
-0.032509 -0.625847 5.44956 0.659253 255 0 255 
-0.143354 -0.516298 5.40455 0.985035 255 0 255 
-0.164662 -0.471992 5.39335 0.970281 255 0 255 
-0.147063 -0.487174 5.40793 0.990808 255 0 255 
-0.128342 -0.500555 5.41902 0.993282 255 0 255 
-0.117726 -0.522822 5.4189 0.982252 255 0 255 
-0.132052 -0.443346 5.43027 0.984769 255 0 255 
-0.119246 -0.463259 5.43689 0.992804 255 0 255 
-0.111257 -0.486989 5.43708 0.995155 255 0 255 
-0.0959792 -0.505033 5.44048 0.992015 255 0 255 
-0.0845513 -0.526129 5.43826 0.97751 255 0 255 
-0.136373 -0.476969 5.41888 0.991287 255 0 255 
-0.142924 -0.451985 5.41681 0.976239 255 0 255 
-0.059702 -0.540821 5.45397 0.965554 255 0 255 
-0.0481699 -0.566711 5.4538 0.913589 255 0 255 
-0.0320699 -0.588891 5.45963 0.842163 255 0 255 
-0.0196313 -0.614965 5.46275 0.742543 255 0 255 
-0.063814 -1.02922 5.76528 0.76325 255 0 255 
-0.0503409 -1.02173 5.73784 0.730665 255 0 255 
-0.0799156 -1.03517 5.75465 0.74299 255 0 255 
-0.036774 -1.01335 5.71007 0.701948 255 0 255 
-0.0672503 -1.02798 5.7275 0.723264 255 0 255 
-0.0536661 -1.01924 5.69996 0.683217 255 0 255 
-0.0967667 -1.04009 5.74368 0.739314 255 0 255 
-0.0237676 -1.00181 5.68258 0.654817 255 0 255 
-0.0121553 -0.987586 5.65473 0.67762 255 0 255 
0.00251567 -0.981917 5.66265 0.641232 255 0 255 
-0.00977959 -0.996312 5.69058 0.654682 255 0 255 
-0.0231547 -1.00732 5.71855 0.715648 255 0 255 
0.0164579 -0.976454 5.67064 0.605055 255 0 255 
-0.0810497 -1.03317 5.71834 0.697059 255 0 255 
-0.110994 -1.04523 5.73423 0.703247 255 0 255 
-0.0960897 -1.03764 5.70971 0.720513 255 0 255 
-0.0725828 -1.02617 5.68865 0.674683 255 0 255 
-0.126392 -1.04852 5.72507 0.723011 255 0 255 
-0.0497862 -1.0117 5.66676 0.663932 255 0 255 
-0.0366917 -0.996295 5.64177 0.713248 255 0 255 
0.02536 -0.867467 5.57872 0.600906 255 0 255 
0.0162524 -0.900641 5.59668 0.705421 255 0 255 
0.00726067 -0.932461 5.61475 0.76285 255 0 255 
0.0425948 -0.860672 5.58821 0.633084 255 0 255 
-0.00156391 -0.961509 5.63446 0.77202 255 0 255 
-0.0207573 -0.968205 5.6251 0.78749 255 0 255 
0.037262 -0.892912 5.60723 0.715913 255 0 255 
0.0318567 -0.923192 5.6271 0.752064 255 0 255 
0.0580705 -0.855055 5.59734 0.64737 255 0 255 
0.0535032 -0.886622 5.61682 0.715848 255 0 255 
0.0251242 -0.95127 5.6482 0.727507 255 0 255 
-0.0846075 -1.02789 5.79141 0.865206 255 0 255 
-0.11411 -1.02875 5.81228 0.924702 255 0 255 
-0.134002 -1.02955 5.83886 0.945196 255 0 255 
-0.162365 -1.03308 5.8597 0.946724 255 0 255 
-0.143635 -1.03098 5.87102 0.937672 255 0 255 
-0.152531 -1.03218 5.82742 0.951297 255 0 255 
-0.181255 -1.03484 5.84845 0.954411 255 0 255 
-0.131721 -1.03218 5.80109 0.926076 255 0 255 
-0.109713 -1.03559 5.77499 0.849232 255 0 255 
-0.162253 -1.02805 5.89919 0.942559 255 0 255 
-0.190484 -1.02522 5.92181 0.937435 255 0 255 
-0.208557 -1.02282 5.94906 0.905867 255 0 255 
-0.228547 -1.02417 5.93852 0.913557 255 0 255 
-0.209956 -1.02723 5.91076 0.941119 255 0 255 
-0.191059 -1.03013 5.88275 0.955029 255 0 255 
-0.273972 -1.02756 5.91381 0.924744 255 0 255 
-0.246581 -1.02924 5.89062 0.957663 255 0 255 
-0.226723 -1.03212 5.86238 0.971194 255 0 255 
-0.198311 -1.03588 5.83846 0.964551 255 0 255 
-0.215612 -1.03689 5.8282 0.971512 255 0 255 
-0.209666 -1.0311 5.87231 0.964022 255 0 255 
-0.228702 -1.0283 5.90041 0.949016 255 0 255 
-0.247116 -1.02556 5.92816 0.917289 255 0 255 
-0.193795 -1.03691 5.80163 0.965486 255 0 255 
-0.163883 -1.03818 5.78053 0.927537 255 0 255 
-0.141116 -1.04281 5.7554 0.851305 255 0 255 
-0.126049 -1.03963 5.76465 0.847892 255 0 255 
-0.148188 -1.03541 5.79042 0.92517 255 0 255 
-0.169167 -1.03423 5.8169 0.95597 255 0 255 
-0.371746 -1.03446 5.87146 0.917492 255 0 255 
-0.371811 -1.03771 5.8393 0.954766 255 0 255 
-0.3999 -1.03594 5.86158 0.909358 255 0 255 
-0.40018 -1.03909 5.82931 0.947968 255 0 255 
-0.37206 -1.03972 5.8067 0.980261 255 0 255 
-0.371582 -1.04175 5.77339 0.989599 255 0 255 
-0.33491 -1.03974 5.78097 0.990264 255 0 255 
-0.335848 -1.03652 5.81434 0.985894 255 0 255 
-0.336394 -1.03433 5.84694 0.970133 255 0 255 
-0.29868 -1.03947 5.78864 0.990494 255 0 255 
-0.435658 -1.0387 5.85176 0.876574 255 0 255 
-0.453391 -1.03886 5.84544 0.874794 255 0 255 
-0.444248 -1.04197 5.81949 0.92182 255 0 255 
-0.471365 -1.03963 5.83919 0.861777 255 0 255 
-0.462095 -1.04256 5.81326 0.916373 255 0 255 
-0.452347 -1.04384 5.78672 0.956951 255 0 255 
-0.438022 -1.04319 5.75863 0.98432 255 0 255 
-0.430474 -1.04206 5.79147 0.968273 255 0 255 
-0.416157 -1.04215 5.7637 0.986247 255 0 255 
-0.408317 -1.04077 5.79632 0.974355 255 0 255 
-0.422124 -1.0402 5.82445 0.937059 255 0 255 
-0.394085 -1.0417 5.76837 0.988384 255 0 255 
-0.41243 -1.04888 5.68609 0.990492 255 0 255 
-0.386576 -1.04953 5.69041 0.989505 255 0 255 
-0.398914 -1.04601 5.71525 0.989945 255 0 255 
-0.360277 -1.05139 5.69464 0.987997 255 0 255 
-0.373048 -1.04601 5.71914 0.990003 255 0 255 
-0.346732 -1.04727 5.72328 0.989722 255 0 255 
-0.333854 -1.05394 5.69906 0.979148 255 0 255 
-0.385452 -1.04343 5.74441 0.990104 255 0 255 
-0.359454 -1.04328 5.74808 0.990652 255 0 255 
-0.407563 -1.04328 5.73939 0.989497 255 0 255 
-0.429444 -1.04371 5.73448 0.989415 255 0 255 
-0.421062 -1.04553 5.71032 0.989962 255 0 255 
-0.285845 -1.0554 5.70284 0.95147 255 0 255 
-0.309612 -1.04878 5.73097 0.986934 255 0 255 
-0.256507 -1.05635 5.70286 0.918957 255 0 255 
-0.280373 -1.04824 5.73077 0.975748 255 0 255 
-0.250877 -1.04821 5.73017 0.957605 255 0 255 
-0.22716 -1.05726 5.70277 0.873041 255 0 255 
-0.303966 -1.04343 5.75958 0.99024 255 0 255 
-0.2752 -1.04155 5.75882 0.984275 255 0 255 
0.0221614 -0.999515 5.81995 0.815098 255 0 255 
0.00229119 -1.00188 5.8476 0.885636 255 0 255 
-0.0290797 -1.00742 5.86816 0.92955 255 0 255 
-0.047989 -1.01173 5.89448 0.943236 255 0 255 
-0.0773476 -1.01904 5.91325 0.93806 255 0 255 
-0.0541246 -1.01514 5.92764 0.933392 255 0 255 
-0.0712331 -1.01689 5.88012 0.94344 255 0 255 
-0.100478 -1.0232 5.89867 0.936151 255 0 255 
-0.0518963 -1.01342 5.85355 0.929703 255 0 255 
-0.0322313 -1.01127 5.82635 0.88754 255 0 255 
-0.000717 -1.00632 5.80626 0.816798 255 0 255 
-0.0234228 -1.01335 5.79199 0.812281 255 0 255 
-0.0718427 -1.01434 5.9546 0.935444 255 0 255 
-0.101048 -1.0152 5.97448 0.921791 255 0 255 
-0.117951 -1.0143 6.00043 0.887201 255 0 255 
-0.141724 -1.01653 5.98731 0.89396 255 0 255 
-0.124485 -1.01802 5.96065 0.927586 255 0 255 
-0.106954 -1.01961 5.93334 0.939514 255 0 255 
-0.18743 -1.02072 5.96141 0.903765 255 0 255 
-0.169457 -1.02303 5.93419 0.933661 255 0 255 
-0.140263 -1.02421 5.91315 0.94361 255 0 255 
-0.121972 -1.02713 5.88487 0.936398 255 0 255 
-0.147149 -1.02064 5.94732 0.931753 255 0 255 
-0.164589 -1.01891 5.97372 0.897884 255 0 255 
-0.114446 -1.02599 5.85183 0.943653 255 0 255 
-0.0949469 -1.02379 5.8252 0.929924 255 0 255 
-0.0648549 -1.02034 5.80554 0.886717 255 0 255 
-0.0434596 -1.02142 5.77865 0.785429 255 0 255 
-0.0739755 -1.01886 5.83912 0.930959 255 0 255 
-0.0927739 -1.02199 5.86546 0.942334 255 0 255 
0.0907485 -0.616885 5.58696 0.959654 255 0 255 
0.0902036 -0.645399 5.58625 0.958825 255 0 255 
0.0981782 -0.673599 5.59292 0.955692 255 0 255 
0.0980304 -0.705822 5.59149 0.938653 255 0 255 
0.112035 -0.701522 5.60806 0.946027 255 0 255 
0.0838129 -0.67725 5.57623 0.940589 255 0 255 
0.0838041 -0.709311 5.57524 0.875082 255 0 255 
0.0757337 -0.648147 5.5682 0.952417 255 0 255 
0.06763 -0.620366 5.56023 0.953679 255 0 255 
0.113709 -0.73169 5.61866 0.949816 255 0 255 
0.108969 -0.766725 5.62085 0.92843 255 0 255 
0.110989 -0.799701 5.63075 0.869233 255 0 255 
0.105584 -0.835713 5.63372 0.768146 255 0 255 
0.119965 -0.829345 5.64805 0.77458 255 0 255 
0.096685 -0.806125 5.61657 0.81106 255 0 255 
0.089956 -0.841803 5.62086 0.745102 255 0 255 
0.095028 -0.772058 5.60547 0.868559 255 0 255 
0.0934452 -0.739108 5.5943 0.897798 255 0 255 
0.0642679 -0.8174 5.58834 0.689099 255 0 255 
0.0704588 -0.780358 5.58053 0.687402 255 0 255 
0.0693815 -0.745561 5.56757 0.737939 255 0 255 
0.0721861 -0.711834 5.56209 0.801888 255 0 255 
0.0611972 -0.713694 5.54842 0.765881 255 0 255 
0.0803904 -0.743062 5.58015 0.820912 255 0 255 
0.0818068 -0.776705 5.59229 0.789869 255 0 255 
0.0830919 -0.810848 5.60396 0.750918 255 0 255 
0.0768968 -0.847526 5.61041 0.734624 255 0 255 
0.0529242 -0.681849 5.53831 0.787607 255 0 255 
0.0501619 -0.651861 5.53646 0.861955 255 0 255 
0.0402607 -0.623735 5.52802 0.907226 255 0 255 
0.0534081 -0.622505 5.54379 0.942944 255 0 255 
0.062251 -0.650274 5.5517 0.916177 255 0 255 
0.070422 -0.679471 5.55972 0.890895 255 0 255 
-0.0454794 -0.677417 5.43059 0.401874 255 0 255 
-0.032226 -0.699985 5.44438 0.309315 255 0 255 
-0.0211008 -0.726149 5.46082 0.284203 255 0 255 
-0.0110341 -0.752702 5.48052 0.284477 255 0 255 
-0.0353338 -0.667891 5.44187 0.448837 255 0 255 
-0.0222747 -0.692312 5.45657 0.400768 255 0 255 
-0.00754308 -0.716962 5.47618 0.38573 255 0 255 
0.00429875 -0.744338 5.49647 0.407709 255 0 255 
-0.0119158 -0.87957 5.55571 0.500113 255 0 255 
-0.00985242 -0.846329 5.5387 0.360424 255 0 255 
-0.00909851 -0.813998 5.5206 0.295805 255 0 255 
-0.0255073 -0.879483 5.5405 0.445271 255 0 255 
-0.023179 -0.84653 5.52333 0.289763 255 0 255 
-0.00925044 -0.782164 5.50062 0.291556 255 0 255 
0.00257035 -0.775979 5.51279 0.345018 255 0 255 
-0.0373507 -0.87694 5.52464 0.368726 255 0 255 
-0.0241667 -0.816251 5.50259 0.198851 255 0 255 
0.00351905 -0.807095 5.53141 0.409109 255 0 255 
0.0150236 -0.768203 5.52192 0.443915 255 0 255 
0.0161779 -0.736061 5.50587 0.471244 255 0 255 
0.0163788 -0.801637 5.54081 0.458358 255 0 255 
0.00787978 -0.839337 5.55256 0.452094 255 0 255 
0.00216471 -0.875888 5.56582 0.55132 255 0 255 
-0.0125164 -0.68169 5.4675 0.496477 255 0 255 
-0.0261129 -0.656941 5.45325 0.548052 255 0 255 
-0.0141291 -0.645964 5.46521 0.65826 255 0 255 
-0.00116947 -0.672364 5.47858 0.574466 255 0 255 
0.006914 -0.704423 5.49019 0.482941 255 0 255 
0.00147637 -0.633878 5.48114 0.721162 255 0 255 
0.0097634 -0.6635 5.48941 0.645594 255 0 255 
0.0215013 -0.693421 5.50246 0.585471 255 0 255 
0.0275028 -0.728165 5.51416 0.517532 255 0 255 
0.034797 -0.757623 5.53561 0.552215 255 0 255 
0.028951 -0.794541 5.54822 0.531906 255 0 255 
0.0256964 -0.831533 5.56269 0.509255 255 0 255 
-0.0314783 -0.913081 5.56923 0.607949 255 0 255 
-0.0535243 -0.942644 5.57354 0.72632 255 0 255 
-0.0728133 -0.97332 5.58612 0.797361 255 0 255 
-0.0943078 -1.00005 5.58983 0.823792 255 0 255 
-0.0864774 -1.00525 5.60694 0.804182 255 0 255 
-0.079911 -0.967471 5.56898 0.776377 255 0 255 
-0.102145 -0.993223 5.57228 0.830748 255 0 255 
-0.0663584 -0.939023 5.55386 0.650499 255 0 255 
-0.0435715 -0.91063 5.55041 0.537705 255 0 255 
-0.112766 -1.02847 5.62373 0.76119 255 0 255 
-0.112343 -1.02209 5.60527 0.791803 255 0 255 
-0.139536 -1.0424 5.6223 0.716994 255 0 255 
-0.141313 -1.0459 5.64134 0.707148 255 0 255 
-0.138848 -1.03721 5.60338 0.761785 255 0 255 
-0.168018 -1.05894 5.63912 0.656852 255 0 255 
-0.166704 -1.05473 5.62037 0.68481 255 0 255 
-0.171471 -1.05901 5.65838 0.684348 255 0 255 
-0.16508 -1.0511 5.60093 0.722354 255 0 255 
-0.147163 -1.03179 5.58511 0.815215 255 0 255 
-0.120953 -1.01643 5.58766 0.830148 255 0 255 
-0.148217 -1.01954 5.56162 0.862148 255 0 255 
-0.126965 -1.00392 5.5583 0.828987 255 0 255 
-0.105464 -0.986252 5.55478 0.794609 255 0 255 
-0.169782 -1.04289 5.58001 0.804164 255 0 255 
-0.0697611 -0.930325 5.53778 0.572399 255 0 255 
-0.0876861 -0.95938 5.54634 0.707981 255 0 255 
0.0697919 -0.879511 5.6266 0.728012 255 0 255 
0.0612787 -0.911157 5.64345 0.734417 255 0 255 
0.0761445 -0.905168 5.65304 0.700041 255 0 255 
0.0837089 -0.873655 5.63648 0.747351 255 0 255 
0.0584187 -0.937797 5.6668 0.639568 255 0 255 
0.0539326 -0.961695 5.69142 0.562355 255 0 255 
0.0353493 -0.969288 5.68114 0.590394 255 0 255 
0.04002 -0.945374 5.6564 0.689425 255 0 255 
0.100288 -0.866411 5.64956 0.733569 255 0 255 
0.0946697 -0.896966 5.66612 0.669494 255 0 255 
0.109948 -0.890161 5.67899 0.673282 255 0 255 
0.115575 -0.860281 5.66293 0.725898 255 0 255 
0.0948965 -0.922749 5.69062 0.591729 255 0 255 
0.0934412 -0.945666 5.71616 0.540329 255 0 255 
0.0741688 -0.953951 5.70342 0.553013 255 0 255 
0.0761691 -0.930955 5.6775 0.60694 255 0 255 
0.0307637 -0.992119 5.78745 0.774965 255 0 255 
0.0394262 -0.984132 5.7554 0.712449 255 0 255 
0.00807766 -0.999501 5.77429 0.774844 255 0 255 
0.0164274 -0.99202 5.74249 0.732328 255 0 255 
0.0470165 -0.974494 5.72298 0.635036 255 0 255 
0.0677907 -0.96703 5.73517 0.610678 255 0 255 
0.0596759 -0.977022 5.76766 0.704784 255 0 255 
-0.0122893 -1.00674 5.7618 0.768404 255 0 255 
-0.00181757 -0.999398 5.73123 0.732155 255 0 255 
-0.0333297 -1.01482 5.74879 0.741774 255 0 255 
0.00817942 -0.989383 5.70062 0.660614 255 0 255 
0.0265624 -0.982176 5.71124 0.663044 255 0 255 
0.385073 -0.149601 5.79803 0.787397 255 0 255 
0.404534 -0.146764 5.80876 0.781031 255 0 255 
0.407122 -0.175229 5.79874 0.865359 255 0 255 
0.424189 -0.144141 5.81955 0.778769 255 0 255 
0.426648 -0.172837 5.80998 0.854216 255 0 255 
0.446262 -0.170317 5.82132 0.859748 255 0 255 
0.444011 -0.141281 5.83053 0.771061 255 0 255 
0.428873 -0.202237 5.79987 0.919809 255 0 255 
0.448608 -0.199749 5.8116 0.926347 255 0 255 
0.450408 -0.229658 5.80089 0.944769 255 0 255 
0.431739 -0.232344 5.79032 0.942458 255 0 255 
0.4104 -0.204721 5.78938 0.914894 255 0 255 
0.412917 -0.235124 5.78023 0.940525 255 0 255 
0.391871 -0.207629 5.77924 0.915762 255 0 255 
0.388811 -0.17799 5.78854 0.870108 255 0 255 
0.370475 -0.181108 5.77856 0.869448 255 0 255 
0.393604 -0.238526 5.77038 0.946925 255 0 255 
0.373052 -0.210709 5.76937 0.91563 255 0 255 
0.374201 -0.242184 5.76105 0.950674 255 0 255 
0.36675 -0.15282 5.7882 0.809285 255 0 255 
0.463979 -0.138322 5.84018 0.756911 255 0 255 
0.485301 -0.135301 5.85087 0.749828 255 0 255 
0.485828 -0.164726 5.84149 0.841382 255 0 255 
0.506682 -0.132178 5.86145 0.738868 255 0 255 
0.506843 -0.162127 5.85271 0.841227 255 0 255 
0.50729 -0.191931 5.84347 0.909947 255 0 255 
0.509189 -0.222329 5.83361 0.953754 255 0 255 
0.487666 -0.194544 5.83273 0.915582 255 0 255 
0.489796 -0.22452 5.82217 0.949064 255 0 255 
0.468125 -0.197138 5.82199 0.924881 255 0 255 
0.466014 -0.167491 5.8313 0.843844 255 0 255 
0.470165 -0.226898 5.81124 0.94468 255 0 255 
0.499766 -0.350829 5.80236 0.960332 255 0 255 
0.501699 -0.321116 5.80833 0.968439 255 0 255 
0.482614 -0.32323 5.79959 0.967309 255 0 255 
0.481029 -0.352709 5.79383 0.960777 255 0 255 
0.485177 -0.291213 5.80481 0.966133 255 0 255 
0.463802 -0.325107 5.79075 0.968508 255 0 255 
0.465895 -0.293876 5.79633 0.970158 255 0 255 
0.446901 -0.296425 5.78795 0.970661 255 0 255 
0.46201 -0.355528 5.78554 0.965065 255 0 255 
0.444677 -0.328179 5.78243 0.972671 255 0 255 
0.442677 -0.35878 5.77751 0.967536 255 0 255 
0.468103 -0.260664 5.80244 0.963281 255 0 255 
0.449126 -0.263514 5.79376 0.96536 255 0 255 
0.488309 -0.257999 5.81287 0.964668 255 0 255 
0.507985 -0.255489 5.82382 0.970787 255 0 255 
0.505836 -0.28793 5.81468 0.967164 255 0 255 
0.42511 -0.361031 5.76836 0.966101 255 0 255 
0.425194 -0.331597 5.77276 0.972329 255 0 255 
0.407578 -0.334146 5.76359 0.971719 255 0 255 
0.407421 -0.364176 5.75948 0.964015 255 0 255 
0.408185 -0.302799 5.76842 0.971508 255 0 255 
0.389808 -0.336898 5.75439 0.970332 255 0 255 
0.390062 -0.306222 5.75955 0.974857 255 0 255 
0.372335 -0.309118 5.75055 0.974708 255 0 255 
0.389536 -0.367388 5.75089 0.965683 255 0 255 
0.371766 -0.340747 5.74604 0.9737 255 0 255 
0.372045 -0.370309 5.74203 0.963986 255 0 255 
0.391362 -0.273252 5.76437 0.96524 255 0 255 
0.373005 -0.277026 5.75599 0.968524 255 0 255 
0.410854 -0.269841 5.77389 0.961924 255 0 255 
0.430121 -0.26632 5.78369 0.96212 255 0 255 
0.427626 -0.299639 5.77813 0.971099 255 0 255 
0.236909 -0.0096531 6.09388 0.986959 255 0 255 
0.259791 -0.00975809 6.10596 0.985963 255 0 255 
0.268635 -0.019888 6.08965 0.97072 255 0 255 
0.282708 -0.0101805 6.11798 0.984642 255 0 255 
0.291407 -0.0201232 6.10181 0.966954 255 0 255 
0.314561 -0.020811 6.11409 0.962416 255 0 255 
0.305758 -0.0112854 6.13036 0.982377 255 0 255 
0.300467 -0.0288765 6.08456 0.943909 255 0 255 
0.323583 -0.0292852 6.0968 0.936245 255 0 255 
0.333191 -0.0357049 6.07868 0.919972 255 0 255 
0.310537 -0.0357542 6.0661 0.924946 255 0 255 
0.278218 -0.0290234 6.0722 0.947425 255 0 255 
0.28828 -0.0359522 6.05396 0.929508 255 0 255 
0.25594 -0.0296103 6.06008 0.949066 255 0 255 
0.246278 -0.0203383 6.07743 0.972081 255 0 255 
0.223493 -0.0205588 6.06532 0.97491 255 0 255 
0.265932 -0.0366893 6.04176 0.931862 255 0 255 
0.233123 -0.0300083 6.04803 0.950871 255 0 255 
0.243258 -0.0372958 6.02968 0.934352 255 0 255 
0.214128 -0.0097848 6.08174 0.987823 255 0 255 
0.330604 -0.0119265 6.14361 0.979987 255 0 255 
0.35591 -0.0130991 6.15722 0.975208 255 0 255 
0.364273 -0.0224079 6.14068 0.952265 255 0 255 
0.381262 -0.0152484 6.17063 0.967791 255 0 255 
0.389657 -0.0241804 6.15412 0.943466 255 0 255 
0.398584 -0.0315243 6.13658 0.914987 255 0 255 
0.40835 -0.0366873 6.11804 0.900017 255 0 255 
0.373403 -0.0303192 6.12338 0.924355 255 0 255 
0.383124 -0.0360638 6.10489 0.909946 255 0 255 
0.348459 -0.0295363 6.11011 0.931629 255 0 255 
0.339197 -0.0213284 6.12729 0.958424 255 0 255 
0.358094 -0.0357161 6.09173 0.915548 255 0 255 
0.43657 -0.0406185 6.05471 0.951533 255 0 255 
0.412059 -0.0417816 6.04273 0.953136 255 0 255 
0.40125 -0.0429569 6.0644 0.923284 255 0 255 
0.387771 -0.0430556 6.03054 0.954175 255 0 255 
0.377097 -0.0436059 6.05197 0.926041 255 0 255 
0.352993 -0.0446277 6.03966 0.926113 255 0 255 
0.363793 -0.0440798 6.01821 0.955294 255 0 255 
0.366796 -0.0412814 6.07227 0.90567 255 0 255 
0.342738 -0.0417611 6.05978 0.908778 255 0 255 
0.391906 -0.0410624 6.08532 0.901745 255 0 255 
0.417193 -0.0411806 6.09831 0.894527 255 0 255 
0.426532 -0.0424124 6.07717 0.919266 255 0 255 
0.340991 -0.0447831 6.00611 0.957625 255 0 255 
0.319242 -0.0455317 5.99402 0.960302 255 0 255 
0.307736 -0.0456927 6.01536 0.93219 255 0 255 
0.297463 -0.0463483 5.98201 0.964216 255 0 255 
0.286124 -0.0464407 6.0032 0.936937 255 0 255 
0.264163 -0.0475788 5.99118 0.937772 255 0 255 
0.275473 -0.0480008 5.97009 0.964619 255 0 255 
0.275358 -0.0431181 6.023 0.921362 255 0 255 
0.253438 -0.0440421 6.01097 0.922935 255 0 255 
0.297724 -0.0423508 6.03527 0.918016 255 0 255 
0.320058 -0.0419247 6.04742 0.913813 255 0 255 
0.33013 -0.0449925 6.02766 0.929911 255 0 255 
-0.0559072 -0.898123 6.29466 0.892362 255 0 255 
-0.0532526 -0.912024 6.26553 0.916779 255 0 255 
-0.0789068 -0.899906 6.28303 0.893823 255 0 255 
-0.0765328 -0.913534 6.25379 0.939955 255 0 255 
-0.0510302 -0.9285 6.23708 0.954427 255 0 255 
-0.048408 -0.948071 6.20978 0.943512 255 0 255 
-0.0258123 -0.944323 6.22212 0.934337 255 0 255 
-0.0286101 -0.924824 6.24969 0.948729 255 0 255 
-0.0313079 -0.908902 6.27819 0.910331 255 0 255 
-0.00355048 -0.9401 6.23414 0.92705 255 0 255 
-0.101124 -0.901233 6.27053 0.896872 255 0 255 
-0.0978791 -0.915867 6.24115 0.931884 255 0 255 
-0.123769 -0.901844 6.25892 0.8924 255 0 255 
-0.0950708 -0.933351 6.21276 0.953792 255 0 255 
-0.0702555 -0.950489 6.19731 0.954626 255 0 255 
-0.0733125 -0.931123 6.22535 0.961132 255 0 255 
-0.0342161 -0.992045 6.12028 0.83057 255 0 255 
-0.0076008 -1.00005 6.10199 0.780829 255 0 255 
-0.0387878 -0.979986 6.15124 0.860869 255 0 255 
-0.0122382 -0.989146 6.13356 0.814895 255 0 255 
-0.0173368 -0.976155 6.16434 0.858344 255 0 255 
0.0144978 -0.997677 6.11523 0.757675 255 0 255 
-0.0437359 -0.964033 6.18086 0.917587 255 0 255 
-0.0657979 -0.967623 6.16873 0.91691 255 0 255 
0.0100823 -0.98664 6.14618 0.796118 255 0 255 
0.0361716 -0.994549 6.12823 0.733633 255 0 255 
0.00541407 -0.972393 6.17615 0.853522 255 0 255 
0.0318079 -0.982447 6.15903 0.782757 255 0 255 
0.027081 -0.968535 6.18874 0.836257 255 0 255 
0.0581823 -0.991546 6.14097 0.696664 255 0 255 
0.000930686 -0.957307 6.20533 0.893726 255 0 255 
-0.0217515 -0.960738 6.19325 0.906819 255 0 255 
0.124869 -0.835165 6.37401 0.558064 255 0 255 
0.13772 -0.844552 6.35134 0.610807 255 0 255 
0.112374 -0.857274 6.34135 0.749734 255 0 255 
0.0989876 -0.846962 6.36344 0.700961 255 0 255 
0.137845 -0.864393 6.32491 0.768532 255 0 255 
0.138417 -0.887485 6.29879 0.896129 255 0 255 
0.1632 -0.87337 6.30926 0.803815 255 0 255 
0.162818 -0.85075 6.33539 0.627521 255 0 255 
0.0751081 -0.860341 6.35422 0.819326 255 0 255 
0.0886722 -0.8718 6.33196 0.862619 255 0 255 
0.0645197 -0.883443 6.3228 0.909032 255 0 255 
0.0504788 -0.871903 6.34491 0.884675 255 0 255 
0.0905765 -0.892727 6.30628 0.930319 255 0 255 
0.0923938 -0.915871 6.27992 0.928624 255 0 255 
0.115386 -0.902844 6.28968 0.93803 255 0 255 
0.11348 -0.878334 6.31521 0.875738 255 0 255 
0.150386 -0.971557 6.18603 0.647484 255 0 255 
0.146765 -0.952231 6.21523 0.79826 255 0 255 
0.172695 -0.960185 6.19632 0.725188 255 0 255 
0.143318 -0.93131 6.24361 0.891715 255 0 255 
0.168773 -0.939746 6.22549 0.863014 255 0 255 
0.16532 -0.916574 6.25351 0.916738 255 0 255 
0.194688 -0.946025 6.20641 0.809532 255 0 255 
0.140665 -0.909325 6.27148 0.934365 255 0 255 
0.117671 -0.92332 6.2619 0.922676 255 0 255 
0.120342 -0.942899 6.23357 0.870046 255 0 255 
0.191468 -0.924222 6.23504 0.892627 255 0 255 
0.21791 -0.930581 6.21705 0.847733 255 0 255 
0.189879 -0.901877 6.26364 0.87392 255 0 255 
0.215415 -0.909119 6.24644 0.863108 255 0 255 
0.176236 -0.887585 6.28672 0.850259 255 0 255 
0.0265669 -0.881324 6.33463 0.900439 255 0 255 
0.0405712 -0.893084 6.31229 0.916792 255 0 255 
0.0159266 -0.899786 6.3015 0.911698 255 0 255 
0.00222168 -0.887375 6.32383 0.892179 255 0 255 
0.0423759 -0.911583 6.28492 0.923593 255 0 255 
0.0440648 -0.930336 6.25743 0.900568 255 0 255 
0.068431 -0.924143 6.2689 0.90934 255 0 255 
0.0664967 -0.903942 6.29589 0.933217 255 0 255 
-0.0210691 -0.892492 6.31247 0.88993 255 0 255 
-0.00741804 -0.905591 6.28971 0.91027 255 0 255 
-0.00539745 -0.921927 6.26164 0.920148 255 0 255 
0.0203107 -0.93568 6.24609 0.900747 255 0 255 
0.0180235 -0.917059 6.27362 0.919243 255 0 255 
0.0547701 -0.979266 6.17094 0.746499 255 0 255 
0.0815133 -0.988374 6.15278 0.655104 255 0 255 
0.051267 -0.964363 6.20018 0.818067 255 0 255 
0.0775329 -0.973999 6.18283 0.736868 255 0 255 
0.0743243 -0.958736 6.21208 0.813393 255 0 255 
0.104122 -0.984195 6.16433 0.619297 255 0 255 
0.0476603 -0.947717 6.22901 0.877358 255 0 255 
0.0236301 -0.952749 6.21747 0.885584 255 0 255 
0.101352 -0.969773 6.19403 0.717185 255 0 255 
0.12728 -0.978925 6.17548 0.602057 255 0 255 
0.0980062 -0.951909 6.22286 0.828562 255 0 255 
0.124196 -0.962952 6.20498 0.739472 255 0 255 
0.0952795 -0.934272 6.25147 0.887039 255 0 255 
0.0711739 -0.941196 6.24052 0.867875 255 0 255 
0.166002 -0.977301 6.16011 0.589331 255 0 255 
0.193233 -0.977632 6.13971 0.569479 255 0 255 
0.208774 -0.97904 6.11325 0.537418 255 0 255 
0.235892 -0.974184 6.09302 0.530986 255 0 255 
0.213702 -0.982792 6.08009 0.464335 255 0 255 
0.230607 -0.968452 6.12495 0.620181 255 0 255 
0.256843 -0.95907 6.10455 0.670481 255 0 255 
0.215004 -0.965722 6.1502 0.659921 255 0 255 
0.199491 -0.96146 6.17591 0.706204 255 0 255 
0.227644 -0.973896 6.05386 0.542833 255 0 255 
0.253463 -0.960356 6.03557 0.602416 255 0 255 
0.268254 -0.948207 6.01091 0.632416 255 0 255 
0.290257 -0.936583 6.02578 0.702553 255 0 255 
0.276055 -0.948557 6.04944 0.661832 255 0 255 
0.26173 -0.958677 6.0738 0.639845 255 0 255 
0.33203 -0.90656 6.05524 0.747711 255 0 255 
0.318307 -0.917964 6.07764 0.762769 255 0 255 
0.293354 -0.935557 6.09364 0.755003 255 0 255 
0.279028 -0.943609 6.11744 0.756378 255 0 255 
0.297168 -0.933422 6.0632 0.757132 255 0 255 
0.311534 -0.921459 6.04035 0.741695 255 0 255 
0.274796 -0.936 6.14857 0.78535 255 0 255 
0.259454 -0.933904 6.1731 0.801165 255 0 255 
0.232742 -0.938252 6.19208 0.81749 255 0 255 
0.236754 -0.950154 6.16112 0.766247 255 0 255 
0.252461 -0.952317 6.13582 0.738284 255 0 255 
0.168586 -0.561536 5.65611 0.94707 255 0 255 
0.164839 -0.540792 5.6502 0.95431 255 0 255 
0.173663 -0.518736 5.65262 0.960893 255 0 255 
0.170122 -0.495088 5.64673 0.96721 255 0 255 
0.196209 -0.493907 5.66296 0.96905 255 0 255 
0.198255 -0.516895 5.66814 0.964592 255 0 255 
0.188873 -0.539391 5.6657 0.955666 255 0 255 
0.191199 -0.559771 5.67104 0.949422 255 0 255 
0.182789 -0.581036 5.66796 0.94868 255 0 255 
0.204494 -0.578756 5.68404 0.947 255 0 255 
0.151656 -0.473062 5.63787 0.972087 255 0 255 
0.146134 -0.448813 5.63439 0.9788 255 0 255 
0.161179 -0.448485 5.64407 0.978768 255 0 255 
0.141016 -0.423955 5.63003 0.983779 255 0 255 
0.156607 -0.423034 5.63949 0.984589 255 0 255 
0.152202 -0.397155 5.63344 0.98361 255 0 255 
0.136332 -0.397624 5.62509 0.984419 255 0 255 
0.17196 -0.422691 5.64799 0.984383 255 0 255 
0.168004 -0.396335 5.64199 0.981849 255 0 255 
0.183327 -0.395748 5.64986 0.98022 255 0 255 
0.189043 -0.446522 5.65891 0.977932 255 0 255 
0.178746 -0.471684 5.65403 0.974059 255 0 255 
0.244609 -0.39024 5.67839 0.965667 255 0 255 
0.245806 -0.416981 5.68242 0.971409 255 0 255 
0.23265 -0.444064 5.6803 0.977391 255 0 255 
0.233941 -0.468246 5.6833 0.974081 255 0 255 
0.222564 -0.492409 5.67722 0.967515 255 0 255 
0.248978 -0.490357 5.69257 0.970034 255 0 255 
0.206534 -0.47086 5.66925 0.974528 255 0 255 
0.204069 -0.446047 5.66596 0.978568 255 0 255 
0.201824 -0.420677 5.66159 0.978997 255 0 255 
0.217067 -0.419575 5.66887 0.975501 255 0 255 
0.214532 -0.39379 5.6636 0.97089 255 0 255 
0.199391 -0.394586 5.65661 0.975079 255 0 255 
0.229899 -0.391937 5.67092 0.967049 255 0 255 
0.249228 -0.513765 5.69729 0.967742 255 0 255 
0.238031 -0.537523 5.69377 0.962497 255 0 255 
0.238934 -0.557943 5.69878 0.957988 255 0 255 
0.227888 -0.577985 5.69777 0.950852 255 0 255 
0.251666 -0.577302 5.71096 0.953466 255 0 255 
0.215178 -0.558806 5.6858 0.954503 255 0 255 
0.21355 -0.538357 5.6799 0.958278 255 0 255 
0.224141 -0.515791 5.68293 0.963564 255 0 255 
0.387722 -0.397839 5.74977 0.967097 255 0 255 
0.405215 -0.395218 5.75826 0.965348 255 0 255 
0.403345 -0.424671 5.75851 0.965924 255 0 255 
0.422628 -0.392647 5.7676 0.968538 255 0 255 
0.420488 -0.422473 5.76706 0.966605 255 0 255 
0.437708 -0.420888 5.7763 0.968844 255 0 255 
0.440026 -0.390251 5.77627 0.968399 255 0 255 
0.418884 -0.450812 5.76831 0.967358 255 0 255 
0.436262 -0.44935 5.7768 0.968864 255 0 255 
0.43495 -0.477019 5.77845 0.965047 255 0 255 
0.418572 -0.477617 5.77124 0.964735 255 0 255 
0.40263 -0.4524 5.76076 0.964674 255 0 255 
0.402046 -0.478562 5.76324 0.963714 255 0 255 
0.386235 -0.453679 5.75339 0.96653 255 0 255 
0.387046 -0.426361 5.75104 0.966572 255 0 255 
0.370357 -0.428762 5.74372 0.967374 255 0 255 
0.385418 -0.479321 5.75632 0.963671 255 0 255 
0.369745 -0.455554 5.74683 0.968551 255 0 255 
0.36881 -0.480355 5.74901 0.967047 255 0 255 
0.371211 -0.400208 5.74206 0.966134 255 0 255 
0.457731 -0.388244 5.78394 0.965989 255 0 255 
0.476479 -0.385395 5.79213 0.966861 255 0 255 
0.472865 -0.416873 5.7911 0.966973 255 0 255 
0.495341 -0.383022 5.80027 0.965632 255 0 255 
0.491678 -0.41434 5.79878 0.962926 255 0 255 
0.488479 -0.444905 5.79761 0.962219 255 0 255 
0.486902 -0.473629 5.79842 0.961991 255 0 255 
0.470832 -0.446669 5.79102 0.965398 255 0 255 
0.469745 -0.474608 5.79167 0.961707 255 0 255 
0.453576 -0.448052 5.7837 0.967257 255 0 255 
0.455376 -0.418929 5.78355 0.966961 255 0 255 
0.452443 -0.475644 5.78514 0.964025 255 0 255 
0.476874 -0.556294 5.81326 0.961544 255 0 255 
0.457465 -0.57862 5.811 0.954963 255 0 255 
0.462682 -0.530499 5.80249 0.965702 255 0 255 
0.443234 -0.554312 5.80138 0.963476 255 0 255 
0.429413 -0.528831 5.79031 0.968048 255 0 255 
0.42381 -0.576752 5.7985 0.960129 255 0 255 
0.448392 -0.504111 5.79137 0.9695 255 0 255 
0.466066 -0.503431 5.79801 0.967049 255 0 255 
0.483432 -0.503312 5.80408 0.966076 255 0 255 
0.480136 -0.530728 5.80899 0.965474 255 0 255 
0.409628 -0.553132 5.78785 0.967414 255 0 255 
0.392278 -0.5757 5.78336 0.96005 255 0 255 
0.395272 -0.528049 5.77625 0.970261 255 0 255 
0.377181 -0.552448 5.77388 0.968935 255 0 255 
0.363413 -0.528686 5.76244 0.971337 255 0 255 
0.360745 -0.574738 5.76812 0.962341 255 0 255 
0.381637 -0.504009 5.76305 0.972062 255 0 255 
0.398778 -0.503898 5.76986 0.969471 255 0 255 
0.415571 -0.503938 5.77691 0.969583 255 0 255 
0.412355 -0.528424 5.78333 0.969176 255 0 255 
0.34564 -0.552036 5.75784 0.970168 255 0 255 
0.331538 -0.574432 5.75288 0.962422 255 0 255 
0.331955 -0.529899 5.74653 0.970715 255 0 255 
0.317073 -0.553339 5.74222 0.96871 255 0 255 
0.303663 -0.532075 5.73182 0.970256 255 0 255 
0.303168 -0.574914 5.73855 0.962325 255 0 255 
0.318446 -0.507664 5.73383 0.973499 255 0 255 
0.306353 -0.484784 5.72128 0.969804 255 0 255 
0.337372 -0.481771 5.73453 0.966537 255 0 255 
0.349796 -0.505899 5.74925 0.973676 255 0 255 
0.289173 -0.554348 5.72654 0.965556 255 0 255 
0.276817 -0.575852 5.72439 0.958266 255 0 255 
0.275743 -0.533661 5.71511 0.96463 255 0 255 
0.263449 -0.556201 5.71257 0.962312 255 0 255 
0.27613 -0.511397 5.71144 0.96934 255 0 255 
0.27735 -0.487637 5.70643 0.96907 255 0 255 
0.260314 -0.388117 5.68508 0.960942 255 0 255 
0.276003 -0.413255 5.69488 0.963568 255 0 255 
0.275769 -0.386126 5.69274 0.9606 255 0 255 
0.275499 -0.439099 5.69879 0.970108 255 0 255 
0.29149 -0.411427 5.70253 0.962621 255 0 255 
0.291188 -0.437702 5.70613 0.968407 255 0 255 
0.306892 -0.43606 5.71415 0.97022 255 0 255 
0.290985 -0.383683 5.70042 0.960509 255 0 255 
0.306852 -0.409134 5.71032 0.965387 255 0 255 
0.306375 -0.381404 5.70872 0.961588 255 0 255 
0.290699 -0.462379 5.70977 0.970367 255 0 255 
0.306377 -0.461615 5.71793 0.971097 255 0 255 
0.261663 -0.465407 5.69641 0.973105 255 0 255 
0.322482 -0.378617 5.71611 0.958344 255 0 255 
0.33841 -0.404444 5.72474 0.962318 255 0 255 
0.338847 -0.375931 5.72434 0.95898 255 0 255 
0.337633 -0.432045 5.72688 0.963395 255 0 255 
0.354768 -0.402674 5.73334 0.96514 255 0 255 
0.353889 -0.43017 5.73517 0.964078 255 0 255 
0.355337 -0.37334 5.73318 0.960613 255 0 255 
0.352821 -0.456932 5.73841 0.966635 255 0 255 
0.373061 -0.598372 5.78175 0.957451 255 0 255 
0.384999 -0.620664 5.79497 0.947758 255 0 255 
0.40383 -0.599433 5.79676 0.953308 255 0 255 
0.415957 -0.622761 5.80886 0.940741 255 0 255 
0.397186 -0.643226 5.8058 0.928646 255 0 255 
0.409022 -0.665013 5.81675 0.902769 255 0 255 
0.380239 -0.662738 5.80447 0.915137 255 0 255 
0.368143 -0.640809 5.79258 0.937973 255 0 255 
0.355866 -0.618197 5.78077 0.954334 255 0 255 
0.351029 -0.659866 5.79425 0.931292 255 0 255 
0.435261 -0.600657 5.81133 0.950432 255 0 255 
0.446291 -0.625332 5.82312 0.935769 255 0 255 
0.468403 -0.603467 5.82401 0.944202 255 0 255 
0.458115 -0.6487 5.83196 0.916957 255 0 255 
0.439135 -0.668038 5.8288 0.88533 255 0 255 
0.427579 -0.645575 5.81949 0.917045 255 0 255 
0.418518 -0.726758 5.8593 0.841773 255 0 255 
0.42477 -0.706789 5.84766 0.870481 255 0 255 
0.39688 -0.703883 5.83812 0.887098 255 0 255 
0.391304 -0.724227 5.85012 0.855807 255 0 255 
0.417047 -0.685675 5.83261 0.893088 255 0 255 
0.447343 -0.689379 5.84257 0.868173 255 0 255 
0.364584 -0.72278 5.84173 0.877508 255 0 255 
0.368973 -0.702011 5.8291 0.89721 255 0 255 
0.341937 -0.700145 5.82052 0.897091 255 0 255 
0.338373 -0.722215 5.8328 0.88259 255 0 255 
0.359723 -0.680713 5.81261 0.917734 255 0 255 
0.388499 -0.683265 5.82187 0.905067 255 0 255 
0.18972 -0.963765 5.92152 0.625714 255 0 255 
0.174511 -0.973816 5.94826 0.672612 255 0 255 
0.147945 -0.98463 5.96923 0.724436 255 0 255 
0.131457 -0.992564 5.9973 0.716262 255 0 255 
0.103951 -1.00088 6.01889 0.717886 255 0 255 
0.125042 -0.99859 6.03168 0.660138 255 0 255 
0.110059 -0.994568 5.98459 0.768961 255 0 255 
0.0820523 -1.00198 6.00629 0.792311 255 0 255 
0.127277 -0.987308 5.95625 0.764895 255 0 255 
0.144213 -0.979169 5.92858 0.71865 255 0 255 
0.170464 -0.968093 5.90769 0.643198 255 0 255 
0.150101 -0.972261 5.89449 0.672455 255 0 255 
0.107993 -0.999322 6.06009 0.675776 255 0 255 
0.0800198 -0.999847 6.08173 0.716633 255 0 255 
0.0638739 -0.996997 6.1087 0.722993 255 0 255 
0.0418719 -0.999241 6.09603 0.763576 255 0 255 
0.0583027 -1.00165 6.06898 0.762859 255 0 255 
0.075686 -1.00141 6.04133 0.783431 255 0 255 
-0.0133613 -1.00488 6.06215 0.823207 255 0 255 
0.0143526 -1.00472 6.0425 0.832659 255 0 255 
0.031215 -1.00461 6.01513 0.847486 255 0 255 
0.0597841 -1.003 5.99355 0.837257 255 0 255 
0.0376894 -1.00459 5.98048 0.871191 255 0 255 
0.0535002 -1.00322 6.02838 0.821829 255 0 255 
0.0364005 -1.00288 6.0561 0.811259 255 0 255 
0.0199513 -1.00156 6.0827 0.793573 255 0 255 
0.0552575 -0.998091 5.95315 0.892802 255 0 255 
0.0841164 -0.991387 5.93123 0.84313 255 0 255 
